6.200803279876708762e-01,6.358176708221435769e-01,6.523745536804199663e-01,6.698168277740478294e-01,6.882174015045166016e-01,7.076575279235839400e-01,7.282278060913085493e-01,7.500297069549560769e-01,7.731774330139160600e-01,7.977993488311767578e-01,8.240410804748534712e-01,8.520678520202636941e-01,8.820681571960449219e-01,1.000000000000000000e+00,1.000000000000000000e+00,1.000000000000000000e+00,1.000000000000000000e+00,1.000000000000000000e+00,1.000000000000000000e+00,1.000000000000000000e+00,1.000000000000000000e+00,1.000000000000000000e+00,1.000000000000000000e+00,1.000000000000000000e+00,1.000000000000000000e+00,1.000000000000000000e+00,1.000000000000000000e+00,1.000000000000000000e+00,1.000000000000000000e+00,1.000000000000000000e+00,1.000000000000000000e+00,1.000000000000000000e+00,1.000000000000000000e+00,1.000000000000000000e+00,1.000000000000000000e+00,1.000000000000000000e+00,1.000000000000000000e+00,1.000000000000000000e+00,1.000000000000000000e+00,1.000000000000000000e+00,1.000000000000000000e+00,1.000000000000000000e+00,1.000000000000000000e+00,1.000000000000000000e+00,1.000000000000000000e+00,1.000000000000000000e+00,1.000000000000000000e+00,1.000000000000000000e+00,1.000000000000000000e+00,1.000000000000000000e+00,1.000000000000000000e+00,1.000000000000000000e+00,1.000000000000000000e+00,1.000000000000000000e+00,1.000000000000000000e+00,1.000000000000000000e+00,1.000000000000000000e+00,1.000000000000000000e+00,1.000000000000000000e+00,1.000000000000000000e+00,1.000000000000000000e+00,1.000143527984619085e-01,9.836551547050476074e-02,9.677015542984009067e-02,9.522572159767150879e-02,9.372979998588562567e-02,9.228016138076781949e-02,9.082851409912109930e-02,8.953356146812438410e-02,8.823415637016296387e-02,8.699032068252562921e-02,8.577747941017151156e-02,8.459290266036986750e-02,8.412070274353027066e-02,8.377270698547363559e-02,8.347206711769103449e-02,8.317357897758484442e-02,8.287721872329711914e-02,8.258296251296996793e-02,8.417257666587829590e-02
6.200686931610107644e-01,6.358053684234619141e-01,6.523616313934326172e-01,6.698031902313232866e-01,6.882030010223388894e-01,7.076423168182373047e-01,7.282116889953613725e-01,7.500126838684082475e-01,7.731592655181884766e-01,7.977799892425536665e-01,8.240204811096191184e-01,8.520458221435547319e-01,8.820445060729980025e-01,9.142327308654785156e-01,1.000000000000000000e+00,1.000000000000000000e+00,1.000000000000000000e+00,1.000000000000000000e+00,1.000000000000000000e+00,1.000000000000000000e+00,1.000000000000000000e+00,1.000000000000000000e+00,1.000000000000000000e+00,1.000000000000000000e+00,1.000000000000000000e+00,1.000000000000000000e+00,1.000000000000000000e+00,1.000000000000000000e+00,1.000000000000000000e+00,1.000000000000000000e+00,1.000000000000000000e+00,1.000000000000000000e+00,1.000000000000000000e+00,1.000000000000000000e+00,1.000000000000000000e+00,1.000000000000000000e+00,1.000000000000000000e+00,1.000000000000000000e+00,1.000000000000000000e+00,1.000000000000000000e+00,1.000000000000000000e+00,1.000000000000000000e+00,1.000000000000000000e+00,1.000000000000000000e+00,1.000000000000000000e+00,1.000000000000000000e+00,1.000000000000000000e+00,1.000000000000000000e+00,1.000000000000000000e+00,1.000000000000000000e+00,1.000000000000000000e+00,1.000000000000000000e+00,1.000000000000000000e+00,1.000000000000000000e+00,1.000000000000000000e+00,1.000000000000000000e+00,1.000000000000000000e+00,1.000000000000000000e+00,1.000000000000000000e+00,1.000000000000000000e+00,1.000000000000000000e+00,1.000000000000000000e+00,9.858531355857849676e-02,9.698288440704345981e-02,9.543169736862182340e-02,9.392935633659363348e-02,9.247358441352844516e-02,9.106277227401733676e-02,8.973102569580078403e-02,8.844548463821411133e-02,8.719625473022460382e-02,8.595484495162963867e-02,8.488521575927734930e-02,8.440975546836852750e-02,8.395989537239074985e-02,8.365792036056518555e-02,8.335809707641601840e-02,8.306042551994323453e-02,8.276486396789550781e-02,8.541172742843627930e-02
6.200570106506347878e-01,6.357931137084961160e-01,6.523487567901611328e-01,6.697895526885986328e-01,6.881886005401611772e-01,7.076271057128906694e-01,7.281955718994140847e-01,7.499956130981445535e-01,7.731410980224608931e-01,7.977607727050781694e-01,8.239997863769531472e-01,8.520236968994140403e-01,8.820208549499511941e-01,9.142073631286621316e-01,9.488319396972656472e-01,1.000000000000000000e+00,1.000000000000000000e+00,1.000000000000000000e+00,1.000000000000000000e+00,1.000000000000000000e+00,1.000000000000000000e+00,1.000000000000000000e+00,1.000000000000000000e+00,1.000000000000000000e+00,1.000000000000000000e+00,1.000000000000000000e+00,1.000000000000000000e+00,1.000000000000000000e+00,1.000000000000000000e+00,1.000000000000000000e+00,1.000000000000000000e+00,1.000000000000000000e+00,1.000000000000000000e+00,1.000000000000000000e+00,1.000000000000000000e+00,1.000000000000000000e+00,1.000000000000000000e+00,1.000000000000000000e+00,1.000000000000000000e+00,1.000000000000000000e+00,1.000000000000000000e+00,1.000000000000000000e+00,1.000000000000000000e+00,1.000000000000000000e+00,1.000000000000000000e+00,1.000000000000000000e+00,1.000000000000000000e+00,1.000000000000000000e+00,1.000000000000000000e+00,1.000000000000000000e+00,1.000000000000000000e+00,1.000000000000000000e+00,1.000000000000000000e+00,1.000000000000000000e+00,1.000000000000000000e+00,1.000000000000000000e+00,1.000000000000000000e+00,1.000000000000000000e+00,1.000000000000000000e+00,1.000000000000000000e+00,1.000000000000000000e+00,1.000000000000000000e+00,9.881263971328735352e-02,9.720944762229918878e-02,9.565745592117309848e-02,9.415423870086669922e-02,9.269753694534302313e-02,9.128522276878356378e-02,8.995016217231750766e-02,8.865837454795837125e-02,8.737989068031311313e-02,8.613295555114745816e-02,8.517956137657164972e-02,8.470080494880675992e-02,8.422740697860717218e-02,8.384459018707275668e-02,8.354343771934509555e-02,8.324443697929381769e-02,8.344361186027526855e-02,8.668791055679321567e-02
6.200450897216797097e-01,6.357808113098144531e-01,6.523358345031737837e-01,6.697759151458739790e-01,6.881742954254150835e-01,7.076118946075439231e-01,7.281794548034667969e-01,7.499784946441649947e-01,7.731229305267334206e-01,7.977414131164550781e-01,8.239791870117187944e-01,8.520016670227050781e-01,8.819972038269042747e-01,9.141819953918457475e-01,9.488045692443847212e-01,9.861528396606444868e-01,1.000000000000000000e+00,1.000000000000000000e+00,1.000000000000000000e+00,1.000000000000000000e+00,1.000000000000000000e+00,1.000000000000000000e+00,1.000000000000000000e+00,1.000000000000000000e+00,1.000000000000000000e+00,1.000000000000000000e+00,1.000000000000000000e+00,1.000000000000000000e+00,1.000000000000000000e+00,1.000000000000000000e+00,1.000000000000000000e+00,1.000000000000000000e+00,1.000000000000000000e+00,1.000000000000000000e+00,1.000000000000000000e+00,1.000000000000000000e+00,1.000000000000000000e+00,1.000000000000000000e+00,1.000000000000000000e+00,1.000000000000000000e+00,1.000000000000000000e+00,1.000000000000000000e+00,1.000000000000000000e+00,1.000000000000000000e+00,1.000000000000000000e+00,1.000000000000000000e+00,1.000000000000000000e+00,1.000000000000000000e+00,1.000000000000000000e+00,1.000000000000000000e+00,1.000000000000000000e+00,1.000000000000000000e+00,1.000000000000000000e+00,1.000000000000000000e+00,1.000000000000000000e+00,1.000000000000000000e+00,1.000000000000000000e+00,1.000000000000000000e+00,1.000000000000000000e+00,1.000000000000000000e+00,1.000000000000000000e+00,1.000000000000000000e+00,1.000000000000000000e+00,9.756356477737426758e-02,9.590296149253844937e-02,9.439207911491394321e-02,9.292806386947631558e-02,9.150876998901366632e-02,9.017035961151123602e-02,8.885298371315002164e-02,8.756396174430847168e-02,8.631179928779601773e-02,8.547595739364624579e-02,8.499386906623840332e-02,8.451719284057616910e-02,8.404583930969238004e-02,8.372960686683654508e-02,8.342927098274230402e-02,8.466123938560485285e-02,8.797843456268310269e-02
6.200318813323975053e-01,6.357683658599853072e-01,6.523228645324706809e-01,6.697622776031494363e-01,6.881598949432372603e-01,7.075966358184814231e-01,7.281633853912353738e-01,7.499613761901855469e-01,7.731047630310058372e-01,7.977220535278319868e-01,8.239585876464843306e-01,8.519796371459961160e-01,8.819736480712890847e-01,9.141566276550292525e-01,9.487771987915039062e-01,9.861232757568358931e-01,1.000000000000000000e+00,1.000000000000000000e+00,1.000000000000000000e+00,1.000000000000000000e+00,1.000000000000000000e+00,1.000000000000000000e+00,1.000000000000000000e+00,1.000000000000000000e+00,1.000000000000000000e+00,1.000000000000000000e+00,1.000000000000000000e+00,1.000000000000000000e+00,1.000000000000000000e+00,1.000000000000000000e+00,1.000000000000000000e+00,1.000000000000000000e+00,1.000000000000000000e+00,1.000000000000000000e+00,1.000000000000000000e+00,1.000000000000000000e+00,1.000000000000000000e+00,1.000000000000000000e+00,1.000000000000000000e+00,1.000000000000000000e+00,1.000000000000000000e+00,1.000000000000000000e+00,1.000000000000000000e+00,1.000000000000000000e+00,1.000000000000000000e+00,1.000000000000000000e+00,1.000000000000000000e+00,1.000000000000000000e+00,1.000000000000000000e+00,1.000000000000000000e+00,1.000000000000000000e+00,1.000000000000000000e+00,1.000000000000000000e+00,1.000000000000000000e+00,1.000000000000000000e+00,1.000000000000000000e+00,1.000000000000000000e+00,1.000000000000000000e+00,1.000000000000000000e+00,1.000000000000000000e+00,1.000000000000000000e+00,1.000000000000000000e+00,1.000000000000000000e+00,9.793087244033812921e-02,9.637461900711059848e-02,9.471051692962646762e-02,9.315972924232482355e-02,9.173482060432433527e-02,9.037660360336303988e-02,8.904331922531127930e-02,8.774880170822144110e-02,8.649138808250426969e-02,8.577442169189453125e-02,8.528896570205687921e-02,8.480898737907409390e-02,8.433437943458557684e-02,8.391659855842589777e-02,8.361492753028869351e-02,8.591492772102356235e-02,8.892210125923157016e-02
6.200185775756835715e-01,6.357544422149657981e-01,6.523097515106200950e-01,6.697487354278564009e-01,6.881454944610595481e-01,7.075814247131347878e-01,7.281472682952880859e-01,7.499443054199218528e-01,7.730866909027099831e-01,7.977027416229247603e-01,8.239379882812499778e-01,8.519576072692871538e-01,8.819499969482421653e-01,9.141312599182128684e-01,9.487499237060547097e-01,9.860938072204590288e-01,1.000000000000000000e+00,1.000000000000000000e+00,1.000000000000000000e+00,1.000000000000000000e+00,1.000000000000000000e+00,1.000000000000000000e+00,1.000000000000000000e+00,1.000000000000000000e+00,1.000000000000000000e+00,1.000000000000000000e+00,1.000000000000000000e+00,1.000000000000000000e+00,1.000000000000000000e+00,1.000000000000000000e+00,1.000000000000000000e+00,1.000000000000000000e+00,1.000000000000000000e+00,1.000000000000000000e+00,1.000000000000000000e+00,1.000000000000000000e+00,1.000000000000000000e+00,1.000000000000000000e+00,1.000000000000000000e+00,1.000000000000000000e+00,1.000000000000000000e+00,1.000000000000000000e+00,1.000000000000000000e+00,1.000000000000000000e+00,1.000000000000000000e+00,1.000000000000000000e+00,1.000000000000000000e+00,1.000000000000000000e+00,1.000000000000000000e+00,1.000000000000000000e+00,1.000000000000000000e+00,1.000000000000000000e+00,1.000000000000000000e+00,1.000000000000000000e+00,1.000000000000000000e+00,1.000000000000000000e+00,1.000000000000000000e+00,1.000000000000000000e+00,1.000000000000000000e+00,1.000000000000000000e+00,1.000000000000000000e+00,1.008583426475524875e-01,9.920918941497802734e-02,9.759256839752197821e-02,9.606638550758361816e-02,9.460282921791077215e-02,9.318318963050842285e-02,9.179968833923339566e-02,9.044619798660277765e-02,8.913204073905944824e-02,8.785552382469177801e-02,8.664512038230895441e-02,8.607497215270995539e-02,8.558612465858458918e-02,8.510279655456542969e-02,8.462490439414978305e-02,8.415234088897705078e-02,8.392382860183715543e-02,8.688645958900451105e-02,8.988623619079590121e-02
6.200053215026855025e-01,6.357404708862304243e-01,6.522951126098632812e-01,6.697349071502685103e-01,6.881310939788818359e-01,7.075662612915039062e-01,7.281311511993407981e-01,7.499271869659424050e-01,7.730685234069823997e-01,7.976833820343017800e-01,8.239173889160156250e-01,8.519355773925780806e-01,8.819263458251953569e-01,9.141057968139648660e-01,9.487225532531737837e-01,9.860642433166504350e-01,1.000000000000000000e+00,1.000000000000000000e+00,1.000000000000000000e+00,1.000000000000000000e+00,1.000000000000000000e+00,1.000000000000000000e+00,1.000000000000000000e+00,1.000000000000000000e+00,1.000000000000000000e+00,1.000000000000000000e+00,1.000000000000000000e+00,1.000000000000000000e+00,1.000000000000000000e+00,1.000000000000000000e+00,1.000000000000000000e+00,1.000000000000000000e+00,1.000000000000000000e+00,1.000000000000000000e+00,1.000000000000000000e+00,1.000000000000000000e+00,1.000000000000000000e+00,1.000000000000000000e+00,1.000000000000000000e+00,1.000000000000000000e+00,1.000000000000000000e+00,1.000000000000000000e+00,1.000000000000000000e+00,1.000000000000000000e+00,1.000000000000000000e+00,1.000000000000000000e+00,1.000000000000000000e+00,1.000000000000000000e+00,1.000000000000000000e+00,1.000000000000000000e+00,1.000000000000000000e+00,1.000000000000000000e+00,1.000000000000000000e+00,1.000000000000000000e+00,1.000000000000000000e+00,1.000000000000000000e+00,1.000000000000000000e+00,1.000000000000000000e+00,1.000000000000000000e+00,1.046011805534362848e-01,1.021519541740417425e-01,1.004726767539978055e-01,9.884771704673767090e-02,9.727415442466735840e-02,9.572480916976928988e-02,9.427155256271362027e-02,9.285761117935180387e-02,9.147297739982604425e-02,9.012903571128845492e-02,8.901055455207824985e-02,8.793367147445678433e-02,8.710626959800719937e-02,8.652248382568358820e-02,8.600600957870482843e-02,8.549565672874451239e-02,8.499133586883544922e-02,8.449292778968811590e-02,8.507422208786011297e-02,8.780673146247863770e-02,9.087150692939757746e-02
6.199920654296875444e-01,6.357264995574951616e-01,6.522804260253906028e-01,6.697194576263427734e-01,6.881165504455566406e-01,7.075510501861572710e-01,7.281150341033935103e-01,7.499102115631103294e-01,7.730503559112549272e-01,7.976640224456786887e-01,8.238966941833496538e-01,8.519135475158691184e-01,8.819027900695800559e-01,9.140805244445801003e-01,9.486951828002929688e-01,9.860346794128418413e-01,1.000000000000000000e+00,1.000000000000000000e+00,1.000000000000000000e+00,1.000000000000000000e+00,1.000000000000000000e+00,1.000000000000000000e+00,1.000000000000000000e+00,1.000000000000000000e+00,1.000000000000000000e+00,1.000000000000000000e+00,1.000000000000000000e+00,1.000000000000000000e+00,1.000000000000000000e+00,1.000000000000000000e+00,1.000000000000000000e+00,1.000000000000000000e+00,1.000000000000000000e+00,1.000000000000000000e+00,1.000000000000000000e+00,1.000000000000000000e+00,1.000000000000000000e+00,1.000000000000000000e+00,1.000000000000000000e+00,1.000000000000000000e+00,1.000000000000000000e+00,1.000000000000000000e+00,1.000000000000000000e+00,1.000000000000000000e+00,1.000000000000000000e+00,1.000000000000000000e+00,1.000000000000000000e+00,1.000000000000000000e+00,1.000000000000000000e+00,1.000000000000000000e+00,1.000000000000000000e+00,1.000000000000000000e+00,1.000000000000000000e+00,1.000000000000000000e+00,1.000000000000000000e+00,1.000000000000000000e+00,1.000000000000000000e+00,1.000000000000000000e+00,1.060707926750183161e-01,1.034791588783264132e-01,1.017563462257385226e-01,1.000899434089660700e-01,9.847724437713623047e-02,9.691569805145264227e-02,9.540290236473084051e-02,9.394018650054931918e-02,9.267559647560119629e-02,9.150877594947814941e-02,9.037098288536071777e-02,8.926113247871399203e-02,8.827679753303527277e-02,8.760372400283814032e-02,8.697722554206847867e-02,8.645531535148620605e-02,8.593964576721191406e-02,8.543007969856261652e-02,8.524724841117858887e-02,8.732180595397949496e-02,8.949986100196838379e-02,1.042160034179687444e-01
6.199787616729736106e-01,6.357125759124755415e-01,6.522656917572021706e-01,6.697039604187011719e-01,6.881002902984618697e-01,7.075356960296630415e-01,7.280989170074463335e-01,7.498930931091308816e-01,7.730321884155273438e-01,7.976448059082030806e-01,8.238760948181151900e-01,8.518914222717285378e-01,8.818791389465332475e-01,9.140550613403319868e-01,9.486679077148437722e-01,9.860052108764648660e-01,1.000000000000000000e+00,1.000000000000000000e+00,1.000000000000000000e+00,1.000000000000000000e+00,1.000000000000000000e+00,1.000000000000000000e+00,1.000000000000000000e+00,1.000000000000000000e+00,1.000000000000000000e+00,1.000000000000000000e+00,1.000000000000000000e+00,1.000000000000000000e+00,1.000000000000000000e+00,1.000000000000000000e+00,1.000000000000000000e+00,1.000000000000000000e+00,1.000000000000000000e+00,1.000000000000000000e+00,1.000000000000000000e+00,1.000000000000000000e+00,1.000000000000000000e+00,1.000000000000000000e+00,1.000000000000000000e+00,1.000000000000000000e+00,1.000000000000000000e+00,1.000000000000000000e+00,1.000000000000000000e+00,1.000000000000000000e+00,1.000000000000000000e+00,1.000000000000000000e+00,1.000000000000000000e+00,1.000000000000000000e+00,1.000000000000000000e+00,1.000000000000000000e+00,1.000000000000000000e+00,1.000000000000000000e+00,1.000000000000000000e+00,1.000000000000000000e+00,1.000000000000000000e+00,1.000000000000000000e+00,1.104672551155090332e-01,1.075822949409484808e-01,1.048441886901855524e-01,1.030732274055480985e-01,1.013637900352478000e-01,9.971011281013489325e-02,9.810954332351684570e-02,9.655953645706176480e-02,9.528650045394897183e-02,9.409329891204834539e-02,9.292961955070495883e-02,9.177364110946654996e-02,9.062929749488830844e-02,8.951312303543090820e-02,8.878774046897888739e-02,8.810688257217406949e-02,8.743677139282227118e-02,8.690935373306274414e-02,8.638826012611389160e-02,8.587338328361511508e-02,8.750410676002502719e-02,8.969137072563171387e-02,9.206262826919556219e-02,1.037706136703491211e-01
6.199655532836914062e-01,6.356986045837402788e-01,6.522510528564453569e-01,6.696885108947754350e-01,6.880838871002197266e-01,7.075184822082519753e-01,7.280827522277831809e-01,7.498760223388671875e-01,7.730140209197997603e-01,7.976254463195801003e-01,8.238554954528808372e-01,8.518694877624511941e-01,8.818555831909179465e-01,9.140296936035156028e-01,9.486405372619628462e-01,9.859756469726562722e-01,1.000000000000000000e+00,1.000000000000000000e+00,1.000000000000000000e+00,1.000000000000000000e+00,1.000000000000000000e+00,1.000000000000000000e+00,1.000000000000000000e+00,1.000000000000000000e+00,1.000000000000000000e+00,1.000000000000000000e+00,1.000000000000000000e+00,1.000000000000000000e+00,1.000000000000000000e+00,1.000000000000000000e+00,1.000000000000000000e+00,1.000000000000000000e+00,1.000000000000000000e+00,1.000000000000000000e+00,1.000000000000000000e+00,1.000000000000000000e+00,1.000000000000000000e+00,1.000000000000000000e+00,1.000000000000000000e+00,1.000000000000000000e+00,1.000000000000000000e+00,1.000000000000000000e+00,1.000000000000000000e+00,1.000000000000000000e+00,1.000000000000000000e+00,1.000000000000000000e+00,1.000000000000000000e+00,1.000000000000000000e+00,1.000000000000000000e+00,1.000000000000000000e+00,1.000000000000000000e+00,1.000000000000000000e+00,1.000000000000000000e+00,1.000000000000000000e+00,1.000000000000000000e+00,1.121076345443725586e-01,1.091375112533569391e-01,1.063206911087036105e-01,1.044246435165405301e-01,1.026704668998718317e-01,1.009742379188537653e-01,9.933316111564635675e-02,9.796663522720336359e-02,9.670581817626952570e-02,9.547703266143799106e-02,9.427908658981323797e-02,9.311082959175109863e-02,9.197117686271667758e-02,9.085907936096190851e-02,9.000421166419983465e-02,8.930462598800659180e-02,8.861585259437561313e-02,8.793761730194091242e-02,8.736817836761474887e-02,8.684158921241760809e-02,8.768717050552368719e-02,8.988370299339294711e-02,9.234647750854492465e-02,1.055877923965454074e-01,1.033290028572082520e-01
6.199522495269775835e-01,6.356846809387206587e-01,6.522363662719726785e-01,6.696730136871338335e-01,6.880675792694092019e-01,7.075011730194091797e-01,7.280644893646239790e-01,7.498588085174560103e-01,7.729959487915039062e-01,7.976061344146728738e-01,8.238348960876464844e-01,8.518473625183105025e-01,8.818319320678711382e-01,9.140043258666992188e-01,9.486132621765136497e-01,9.859460830688476785e-01,1.000000000000000000e+00,1.000000000000000000e+00,1.000000000000000000e+00,1.000000000000000000e+00,1.000000000000000000e+00,1.000000000000000000e+00,1.000000000000000000e+00,1.000000000000000000e+00,1.000000000000000000e+00,1.000000000000000000e+00,1.000000000000000000e+00,1.000000000000000000e+00,1.000000000000000000e+00,1.000000000000000000e+00,1.000000000000000000e+00,1.000000000000000000e+00,1.000000000000000000e+00,1.000000000000000000e+00,1.000000000000000000e+00,1.000000000000000000e+00,1.000000000000000000e+00,1.000000000000000000e+00,1.000000000000000000e+00,1.000000000000000000e+00,1.000000000000000000e+00,1.000000000000000000e+00,1.000000000000000000e+00,1.000000000000000000e+00,1.000000000000000000e+00,1.000000000000000000e+00,1.000000000000000000e+00,1.000000000000000000e+00,1.000000000000000000e+00,1.000000000000000000e+00,1.000000000000000000e+00,1.000000000000000000e+00,1.000000000000000000e+00,1.000000000000000000e+00,1.137974500656127874e-01,1.107383251190185575e-01,1.078393697738647405e-01,1.058119773864746038e-01,1.040112853050231961e-01,1.022708415985107422e-01,1.008018970489501925e-01,9.946753978729247492e-02,9.816805124282837469e-02,9.690207242965698242e-02,9.566833376884460727e-02,9.452434778213500421e-02,9.345191717147827148e-02,9.246628880500792902e-02,9.179503917694091519e-02,9.085782170295715610e-02,8.993954062461853582e-02,8.913074135780334195e-02,8.844462633132935125e-02,8.783187866210936945e-02,8.787099719047546109e-02,9.012267589569092352e-02,9.263207912445067804e-02,1.072934508323669378e-01,1.051306247711181613e-01,1.028911471366882324e-01
6.199389934539795144e-01,6.356707096099853960e-01,6.522216796875000000e-01,6.696575164794922319e-01,6.880512237548828125e-01,7.074839115142822488e-01,7.280461788177490234e-01,7.498394966125487837e-01,7.729776859283447044e-01,7.975867748260497825e-01,8.238142967224121316e-01,8.518254280090331587e-01,8.818082809448242188e-01,9.139789581298828347e-01,9.485858917236328347e-01,9.859166145324707031e-01,1.000000000000000000e+00,1.000000000000000000e+00,1.000000000000000000e+00,1.000000000000000000e+00,1.000000000000000000e+00,1.000000000000000000e+00,1.000000000000000000e+00,1.000000000000000000e+00,1.000000000000000000e+00,1.000000000000000000e+00,1.000000000000000000e+00,1.000000000000000000e+00,1.000000000000000000e+00,1.000000000000000000e+00,1.000000000000000000e+00,1.000000000000000000e+00,1.000000000000000000e+00,1.000000000000000000e+00,1.000000000000000000e+00,1.000000000000000000e+00,1.000000000000000000e+00,1.000000000000000000e+00,1.000000000000000000e+00,1.000000000000000000e+00,1.000000000000000000e+00,1.000000000000000000e+00,1.000000000000000000e+00,1.000000000000000000e+00,1.000000000000000000e+00,1.000000000000000000e+00,1.000000000000000000e+00,1.000000000000000000e+00,1.000000000000000000e+00,1.000000000000000000e+00,1.000000000000000000e+00,1.000000000000000000e+00,1.000000000000000000e+00,1.160391807556152288e-01,1.123868227005004883e-01,1.094020724296569796e-01,1.072366714477539090e-01,1.053875803947448703e-01,1.038061738014221247e-01,1.023916482925415067e-01,1.010151505470275879e-01,9.969445466995238703e-02,9.850224256515502375e-02,9.733820557594299872e-02,9.620136022567749023e-02,9.509075880050658902e-02,9.429516792297362726e-02,9.371702075004577359e-02,9.274035692214965820e-02,9.178383350372314176e-02,9.084683656692504883e-02,8.992877602577209473e-02,8.902908563613891324e-02,8.830051422119140903e-02,9.039466977119445246e-02,9.291943907737731934e-02,9.558930993080139160e-02,1.068198204040527316e-01,1.046773910522460910e-01,1.024569869041442871e-01
6.199257373809814453e-01,6.356568336486816406e-01,6.522069931030273215e-01,6.696420669555663840e-01,6.880348682403564231e-01,7.074666500091553178e-01,7.280279159545898215e-01,7.498200416564941850e-01,7.729571342468262163e-01,7.975674152374268022e-01,8.237936973571777788e-01,8.518033027648925781e-01,8.817847251892090288e-01,9.139535903930664507e-01,9.485585212707519087e-01,9.858870506286621094e-01,1.000000000000000000e+00,1.000000000000000000e+00,1.000000000000000000e+00,1.000000000000000000e+00,1.000000000000000000e+00,1.000000000000000000e+00,1.000000000000000000e+00,1.000000000000000000e+00,1.000000000000000000e+00,1.000000000000000000e+00,1.000000000000000000e+00,1.000000000000000000e+00,1.000000000000000000e+00,1.000000000000000000e+00,1.000000000000000000e+00,1.000000000000000000e+00,1.000000000000000000e+00,1.000000000000000000e+00,1.000000000000000000e+00,1.000000000000000000e+00,1.000000000000000000e+00,1.000000000000000000e+00,1.000000000000000000e+00,1.000000000000000000e+00,1.000000000000000000e+00,1.000000000000000000e+00,1.000000000000000000e+00,1.000000000000000000e+00,1.000000000000000000e+00,1.000000000000000000e+00,1.000000000000000000e+00,1.000000000000000000e+00,1.000000000000000000e+00,1.000000000000000000e+00,1.000000000000000000e+00,1.000000000000000000e+00,1.193481445312500056e-01,1.146041870117187472e-01,1.110107302665710449e-01,1.087002396583557073e-01,1.069950342178344754e-01,1.054928898811340332e-01,1.041296005249023465e-01,1.028296470642089816e-01,1.015617489814758245e-01,1.003247261047363337e-01,9.911749362945557196e-02,9.793895483016967773e-02,9.680053591728210449e-02,9.619786143302917758e-02,9.560264945030212680e-02,9.470255374908446988e-02,9.370533823966979703e-02,9.272891283035278320e-02,9.177261590957641602e-02,9.083585143089294156e-02,9.048717617988585871e-02,9.283534884452819547e-02,9.530864953994751254e-02,8.283735275268554465e-01,1.085473537445068304e-01,1.063503384590148981e-01,1.042280554771423395e-01,1.020264744758605929e-01
6.199124813079833762e-01,6.356428623199462669e-01,6.521923542022705078e-01,6.696265697479247825e-01,6.880185604095458984e-01,7.074493408203125222e-01,7.280096054077148660e-01,7.498006820678710938e-01,7.729364871978759988e-01,7.975455284118652122e-01,8.237730026245116965e-01,8.517812728881836160e-01,8.817610740661621094e-01,9.139282226562499556e-01,9.485312461853027122e-01,9.858575820922851340e-01,1.000000000000000000e+00,1.000000000000000000e+00,1.000000000000000000e+00,1.000000000000000000e+00,1.000000000000000000e+00,1.000000000000000000e+00,1.000000000000000000e+00,1.000000000000000000e+00,1.000000000000000000e+00,1.000000000000000000e+00,1.000000000000000000e+00,1.000000000000000000e+00,1.000000000000000000e+00,1.000000000000000000e+00,1.000000000000000000e+00,1.000000000000000000e+00,1.000000000000000000e+00,1.000000000000000000e+00,1.000000000000000000e+00,1.000000000000000000e+00,1.000000000000000000e+00,1.000000000000000000e+00,1.000000000000000000e+00,1.000000000000000000e+00,1.000000000000000000e+00,1.000000000000000000e+00,1.000000000000000000e+00,1.000000000000000000e+00,1.000000000000000000e+00,1.000000000000000000e+00,1.000000000000000000e+00,1.000000000000000000e+00,1.000000000000000000e+00,1.000000000000000000e+00,1.000000000000000000e+00,1.224287390708923284e-01,1.179503798484802246e-01,1.132042646408080999e-01,1.104389190673828181e-01,1.089777588844299261e-01,1.075547575950622503e-01,1.061684370040893582e-01,1.048174023628234836e-01,1.035003185272216769e-01,1.022159218788147028e-01,1.009630084037780734e-01,9.974046349525451938e-02,9.880674481391907293e-02,9.817891120910644809e-02,9.755901098251343329e-02,9.674958586692809781e-02,9.570902585983276367e-02,9.469062089920043945e-02,9.369366168975830356e-02,9.271746873855590820e-02,9.407922625541687012e-02,9.662015438079833707e-02,8.792283058166503462e-01,8.530534744262695535e-01,1.103316783905029241e-01,1.080626010894775446e-01,1.058849692344665527e-01,1.037825584411621038e-01,1.015995740890502930e-01
6.198992252349853072e-01,6.356288909912108931e-01,6.521776199340820757e-01,6.696111202239990456e-01,6.880022048950195090e-01,7.074320793151855913e-01,7.279912948608397993e-01,7.497812271118163840e-01,7.729158878326416460e-01,7.975235462188721147e-01,8.237496376037597434e-01,8.517592430114746538e-01,8.817374229431151900e-01,9.139028549194335715e-01,9.485038757324218972e-01,9.858281135559081587e-01,1.000000000000000000e+00,1.000000000000000000e+00,1.000000000000000000e+00,1.000000000000000000e+00,1.000000000000000000e+00,1.000000000000000000e+00,1.000000000000000000e+00,1.000000000000000000e+00,1.000000000000000000e+00,1.000000000000000000e+00,1.000000000000000000e+00,1.000000000000000000e+00,1.000000000000000000e+00,1.000000000000000000e+00,1.000000000000000000e+00,1.000000000000000000e+00,1.000000000000000000e+00,1.000000000000000000e+00,1.000000000000000000e+00,1.000000000000000000e+00,1.000000000000000000e+00,1.000000000000000000e+00,1.000000000000000000e+00,1.000000000000000000e+00,1.000000000000000000e+00,1.000000000000000000e+00,1.000000000000000000e+00,1.000000000000000000e+00,1.000000000000000000e+00,1.000000000000000000e+00,1.000000000000000000e+00,1.000000000000000000e+00,1.000000000000000000e+00,1.000000000000000000e+00,1.000000000000000000e+00,1.214473605155944880e-01,1.164680242538452121e-01,1.127389073371887207e-01,1.112140417098999023e-01,1.097313165664672852e-01,1.082886934280395536e-01,1.068835258483886719e-01,1.055143356323242215e-01,1.041797876358032254e-01,1.028785824775695773e-01,1.016094803810119601e-01,1.008978605270385714e-01,1.002432703971862793e-01,9.959712028503417414e-02,9.888706207275391180e-02,9.780027866363524836e-02,9.673712253570557196e-02,9.569683670997619629e-02,9.535688757896423895e-02,9.796825051307678223e-02,9.367355346679687722e-01,9.070824623107910378e-01,8.792491912841796653e-01,8.530731201171875000e-01,1.098309040069580106e-01,1.075821638107299777e-01,1.054236650466919001e-01,1.033408641815185547e-01,1.018747925758361761e-01
6.198859691619873491e-01,6.356149673461913840e-01,6.521629333496093972e-01,6.695956230163574441e-01,6.879858970642089844e-01,7.074148178100585493e-01,7.279730319976807085e-01,7.497618198394775391e-01,7.728952407836914285e-01,7.975016593933105247e-01,8.237262725830077903e-01,8.517342567443847434e-01,8.817138671875000000e-01,9.138774871826171875e-01,9.484765052795409712e-01,9.857985496520995650e-01,1.000000000000000000e+00,1.000000000000000000e+00,1.000000000000000000e+00,1.000000000000000000e+00,1.000000000000000000e+00,1.000000000000000000e+00,1.000000000000000000e+00,1.000000000000000000e+00,1.000000000000000000e+00,1.000000000000000000e+00,1.000000000000000000e+00,1.000000000000000000e+00,1.000000000000000000e+00,1.000000000000000000e+00,1.000000000000000000e+00,1.000000000000000000e+00,1.000000000000000000e+00,1.000000000000000000e+00,1.000000000000000000e+00,1.000000000000000000e+00,1.000000000000000000e+00,1.000000000000000000e+00,1.000000000000000000e+00,1.000000000000000000e+00,1.000000000000000000e+00,1.000000000000000000e+00,1.000000000000000000e+00,1.000000000000000000e+00,1.000000000000000000e+00,1.000000000000000000e+00,1.000000000000000000e+00,1.000000000000000000e+00,1.000000000000000000e+00,1.000000000000000000e+00,1.246387362480163574e-01,1.199255704879760714e-01,1.151387333869934027e-01,1.135487198829650823e-01,1.120020151138305664e-01,1.104968667030334500e-01,1.090327143669128362e-01,1.076082825660705511e-01,1.062206029891967773e-01,1.048682451248168918e-01,1.037717103958129827e-01,1.030794262886047391e-01,1.023963212966918918e-01,1.017221927642822238e-01,1.010568857192993136e-01,9.998495578765868863e-02,9.887403845787048895e-02,9.778754711151123324e-02,9.935449957847594660e-02,1.000000000000000000e+00,9.684182167053222434e-01,9.367591857910155806e-01,9.071046829223632368e-01,8.792701721191406028e-01,1.116580367088317871e-01,1.093346476554870605e-01,1.071059823036193820e-01,1.049663543701171847e-01,1.029532074928283664e-01,1.020160555839538519e-01
6.198727130889892800e-01,6.356009960174560103e-01,6.521482944488525835e-01,6.695801258087158425e-01,6.879695415496825950e-01,7.073975563049316184e-01,7.279547214508056419e-01,7.497424602508544478e-01,7.728746891021728294e-01,7.974796772003174272e-01,8.237029075622558372e-01,8.517092704772949441e-01,8.816872596740722434e-01,9.138521194458008035e-01,9.484492301940917747e-01,9.857690811157227007e-01,1.000000000000000000e+00,1.000000000000000000e+00,1.000000000000000000e+00,1.000000000000000000e+00,1.000000000000000000e+00,1.000000000000000000e+00,1.000000000000000000e+00,1.000000000000000000e+00,1.000000000000000000e+00,1.000000000000000000e+00,1.000000000000000000e+00,1.000000000000000000e+00,1.000000000000000000e+00,1.000000000000000000e+00,1.000000000000000000e+00,1.000000000000000000e+00,1.000000000000000000e+00,1.000000000000000000e+00,1.000000000000000000e+00,1.000000000000000000e+00,1.000000000000000000e+00,1.000000000000000000e+00,1.000000000000000000e+00,1.000000000000000000e+00,1.000000000000000000e+00,1.000000000000000000e+00,1.000000000000000000e+00,1.000000000000000000e+00,1.000000000000000000e+00,1.000000000000000000e+00,1.000000000000000000e+00,1.000000000000000000e+00,1.000000000000000000e+00,1.280023455619812012e-01,1.235947012901306152e-01,1.183934926986694308e-01,1.159835100173950140e-01,1.143702387809753390e-01,1.128012299537658747e-01,1.112746834754943792e-01,1.097889065742492648e-01,1.083429694175720159e-01,1.069363951683044434e-01,1.060807347297668402e-01,1.053574085235595703e-01,1.046438813209533691e-01,1.039399385452270536e-01,1.032454013824462835e-01,1.022694587707519559e-01,1.011075019836425726e-01,1.007805466651916504e-01,1.037019610404968234e-01,1.000000000000000000e+00,1.000000000000000000e+00,9.684435844421386275e-01,9.367830276489257368e-01,9.071269989013671653e-01,8.792910575866699219e-01,1.112766385078430148e-01,1.090385198593139676e-01,1.068886637687683078e-01,1.048219323158264132e-01,1.028983592987060547e-01,1.019618630409240695e-01
6.198594570159912109e-01,6.355871200561523660e-01,6.521336078643799050e-01,6.695647239685058594e-01,6.879531860351562056e-01,7.073802947998046875e-01,7.279364585876464400e-01,7.497230529785156028e-01,7.728540420532226118e-01,7.974577903747558372e-01,8.236794471740722656e-01,8.516842842102050337e-01,8.816603660583496316e-01,9.138236045837402344e-01,9.484219551086425781e-01,9.857395172119141069e-01,1.000000000000000000e+00,1.000000000000000000e+00,1.000000000000000000e+00,1.000000000000000000e+00,1.000000000000000000e+00,1.000000000000000000e+00,1.000000000000000000e+00,1.000000000000000000e+00,1.000000000000000000e+00,1.000000000000000000e+00,1.000000000000000000e+00,1.000000000000000000e+00,1.000000000000000000e+00,1.000000000000000000e+00,1.000000000000000000e+00,1.000000000000000000e+00,1.000000000000000000e+00,1.000000000000000000e+00,1.000000000000000000e+00,1.000000000000000000e+00,1.000000000000000000e+00,1.000000000000000000e+00,1.000000000000000000e+00,1.000000000000000000e+00,1.000000000000000000e+00,1.000000000000000000e+00,1.000000000000000000e+00,1.000000000000000000e+00,1.000000000000000000e+00,1.000000000000000000e+00,1.000000000000000000e+00,1.000000000000000000e+00,1.000000000000000000e+00,1.269299864768981823e-01,1.219680666923523005e-01,1.185250163078308133e-01,1.168407797813415527e-01,1.152037382125854492e-01,1.136119365692138672e-01,1.120635271072387695e-01,1.105567455291747991e-01,1.090986609458923368e-01,1.084773659706115695e-01,1.077383518218994196e-01,1.069923162460327121e-01,1.062565445899963379e-01,1.055308222770690862e-01,1.046608090400695801e-01,1.034441947937011774e-01,1.052565217018127386e-01,1.000000000000000000e+00,1.000000000000000000e+00,1.000000000000000000e+00,1.000000000000000000e+00,9.684689521789551225e-01,9.368067741394042747e-01,9.071492195129394753e-01,8.793119430541992410e-01,1.111868739128112765e-01,1.089523434638977051e-01,1.068058371543884333e-01,1.047422885894775391e-01,1.028432250022888184e-01,1.019077181816101102e-01
6.198386669158935103e-01,6.355696678161620872e-01,6.521189689636230913e-01,6.695492267608642578e-01,6.879369258880615456e-01,7.073629856109618919e-01,7.279181480407714844e-01,7.497036933898926225e-01,7.728333950042725053e-01,7.974358081817627397e-01,8.236560821533203125e-01,8.516592025756836160e-01,8.816335678100586382e-01,9.137947082519530806e-01,9.483912467956543413e-01,9.857099533081055132e-01,1.000000000000000000e+00,1.000000000000000000e+00,1.000000000000000000e+00,1.000000000000000000e+00,1.000000000000000000e+00,1.000000000000000000e+00,1.000000000000000000e+00,1.000000000000000000e+00,1.000000000000000000e+00,1.000000000000000000e+00,1.000000000000000000e+00,1.000000000000000000e+00,1.000000000000000000e+00,1.000000000000000000e+00,1.000000000000000000e+00,1.000000000000000000e+00,1.000000000000000000e+00,1.000000000000000000e+00,1.000000000000000000e+00,1.000000000000000000e+00,1.000000000000000000e+00,1.000000000000000000e+00,1.000000000000000000e+00,1.000000000000000000e+00,1.000000000000000000e+00,1.000000000000000000e+00,1.000000000000000000e+00,1.000000000000000000e+00,1.000000000000000000e+00,1.000000000000000000e+00,1.000000000000000000e+00,1.000000000000000000e+00,1.304201364517211803e-01,1.257651925086974987e-01,1.211804032325744657e-01,1.194204211235046359e-01,1.177108287811279297e-01,1.160494685173034668e-01,1.144343733787536593e-01,1.128703355789184570e-01,1.113622426986694280e-01,1.103890299797058161e-01,1.098375439643859836e-01,1.092915654182434054e-01,1.086787581443786621e-01,1.079196929931640625e-01,1.071666717529296819e-01,1.068583965301513616e-01,1.000000000000000000e+00,1.000000000000000000e+00,1.000000000000000000e+00,1.000000000000000000e+00,1.000000000000000000e+00,1.000000000000000000e+00,9.684943199157715066e-01,9.368305206298828125e-01,9.071715354919434038e-01,8.793328285217285600e-01,1.110983967781066922e-01,1.088662862777709933e-01,1.067231416702270480e-01,1.046627640724182157e-01,1.027881503105163574e-01,1.018536448478698786e-01
6.198158264160156250e-01,6.355456352233886941e-01,6.520946502685547319e-01,6.695284843444824219e-01,6.879201889038085715e-01,7.073457717895508257e-01,7.278999328613281472e-01,7.496842384338379128e-01,7.728128433227539062e-01,7.974138259887695312e-01,8.236326217651367410e-01,8.516342163085937056e-01,8.816066741943359153e-01,9.137659072875976562e-01,9.483601570129394087e-01,9.856769561767577681e-01,1.000000000000000000e+00,1.000000000000000000e+00,1.000000000000000000e+00,1.000000000000000000e+00,1.000000000000000000e+00,1.000000000000000000e+00,1.000000000000000000e+00,1.000000000000000000e+00,1.000000000000000000e+00,1.000000000000000000e+00,1.000000000000000000e+00,1.000000000000000000e+00,1.000000000000000000e+00,1.000000000000000000e+00,1.000000000000000000e+00,1.000000000000000000e+00,1.000000000000000000e+00,1.000000000000000000e+00,1.000000000000000000e+00,1.000000000000000000e+00,1.000000000000000000e+00,1.000000000000000000e+00,1.000000000000000000e+00,1.000000000000000000e+00,1.000000000000000000e+00,1.000000000000000000e+00,1.000000000000000000e+00,1.000000000000000000e+00,1.000000000000000000e+00,1.000000000000000000e+00,1.000000000000000000e+00,1.341076493263244629e-01,1.293070554733276312e-01,1.240813255310058566e-01,1.221165299415588323e-01,1.203294396400451660e-01,1.185939073562622126e-01,1.169121265411376953e-01,1.152948737144470215e-01,1.137217521667480413e-01,1.124742627143859863e-01,1.117978930473327581e-01,1.112322926521301242e-01,1.106723666191101046e-01,1.101180553436279241e-01,1.095692753791809027e-01,1.000000000000000000e+00,1.000000000000000000e+00,1.000000000000000000e+00,1.000000000000000000e+00,1.000000000000000000e+00,1.000000000000000000e+00,1.000000000000000000e+00,1.000000000000000000e+00,9.685196876525878906e-01,9.368542671203613503e-01,9.071937561035156028e-01,8.793538093566894975e-01,1.110108256340026911e-01,1.087803721427917508e-01,1.066405892372131320e-01,1.045833468437194769e-01,1.027331233024597196e-01,1.017996191978454562e-01
6.197952270507812722e-01,6.355216026306151900e-01,6.520693302154541016e-01,6.695018291473389116e-01,6.878920078277588335e-01,7.073210239410400169e-01,7.278794765472411665e-01,7.496649265289306863e-01,7.727921962738036887e-01,7.973919391632080522e-01,8.236091613769531694e-01,8.516092300415039062e-01,8.815798759460449219e-01,9.137371063232422319e-01,9.483290672302245872e-01,9.856433868408203125e-01,1.000000000000000000e+00,1.000000000000000000e+00,1.000000000000000000e+00,1.000000000000000000e+00,1.000000000000000000e+00,1.000000000000000000e+00,1.000000000000000000e+00,1.000000000000000000e+00,1.000000000000000000e+00,1.000000000000000000e+00,1.000000000000000000e+00,1.000000000000000000e+00,1.000000000000000000e+00,1.000000000000000000e+00,1.000000000000000000e+00,1.000000000000000000e+00,1.000000000000000000e+00,1.000000000000000000e+00,1.000000000000000000e+00,1.000000000000000000e+00,1.000000000000000000e+00,1.000000000000000000e+00,1.000000000000000000e+00,1.000000000000000000e+00,1.000000000000000000e+00,1.000000000000000000e+00,1.000000000000000000e+00,1.000000000000000000e+00,1.000000000000000000e+00,1.000000000000000000e+00,1.383982419967651478e-01,1.329310178756713812e-01,1.280133008956909069e-01,1.249371767044067383e-01,1.230672240257263128e-01,1.212541460990905762e-01,1.195154190063476562e-01,1.178258657455444336e-01,1.161834120750427218e-01,1.147377729415893499e-01,1.138294816017150907e-01,1.132431983947753962e-01,1.126628994941711454e-01,1.120885133743286105e-01,1.115199685096740778e-01,1.000000000000000000e+00,1.000000000000000000e+00,1.000000000000000000e+00,1.000000000000000000e+00,1.000000000000000000e+00,1.000000000000000000e+00,1.000000000000000000e+00,1.000000000000000000e+00,1.000000000000000000e+00,9.685450553894042747e-01,9.368780136108398882e-01,9.072159767150879128e-01,8.793746948242187056e-01,1.109233975410461454e-01,1.086945891380310114e-01,1.065581440925598145e-01,1.045040607452392550e-01,1.026781678199768094e-01,1.017456531524658231e-01
6.197819709777832031e-01,6.355056285858153853e-01,6.520478248596190962e-01,6.694752216339111550e-01,6.878638267517089844e-01,7.072912693023681863e-01,7.278479576110840066e-01,7.496353626251220925e-01,7.727672576904296431e-01,7.973699569702148438e-01,8.235857963562012163e-01,8.515841484069823775e-01,8.815530776977539285e-01,9.137083053588866965e-01,9.482980728149413840e-01,9.856098175048828569e-01,1.000000000000000000e+00,1.000000000000000000e+00,1.000000000000000000e+00,1.000000000000000000e+00,1.000000000000000000e+00,1.000000000000000000e+00,1.000000000000000000e+00,1.000000000000000000e+00,1.000000000000000000e+00,1.000000000000000000e+00,1.000000000000000000e+00,1.000000000000000000e+00,1.000000000000000000e+00,1.000000000000000000e+00,1.000000000000000000e+00,1.000000000000000000e+00,1.000000000000000000e+00,1.000000000000000000e+00,1.000000000000000000e+00,1.000000000000000000e+00,1.000000000000000000e+00,1.000000000000000000e+00,1.000000000000000000e+00,1.000000000000000000e+00,1.000000000000000000e+00,1.000000000000000000e+00,1.000000000000000000e+00,1.000000000000000000e+00,1.000000000000000000e+00,1.000000000000000000e+00,1.372535228729248047e-01,1.317748546600341908e-01,1.278912305831909069e-01,1.259324908256530817e-01,1.240567207336425726e-01,1.222373008728027399e-01,1.204704761505126925e-01,1.187539935111999456e-01,1.170942544937133845e-01,1.160908937454223633e-01,1.153281331062316895e-01,1.147263288497924749e-01,1.141307830810546903e-01,1.135413765907287570e-01,1.000000000000000000e+00,1.000000000000000000e+00,1.000000000000000000e+00,1.000000000000000000e+00,1.000000000000000000e+00,1.000000000000000000e+00,1.000000000000000000e+00,1.000000000000000000e+00,1.000000000000000000e+00,1.000000000000000000e+00,9.685704231262206587e-01,9.369017601013183150e-01,9.072382926940918413e-01,8.793955802917480247e-01,1.108361005783081027e-01,1.086098194122314398e-01,1.064758300781250000e-01,1.044248938560485840e-01,1.026232719421386747e-01,1.016917467117309515e-01
6.197688102722167525e-01,6.354917526245117410e-01,6.520331859588622825e-01,6.694587707519531472e-01,6.878413677215575728e-01,7.072619438171386941e-01,7.278164863586426003e-01,7.496019363403320090e-01,7.727317810058593750e-01,7.973345279693603294e-01,8.235553741455078347e-01,8.515590667724609597e-01,8.815262794494629350e-01,9.136795043945312722e-01,9.482670783996581809e-01,9.855763435363769087e-01,1.000000000000000000e+00,1.000000000000000000e+00,1.000000000000000000e+00,1.000000000000000000e+00,1.000000000000000000e+00,1.000000000000000000e+00,1.000000000000000000e+00,1.000000000000000000e+00,1.000000000000000000e+00,1.000000000000000000e+00,1.000000000000000000e+00,1.000000000000000000e+00,1.000000000000000000e+00,1.000000000000000000e+00,1.000000000000000000e+00,1.000000000000000000e+00,1.000000000000000000e+00,1.000000000000000000e+00,1.000000000000000000e+00,1.000000000000000000e+00,1.000000000000000000e+00,1.000000000000000000e+00,1.000000000000000000e+00,1.000000000000000000e+00,1.000000000000000000e+00,1.000000000000000000e+00,1.000000000000000000e+00,1.000000000000000000e+00,1.000000000000000000e+00,1.420147776603698786e-01,1.360315322875976507e-01,1.309883475303649791e-01,1.289567589759826605e-01,1.269919037818908747e-01,1.250860333442687933e-01,1.232365250587463407e-01,1.214409112930297796e-01,1.196968674659728976e-01,1.185038685798645020e-01,1.174912929534912137e-01,1.168667674064636230e-01,1.162488460540771484e-01,1.156374216079711914e-01,1.000000000000000000e+00,1.000000000000000000e+00,1.000000000000000000e+00,1.000000000000000000e+00,1.000000000000000000e+00,1.000000000000000000e+00,1.000000000000000000e+00,1.000000000000000000e+00,1.000000000000000000e+00,1.000000000000000000e+00,1.000000000000000000e+00,9.685957908630371538e-01,9.369254112243652344e-01,9.072605133056640403e-01,8.794165611267089622e-01,1.107489347457885770e-01,1.085261225700378390e-01,1.063936471939086886e-01,1.043458461761474637e-01,1.025684237480163630e-01,1.016378998756408691e-01
6.197556018829345481e-01,6.354778766632079856e-01,6.520185947418213335e-01,6.694434165954590288e-01,6.878250598907470481e-01,7.072447299957275169e-01,7.277928829193115456e-01,7.495707035064697044e-01,7.726962566375732422e-01,7.972967147827147993e-01,8.235150337219238059e-01,8.515164375305175337e-01,8.814889907836913618e-01,9.136485099792480691e-01,9.482360839843749778e-01,9.855427742004394531e-01,1.000000000000000000e+00,1.000000000000000000e+00,1.000000000000000000e+00,1.000000000000000000e+00,1.000000000000000000e+00,1.000000000000000000e+00,1.000000000000000000e+00,1.000000000000000000e+00,1.000000000000000000e+00,1.000000000000000000e+00,1.000000000000000000e+00,1.000000000000000000e+00,1.000000000000000000e+00,1.000000000000000000e+00,1.000000000000000000e+00,1.000000000000000000e+00,1.000000000000000000e+00,1.000000000000000000e+00,1.000000000000000000e+00,1.000000000000000000e+00,1.000000000000000000e+00,1.000000000000000000e+00,1.000000000000000000e+00,1.000000000000000000e+00,1.000000000000000000e+00,1.000000000000000000e+00,1.000000000000000000e+00,1.000000000000000000e+00,1.502219319343566784e-01,1.409103751182556041e-01,1.348310947418212835e-01,1.321679353713989258e-01,1.300693631172180065e-01,1.280707240104675404e-01,1.261325716972351019e-01,1.242522239685058538e-01,1.224271059036254883e-01,1.210192918777465848e-01,1.199478387832641629e-01,1.190885901451110840e-01,1.184470057487487793e-01,1.178123116493225153e-01,1.000000000000000000e+00,1.000000000000000000e+00,1.000000000000000000e+00,1.000000000000000000e+00,1.000000000000000000e+00,1.000000000000000000e+00,1.000000000000000000e+00,1.000000000000000000e+00,1.000000000000000000e+00,1.000000000000000000e+00,1.000000000000000000e+00,1.000000000000000000e+00,9.686211585998535378e-01,9.369491577148437722e-01,9.072828292846679688e-01,8.794374465942382812e-01,1.106619119644165067e-01,1.084425568580627414e-01,1.063115954399108942e-01,1.042669177055358942e-01,1.025136470794677790e-01,1.015841007232665960e-01
6.197423934936523438e-01,6.354639530181884766e-01,6.520039558410644087e-01,6.694279670715331809e-01,6.878088474273681419e-01,7.072276115417480691e-01,7.277747154235839622e-01,7.495513439178467241e-01,7.726715564727782981e-01,7.972633838653564453e-01,8.234746932983398882e-01,8.514733314514160156e-01,8.814427375793456587e-01,9.135989189147949441e-01,9.481900215148926225e-01,9.855036735534667969e-01,1.000000000000000000e+00,1.000000000000000000e+00,1.000000000000000000e+00,1.000000000000000000e+00,1.000000000000000000e+00,1.000000000000000000e+00,1.000000000000000000e+00,1.000000000000000000e+00,1.000000000000000000e+00,1.000000000000000000e+00,1.000000000000000000e+00,1.000000000000000000e+00,1.000000000000000000e+00,1.000000000000000000e+00,1.000000000000000000e+00,1.000000000000000000e+00,1.000000000000000000e+00,1.000000000000000000e+00,1.000000000000000000e+00,1.000000000000000000e+00,1.000000000000000000e+00,1.000000000000000000e+00,1.000000000000000000e+00,1.000000000000000000e+00,1.000000000000000000e+00,1.000000000000000000e+00,1.000000000000000000e+00,1.000000000000000000e+00,1.458254098892211859e-01,1.396227002143859974e-01,1.356784820556640736e-01,1.334302186965942438e-01,1.312552332878112737e-01,1.291680335998535156e-01,1.271967768669128307e-01,1.252848029136657826e-01,1.236438155174255371e-01,1.225256085395813044e-01,1.214274406433105413e-01,1.207298994064331110e-01,1.246730804443359347e-01,1.000000000000000000e+00,1.000000000000000000e+00,1.000000000000000000e+00,1.000000000000000000e+00,1.000000000000000000e+00,1.000000000000000000e+00,1.000000000000000000e+00,1.000000000000000000e+00,1.000000000000000000e+00,1.000000000000000000e+00,1.000000000000000000e+00,1.000000000000000000e+00,1.000000000000000000e+00,9.686465263366699219e-01,9.369729042053223100e-01,9.073050498962402788e-01,8.794583320617676003e-01,1.105750203132629395e-01,1.083591222763061468e-01,1.062302827835082952e-01,1.041881084442138616e-01,1.024589180946350042e-01,1.015303611755371122e-01
6.197291374206542747e-01,6.354500770568847212e-01,6.519893169403075950e-01,6.694125652313231978e-01,6.877925872802734819e-01,7.072103977203368919e-01,7.277565002441406250e-01,7.495321273803711160e-01,7.726510524749755637e-01,7.972415924072265847e-01,8.234487533569335715e-01,8.514374732971191628e-01,8.813965797424316850e-01,9.135492324829102007e-01,9.481366157531738725e-01,9.854459762573242188e-01,1.000000000000000000e+00,1.000000000000000000e+00,1.000000000000000000e+00,1.000000000000000000e+00,1.000000000000000000e+00,1.000000000000000000e+00,1.000000000000000000e+00,1.000000000000000000e+00,1.000000000000000000e+00,1.000000000000000000e+00,1.000000000000000000e+00,1.000000000000000000e+00,1.000000000000000000e+00,1.000000000000000000e+00,1.000000000000000000e+00,1.000000000000000000e+00,1.000000000000000000e+00,1.000000000000000000e+00,1.000000000000000000e+00,1.000000000000000000e+00,1.000000000000000000e+00,1.000000000000000000e+00,1.000000000000000000e+00,1.000000000000000000e+00,1.000000000000000000e+00,1.000000000000000000e+00,1.000000000000000000e+00,1.508033990859985463e-01,1.447674155235290638e-01,1.393806219100952037e-01,1.370090484619140569e-01,1.347168445587158259e-01,1.325000762939453069e-01,1.303550720214843861e-01,1.282791018486023060e-01,1.263846874237060658e-01,1.252165794372558649e-01,1.240698814392089816e-01,1.231025218963623102e-01,1.274575233459472601e-01,1.000000000000000000e+00,1.000000000000000000e+00,1.000000000000000000e+00,1.000000000000000000e+00,1.000000000000000000e+00,1.000000000000000000e+00,1.000000000000000000e+00,1.000000000000000000e+00,1.000000000000000000e+00,1.000000000000000000e+00,1.000000000000000000e+00,1.000000000000000000e+00,1.000000000000000000e+00,1.000000000000000000e+00,9.686719894409179243e-01,9.369966506958007368e-01,9.073273658752440962e-01,1.191362619400024442e-01,1.104882597923278753e-01,1.082758069038391169e-01,1.061502099037170410e-01,1.041094183921813937e-01,1.024042487144470187e-01,1.014766812324523898e-01
6.197159767150879350e-01,6.354362487792968306e-01,6.519747257232666460e-01,6.693971157073974609e-01,6.877762794494628462e-01,7.071931838989258257e-01,7.277382373809814231e-01,7.495127677917480247e-01,7.726305484771728294e-01,7.972197055816649947e-01,8.234253883361816184e-01,8.514125823974609819e-01,8.813692092895507590e-01,9.135106086730957475e-01,9.480850219726562056e-01,9.853881835937500222e-01,1.000000000000000000e+00,1.000000000000000000e+00,1.000000000000000000e+00,1.000000000000000000e+00,1.000000000000000000e+00,1.000000000000000000e+00,1.000000000000000000e+00,1.000000000000000000e+00,1.000000000000000000e+00,1.000000000000000000e+00,1.000000000000000000e+00,1.000000000000000000e+00,1.000000000000000000e+00,1.000000000000000000e+00,1.000000000000000000e+00,1.000000000000000000e+00,1.000000000000000000e+00,1.000000000000000000e+00,1.000000000000000000e+00,1.000000000000000000e+00,1.000000000000000000e+00,1.000000000000000000e+00,1.000000000000000000e+00,1.000000000000000000e+00,1.000000000000000000e+00,1.000000000000000000e+00,1.000000000000000000e+00,1.498461604118347112e-01,1.434086322784423884e-01,1.407851696014404408e-01,1.383659720420837291e-01,1.360285282135009766e-01,1.337687373161315918e-01,1.315827965736389160e-01,1.294847249984741322e-01,1.281329274177551159e-01,1.268298983573913630e-01,1.256535887718200628e-01,1.303691983222961537e-01,1.000000000000000000e+00,1.000000000000000000e+00,1.000000000000000000e+00,1.000000000000000000e+00,1.000000000000000000e+00,1.000000000000000000e+00,1.000000000000000000e+00,1.000000000000000000e+00,1.000000000000000000e+00,1.000000000000000000e+00,1.000000000000000000e+00,1.000000000000000000e+00,1.000000000000000000e+00,1.000000000000000000e+00,1.000000000000000000e+00,9.686973571777344194e-01,9.370214462280272993e-01,9.073515892028808372e-01,1.127027630805969294e-01,1.104016423225402804e-01,1.081926226615905762e-01,1.060702562332153376e-01,1.040308475494384766e-01,1.023496508598327609e-01,1.014230608940124567e-01
6.197027683258056197e-01,6.354223251342773215e-01,6.519601345062255859e-01,6.693817615509033425e-01,6.877600669860839400e-01,7.071759700775146484e-01,7.277200222015380859e-01,7.494934558868407981e-01,7.726099967956543413e-01,7.971978187561035156e-01,8.234021186828612837e-01,8.513876914978026900e-01,8.813424110412597656e-01,9.134819984436035600e-01,9.480542182922363503e-01,9.853462219238281472e-01,1.000000000000000000e+00,1.000000000000000000e+00,1.000000000000000000e+00,1.000000000000000000e+00,1.000000000000000000e+00,1.000000000000000000e+00,1.000000000000000000e+00,1.000000000000000000e+00,1.000000000000000000e+00,1.000000000000000000e+00,1.000000000000000000e+00,1.000000000000000000e+00,1.000000000000000000e+00,1.000000000000000000e+00,1.000000000000000000e+00,1.000000000000000000e+00,1.000000000000000000e+00,1.000000000000000000e+00,1.000000000000000000e+00,1.000000000000000000e+00,1.000000000000000000e+00,1.000000000000000000e+00,1.000000000000000000e+00,1.000000000000000000e+00,1.000000000000000000e+00,1.000000000000000000e+00,1.000000000000000000e+00,1.488415479660034069e-01,1.447753190994262584e-01,1.422183036804199330e-01,1.397500514984130748e-01,1.373793005943298451e-01,1.350968003273010365e-01,1.328889012336730846e-01,1.319759607315063588e-01,1.303257346153259277e-01,1.287162661552429255e-01,1.377166628837585560e-01,1.000000000000000000e+00,1.000000000000000000e+00,1.000000000000000000e+00,1.000000000000000000e+00,1.000000000000000000e+00,1.000000000000000000e+00,1.000000000000000000e+00,1.000000000000000000e+00,1.000000000000000000e+00,1.000000000000000000e+00,1.000000000000000000e+00,1.000000000000000000e+00,1.000000000000000000e+00,1.000000000000000000e+00,1.000000000000000000e+00,1.000000000000000000e+00,9.687256813049316406e-01,9.370479583740234375e-01,9.073764801025390181e-01,1.126126408576965388e-01,1.103151679039001409e-01,1.081095576286315862e-01,1.059904217720031711e-01,1.039527773857116671e-01,1.022951006889343262e-01,1.013960719108581571e-01
6.196895599365234153e-01,6.354084491729736772e-01,6.519454956054687722e-01,6.693663597106933594e-01,6.877438068389892800e-01,7.071588039398193359e-01,7.277019023895263672e-01,7.494741916656494363e-01,7.725894451141357422e-01,7.971759796142577903e-01,8.233788490295410600e-01,8.513627052307128906e-01,8.813158035278320090e-01,9.134531974792480247e-01,9.480232238769531472e-01,9.853128433227539285e-01,1.000000000000000000e+00,1.000000000000000000e+00,1.000000000000000000e+00,1.000000000000000000e+00,1.000000000000000000e+00,1.000000000000000000e+00,1.000000000000000000e+00,1.000000000000000000e+00,1.000000000000000000e+00,1.000000000000000000e+00,1.000000000000000000e+00,1.000000000000000000e+00,1.000000000000000000e+00,1.000000000000000000e+00,1.000000000000000000e+00,1.000000000000000000e+00,1.000000000000000000e+00,1.000000000000000000e+00,1.000000000000000000e+00,1.000000000000000000e+00,1.000000000000000000e+00,1.000000000000000000e+00,1.000000000000000000e+00,1.000000000000000000e+00,1.000000000000000000e+00,1.705452084541320690e-01,1.646421670913696400e-01,1.489982604980468750e-01,1.462990283966064398e-01,1.437132954597473145e-01,1.412173867225647028e-01,1.388066887855529674e-01,1.364769101142883356e-01,1.355322122573852650e-01,1.343034625053405873e-01,1.325948953628540150e-01,1.000000000000000000e+00,1.000000000000000000e+00,1.000000000000000000e+00,1.000000000000000000e+00,1.000000000000000000e+00,1.000000000000000000e+00,1.000000000000000000e+00,1.000000000000000000e+00,1.000000000000000000e+00,1.000000000000000000e+00,1.000000000000000000e+00,1.000000000000000000e+00,1.000000000000000000e+00,1.000000000000000000e+00,1.000000000000000000e+00,1.000000000000000000e+00,1.000000000000000000e+00,1.000000000000000000e+00,9.687540054321288618e-01,9.370744705200195757e-01,9.074012756347655806e-01,1.125226736068725558e-01,1.102288246154785184e-01,1.080266356468200656e-01,1.059107184410095215e-01,1.038760900497436579e-01,1.022405982017517145e-01,1.013770103454589844e-01
6.196763515472412109e-01,6.353945255279540572e-01,6.519308567047119585e-01,6.693509101867676225e-01,6.877275466918945090e-01,7.071415901184081587e-01,7.276836395263671653e-01,7.494548320770263450e-01,7.725689888000488725e-01,7.971541881561279297e-01,8.233554840087891069e-01,8.513378143310547097e-01,8.812890052795410156e-01,9.134245872497558372e-01,9.479924201965331809e-01,9.852795600891113281e-01,1.000000000000000000e+00,1.000000000000000000e+00,1.000000000000000000e+00,1.000000000000000000e+00,1.000000000000000000e+00,1.000000000000000000e+00,1.000000000000000000e+00,1.000000000000000000e+00,1.000000000000000000e+00,1.000000000000000000e+00,1.000000000000000000e+00,1.000000000000000000e+00,1.000000000000000000e+00,1.000000000000000000e+00,1.000000000000000000e+00,1.000000000000000000e+00,1.000000000000000000e+00,1.000000000000000000e+00,1.000000000000000000e+00,1.000000000000000000e+00,1.000000000000000000e+00,1.000000000000000000e+00,1.000000000000000000e+00,1.000000000000000000e+00,1.000000000000000000e+00,1.659825921058654674e-01,1.601426243782043402e-01,1.506596088409423717e-01,1.479188919067382924e-01,1.452760934829711859e-01,1.427260756492614857e-01,1.402640461921692006e-01,1.388555169105529785e-01,1.385316491127014105e-01,1.367145299911499134e-01,1.000000000000000000e+00,1.000000000000000000e+00,1.000000000000000000e+00,1.000000000000000000e+00,1.000000000000000000e+00,1.000000000000000000e+00,1.000000000000000000e+00,1.000000000000000000e+00,1.000000000000000000e+00,1.000000000000000000e+00,1.000000000000000000e+00,1.000000000000000000e+00,1.000000000000000000e+00,1.000000000000000000e+00,1.000000000000000000e+00,1.000000000000000000e+00,1.000000000000000000e+00,1.000000000000000000e+00,1.000000000000000000e+00,9.687822341918945757e-01,9.371008872985839844e-01,9.074260711669921431e-01,1.124328374862670898e-01,1.101426124572753851e-01,1.079438328742980957e-01,1.058311343193054227e-01,1.038016557693481473e-01,1.022273063659668024e-01,1.013579487800598117e-01
6.196631908416747603e-01,6.353806972503661665e-01,6.519163131713867632e-01,6.693355083465576394e-01,6.877112388610839844e-01,7.071243762969970925e-01,7.276654243469238281e-01,7.494355201721191184e-01,7.725484371185302734e-01,7.971323013305664507e-01,8.233322143554687722e-01,8.513129234313965288e-01,8.812623977661132590e-01,9.133958816528320312e-01,9.479614257812499778e-01,9.852460861206054910e-01,1.000000000000000000e+00,1.000000000000000000e+00,1.000000000000000000e+00,1.000000000000000000e+00,1.000000000000000000e+00,1.000000000000000000e+00,1.000000000000000000e+00,1.000000000000000000e+00,1.000000000000000000e+00,1.000000000000000000e+00,1.000000000000000000e+00,1.000000000000000000e+00,1.000000000000000000e+00,1.000000000000000000e+00,1.000000000000000000e+00,1.000000000000000000e+00,1.000000000000000000e+00,1.000000000000000000e+00,1.000000000000000000e+00,1.000000000000000000e+00,1.000000000000000000e+00,1.000000000000000000e+00,1.000000000000000000e+00,1.000000000000000000e+00,1.689190745353698619e-01,1.640199661254882757e-01,1.586060166358947698e-01,1.545126795768737848e-01,1.495750069618225209e-01,1.468732476234436146e-01,1.442673563957214411e-01,1.423458933830261119e-01,1.425153136253357045e-01,1.410983800888061523e-01,1.000000000000000000e+00,1.000000000000000000e+00,1.000000000000000000e+00,1.000000000000000000e+00,1.000000000000000000e+00,1.000000000000000000e+00,1.000000000000000000e+00,1.000000000000000000e+00,1.000000000000000000e+00,1.000000000000000000e+00,1.000000000000000000e+00,1.000000000000000000e+00,1.000000000000000000e+00,1.000000000000000000e+00,1.000000000000000000e+00,1.000000000000000000e+00,1.000000000000000000e+00,1.000000000000000000e+00,1.000000000000000000e+00,1.000000000000000000e+00,9.688105583190917969e-01,9.371273994445801225e-01,9.074509620666504350e-01,1.123600244522094671e-01,1.100775837898254339e-01,1.078860282897949191e-01,1.057800292968749944e-01,1.037546753883361872e-01,1.023072123527526828e-01,1.014353156089782687e-01
6.196499347686768022e-01,6.353668212890625222e-01,6.519016742706298384e-01,6.693201541900635210e-01,6.876950263977050781e-01,7.071071624755859153e-01,7.276472091674804910e-01,7.494161605834961382e-01,7.725278854370116743e-01,7.971104145050048606e-01,8.233089447021484375e-01,8.512879371643066184e-01,8.812355995178222656e-01,9.133671760559082253e-01,9.479306221008301225e-01,9.852128028869628906e-01,1.000000000000000000e+00,1.000000000000000000e+00,1.000000000000000000e+00,1.000000000000000000e+00,1.000000000000000000e+00,1.000000000000000000e+00,1.000000000000000000e+00,1.000000000000000000e+00,1.000000000000000000e+00,1.000000000000000000e+00,1.000000000000000000e+00,1.000000000000000000e+00,1.000000000000000000e+00,1.000000000000000000e+00,1.000000000000000000e+00,1.000000000000000000e+00,1.000000000000000000e+00,1.000000000000000000e+00,1.000000000000000000e+00,1.000000000000000000e+00,1.000000000000000000e+00,1.000000000000000000e+00,1.000000000000000000e+00,1.000000000000000000e+00,1.672742009162902777e-01,1.627424001693725530e-01,1.585336565971374456e-01,1.551426768302917591e-01,1.538068771362304799e-01,1.485059022903442438e-01,1.460162758827209528e-01,1.461945414543151800e-01,1.457726597785949652e-01,1.000000000000000000e+00,1.000000000000000000e+00,1.000000000000000000e+00,1.000000000000000000e+00,1.000000000000000000e+00,1.000000000000000000e+00,1.000000000000000000e+00,1.000000000000000000e+00,1.000000000000000000e+00,1.000000000000000000e+00,1.000000000000000000e+00,1.000000000000000000e+00,1.000000000000000000e+00,1.000000000000000000e+00,1.000000000000000000e+00,1.000000000000000000e+00,1.000000000000000000e+00,1.000000000000000000e+00,1.000000000000000000e+00,1.000000000000000000e+00,1.000000000000000000e+00,9.688388824462890181e-01,9.371539115905761497e-01,9.074757575988769975e-01,1.123208403587341309e-01,1.100247621536254855e-01,1.078352928161621094e-01,1.057312607765197726e-01,1.037077546119689886e-01,1.023872494697570801e-01,1.015139818191528320e-01
6.196367263793944868e-01,6.353528976440430132e-01,6.518870353698730247e-01,6.693047523498535378e-01,6.876787662506103072e-01,7.070900440216064675e-01,7.276290416717529075e-01,7.493969440460205300e-01,7.725073337554931863e-01,7.970885753631591353e-01,8.232855796813964844e-01,8.512630462646484375e-01,8.812089920043945090e-01,9.133384704589844194e-01,9.478996276855469194e-01,9.710276603698730913e-01,9.707872390747069868e-01,9.705469131469726118e-01,9.703068733215332031e-01,9.700667381286620650e-01,9.698268890380858931e-01,9.695870399475097212e-01,9.693473815917968972e-01,9.691077232360839622e-01,9.688682556152343750e-01,9.686290740966796431e-01,9.683897972106934038e-01,9.681507110595702903e-01,9.679117202758789062e-01,9.676728248596191406e-01,9.674341201782226118e-01,9.671955108642578125e-01,9.669569969177246316e-01,9.667185783386230691e-01,9.664802551269531250e-01,9.662421226501465288e-01,9.660040855407714400e-01,9.657661437988280806e-01,9.655283927917480691e-01,9.652907371520995650e-01,1.663293242454528809e-01,1.620168089866638184e-01,1.589627742767333873e-01,1.567154169082641546e-01,1.554277896881103571e-01,1.539572000503540150e-01,1.541390419006347656e-01,1.502570986747741588e-01,9.631567955017089622e-01,9.629202842712402122e-01,9.626838684082030806e-01,9.624475479125976785e-01,9.622114181518555132e-01,9.619753837585449663e-01,9.617394447326660378e-01,9.615036010742187278e-01,9.612678527832031472e-01,9.610322952270508035e-01,9.607967376708984597e-01,9.605614662170409712e-01,9.603261947631835938e-01,9.600911140441894531e-01,9.598560333251953125e-01,9.596211433410644087e-01,9.593863487243652344e-01,9.591517448425292969e-01,9.589171409606933594e-01,9.586827278137206587e-01,9.584484100341796875e-01,9.582141876220703347e-01,9.579800605773926003e-01,9.371804237365722878e-01,1.199397802352905329e-01,1.123196840286254938e-01,1.099720001220703125e-01,1.077846050262451227e-01,1.056825280189514216e-01,1.036608695983886747e-01,1.024674177169799805e-01,1.015927791595458984e-01
6.196235179901122825e-01,6.353390216827392578e-01,6.518724441528320757e-01,6.692893028259276900e-01,6.876624584197997825e-01,7.070728302001952903e-01,7.276108264923095703e-01,7.493775844573974387e-01,7.542513370513915794e-01,7.541062831878662109e-01,7.539613246917724609e-01,7.538163661956787109e-01,7.536715030670165794e-01,7.535266399383544478e-01,7.533818721771240456e-01,7.532371520996093972e-01,7.530925273895263672e-01,7.529479503631592019e-01,7.528033256530761719e-01,7.526588439941406250e-01,7.525143623352050781e-01,7.523700237274170144e-01,7.522256374359130859e-01,7.520813941955566406e-01,7.519372463226318137e-01,7.517930030822753684e-01,7.516489505767822710e-01,7.515048503875731978e-01,7.513608932495117188e-01,7.512168884277343750e-01,7.510730266571045144e-01,7.509292125701904075e-01,7.507853984832764116e-01,7.506417274475097878e-01,7.504980087280272993e-01,7.503544330596924050e-01,7.502108097076416460e-01,7.500673294067382590e-01,7.499239444732666016e-01,7.497805118560790794e-01,1.653209328651428223e-01,1.614460587501525823e-01,1.590122699737548939e-01,1.574188709259033148e-01,1.566506028175354004e-01,1.562014698982238659e-01,7.487782478332519753e-01,7.486353397369385210e-01,7.484923839569092019e-01,7.483495712280273660e-01,7.482068538665771484e-01,7.480640411376953125e-01,7.479214191436767134e-01,7.477787494659423606e-01,7.476362228393554910e-01,7.474936485290527566e-01,7.473512172698975053e-01,7.472088336944580078e-01,7.470664024353027566e-01,7.469241619110107422e-01,7.467818737030029741e-01,7.466396808624267134e-01,7.464974880218505637e-01,7.463554382324218972e-01,7.462134838104248491e-01,7.460714340209960715e-01,7.459295272827148882e-01,7.457876205444335938e-01,7.456458568572997825e-01,7.455040454864502175e-01,7.453623771667480247e-01,7.452207565307616965e-01,1.185662865638732882e-01,1.123185396194457952e-01,1.099192738533019964e-01,1.077339649200439453e-01,1.056338429450988797e-01,1.036140322685241699e-01,1.025476932525634793e-01,1.016716837882995633e-01
6.166961669921875444e-01,6.165992259979248269e-01,6.165022373199462447e-01,6.164053440093993919e-01,6.163084506988525391e-01,6.162116050720214400e-01,6.161147594451904519e-01,6.160180091857909712e-01,6.159212589263916016e-01,6.158245086669922319e-01,6.157278060913086160e-01,6.156311035156250000e-01,6.155344963073730025e-01,6.154378414154052512e-01,6.153413295745849831e-01,6.152447700500488503e-01,6.151482582092284712e-01,6.150517463684082031e-01,6.149552822113036887e-01,6.148588657379150391e-01,6.147624492645263894e-01,6.146661281585693581e-01,6.145698070526123269e-01,6.144734382629394309e-01,6.143772125244140181e-01,6.142809391021728516e-01,6.141847133636474387e-01,6.140885353088378906e-01,6.139923572540283425e-01,6.138962745666504128e-01,6.138001441955566184e-01,6.137041091918945535e-01,6.136080265045166238e-01,6.135120868682861772e-01,6.134160518646240012e-01,6.133201599121094194e-01,6.132242679595947266e-01,6.131283283233642800e-01,6.130325317382812056e-01,6.129366397857666238e-01,1.641061544418334905e-01,1.606929183006286510e-01,1.591754555702209473e-01,1.578253507614135742e-01,1.570174098014831543e-01,1.574667811393737904e-01,6.122667312622069868e-01,6.121711730957031250e-01,6.120755672454833984e-01,6.119800567626952903e-01,6.118845939636230469e-01,6.117890834808349387e-01,6.116936683654785600e-01,6.115982532501220703e-01,6.115028858184814453e-01,6.114075660705566850e-01,6.113121986389160600e-01,6.112169265747070535e-01,6.111216545104980469e-01,6.110264301300049050e-01,6.109312057495117632e-01,6.108360767364502397e-01,6.107409477233887163e-01,6.106458187103271928e-01,6.105507373809814231e-01,6.104556560516357644e-01,6.103606700897217241e-01,6.102656364440918191e-01,6.101706981658935325e-01,6.100758075714111106e-01,6.099808692932129350e-01,6.098860263824462669e-01,1.172238945960998591e-01,1.123173832893371582e-01,1.098666191101074219e-01,1.076833724975585910e-01,1.055852055549621610e-01,1.035672307014465360e-01,1.026280999183654813e-01,1.017507314682006836e-01
5.210205078124999778e-01,5.209512710571289062e-01,5.208820819854735884e-01,5.208128929138183816e-01,5.207437515258789285e-01,5.206745624542236106e-01,5.206054210662841575e-01,5.205363273620605691e-01,5.204671859741211160e-01,5.203981399536132812e-01,5.203290939331054465e-01,5.202600479125976118e-01,5.201910495758056419e-01,5.201220512390136719e-01,5.200530529022217019e-01,5.199841022491454856e-01,5.199151515960693803e-01,5.198462486267090288e-01,5.197772979736328125e-01,5.197084426879883257e-01,5.196395874023437278e-01,5.195706844329833762e-01,5.195018768310546431e-01,5.194330215454101562e-01,5.193642616271972878e-01,5.192954540252685547e-01,5.192266941070556863e-01,5.191579818725585715e-01,5.190892219543457031e-01,5.190205574035644531e-01,5.189518451690673384e-01,5.188831806182860884e-01,5.188145160675048384e-01,5.187458992004394531e-01,5.186772823333740678e-01,5.186086654663085715e-01,5.185400962829589400e-01,5.184715270996094194e-01,5.184030055999755415e-01,5.183344364166260210e-01,1.630000114440917913e-01,1.604699015617370716e-01,1.591645002365112416e-01,1.580916881561279241e-01,1.574972033500671442e-01,1.584793686866760309e-01,5.178552627563476340e-01,5.177868843078613503e-01,5.177185535430908203e-01,5.176501750946045366e-01,5.175818920135497603e-01,5.175135612487793413e-01,5.174452781677245650e-01,5.173769950866698997e-01,5.173087596893310991e-01,5.172405242919921875e-01,5.171722888946532759e-01,5.171041011810302290e-01,5.170358657836914285e-01,5.169677257537841353e-01,5.168996334075928178e-01,5.168314456939697710e-01,5.167633533477783425e-01,5.166952610015869141e-01,5.166272163391113503e-01,5.165591239929199219e-01,5.164910793304443581e-01,5.164230823516845481e-01,5.163550376892089844e-01,5.162870883941650391e-01,5.162190914154052290e-01,5.161511898040771484e-01,1.159115552902221652e-01,1.123162269592285212e-01,1.098140001296997043e-01,1.076328277587890597e-01,1.055366158485412653e-01,1.036026477813720703e-01,1.027086257934570340e-01,1.018298864364624023e-01
4.510444164276122825e-01,4.509925365447998158e-01,4.509406566619872936e-01,4.508888244628906361e-01,4.508369922637939231e-01,4.507851123809814564e-01,4.507333278656006081e-01,4.506814956665038951e-01,4.506297111511230469e-01,4.505779266357421986e-01,4.505261898040771595e-01,4.504744052886963113e-01,4.504226684570312722e-01,4.503709316253662331e-01,4.503191947937011941e-01,4.502675056457519642e-01,4.502158164978027344e-01,4.501641273498535045e-01,4.501124858856201394e-01,4.500607967376709095e-01,4.500091552734374889e-01,4.499575138092041238e-01,4.499058723449707031e-01,4.498542308807372825e-01,4.498026847839355358e-01,4.497510910034179799e-01,4.496994972229003684e-01,4.496479511260986217e-01,4.495963573455810658e-01,4.495448112487793191e-01,4.494932651519775169e-01,4.494417667388915794e-01,4.493902683258056419e-01,4.493387699127197044e-01,4.492873191833496316e-01,4.492358207702636941e-01,4.491843700408935658e-01,4.491328716278076283e-01,4.490814685821533092e-01,4.490300655364990456e-01,1.620327234268188477e-01,1.602452397346496582e-01,1.592890977859497126e-01,1.585219025611877552e-01,1.582671284675598034e-01,1.592492103576660101e-01,4.486703872680664062e-01,4.486190319061279519e-01,4.485677242279052512e-01,4.485164165496826061e-01,4.484651565551757701e-01,4.484138488769531250e-01,4.483625888824462891e-01,4.483113288879394531e-01,4.482600688934326172e-01,4.482088088989257812e-01,4.481575965881347545e-01,4.481063842773437278e-01,4.480551719665527566e-01,4.480040073394775391e-01,4.479528427124023215e-01,4.479016304016113503e-01,4.478505134582519420e-01,4.477993488311767800e-01,4.477482318878173717e-01,4.476971149444580189e-01,4.476459980010986106e-01,4.475948810577392578e-01,4.475438117980957142e-01,4.474927425384521706e-01,4.474416732788085715e-01,4.473906040191650280e-01,1.150026321411132812e-01,1.123150706291198703e-01,1.097614407539367620e-01,1.075823307037353516e-01,1.054880619049072266e-01,1.036847233772277832e-01,1.027892947196960421e-01,1.019091725349426242e-01
3.976391792297363503e-01,3.975988388061523215e-01,3.975585699081420898e-01,3.975182533264159934e-01,3.974779367446899525e-01,3.974376440048217884e-01,3.973973512649536244e-01,3.973571062088012695e-01,3.973168373107910378e-01,3.972765684127807506e-01,3.972362995147705189e-01,3.971961021423339733e-01,3.971558570861816184e-01,3.971156358718871959e-01,3.970754146575927734e-01,3.970351934432983509e-01,3.969950199127197377e-01,3.969548225402831920e-01,3.969146728515625111e-01,3.968744754791259655e-01,3.968343019485473522e-01,3.967941284179687389e-01,3.967540264129638672e-01,3.967138767242431863e-01,3.966737270355224498e-01,3.966336488723755105e-01,3.965934991836547741e-01,3.965533971786499023e-01,3.965132713317870983e-01,3.964732170104980358e-01,3.964331150054931641e-01,3.963930368423461692e-01,3.963530063629150391e-01,3.963129281997680442e-01,3.962728738784789817e-01,3.962328195571899192e-01,3.961928129196167214e-01,3.961527585983276589e-01,3.961127281188964733e-01,3.960727691650390847e-01,1.604126930236816351e-01,1.597749352455139216e-01,1.593859910964965931e-01,1.590620875358581543e-01,1.590628385543823298e-01,1.600734472274780162e-01,3.957929134368896595e-01,3.957529544830322155e-01,3.957129955291748269e-01,3.956730604171753152e-01,3.956331729888916127e-01,3.955932378768921009e-01,3.955533266067504661e-01,3.955134630203246959e-01,3.954735517501831166e-01,3.954336643218994141e-01,3.953937768936157116e-01,3.953539371490478738e-01,3.953140735626220481e-01,3.952742099761962780e-01,3.952343940734863170e-01,3.951945543289184792e-01,3.951547145843505859e-01,3.951148748397826926e-01,3.950751066207885964e-01,3.950352907180786355e-01,3.949954748153686745e-01,3.949557304382323997e-01,3.949159383773803711e-01,3.948761463165283425e-01,3.948363780975341908e-01,3.947966575622558483e-01,1.150014162063598688e-01,1.123139142990112332e-01,1.097491621971130316e-01,1.075318813323974665e-01,1.054395556449890109e-01,1.037669181823730469e-01,1.028700709342956487e-01,1.019885778427123968e-01
3.555417537689208873e-01,3.555095672607421764e-01,3.554773092269897239e-01,3.554450750350952037e-01,3.554128646850586160e-01,3.553806304931640403e-01,3.553484678268432617e-01,3.553162574768066184e-01,3.552840471267700306e-01,3.552518367767333873e-01,3.552196979522704856e-01,3.551875114440917747e-01,3.551553249359130637e-01,3.551231622695922852e-01,3.550910234451293834e-01,3.550588607788086049e-01,3.550266981124877708e-01,3.549945592880249245e-01,3.549623966217040905e-01,3.549303054809570535e-01,3.548981666564941517e-01,3.548660755157470592e-01,3.548339605331420898e-01,3.548018217086791881e-01,3.547697305679321511e-01,3.547376632690429910e-01,3.547055482864379661e-01,3.546734571456909291e-01,3.546414136886596458e-01,3.546093225479126088e-01,3.545772552490234486e-01,3.545451879501342884e-01,3.545131444931030051e-01,3.544811010360717773e-01,3.544490337371826172e-01,3.544170379638671986e-01,3.543849945068359153e-01,3.543529510498046875e-01,3.543209314346313366e-01,3.542889356613159180e-01,1.600178599357605091e-01,1.592852234840393122e-01,1.594205975532531627e-01,1.594163417816162054e-01,1.595898866653442383e-01,1.607382893562316895e-01,3.540649890899658092e-01,3.540330171585083230e-01,3.540010452270507812e-01,3.539691209793091042e-01,3.539371490478515625e-01,3.539052009582519531e-01,3.538732528686523438e-01,3.538413524627685436e-01,3.538094043731689342e-01,3.537774801254272572e-01,3.537455797195434570e-01,3.537136554718017800e-01,3.536817550659179799e-01,3.536498308181762473e-01,3.536179780960083119e-01,3.535860776901245117e-01,3.535541772842407116e-01,3.535223484039306530e-01,3.534904479980468528e-01,3.534585714340209850e-01,3.534267187118530495e-01,3.533948898315429910e-01,3.533630371093750000e-01,3.533311843872070090e-01,3.532993793487548828e-01,3.532675266265868919e-01,1.150002121925353948e-01,1.123127698898315485e-01,1.097480654716491699e-01,1.074814796447753906e-01,1.053910970687866183e-01,1.038492560386657659e-01,1.029509782791137723e-01,1.020681023597717341e-01
3.215046405792236217e-01,3.214782714843750222e-01,3.214519023895263672e-01,3.214255571365356445e-01,3.213992118835449219e-01,3.213728666305541992e-01,3.213465213775634766e-01,3.213201761245727539e-01,3.212938547134399636e-01,3.212675571441650502e-01,3.212412118911743275e-01,3.212148904800414817e-01,3.211885690689086914e-01,3.211622953414917103e-01,3.211359739303588645e-01,3.211096763610840066e-01,3.210833787918090931e-01,3.210570812225341797e-01,3.210308074951171986e-01,3.210045099258422852e-01,3.209782361984253041e-01,3.209519624710083230e-01,3.209257125854492188e-01,3.208994388580322377e-01,3.208731651306152566e-01,3.208469390869140847e-01,3.208206653594970481e-01,3.207944154739379994e-01,3.207681894302368275e-01,3.207419633865356556e-01,3.207157135009765514e-01,3.206894636154175027e-01,3.206632614135742076e-01,3.206370353698730358e-01,3.206108093261718639e-01,3.205846309661865012e-01,3.205584049224853294e-01,3.205322027206420898e-01,3.205060005187988503e-01,3.204798221588134877e-01,1.597078084945678655e-01,1.588579416275024414e-01,1.594085097312927246e-01,1.595920920372009277e-01,1.600381493568420466e-01,1.612235784530639537e-01,3.202965736389160045e-01,3.202703952789306419e-01,3.202442407608032116e-01,3.202181100845337136e-01,3.201919555664062278e-01,3.201658010482787975e-01,3.201396465301513672e-01,3.201135396957397461e-01,3.200874090194701926e-01,3.200612783432006947e-01,3.200351715087890736e-01,3.200090408325195201e-01,3.199829101562500222e-01,3.199568033218384011e-01,3.199307203292846569e-01,3.199046134948730358e-01,3.198785066604614147e-01,3.198524236679077259e-01,3.198263406753539817e-01,3.198002338409423606e-01,3.197741508483886719e-01,3.197480916976928600e-01,3.197220087051391713e-01,3.196959495544433594e-01,3.196698904037475475e-01,3.196438312530517356e-01,1.149990081787109347e-01,1.123116135597228976e-01,1.097469687461853083e-01,1.074311137199401855e-01,1.053426742553710965e-01,1.039317131042480497e-01,1.030320167541503851e-01,1.021475434303283636e-01
2.934150695800781250e-01,2.933930873870849720e-01,2.933711290359496959e-01,2.933492183685302845e-01,2.933272600173950084e-01,2.933053016662597878e-01,2.932833671569824441e-01,2.932614326477051003e-01,2.932394981384277566e-01,2.932175636291504128e-01,2.931956529617309459e-01,2.931737184524536022e-01,2.931518077850341908e-01,2.931298971176147239e-01,2.931079626083373801e-01,2.930860519409179688e-01,2.930641412734985574e-01,2.930422544479370228e-01,2.930203676223754883e-01,2.929984569549560769e-01,2.929765462875366100e-01,2.929546833038330078e-01,2.929327964782714733e-01,2.929109096527099387e-01,2.928890228271484597e-01,2.928671360015869252e-01,2.928452730178833230e-01,2.928234100341796653e-01,2.928015470504760631e-01,2.927796840667724609e-01,2.927578210830688588e-01,2.927359819412231334e-01,2.927141189575195312e-01,2.926922559738159291e-01,2.926704168319702037e-01,2.926486015319824108e-01,2.926267385482788086e-01,2.926048994064330833e-01,2.925830841064452903e-01,2.925612449645996205e-01,2.925394058227538951e-01,1.580974459648132324e-01,1.589263677597045898e-01,1.596014618873596302e-01,1.605762004852294977e-01,1.616278648376464899e-01,1.648185968399047963e-01,2.923867225646972767e-01,2.923649072647094838e-01,2.923431396484375000e-01,2.923213481903076394e-01,2.922995328903198464e-01,2.922777652740478627e-01,2.922559738159179465e-01,2.922341823577880859e-01,2.922124147415161022e-01,2.921906471252441184e-01,2.921688795089721902e-01,2.921471118927002064e-01,2.921253442764282227e-01,2.921035766601562389e-01,2.920818090438842551e-01,2.920600652694702037e-01,2.920383214950561523e-01,2.920165777206421009e-01,2.919948101043701172e-01,2.919730901718139426e-01,2.919513463973998912e-01,2.919296026229858398e-01,2.919078588485717884e-01,2.918861627578735463e-01,2.918644189834594949e-01,1.149978041648864746e-01,1.123104691505432129e-01,1.097458720207214328e-01,1.073808193206787082e-01,1.052943110466003362e-01,1.040143132209777888e-01,1.031131863594055148e-01,1.022178173065185491e-01
2.698394060134887695e-01,2.698208332061767800e-01,2.698022842407226674e-01,2.697837352752685547e-01,2.697651624679565652e-01,2.697465896606445201e-01,2.697280406951904075e-01,2.697094917297363503e-01,2.696909427642822377e-01,2.696723937988281250e-01,2.696538448333740123e-01,2.696353197097778320e-01,2.696167707443237194e-01,2.695982217788696067e-01,2.695796728134155495e-01,2.695611476898193137e-01,2.695426225662231334e-01,2.695240974426269531e-01,2.695055723190307728e-01,2.694870471954345925e-01,2.694685459136962891e-01,2.694500207901001088e-01,2.694314956665039285e-01,2.694129705429076926e-01,2.693944931030273215e-01,2.693759679794311412e-01,2.693574666976928933e-01,2.693389654159545898e-01,2.693204402923584095e-01,2.693019628524780384e-01,2.692834615707397350e-01,2.692649841308593639e-01,2.692465066909789928e-01,2.692280054092407449e-01,2.692095279693603738e-01,2.691910505294800027e-01,2.691725730895996316e-01,2.691540956497192605e-01,2.691356182098388894e-01,2.691171407699585183e-01,2.690986633300781472e-01,1.578901052474975530e-01,1.584091186523437500e-01,1.595550775527954102e-01,1.608525514602661133e-01,1.620666503906250111e-01,1.629820823669433649e-01,2.689694643020629772e-01,2.689510107040405384e-01,2.689325809478759766e-01,2.689141273498535378e-01,2.688956737518310436e-01,2.688772678375244141e-01,2.688588142395019753e-01,2.688403844833374134e-01,2.688219308853149192e-01,2.688035249710082897e-01,2.687850952148437278e-01,2.687666654586792214e-01,2.687482595443725364e-01,2.687298297882080300e-01,2.687114238739013450e-01,2.686929941177368386e-01,2.686746120452880859e-01,2.686561822891235241e-01,2.686377763748168945e-01,2.686193943023681419e-01,2.686009883880615123e-01,2.685825824737548828e-01,2.685641765594482533e-01,2.685457944869995006e-01,2.685274124145508035e-01,1.149966001510620145e-01,1.123093247413635282e-01,1.097447514533996527e-01,1.073305487632751493e-01,1.052459836006164606e-01,1.040970444679260309e-01,1.031937599182128906e-01,1.022881746292114286e-01
2.497705698013305553e-01,2.497546911239623968e-01,2.497387647628784291e-01,2.497228622436523382e-01,2.497069597244262751e-01,2.496910572052001842e-01,2.496751546859741211e-01,2.496592521667480580e-01,2.496433734893798717e-01,2.496274709701538086e-01,2.496115922927856501e-01,2.495956897735595592e-01,2.495798110961914007e-01,2.495639085769653376e-01,2.495480537414550837e-01,2.495321512222289928e-01,2.495162725448608343e-01,2.495003938674926758e-01,2.494845151901245173e-01,2.494686603546142634e-01,2.494527816772461049e-01,2.494369029998779186e-01,2.494210243225097601e-01,2.494051933288574108e-01,2.493893146514892523e-01,2.493734598159789984e-01,2.493575811386108398e-01,2.493417263031005859e-01,2.493258953094482366e-01,2.493100166320800781e-01,2.492941617965698242e-01,2.492783069610595703e-01,2.492624759674072210e-01,2.492466449737548717e-01,2.492307901382446178e-01,2.492149591445922963e-01,2.491991281509399470e-01,2.491832733154296931e-01,2.491674661636352484e-01,2.491516113281249944e-01,2.491357803344726451e-01,1.589915633201599010e-01,1.584660768508911188e-01,1.589636325836181752e-01,1.600104689598083607e-01,1.621086955070495661e-01,1.625800490379333552e-01,2.490250349044799694e-01,2.490092039108276478e-01,2.489934206008911077e-01,2.489775896072387584e-01,2.489617824554443415e-01,2.489459991455078014e-01,2.489301919937133845e-01,2.489143848419189398e-01,2.488985776901245228e-01,2.488827943801879827e-01,2.488669872283935658e-01,2.488511800765991211e-01,2.488353967666626088e-01,2.488196134567260687e-01,2.488038301467895563e-01,2.487880468368530162e-01,2.487722635269165039e-01,2.487564802169799916e-01,2.487406969070434515e-01,2.487249135971069391e-01,2.487091302871703991e-01,2.486933708190917913e-01,2.486776113510131836e-01,2.486618280410766713e-01,2.486460447311401312e-01,1.149953961372375544e-01,1.123081684112548773e-01,1.097436547279357910e-01,1.072936654090881348e-01,1.051977038383483942e-01,1.041798949241638239e-01,1.032654762268066378e-01,1.023586392402648926e-01
2.324802875518798828e-01,2.324665069580078014e-01,2.324527025222778431e-01,2.324389219284057617e-01,2.324251651763916127e-01,2.324113845825195312e-01,2.323976039886474498e-01,2.323838233947753962e-01,2.323700428009033148e-01,2.323562860488891657e-01,2.323425292968749889e-01,2.323287487030029352e-01,2.323149919509887584e-01,2.323012351989746094e-01,2.322874546051025280e-01,2.322736978530883789e-01,2.322599411010742299e-01,2.322461843490600530e-01,2.322324275970459040e-01,2.322186708450317272e-01,2.322049140930175781e-01,2.321911573410034291e-01,2.321774244308471569e-01,2.321636676788330078e-01,2.321499347686767634e-01,2.321361780166625866e-01,2.321224212646484375e-01,2.321087121963500977e-01,2.320949554443359486e-01,2.320812225341796764e-01,2.320674896240234319e-01,2.320537567138671875e-01,2.320400238037109431e-01,2.320262908935546986e-01,2.320125579833984264e-01,2.319988250732421819e-01,2.319850921630859375e-01,2.319713830947875977e-01,2.319576740264892578e-01,2.319439411163330134e-01,2.319302082061767689e-01,2.319164991378784291e-01,2.319027900695800892e-01,1.593020081520080677e-01,1.601108908653259277e-01,1.621653795242309626e-01,1.635553479194641058e-01,2.318342208862304576e-01,2.318205356597900502e-01,2.318068265914917103e-01,2.317931175231933705e-01,2.317794084548950306e-01,2.317657232284545954e-01,2.317520141601562556e-01,2.317383050918579157e-01,2.317246437072753851e-01,2.317109346389770452e-01,2.316972494125366100e-01,2.316835403442382701e-01,2.316698789596557673e-01,2.316561937332153320e-01,2.316424846649169922e-01,2.316288232803344616e-01,2.316151380538940541e-01,2.316014528274536188e-01,2.315877676010131836e-01,2.315741062164306530e-01,2.315604209899902455e-01,2.315467357635498102e-01,2.315330743789672796e-01,2.315194129943847767e-01,2.315057277679443415e-01,1.149941802024841281e-01,1.123070240020751925e-01,1.097425580024719294e-01,1.072926163673400823e-01,1.051842927932739313e-01,1.042616128921508845e-01,1.033372879028320312e-01,1.024291992187500028e-01
2.174288034439086914e-01,2.174167633056640625e-01,2.174046993255615290e-01,2.173926591873169001e-01,2.173805952072143666e-01,2.173685550689697377e-01,2.173564910888671764e-01,2.173444271087646429e-01,2.173324108123779186e-01,2.173203468322753851e-01,2.173083066940307562e-01,2.172962665557861273e-01,2.172842264175414984e-01,2.172721862792968694e-01,2.172601461410522405e-01,2.172481060028076116e-01,2.172360658645629827e-01,2.172240495681762584e-01,2.172120094299316295e-01,2.171999692916870006e-01,2.171879291534423717e-01,2.171759128570556752e-01,2.171638727188110463e-01,2.171518564224243220e-01,2.171398162841796931e-01,2.171277999877929688e-01,2.171157836914062444e-01,2.171037673950195201e-01,2.170917272567748912e-01,2.170797109603881947e-01,2.170677185058593750e-01,2.170556783676147461e-01,2.170436620712280218e-01,2.170316457748412975e-01,2.170196533203125056e-01,2.170076370239257812e-01,2.169956207275390569e-01,2.169836044311523326e-01,2.169716119766235407e-01,2.169596195220947210e-01,2.169476032257079967e-01,2.169355869293213002e-01,2.169235944747924805e-01,2.169116020202636608e-01,1.620135068893432673e-01,1.621347904205322210e-01,1.638131260871887318e-01,2.168636083602905329e-01,2.168516397476196178e-01,2.168396234512329213e-01,2.168276309967041016e-01,2.168156385421752819e-01,2.168036699295043945e-01,2.167916774749755748e-01,2.167796850204467829e-01,2.167677164077758678e-01,2.167557239532470759e-01,2.167437553405761608e-01,2.167317628860473688e-01,2.167197942733764537e-01,2.167078018188476618e-01,2.166958332061767467e-01,2.166838645935058594e-01,2.166718959808349720e-01,2.166599035263061523e-01,2.166479587554931696e-01,2.166359901428222545e-01,2.166239976882934626e-01,2.166120290756225475e-01,2.166000843048095648e-01,2.165881156921386774e-01,2.165761470794677623e-01,2.165642023086547796e-01,1.153827190399169950e-01,1.097414612770080539e-01,1.072915673255920438e-01,1.052688837051391629e-01,1.043348193168640164e-01,1.034091949462890569e-01,1.024998426437377930e-01
2.042078018188476507e-01,2.041971445083618220e-01,2.041865348815918024e-01,2.041759014129638783e-01,2.041652679443359264e-01,2.041546344757080023e-01,2.041440010070800781e-01,2.041333675384521540e-01,2.041227579116821345e-01,2.041121244430542103e-01,2.041014909744262584e-01,2.040908813476562389e-01,2.040802478790283148e-01,2.040696382522582952e-01,2.040590047836303711e-01,2.040483713150024470e-01,2.040377616882324274e-01,2.040271520614624079e-01,2.040165424346923884e-01,2.040059089660644642e-01,2.039953231811523493e-01,2.039846897125244252e-01,2.039740800857544056e-01,2.039634704589843861e-01,2.039528608322143666e-01,2.039422512054443470e-01,2.039316415786743275e-01,2.039210319519043080e-01,2.039104223251342884e-01,2.038998365402221735e-01,2.038892269134521540e-01,2.038786172866821345e-01,2.038680315017700195e-01,2.038574457168579046e-01,2.038468360900878851e-01,2.038362264633178655e-01,2.038256406784057506e-01,2.038150310516357311e-01,2.038044452667236439e-01,2.037938594818115290e-01,2.037832736968994141e-01,2.037726640701293945e-01,2.037621021270751842e-01,2.037514925003051647e-01,2.037409067153930775e-01,2.037303209304809626e-01,2.037197351455688477e-01,2.037091493606567327e-01,2.036985874176025502e-01,2.036880016326904352e-01,2.036774158477783203e-01,2.036668539047241100e-01,2.036562681198120228e-01,2.036456823348999079e-01,2.036350965499877930e-01,2.036245346069335826e-01,2.036139726638794001e-01,2.036033868789672852e-01,2.035928249359130748e-01,2.035822391510009877e-01,2.035716772079467773e-01,2.035611152648925670e-01,2.035505533218383845e-01,2.035399913787841741e-01,2.035294055938720592e-01,2.035188674926757812e-01,2.035082817077636663e-01,2.034977197647094838e-01,2.034871578216552734e-01,2.034766197204589955e-01,2.034660577774047852e-01,2.034554958343505748e-01,2.034449338912963923e-01,1.150346755981445368e-01,1.120880365371704074e-01,1.072905182838439914e-01,1.053518176078796359e-01,1.044081330299377469e-01,1.034812092781066950e-01,1.025705933570861816e-01
1.925024509429931752e-01,1.924930214881896973e-01,1.924835681915283148e-01,1.924741148948669323e-01,1.924646615982055775e-01,1.924552202224731334e-01,1.924457669258117787e-01,1.924363136291503962e-01,1.924268722534179799e-01,1.924174308776855358e-01,1.924080014228820856e-01,1.923985600471496693e-01,1.923891186714172252e-01,1.923796772956848089e-01,1.923702359199523926e-01,1.923607945442199763e-01,1.923513531684875599e-01,1.923419237136840820e-01,1.923324823379516657e-01,1.923230648040771540e-01,1.923136353492736761e-01,1.923041939735412598e-01,1.922947645187377819e-01,1.922853350639343317e-01,1.922759056091308538e-01,1.922664642333984375e-01,1.922570347785949596e-01,1.922476053237915095e-01,1.922381997108459362e-01,1.922287821769714244e-01,1.922193527221679743e-01,1.922099232673644964e-01,1.922005057334899847e-01,1.921910762786865345e-01,1.921816587448120228e-01,1.921722292900085449e-01,1.921628117561340332e-01,1.921534180641174261e-01,1.921440005302429144e-01,1.921345829963684027e-01,1.921251654624938909e-01,1.921157479286193792e-01,1.921063303947448675e-01,1.920969128608703558e-01,1.920875072479248102e-01,1.920781135559082031e-01,1.920686960220336914e-01,1.920592904090881459e-01,1.920498847961425726e-01,1.920404672622680609e-01,1.920310616493225153e-01,1.920216798782348744e-01,1.920122742652893011e-01,1.920028686523437556e-01,1.919934630393981823e-01,1.919840574264526367e-01,1.919746637344360296e-01,1.919652581214904841e-01,1.919558763504028431e-01,1.919464826583862360e-01,1.919370770454406627e-01,1.919276833534240834e-01,1.919182896614074763e-01,1.919088840484619030e-01,1.918994903564453236e-01,1.918901205062866211e-01,1.918807268142700140e-01,1.918713331222534069e-01,1.918619394302368275e-01,1.918525576591491588e-01,1.918431639671325795e-01,1.918337821960449108e-01,1.918244123458862360e-01,1.142496109008789007e-01,1.112807512283325168e-01,1.092028975486755427e-01,1.070268273353576632e-01,1.059874773025512723e-01,1.050727605819702093e-01,1.041552662849426214e-01
