6.200302600860595481e-01,6.357666969299315962e-01,6.523213863372803178e-01,6.697608470916748269e-01,6.881584167480468972e-01,7.075953006744384322e-01,7.281620502471923828e-01,7.499601364135741743e-01,7.731036186218261941e-01,7.977210044860839622e-01,8.239576339721679243e-01,8.519788742065429465e-01,8.819729804992675337e-01,9.141561508178710493e-01,9.487769126892089400e-01,9.861232757568358931e-01,1.000000000000000000e+00,1.000000000000000000e+00,1.000000000000000000e+00,1.000000000000000000e+00,1.000000000000000000e+00,1.000000000000000000e+00,1.000000000000000000e+00,1.000000000000000000e+00,2.286229848861694447e-01,2.248053312301635798e-01,2.251703977584838812e-01,2.284554958343505970e-01,1.000000000000000000e+00,2.189230203628539928e-01,2.134431123733520619e-01,2.092982769012451116e-01,2.062530517578125000e-01,2.029981136322021595e-01,2.028879165649414007e-01,2.033782005310058594e-01,2.038851022720336859e-01,2.045784711837768666e-01,2.102243423461914174e-01,2.390662908554077037e-01,2.402017116546630859e-01,2.487767934799194336e-01,1.000000000000000000e+00,1.000000000000000000e+00,1.000000000000000000e+00,2.690977096557617410e-01,2.645867824554443137e-01,2.505297660827636719e-01,2.518242359161376731e-01,1.000000000000000000e+00,1.000000000000000000e+00,1.000000000000000000e+00,1.000000000000000000e+00,1.000000000000000000e+00,1.000000000000000000e+00,1.000000000000000000e+00,1.000000000000000000e+00,1.000000000000000000e+00,1.000000000000000000e+00,1.000000000000000000e+00,1.000000000000000000e+00,1.000000000000000000e+00,1.000000000000000000e+00,1.000000000000000000e+00,1.000000000000000000e+00,1.000000000000000000e+00,1.000000000000000000e+00,1.000000000000000000e+00,1.000000000000000000e+00,1.000000000000000000e+00,9.681484222412108931e-01,9.364843368530273438e-01,9.068455696105957031e-01,8.790274620056152122e-01,8.528653144836425559e-01,8.282155036926269753e-01,8.049505233764648882e-01,7.829567909240722212e-01,7.621330738067626509e-01,7.423882961273193803e-01
6.200170040130614790e-01,6.357527256011963335e-01,6.523080348968506303e-01,6.697470664978026900e-01,6.881438732147217019e-01,7.075798511505126953e-01,7.281457901000976118e-01,7.499428749084472434e-01,7.730852603912353738e-01,7.977014064788818803e-01,8.239367485046387163e-01,8.519564628601073997e-01,8.819490432739257590e-01,9.141304016113280806e-01,9.487492561340331587e-01,9.860934257507324441e-01,1.000000000000000000e+00,1.000000000000000000e+00,1.000000000000000000e+00,1.000000000000000000e+00,1.000000000000000000e+00,1.000000000000000000e+00,1.000000000000000000e+00,1.000000000000000000e+00,2.296628952026367188e-01,2.237142324447631836e-01,2.240046739578246959e-01,1.000000000000000000e+00,1.000000000000000000e+00,2.205965757369995062e-01,2.150336265563964899e-01,2.099709272384643610e-01,2.069345712661743164e-01,2.036582469940185491e-01,2.021023988723754938e-01,2.025888919830322321e-01,2.030777215957641491e-01,2.035751104354858454e-01,2.067984342575073242e-01,2.176943063735961859e-01,2.398317813873291071e-01,2.480171918869018555e-01,1.000000000000000000e+00,1.000000000000000000e+00,1.000000000000000000e+00,1.000000000000000000e+00,1.000000000000000000e+00,2.501313209533691517e-01,2.461121320724487249e-01,2.512507677078247292e-01,1.000000000000000000e+00,1.000000000000000000e+00,1.000000000000000000e+00,1.000000000000000000e+00,1.000000000000000000e+00,1.000000000000000000e+00,1.000000000000000000e+00,1.000000000000000000e+00,1.000000000000000000e+00,1.000000000000000000e+00,1.000000000000000000e+00,1.000000000000000000e+00,1.000000000000000000e+00,1.000000000000000000e+00,1.000000000000000000e+00,1.000000000000000000e+00,1.000000000000000000e+00,1.000000000000000000e+00,1.000000000000000000e+00,1.000000000000000000e+00,9.681488037109374778e-01,9.365082740783691184e-01,9.068703651428222656e-01,8.790508270263671653e-01,8.528872489929198997e-01,8.282361984252929465e-01,8.049699783325194868e-01,7.829753398895263894e-01,7.621506214141845481e-01,7.424049377441406250e-01
6.200037002563476562e-01,6.357387542724609597e-01,6.522933483123779519e-01,6.697330951690674272e-01,6.881293296813965066e-01,7.075644969940185769e-01,7.281294822692870872e-01,7.499256134033203125e-01,7.730669021606445535e-01,7.976818561553955522e-01,8.239159584045410156e-01,8.519342422485352007e-01,8.819252014160156028e-01,9.141047477722168413e-01,9.487216949462891069e-01,9.860635757446288840e-01,1.000000000000000000e+00,1.000000000000000000e+00,1.000000000000000000e+00,1.000000000000000000e+00,1.000000000000000000e+00,1.000000000000000000e+00,1.000000000000000000e+00,1.000000000000000000e+00,2.267564773559570257e-01,2.218472003936767523e-01,2.214859724044799805e-01,2.224418163299560491e-01,1.000000000000000000e+00,1.000000000000000000e+00,2.166480302810668834e-01,2.112800121307372991e-01,2.076205968856811579e-01,2.043226957321166992e-01,2.013229131698608398e-01,2.018056631088256947e-01,2.022907257080078236e-01,2.027781009674072266e-01,2.034272909164428766e-01,2.137355089187621959e-01,2.402318716049194336e-01,2.493893623352050892e-01,1.000000000000000000e+00,1.000000000000000000e+00,1.000000000000000000e+00,1.000000000000000000e+00,1.000000000000000000e+00,2.632151842117309570e-01,2.452762842178344838e-01,2.511765718460082786e-01,2.485510110855102539e-01,1.000000000000000000e+00,1.000000000000000000e+00,1.000000000000000000e+00,1.000000000000000000e+00,1.000000000000000000e+00,1.000000000000000000e+00,1.000000000000000000e+00,1.000000000000000000e+00,1.000000000000000000e+00,1.000000000000000000e+00,1.000000000000000000e+00,1.000000000000000000e+00,1.000000000000000000e+00,1.000000000000000000e+00,1.000000000000000000e+00,1.000000000000000000e+00,1.000000000000000000e+00,1.000000000000000000e+00,1.000000000000000000e+00,9.681771278381348100e-01,9.365346908569336382e-01,9.068951606750488281e-01,8.790740966796875000e-01,8.529092788696288618e-01,8.282568931579590288e-01,8.049895286560058150e-01,7.829937934875488281e-01,7.621681213378905806e-01,7.424215316772461160e-01
6.199903488159179688e-01,6.357247352600097212e-01,6.522785663604736550e-01,6.697175025939940962e-01,6.881145954132079634e-01,7.075491428375244585e-01,7.281131744384765625e-01,7.499083518981933816e-01,7.730485439300537331e-01,7.976623535156249778e-01,8.238950729370116965e-01,8.519119262695312722e-01,8.819012641906738281e-01,9.140790939331054910e-01,9.486939430236815962e-01,9.860337257385254350e-01,1.000000000000000000e+00,1.000000000000000000e+00,1.000000000000000000e+00,1.000000000000000000e+00,1.000000000000000000e+00,1.000000000000000000e+00,1.000000000000000000e+00,1.000000000000000000e+00,2.254241943359374944e-01,2.202393054962158148e-01,2.200265407562255748e-01,2.213306427001953125e-01,2.226391792297363337e-01,1.000000000000000000e+00,2.180943012237548939e-01,2.128383398056030162e-01,2.082988739013671986e-01,2.049914836883544866e-01,2.018631458282470759e-01,2.005620241165161077e-01,2.010216951370239202e-01,2.014834642410278376e-01,2.019474029541015736e-01,2.099181175231933649e-01,2.412453413009643666e-01,2.509993314743041992e-01,1.000000000000000000e+00,1.000000000000000000e+00,1.000000000000000000e+00,1.000000000000000000e+00,1.000000000000000000e+00,1.000000000000000000e+00,2.614870071411132812e-01,2.558924674987793080e-01,2.470569133758545033e-01,1.000000000000000000e+00,1.000000000000000000e+00,1.000000000000000000e+00,1.000000000000000000e+00,1.000000000000000000e+00,1.000000000000000000e+00,1.000000000000000000e+00,1.000000000000000000e+00,1.000000000000000000e+00,1.000000000000000000e+00,1.000000000000000000e+00,1.000000000000000000e+00,1.000000000000000000e+00,1.000000000000000000e+00,1.000000000000000000e+00,1.000000000000000000e+00,1.000000000000000000e+00,1.000000000000000000e+00,1.000000000000000000e+00,9.682053565979004128e-01,9.365612030029296653e-01,9.069199562072753906e-01,8.790974617004394531e-01,8.529312133789062056e-01,8.282775878906250000e-01,8.050090789794921431e-01,7.830123424530028853e-01,7.621857166290283425e-01,7.424381256103516069e-01
6.199770450592041460e-01,6.357107639312744585e-01,6.522638320922851118e-01,6.697020053863524947e-01,6.880982398986816850e-01,7.075335979461669922e-01,7.280968666076660378e-01,7.498910903930664507e-01,7.730302333831786665e-01,7.976428031921386497e-01,8.238741874694823775e-01,8.518897056579589622e-01,8.818774223327636719e-01,9.140534400939941406e-01,9.486662864685058150e-01,9.860038757324218750e-01,1.000000000000000000e+00,1.000000000000000000e+00,1.000000000000000000e+00,1.000000000000000000e+00,1.000000000000000000e+00,1.000000000000000000e+00,1.000000000000000000e+00,1.000000000000000000e+00,2.239269018173217773e-01,2.193785429000854603e-01,2.188507080078125056e-01,2.240669488906860407e-01,2.210483312606811579e-01,1.000000000000000000e+00,1.000000000000000000e+00,2.142119884490966686e-01,2.091488361358642689e-01,2.057529687881469727e-01,2.026145696640014593e-01,1.999216794967651478e-01,1.997482895851135365e-01,2.002042293548584040e-01,2.006622552871704102e-01,2.063286781311035045e-01,2.431141138076782227e-01,2.529299259185791016e-01,1.000000000000000000e+00,1.000000000000000000e+00,1.000000000000000000e+00,1.000000000000000000e+00,1.000000000000000000e+00,1.000000000000000000e+00,2.650144100189208984e-01,2.603728055953979381e-01,2.525389194488525391e-01,2.438591003417968639e-01,1.000000000000000000e+00,1.000000000000000000e+00,1.000000000000000000e+00,1.000000000000000000e+00,1.000000000000000000e+00,1.000000000000000000e+00,1.000000000000000000e+00,1.000000000000000000e+00,1.000000000000000000e+00,1.000000000000000000e+00,1.000000000000000000e+00,1.000000000000000000e+00,1.000000000000000000e+00,1.000000000000000000e+00,1.000000000000000000e+00,1.000000000000000000e+00,1.000000000000000000e+00,1.000000000000000000e+00,9.682336807250976340e-01,9.365876197814941850e-01,9.069448471069335715e-01,8.791207313537597878e-01,8.529531478881835493e-01,8.282982826232909712e-01,8.050286293029784712e-01,7.830307960510254350e-01,7.622040271759032981e-01,7.424567699432372825e-01
6.199637889862060769e-01,6.356967926025390847e-01,6.522491455078125444e-01,6.696864604949951394e-01,6.880817890167236772e-01,7.075162410736084428e-01,7.280804634094237837e-01,7.498737335205077903e-01,7.730118751525878462e-01,7.976232528686523215e-01,8.238533973693847878e-01,8.518672943115234153e-01,8.818534851074218972e-01,9.140277862548827903e-01,9.486387252807617632e-01,9.859739303588866965e-01,1.000000000000000000e+00,1.000000000000000000e+00,1.000000000000000000e+00,1.000000000000000000e+00,1.000000000000000000e+00,1.000000000000000000e+00,1.000000000000000000e+00,1.000000000000000000e+00,2.243532657623291127e-01,2.210249900817871094e-01,2.177822589874267578e-01,1.000000000000000000e+00,2.200830698013305775e-01,1.000000000000000000e+00,1.000000000000000000e+00,2.155932903289795033e-01,2.106080293655395452e-01,2.065336704254150391e-01,2.033715963363647572e-01,2.000613927841186634e-01,1.990090131759643666e-01,1.989411115646362305e-01,1.993933796882629284e-01,2.028639554977416937e-01,2.120975732803344616e-01,2.553794622421264870e-01,1.000000000000000000e+00,1.000000000000000000e+00,1.000000000000000000e+00,1.000000000000000000e+00,1.000000000000000000e+00,1.000000000000000000e+00,1.000000000000000000e+00,2.630304098129272461e-01,2.570769786834716797e-01,2.498935699462890569e-01,1.000000000000000000e+00,1.000000000000000000e+00,1.000000000000000000e+00,1.000000000000000000e+00,1.000000000000000000e+00,1.000000000000000000e+00,1.000000000000000000e+00,1.000000000000000000e+00,1.000000000000000000e+00,1.000000000000000000e+00,1.000000000000000000e+00,1.000000000000000000e+00,1.000000000000000000e+00,1.000000000000000000e+00,1.000000000000000000e+00,1.000000000000000000e+00,1.000000000000000000e+00,1.000000000000000000e+00,9.682619094848632368e-01,9.366141319274902122e-01,9.069695472717285156e-01,8.791440963745117410e-01,8.529750823974608931e-01,8.283193588256836382e-01,8.050498962402343750e-01,7.830522537231445757e-01,7.622247219085693803e-01,7.424764156341552290e-01
6.199504375457763894e-01,6.356827735900878462e-01,6.522343635559082475e-01,6.696709156036376731e-01,6.880654335021972878e-01,7.074989318847656472e-01,7.280621051788329634e-01,7.498563766479492410e-01,7.729934692382812722e-01,7.976037502288818581e-01,8.238325119018554688e-01,8.518450736999512163e-01,8.818296432495117410e-01,9.140021324157714400e-01,9.486109733581542525e-01,9.859440803527832475e-01,1.000000000000000000e+00,1.000000000000000000e+00,1.000000000000000000e+00,1.000000000000000000e+00,1.000000000000000000e+00,1.000000000000000000e+00,1.000000000000000000e+00,1.000000000000000000e+00,2.243947505950927845e-01,2.206152200698852650e-01,2.162733554840087780e-01,1.000000000000000000e+00,2.197276115417480524e-01,1.000000000000000000e+00,1.000000000000000000e+00,2.169926166534423828e-01,2.121324300765991266e-01,2.074851751327514704e-01,2.041342973709106556e-01,2.008847236633300726e-01,1.985863447189331055e-01,1.981046319007873646e-01,1.981404542922973744e-01,1.995136618614196666e-01,2.082469463348388672e-01,1.000000000000000000e+00,1.000000000000000000e+00,1.000000000000000000e+00,1.000000000000000000e+00,1.000000000000000000e+00,1.000000000000000000e+00,1.000000000000000000e+00,1.000000000000000000e+00,1.000000000000000000e+00,1.000000000000000000e+00,2.557701110839843972e-01,1.000000000000000000e+00,1.000000000000000000e+00,1.000000000000000000e+00,1.000000000000000000e+00,1.000000000000000000e+00,1.000000000000000000e+00,1.000000000000000000e+00,1.000000000000000000e+00,1.000000000000000000e+00,1.000000000000000000e+00,1.000000000000000000e+00,1.000000000000000000e+00,1.000000000000000000e+00,1.000000000000000000e+00,1.000000000000000000e+00,1.000000000000000000e+00,1.000000000000000000e+00,1.000000000000000000e+00,9.682902336120605691e-01,9.366405487060547319e-01,9.069943428039550781e-01,8.791687965393066850e-01,8.529998779296874556e-01,8.283437728881836160e-01,8.050730705261230913e-01,7.830740928649901900e-01,7.622454166412353516e-01,7.424960613250732866e-01
6.199371337890624556e-01,6.356688022613525835e-01,6.522196769714355691e-01,6.696554183959960715e-01,6.880490303039550337e-01,7.074816226959228516e-01,7.280437946319580078e-01,7.498369693756103960e-01,7.729750156402588335e-01,7.975841999053955300e-01,8.238116264343261497e-01,8.518227577209472878e-01,8.818057060241699663e-01,9.139764785766602007e-01,9.485834121704102007e-01,9.859142303466796875e-01,1.000000000000000000e+00,1.000000000000000000e+00,1.000000000000000000e+00,1.000000000000000000e+00,1.000000000000000000e+00,1.000000000000000000e+00,1.000000000000000000e+00,1.000000000000000000e+00,2.237791538238525502e-01,2.197937250137328991e-01,2.151417970657348577e-01,1.000000000000000000e+00,1.000000000000000000e+00,1.000000000000000000e+00,1.000000000000000000e+00,1.000000000000000000e+00,2.136790513992309626e-01,2.089645385742187611e-01,2.049027442932128962e-01,2.017148494720459040e-01,1.982218742370605580e-01,1.976857900619506947e-01,1.972084283828735296e-01,1.973461985588073619e-01,2.045336484909057728e-01,1.000000000000000000e+00,1.000000000000000000e+00,1.000000000000000000e+00,1.000000000000000000e+00,1.000000000000000000e+00,1.000000000000000000e+00,1.000000000000000000e+00,1.000000000000000000e+00,1.000000000000000000e+00,1.000000000000000000e+00,1.000000000000000000e+00,1.000000000000000000e+00,1.000000000000000000e+00,1.000000000000000000e+00,1.000000000000000000e+00,1.000000000000000000e+00,1.000000000000000000e+00,1.000000000000000000e+00,1.000000000000000000e+00,1.000000000000000000e+00,1.000000000000000000e+00,1.000000000000000000e+00,1.000000000000000000e+00,1.000000000000000000e+00,1.000000000000000000e+00,1.000000000000000000e+00,1.000000000000000000e+00,1.000000000000000000e+00,1.000000000000000000e+00,9.683195114135741965e-01,9.366698265075683594e-01,9.070235252380370872e-01,8.791964530944824663e-01,8.530259132385253906e-01,8.283682823181152122e-01,8.050961494445800781e-01,7.830959320068359153e-01,7.622661113739013228e-01,7.425156593322753684e-01
6.199238777160644975e-01,6.356548309326172097e-01,6.522048950195312722e-01,6.696398735046387163e-01,6.880326271057128906e-01,7.074642658233643022e-01,7.280253887176513228e-01,7.498174190521240678e-01,7.729543685913086160e-01,7.975646018981933372e-01,8.237908363342285600e-01,8.518004417419433594e-01,8.817818641662598100e-01,9.139507293701172319e-01,9.485557556152344194e-01,9.858843803405761275e-01,1.000000000000000000e+00,1.000000000000000000e+00,1.000000000000000000e+00,1.000000000000000000e+00,1.000000000000000000e+00,1.000000000000000000e+00,1.000000000000000000e+00,1.000000000000000000e+00,2.230578899383544866e-01,2.191045761108398326e-01,2.145536899566650446e-01,1.000000000000000000e+00,1.000000000000000000e+00,1.000000000000000000e+00,1.000000000000000000e+00,1.000000000000000000e+00,2.146164655685424694e-01,2.104651451110839955e-01,2.058898925781250111e-01,2.025408983230590765e-01,1.990300893783569225e-01,1.972687005996704157e-01,1.967933535575866755e-01,1.963202953338623047e-01,2.009504318237304576e-01,1.000000000000000000e+00,1.000000000000000000e+00,1.000000000000000000e+00,1.000000000000000000e+00,1.000000000000000000e+00,1.000000000000000000e+00,1.000000000000000000e+00,1.000000000000000000e+00,1.000000000000000000e+00,1.000000000000000000e+00,1.000000000000000000e+00,1.000000000000000000e+00,1.000000000000000000e+00,1.000000000000000000e+00,1.000000000000000000e+00,1.000000000000000000e+00,1.000000000000000000e+00,1.000000000000000000e+00,1.000000000000000000e+00,1.000000000000000000e+00,1.000000000000000000e+00,1.000000000000000000e+00,1.000000000000000000e+00,1.000000000000000000e+00,1.000000000000000000e+00,1.000000000000000000e+00,1.000000000000000000e+00,1.000000000000000000e+00,1.000000000000000000e+00,9.683528900146484153e-01,9.367010116577147993e-01,9.070528984069824441e-01,8.792239189147948997e-01,8.530517578124999778e-01,8.283926963806151900e-01,8.051193237304687944e-01,7.831178665161132590e-01,7.622869014739990234e-01,7.425354003906250444e-01
6.199105262756348100e-01,6.356408119201659712e-01,6.521902084350585938e-01,6.696243762969971147e-01,6.880162239074707475e-01,7.074469566345215066e-01,7.280070781707763672e-01,7.497980117797851118e-01,7.729337215423583984e-01,7.975426197052002397e-01,8.237700462341308594e-01,8.517782211303710493e-01,8.817580223083496538e-01,9.139251708984375000e-01,9.485281944274902566e-01,9.858545303344726785e-01,1.000000000000000000e+00,1.000000000000000000e+00,1.000000000000000000e+00,1.000000000000000000e+00,1.000000000000000000e+00,1.000000000000000000e+00,1.000000000000000000e+00,1.000000000000000000e+00,2.223861932754516713e-01,2.183125257492065374e-01,1.000000000000000000e+00,1.000000000000000000e+00,1.000000000000000000e+00,1.000000000000000000e+00,1.000000000000000000e+00,1.000000000000000000e+00,1.000000000000000000e+00,2.113723039627075084e-01,2.073464870452880748e-01,2.032973766326904297e-01,1.998449325561523493e-01,1.968665599822997936e-01,1.963052272796630970e-01,1.957951903343200795e-01,1.984160780906677191e-01,2.046810150146484431e-01,1.000000000000000000e+00,1.000000000000000000e+00,1.000000000000000000e+00,1.000000000000000000e+00,1.000000000000000000e+00,1.000000000000000000e+00,1.000000000000000000e+00,1.000000000000000000e+00,1.000000000000000000e+00,1.000000000000000000e+00,1.000000000000000000e+00,1.000000000000000000e+00,1.000000000000000000e+00,1.000000000000000000e+00,1.000000000000000000e+00,1.000000000000000000e+00,1.000000000000000000e+00,1.000000000000000000e+00,1.000000000000000000e+00,1.000000000000000000e+00,1.000000000000000000e+00,1.000000000000000000e+00,1.000000000000000000e+00,1.000000000000000000e+00,1.000000000000000000e+00,1.000000000000000000e+00,1.000000000000000000e+00,1.000000000000000000e+00,9.683863639831542525e-01,9.367323875427245872e-01,9.070822715759276900e-01,8.792514801025390625e-01,8.530777931213379128e-01,8.284172058105468972e-01,8.051424026489257812e-01,7.831397056579589844e-01,7.623075962066649947e-01,7.425550460815429910e-01
6.198972225189208762e-01,6.356268405914307085e-01,6.521754741668701616e-01,6.696088790893555132e-01,6.879998683929443581e-01,7.074296474456787109e-01,7.279887676239014116e-01,7.497784614562987837e-01,7.729129791259765625e-01,7.975205421447754128e-01,8.237464904785156694e-01,8.517559051513672319e-01,8.817340850830077681e-01,9.138995170593261497e-01,9.485004425048828569e-01,9.858246803283691184e-01,1.000000000000000000e+00,1.000000000000000000e+00,1.000000000000000000e+00,1.000000000000000000e+00,1.000000000000000000e+00,1.000000000000000000e+00,1.000000000000000000e+00,1.000000000000000000e+00,1.000000000000000000e+00,1.000000000000000000e+00,1.000000000000000000e+00,1.000000000000000000e+00,1.000000000000000000e+00,1.000000000000000000e+00,1.000000000000000000e+00,1.000000000000000000e+00,1.000000000000000000e+00,2.122642755508422907e-01,2.082247495651245173e-01,2.043189287185668834e-01,2.006844043731689509e-01,1.973537087440490612e-01,1.961974620819091908e-01,1.953202843666076716e-01,1.968771815299987793e-01,2.026141643524169977e-01,1.000000000000000000e+00,1.000000000000000000e+00,1.000000000000000000e+00,1.000000000000000000e+00,1.000000000000000000e+00,1.000000000000000000e+00,1.000000000000000000e+00,1.000000000000000000e+00,1.000000000000000000e+00,1.000000000000000000e+00,1.000000000000000000e+00,1.000000000000000000e+00,1.000000000000000000e+00,1.000000000000000000e+00,1.000000000000000000e+00,1.000000000000000000e+00,1.000000000000000000e+00,1.000000000000000000e+00,1.000000000000000000e+00,1.000000000000000000e+00,1.000000000000000000e+00,1.000000000000000000e+00,1.000000000000000000e+00,1.000000000000000000e+00,1.000000000000000000e+00,1.000000000000000000e+00,1.000000000000000000e+00,1.000000000000000000e+00,9.684197425842284712e-01,9.367635726928711382e-01,9.071115493774414285e-01,8.792790412902832253e-01,8.531037330627441184e-01,8.284416198730468750e-01,8.051654815673827681e-01,7.831615447998047097e-01,7.623282909393310769e-01,7.425746917724609375e-01
6.198839664459228072e-01,6.356128215789794700e-01,6.521607398986816184e-01,6.695932865142821822e-01,6.879834651947021040e-01,7.074122428894042969e-01,7.279703617095947266e-01,7.497590541839599387e-01,7.728923320770263450e-01,7.974985122680664507e-01,8.237230300903319868e-01,8.517308235168457031e-01,8.817102432250976118e-01,9.138738632202147993e-01,9.484728813171386941e-01,9.857948303222656694e-01,1.000000000000000000e+00,1.000000000000000000e+00,1.000000000000000000e+00,1.000000000000000000e+00,1.000000000000000000e+00,1.000000000000000000e+00,1.000000000000000000e+00,1.000000000000000000e+00,1.000000000000000000e+00,1.000000000000000000e+00,1.000000000000000000e+00,1.000000000000000000e+00,1.000000000000000000e+00,1.000000000000000000e+00,1.000000000000000000e+00,1.000000000000000000e+00,1.000000000000000000e+00,2.553830146789550781e-01,2.090903043746948353e-01,2.052133083343505859e-01,2.016075372695922963e-01,1.982537746429443304e-01,1.964442253112793080e-01,1.956040978431701771e-01,1.967950463294982910e-01,2.015985012054443415e-01,1.000000000000000000e+00,1.000000000000000000e+00,1.000000000000000000e+00,1.000000000000000000e+00,1.000000000000000000e+00,1.000000000000000000e+00,1.000000000000000000e+00,1.000000000000000000e+00,1.000000000000000000e+00,1.000000000000000000e+00,1.000000000000000000e+00,1.000000000000000000e+00,1.000000000000000000e+00,1.000000000000000000e+00,1.000000000000000000e+00,1.000000000000000000e+00,1.000000000000000000e+00,1.000000000000000000e+00,1.000000000000000000e+00,1.000000000000000000e+00,1.000000000000000000e+00,1.000000000000000000e+00,1.000000000000000000e+00,1.000000000000000000e+00,1.000000000000000000e+00,1.000000000000000000e+00,1.000000000000000000e+00,1.000000000000000000e+00,9.684532165527344194e-01,9.367949485778808150e-01,9.071409225463866743e-01,8.793066978454590066e-01,8.531296730041504350e-01,8.284661293029784712e-01,8.051886558532714844e-01,7.831834793090820535e-01,7.623490810394286665e-01,7.425943851470947488e-01
6.198706150054931197e-01,6.355988502502440962e-01,6.521460056304931863e-01,6.695777893066405806e-01,6.879671096801758257e-01,7.073949813842773660e-01,7.279520511627197710e-01,7.497395992279052290e-01,7.728716850280761275e-01,7.974765300750732422e-01,8.236995697021484153e-01,8.517057418823241743e-01,8.816833496093750000e-01,9.138481140136718306e-01,9.484452247619629128e-01,9.857649803161621094e-01,1.000000000000000000e+00,1.000000000000000000e+00,1.000000000000000000e+00,1.000000000000000000e+00,1.000000000000000000e+00,1.000000000000000000e+00,1.000000000000000000e+00,1.000000000000000000e+00,1.000000000000000000e+00,1.000000000000000000e+00,1.000000000000000000e+00,1.000000000000000000e+00,1.000000000000000000e+00,1.000000000000000000e+00,1.000000000000000000e+00,1.000000000000000000e+00,1.000000000000000000e+00,2.553663015365600364e-01,2.101363420486450084e-01,2.062640905380249134e-01,2.022818803787231334e-01,1.985583901405334473e-01,1.970282554626464899e-01,1.959937572479248102e-01,1.976047635078430065e-01,2.026470422744751088e-01,1.000000000000000000e+00,1.000000000000000000e+00,1.000000000000000000e+00,1.000000000000000000e+00,1.000000000000000000e+00,1.000000000000000000e+00,1.000000000000000000e+00,1.000000000000000000e+00,1.000000000000000000e+00,1.000000000000000000e+00,1.000000000000000000e+00,1.000000000000000000e+00,1.000000000000000000e+00,1.000000000000000000e+00,1.000000000000000000e+00,1.000000000000000000e+00,1.000000000000000000e+00,1.000000000000000000e+00,1.000000000000000000e+00,1.000000000000000000e+00,1.000000000000000000e+00,1.000000000000000000e+00,1.000000000000000000e+00,1.000000000000000000e+00,1.000000000000000000e+00,1.000000000000000000e+00,1.000000000000000000e+00,1.000000000000000000e+00,9.684866905212402566e-01,9.368262290954589844e-01,9.071702003479004128e-01,8.793341636657714400e-01,8.531556129455566406e-01,8.284906387329101785e-01,8.052117347717284712e-01,7.832053184509277788e-01,7.623697757720947488e-01,7.426140308380126953e-01
6.198573112487792969e-01,6.355848789215088335e-01,6.521313190460205078e-01,6.695622920989989790e-01,6.879507064819335715e-01,7.073775768280029519e-01,7.279336452484130859e-01,7.497200965881347656e-01,7.728509426116942915e-01,7.974544525146484153e-01,8.236760139465332253e-01,8.516806602478027566e-01,8.816565513610840066e-01,9.138194084167480247e-01,9.484175682067871316e-01,9.857351303100585493e-01,1.000000000000000000e+00,1.000000000000000000e+00,1.000000000000000000e+00,1.000000000000000000e+00,1.000000000000000000e+00,1.000000000000000000e+00,1.000000000000000000e+00,1.000000000000000000e+00,1.000000000000000000e+00,1.000000000000000000e+00,1.000000000000000000e+00,1.000000000000000000e+00,1.000000000000000000e+00,1.000000000000000000e+00,1.000000000000000000e+00,1.000000000000000000e+00,1.000000000000000000e+00,2.574167490005493386e-01,2.487623929977416937e-01,2.060314655303955023e-01,2.017333984374999889e-01,1.989574432373046875e-01,1.980125665664672907e-01,1.970535039901733509e-01,1.992084145545959528e-01,2.042078971862792969e-01,1.000000000000000000e+00,1.000000000000000000e+00,1.000000000000000000e+00,1.000000000000000000e+00,1.000000000000000000e+00,1.000000000000000000e+00,1.000000000000000000e+00,1.000000000000000000e+00,1.000000000000000000e+00,1.000000000000000000e+00,1.000000000000000000e+00,1.000000000000000000e+00,1.000000000000000000e+00,1.000000000000000000e+00,1.000000000000000000e+00,1.000000000000000000e+00,1.000000000000000000e+00,1.000000000000000000e+00,1.000000000000000000e+00,1.000000000000000000e+00,1.000000000000000000e+00,1.000000000000000000e+00,1.000000000000000000e+00,1.000000000000000000e+00,1.000000000000000000e+00,1.000000000000000000e+00,1.000000000000000000e+00,1.000000000000000000e+00,9.685201644897460938e-01,9.368575096130371538e-01,9.071995735168456587e-01,8.793618202209472212e-01,8.531815528869628462e-01,8.285151481628417747e-01,8.052349090576171875e-01,7.832271575927733931e-01,7.623904705047607200e-01,7.426336765289306419e-01
6.198364257812499778e-01,6.355673789978026900e-01,6.521165370941162109e-01,6.695467472076416238e-01,6.879343032836914285e-01,7.073602676391601562e-01,7.279153347015381303e-01,7.497006893157959206e-01,7.728302478790283203e-01,7.974324703216553178e-01,8.236525535583496538e-01,8.516554832458496094e-01,8.816295623779296653e-01,9.137905120849609819e-01,9.483867645263671653e-01,9.857052803039551003e-01,1.000000000000000000e+00,1.000000000000000000e+00,1.000000000000000000e+00,1.000000000000000000e+00,1.000000000000000000e+00,1.000000000000000000e+00,1.000000000000000000e+00,1.000000000000000000e+00,1.000000000000000000e+00,1.000000000000000000e+00,1.000000000000000000e+00,1.000000000000000000e+00,1.000000000000000000e+00,1.000000000000000000e+00,1.000000000000000000e+00,1.000000000000000000e+00,1.000000000000000000e+00,2.595003843307495117e-01,2.108143568038940430e-01,2.055552959442138727e-01,2.017394542694091741e-01,1.994328379631042369e-01,1.992183804512023815e-01,1.982476472854614313e-01,2.009999990463256780e-01,2.071643114089965765e-01,1.000000000000000000e+00,1.000000000000000000e+00,1.000000000000000000e+00,1.000000000000000000e+00,1.000000000000000000e+00,1.000000000000000000e+00,1.000000000000000000e+00,1.000000000000000000e+00,1.000000000000000000e+00,1.000000000000000000e+00,1.000000000000000000e+00,1.000000000000000000e+00,1.000000000000000000e+00,1.000000000000000000e+00,1.000000000000000000e+00,1.000000000000000000e+00,1.000000000000000000e+00,1.000000000000000000e+00,1.000000000000000000e+00,1.000000000000000000e+00,1.000000000000000000e+00,1.000000000000000000e+00,1.000000000000000000e+00,1.000000000000000000e+00,1.000000000000000000e+00,1.000000000000000000e+00,1.000000000000000000e+00,1.000000000000000000e+00,9.685536384582519309e-01,9.368887901306152122e-01,9.072288513183593972e-01,8.793892860412597656e-01,8.532074928283691628e-01,8.285395622253417525e-01,8.052579879760741743e-01,7.832490444183349831e-01,7.624111652374268022e-01,7.426533222198485884e-01
6.198134899139404741e-01,6.355432033538818137e-01,6.520920753479003684e-01,6.695259094238281694e-01,6.879175186157227007e-01,7.073430061340332253e-01,7.278969764709473100e-01,7.496812343597412109e-01,7.728096485137939675e-01,7.974104881286621094e-01,8.236289978027343528e-01,8.516304016113280806e-01,8.816026687622070535e-01,9.137616157531738281e-01,9.483555793762207253e-01,9.856719970703125000e-01,1.000000000000000000e+00,1.000000000000000000e+00,1.000000000000000000e+00,1.000000000000000000e+00,1.000000000000000000e+00,1.000000000000000000e+00,1.000000000000000000e+00,1.000000000000000000e+00,1.000000000000000000e+00,1.000000000000000000e+00,1.000000000000000000e+00,1.000000000000000000e+00,1.000000000000000000e+00,1.000000000000000000e+00,1.000000000000000000e+00,1.000000000000000000e+00,1.000000000000000000e+00,2.595797300338745228e-01,2.100668907165527399e-01,2.048445940017700195e-01,2.016610622406005970e-01,2.001098632812499944e-01,2.004389286041259877e-01,1.994563102722168024e-01,2.028241395950317327e-01,1.000000000000000000e+00,1.000000000000000000e+00,1.000000000000000000e+00,1.000000000000000000e+00,1.000000000000000000e+00,1.000000000000000000e+00,1.000000000000000000e+00,1.000000000000000000e+00,1.000000000000000000e+00,1.000000000000000000e+00,1.000000000000000000e+00,1.000000000000000000e+00,1.000000000000000000e+00,1.000000000000000000e+00,1.000000000000000000e+00,1.000000000000000000e+00,1.000000000000000000e+00,1.000000000000000000e+00,1.000000000000000000e+00,1.000000000000000000e+00,1.000000000000000000e+00,1.000000000000000000e+00,1.000000000000000000e+00,1.000000000000000000e+00,1.000000000000000000e+00,1.000000000000000000e+00,1.000000000000000000e+00,1.000000000000000000e+00,1.000000000000000000e+00,9.685870170593261497e-01,9.369200706481933816e-01,9.072582244873046431e-01,8.794169425964355469e-01,8.532334327697753684e-01,8.285640716552734597e-01,8.052810668945312722e-01,7.832709789276123269e-01,7.624319553375243919e-01,7.426730155944823997e-01
6.197927474975586382e-01,6.355190277099609375e-01,6.520667076110839844e-01,6.694991111755370650e-01,6.878891468048096147e-01,7.073181152343750444e-01,7.278764724731445757e-01,7.496617317199707475e-01,7.727889060974121316e-01,7.973884105682372825e-01,8.236055374145507812e-01,8.516053199768066628e-01,8.815757751464843306e-01,9.137327194213866743e-01,9.483243942260741743e-01,9.856383323669433150e-01,1.000000000000000000e+00,1.000000000000000000e+00,1.000000000000000000e+00,1.000000000000000000e+00,1.000000000000000000e+00,1.000000000000000000e+00,1.000000000000000000e+00,1.000000000000000000e+00,1.000000000000000000e+00,1.000000000000000000e+00,1.000000000000000000e+00,1.000000000000000000e+00,1.000000000000000000e+00,1.000000000000000000e+00,1.000000000000000000e+00,1.000000000000000000e+00,1.000000000000000000e+00,2.538848876953124778e-01,2.093247175216674805e-01,2.045198202133178822e-01,2.021889448165893610e-01,2.009800910949706976e-01,2.013543844223022461e-01,2.006798267364501842e-01,2.046816825866699108e-01,1.000000000000000000e+00,1.000000000000000000e+00,1.000000000000000000e+00,1.000000000000000000e+00,1.000000000000000000e+00,1.000000000000000000e+00,1.000000000000000000e+00,1.000000000000000000e+00,1.000000000000000000e+00,1.000000000000000000e+00,1.000000000000000000e+00,1.000000000000000000e+00,1.000000000000000000e+00,1.000000000000000000e+00,1.000000000000000000e+00,1.000000000000000000e+00,1.000000000000000000e+00,1.000000000000000000e+00,1.000000000000000000e+00,1.000000000000000000e+00,1.000000000000000000e+00,1.000000000000000000e+00,1.000000000000000000e+00,1.000000000000000000e+00,1.000000000000000000e+00,1.000000000000000000e+00,1.000000000000000000e+00,1.000000000000000000e+00,1.000000000000000000e+00,9.686204910278319868e-01,9.369514465332031694e-01,9.072875976562500000e-01,8.794445037841797097e-01,8.532594680786133035e-01,8.285884857177734375e-01,8.053042411804198775e-01,7.832928180694580522e-01,7.624526500701904741e-01,7.426926612854003462e-01
6.197795391082763228e-01,6.355030059814452681e-01,6.520450592041016069e-01,6.694722652435303178e-01,6.878608703613281472e-01,7.072882175445556197e-01,7.278448104858398215e-01,7.496319770812988059e-01,7.727638721466064675e-01,7.973664283752441850e-01,8.235820770263672097e-01,8.515801429748535156e-01,8.815488815307617188e-01,9.137038230895996316e-01,9.482933044433593528e-01,9.856046676635742410e-01,1.000000000000000000e+00,1.000000000000000000e+00,1.000000000000000000e+00,1.000000000000000000e+00,1.000000000000000000e+00,1.000000000000000000e+00,1.000000000000000000e+00,1.000000000000000000e+00,1.000000000000000000e+00,1.000000000000000000e+00,1.000000000000000000e+00,1.000000000000000000e+00,1.000000000000000000e+00,1.000000000000000000e+00,1.000000000000000000e+00,1.000000000000000000e+00,2.638311147689819114e-01,2.561039686203002708e-01,2.085877418518066462e-01,2.044392108917236217e-01,2.027739763259887584e-01,2.018579483032226507e-01,2.022355318069458119e-01,2.019184350967407338e-01,2.095456123352050781e-01,1.000000000000000000e+00,1.000000000000000000e+00,1.000000000000000000e+00,1.000000000000000000e+00,1.000000000000000000e+00,1.000000000000000000e+00,1.000000000000000000e+00,1.000000000000000000e+00,1.000000000000000000e+00,1.000000000000000000e+00,1.000000000000000000e+00,1.000000000000000000e+00,1.000000000000000000e+00,1.000000000000000000e+00,1.000000000000000000e+00,1.000000000000000000e+00,1.000000000000000000e+00,1.000000000000000000e+00,1.000000000000000000e+00,1.000000000000000000e+00,1.000000000000000000e+00,1.000000000000000000e+00,1.000000000000000000e+00,1.000000000000000000e+00,1.000000000000000000e+00,1.000000000000000000e+00,1.000000000000000000e+00,1.000000000000000000e+00,1.000000000000000000e+00,9.686538696289062056e-01,9.369827270507812278e-01,9.073169708251953569e-01,8.794720649719238725e-01,8.532854080200195090e-01,8.286129951477050337e-01,8.053273200988769753e-01,7.833146572113036665e-01,7.624733924865723100e-01,7.427123069763184038e-01
6.197662353515625000e-01,6.354891300201416238e-01,6.520304679870605469e-01,6.694559097290039285e-01,6.878383159637451172e-01,7.072587490081787553e-01,7.278131008148193137e-01,7.495984077453613503e-01,7.727282047271728516e-01,7.973307132720947044e-01,8.235514640808105913e-01,8.515550613403319868e-01,8.815219879150391069e-01,9.136749267578124778e-01,9.482622146606445312e-01,9.855710983276366743e-01,1.000000000000000000e+00,1.000000000000000000e+00,1.000000000000000000e+00,1.000000000000000000e+00,1.000000000000000000e+00,1.000000000000000000e+00,1.000000000000000000e+00,1.000000000000000000e+00,1.000000000000000000e+00,1.000000000000000000e+00,1.000000000000000000e+00,1.000000000000000000e+00,1.000000000000000000e+00,1.000000000000000000e+00,1.000000000000000000e+00,2.722160100936889537e-01,2.633872747421264759e-01,2.592865467071533425e-01,2.078559398651123047e-01,2.050223350524902344e-01,2.033624172210693470e-01,2.027434825897216908e-01,2.031243801116943415e-01,2.032915115356445368e-01,1.000000000000000000e+00,1.000000000000000000e+00,1.000000000000000000e+00,1.000000000000000000e+00,1.000000000000000000e+00,1.000000000000000000e+00,1.000000000000000000e+00,1.000000000000000000e+00,1.000000000000000000e+00,1.000000000000000000e+00,1.000000000000000000e+00,1.000000000000000000e+00,1.000000000000000000e+00,1.000000000000000000e+00,1.000000000000000000e+00,1.000000000000000000e+00,1.000000000000000000e+00,1.000000000000000000e+00,1.000000000000000000e+00,1.000000000000000000e+00,1.000000000000000000e+00,1.000000000000000000e+00,1.000000000000000000e+00,1.000000000000000000e+00,1.000000000000000000e+00,1.000000000000000000e+00,1.000000000000000000e+00,1.000000000000000000e+00,1.000000000000000000e+00,1.000000000000000000e+00,9.686874389648437722e-01,9.370140075683593972e-01,9.073463439941406028e-01,8.794997215270996538e-01,8.533113479614258257e-01,8.286375045776367410e-01,8.053504943847655806e-01,7.833365917205810103e-01,7.624941825866698997e-01,7.427319526672363503e-01
6.197530269622802956e-01,6.354751586914062500e-01,6.520157337188721147e-01,6.694404125213623269e-01,6.878220558166503462e-01,7.072415351867675781e-01,7.277894973754882590e-01,7.495671272277831809e-01,7.726924419403076172e-01,7.972927570343018022e-01,8.235109329223633257e-01,8.515120506286620872e-01,8.814844131469726785e-01,9.136438369750976562e-01,9.482310295104980913e-01,9.855374336242676003e-01,1.000000000000000000e+00,1.000000000000000000e+00,1.000000000000000000e+00,1.000000000000000000e+00,1.000000000000000000e+00,1.000000000000000000e+00,1.000000000000000000e+00,1.000000000000000000e+00,1.000000000000000000e+00,1.000000000000000000e+00,1.000000000000000000e+00,1.000000000000000000e+00,1.000000000000000000e+00,1.000000000000000000e+00,1.000000000000000000e+00,2.706685543060302623e-01,2.660228013992309570e-01,2.615338802337646706e-01,2.073211193084716908e-01,2.056239128112792858e-01,2.039408683776855469e-01,2.034170389175415095e-01,2.037489652633666937e-01,2.047385215759277288e-01,1.000000000000000000e+00,1.000000000000000000e+00,1.000000000000000000e+00,1.000000000000000000e+00,1.000000000000000000e+00,1.000000000000000000e+00,1.000000000000000000e+00,1.000000000000000000e+00,1.000000000000000000e+00,1.000000000000000000e+00,1.000000000000000000e+00,1.000000000000000000e+00,1.000000000000000000e+00,1.000000000000000000e+00,1.000000000000000000e+00,1.000000000000000000e+00,1.000000000000000000e+00,1.000000000000000000e+00,1.000000000000000000e+00,1.000000000000000000e+00,1.000000000000000000e+00,1.000000000000000000e+00,1.000000000000000000e+00,1.000000000000000000e+00,1.000000000000000000e+00,1.000000000000000000e+00,1.000000000000000000e+00,1.000000000000000000e+00,1.000000000000000000e+00,1.000000000000000000e+00,9.687208175659179910e-01,9.370452880859374556e-01,9.073756217956543413e-01,8.795271873474120872e-01,8.533372879028320312e-01,8.286619186401367188e-01,8.053735733032226785e-01,7.833584785461426003e-01,7.625143527984619141e-01,7.427499771118164507e-01
6.197397232055663618e-01,6.354612350463867410e-01,6.520010948181151900e-01,6.694249629974364790e-01,6.878057003021240678e-01,7.072242259979247825e-01,7.277712345123290572e-01,7.495477676391602007e-01,7.726676940917969194e-01,7.972592830657958540e-01,8.234703063964843306e-01,8.514686584472656028e-01,8.814379692077636275e-01,9.135938644409179465e-01,9.481847763061523882e-01,9.854981422424315962e-01,1.000000000000000000e+00,1.000000000000000000e+00,1.000000000000000000e+00,1.000000000000000000e+00,1.000000000000000000e+00,1.000000000000000000e+00,1.000000000000000000e+00,1.000000000000000000e+00,1.000000000000000000e+00,1.000000000000000000e+00,1.000000000000000000e+00,1.000000000000000000e+00,1.000000000000000000e+00,1.000000000000000000e+00,2.784355640411376731e-01,2.717689752578735241e-01,2.677101135253906472e-01,2.659132480621337891e-01,2.078681468963622936e-01,2.061448574066161998e-01,2.044498920440673828e-01,2.034978866577148438e-01,2.038300991058349665e-01,2.044207334518432506e-01,1.000000000000000000e+00,1.000000000000000000e+00,1.000000000000000000e+00,1.000000000000000000e+00,1.000000000000000000e+00,1.000000000000000000e+00,1.000000000000000000e+00,1.000000000000000000e+00,1.000000000000000000e+00,1.000000000000000000e+00,1.000000000000000000e+00,1.000000000000000000e+00,1.000000000000000000e+00,1.000000000000000000e+00,1.000000000000000000e+00,1.000000000000000000e+00,1.000000000000000000e+00,1.000000000000000000e+00,1.000000000000000000e+00,1.000000000000000000e+00,1.000000000000000000e+00,1.000000000000000000e+00,1.000000000000000000e+00,1.000000000000000000e+00,1.000000000000000000e+00,1.000000000000000000e+00,1.000000000000000000e+00,1.000000000000000000e+00,1.000000000000000000e+00,1.000000000000000000e+00,9.687542915344238281e-01,9.370766639709472434e-01,9.074050903320312056e-01,8.795548439025878684e-01,8.533632278442382368e-01,8.286864280700683150e-01,8.053954124450684038e-01,7.833777427673339622e-01,7.625318527221679465e-01,7.427666664123535600e-01
6.197265148162841575e-01,6.354473114013672319e-01,6.519864082336426225e-01,6.694094657897948775e-01,6.877893924713134322e-01,7.072070121765137163e-01,7.277529239654541016e-01,7.495283603668212447e-01,7.726470947265624556e-01,7.972374439239502397e-01,8.234443664550781250e-01,8.514328002929687500e-01,8.813914299011230691e-01,9.135439872741699663e-01,9.481309890747070535e-01,9.854400634765625444e-01,1.000000000000000000e+00,1.000000000000000000e+00,1.000000000000000000e+00,1.000000000000000000e+00,1.000000000000000000e+00,1.000000000000000000e+00,1.000000000000000000e+00,1.000000000000000000e+00,1.000000000000000000e+00,1.000000000000000000e+00,1.000000000000000000e+00,1.000000000000000000e+00,1.000000000000000000e+00,1.000000000000000000e+00,2.769808292388916127e-01,2.727703809738158958e-01,2.708545207977294811e-01,2.707614898681640625e-01,2.089424610137939342e-01,2.066649436950683538e-01,2.049683094024658259e-01,2.037277460098266546e-01,2.039112806320190485e-01,2.042448282241821345e-01,2.147970676422119030e-01,1.000000000000000000e+00,1.000000000000000000e+00,1.000000000000000000e+00,1.000000000000000000e+00,1.000000000000000000e+00,1.000000000000000000e+00,1.000000000000000000e+00,1.000000000000000000e+00,1.000000000000000000e+00,1.000000000000000000e+00,1.000000000000000000e+00,1.000000000000000000e+00,1.000000000000000000e+00,1.000000000000000000e+00,1.000000000000000000e+00,1.000000000000000000e+00,1.000000000000000000e+00,1.000000000000000000e+00,1.000000000000000000e+00,1.000000000000000000e+00,1.000000000000000000e+00,1.000000000000000000e+00,1.000000000000000000e+00,1.000000000000000000e+00,1.000000000000000000e+00,1.000000000000000000e+00,1.000000000000000000e+00,1.000000000000000000e+00,1.000000000000000000e+00,9.687877655029296653e-01,9.371079444885254128e-01,9.074343681335449441e-01,8.795816421508788618e-01,8.533868789672851562e-01,8.287072181701660156e-01,8.054149627685547319e-01,7.833962440490722656e-01,7.625494480133057085e-01,7.427832603454589400e-01
6.197132587432860884e-01,6.354333877563476118e-01,6.519717693328856978e-01,6.693940639495850053e-01,6.877730369567871538e-01,7.071897506713866743e-01,7.277346134185791460e-01,7.495090007781982644e-01,7.726265430450439675e-01,7.972154617309570312e-01,8.234209060668945535e-01,8.514078140258789507e-01,8.813640594482421431e-01,9.135051727294921653e-01,9.480792045593261497e-01,9.853819847106933816e-01,1.000000000000000000e+00,1.000000000000000000e+00,1.000000000000000000e+00,1.000000000000000000e+00,1.000000000000000000e+00,1.000000000000000000e+00,1.000000000000000000e+00,1.000000000000000000e+00,1.000000000000000000e+00,1.000000000000000000e+00,1.000000000000000000e+00,1.000000000000000000e+00,1.000000000000000000e+00,2.884144306182861439e-01,2.780294418334960938e-01,2.740935564041137584e-01,2.741174697875976562e-01,2.740304470062255859e-01,2.109098672866821234e-01,2.071877002716064342e-01,2.055010080337524303e-01,2.040446996688842773e-01,2.039925336837768444e-01,2.043263435363769642e-01,2.142891645431518610e-01,1.000000000000000000e+00,1.000000000000000000e+00,1.000000000000000000e+00,1.000000000000000000e+00,1.000000000000000000e+00,1.000000000000000000e+00,1.000000000000000000e+00,1.000000000000000000e+00,1.000000000000000000e+00,1.000000000000000000e+00,1.000000000000000000e+00,1.000000000000000000e+00,1.000000000000000000e+00,1.000000000000000000e+00,1.000000000000000000e+00,1.000000000000000000e+00,1.000000000000000000e+00,1.000000000000000000e+00,1.000000000000000000e+00,1.000000000000000000e+00,1.000000000000000000e+00,1.000000000000000000e+00,1.000000000000000000e+00,1.000000000000000000e+00,1.000000000000000000e+00,1.000000000000000000e+00,1.000000000000000000e+00,1.000000000000000000e+00,1.000000000000000000e+00,9.688212394714355025e-01,9.371373176574706587e-01,9.074602127075195312e-01,8.796049118041991965e-01,8.534088134765625000e-01,8.287280082702637163e-01,8.054345130920410600e-01,7.834147930145263228e-01,7.625669479370117410e-01,7.427998542785644309e-01
6.197000026702881303e-01,6.354194164276123491e-01,6.519570827484131303e-01,6.693785667419434038e-01,6.877567768096923828e-01,7.071725368499756081e-01,7.277163982391356978e-01,7.494895935058594194e-01,7.726058959960937500e-01,7.971935749053955522e-01,8.233975410461426003e-01,8.513828277587890403e-01,8.813372611999511497e-01,9.134763717651367410e-01,9.480482101440429465e-01,9.853399276733398882e-01,1.000000000000000000e+00,1.000000000000000000e+00,1.000000000000000000e+00,1.000000000000000000e+00,1.000000000000000000e+00,1.000000000000000000e+00,1.000000000000000000e+00,1.000000000000000000e+00,1.000000000000000000e+00,1.000000000000000000e+00,1.000000000000000000e+00,1.000000000000000000e+00,1.000000000000000000e+00,2.834952354431152233e-01,2.794042348861694447e-01,2.771823644638061745e-01,2.774600267410278209e-01,2.773792982101440652e-01,2.129146814346313532e-01,2.077131032943725641e-01,2.060364961624145397e-01,2.044333219528198242e-01,2.040883302688598633e-01,2.044079303741455078e-01,2.137836217880249023e-01,1.000000000000000000e+00,1.000000000000000000e+00,1.000000000000000000e+00,1.000000000000000000e+00,1.000000000000000000e+00,1.000000000000000000e+00,1.000000000000000000e+00,1.000000000000000000e+00,1.000000000000000000e+00,1.000000000000000000e+00,1.000000000000000000e+00,1.000000000000000000e+00,1.000000000000000000e+00,1.000000000000000000e+00,1.000000000000000000e+00,1.000000000000000000e+00,1.000000000000000000e+00,1.000000000000000000e+00,1.000000000000000000e+00,1.000000000000000000e+00,1.000000000000000000e+00,1.000000000000000000e+00,1.000000000000000000e+00,1.000000000000000000e+00,1.000000000000000000e+00,1.000000000000000000e+00,1.000000000000000000e+00,1.000000000000000000e+00,1.000000000000000000e+00,9.688495635986328347e-01,9.371638298034667969e-01,9.074850082397460938e-01,8.796282768249511497e-01,8.534308433532714622e-01,8.287487030029296875e-01,8.054541587829590066e-01,7.834332942962646262e-01,7.625844478607177734e-01,7.428165435791015403e-01
6.196867465972900613e-01,6.354055404663085938e-01,6.519424438476562056e-01,6.693631649017334206e-01,6.877404212951659934e-01,7.071552276611328125e-01,7.276980876922607422e-01,7.494702339172363281e-01,7.725853443145751509e-01,7.971715927124023438e-01,8.233741760253906472e-01,8.513577461242676225e-01,8.813104629516601562e-01,9.134476661682129350e-01,9.480172157287597434e-01,9.853064537048339400e-01,1.000000000000000000e+00,1.000000000000000000e+00,1.000000000000000000e+00,1.000000000000000000e+00,1.000000000000000000e+00,1.000000000000000000e+00,1.000000000000000000e+00,1.000000000000000000e+00,1.000000000000000000e+00,1.000000000000000000e+00,1.000000000000000000e+00,1.000000000000000000e+00,1.000000000000000000e+00,2.853419542312621848e-01,2.807927131652832031e-01,2.806005239486694114e-01,2.808850765228271262e-01,1.000000000000000000e+00,2.141623020172119252e-01,2.082411527633666881e-01,2.065747976303100586e-01,2.049632549285888561e-01,2.044064044952392523e-01,2.044895648956298884e-01,2.132804870605468639e-01,1.000000000000000000e+00,1.000000000000000000e+00,1.000000000000000000e+00,1.000000000000000000e+00,1.000000000000000000e+00,1.000000000000000000e+00,1.000000000000000000e+00,1.000000000000000000e+00,1.000000000000000000e+00,1.000000000000000000e+00,1.000000000000000000e+00,1.000000000000000000e+00,1.000000000000000000e+00,1.000000000000000000e+00,1.000000000000000000e+00,1.000000000000000000e+00,1.000000000000000000e+00,1.000000000000000000e+00,1.000000000000000000e+00,1.000000000000000000e+00,1.000000000000000000e+00,1.000000000000000000e+00,1.000000000000000000e+00,1.000000000000000000e+00,1.000000000000000000e+00,1.000000000000000000e+00,1.000000000000000000e+00,1.000000000000000000e+00,1.000000000000000000e+00,9.688777923583984375e-01,9.371902465820312056e-01,9.075098037719726562e-01,8.796516418457031028e-01,8.534527778625488059e-01,8.287693977355956587e-01,8.054736137390137163e-01,7.834517478942870650e-01,7.626020431518554243e-01,7.428331851959228960e-01
6.196735382080078569e-01,6.353915691375732200e-01,6.519277572631836382e-01,6.693476676940918191e-01,6.877241611480713335e-01,7.071380138397216353e-01,7.276798725128174050e-01,7.494508266448974831e-01,7.725646972656250444e-01,7.971496105194091353e-01,8.233508110046386941e-01,8.513327598571777122e-01,8.812836647033691628e-01,9.134188652038573997e-01,9.479862213134765403e-01,9.852729797363281028e-01,1.000000000000000000e+00,1.000000000000000000e+00,1.000000000000000000e+00,1.000000000000000000e+00,1.000000000000000000e+00,1.000000000000000000e+00,1.000000000000000000e+00,1.000000000000000000e+00,1.000000000000000000e+00,1.000000000000000000e+00,1.000000000000000000e+00,1.000000000000000000e+00,2.936929225921630637e-01,2.872480154037475586e-01,2.839640855789184459e-01,2.841501951217651478e-01,2.843957424163818248e-01,1.000000000000000000e+00,2.152917623519897405e-01,2.087719202041626032e-01,2.071158647537231501e-01,2.054959297180175837e-01,2.047255039215087891e-01,2.045712947845458873e-01,2.127797126770019642e-01,1.000000000000000000e+00,1.000000000000000000e+00,1.000000000000000000e+00,1.000000000000000000e+00,1.000000000000000000e+00,1.000000000000000000e+00,1.000000000000000000e+00,1.000000000000000000e+00,1.000000000000000000e+00,1.000000000000000000e+00,1.000000000000000000e+00,1.000000000000000000e+00,1.000000000000000000e+00,1.000000000000000000e+00,1.000000000000000000e+00,1.000000000000000000e+00,1.000000000000000000e+00,1.000000000000000000e+00,1.000000000000000000e+00,1.000000000000000000e+00,1.000000000000000000e+00,1.000000000000000000e+00,1.000000000000000000e+00,1.000000000000000000e+00,1.000000000000000000e+00,1.000000000000000000e+00,1.000000000000000000e+00,1.000000000000000000e+00,1.000000000000000000e+00,9.689061164855956587e-01,9.372167587280273438e-01,9.075346946716308372e-01,8.796750068664550559e-01,8.534747123718261497e-01,8.287900924682617410e-01,8.054932594299316628e-01,7.834702968597412331e-01,7.626195430755615678e-01,7.428498744964600053e-01
6.196602344512939231e-01,6.353776454925537109e-01,6.519131660461425781e-01,6.693322181701659712e-01,6.877078056335449441e-01,7.071207523345947044e-01,7.276615619659423384e-01,7.494315147399902566e-01,7.725441455841064453e-01,7.971277713775635210e-01,8.233273506164551225e-01,8.513077735900879128e-01,8.812569618225097878e-01,9.133900642395019753e-01,9.479552268981933372e-01,9.852394104003906472e-01,1.000000000000000000e+00,1.000000000000000000e+00,1.000000000000000000e+00,1.000000000000000000e+00,1.000000000000000000e+00,1.000000000000000000e+00,1.000000000000000000e+00,1.000000000000000000e+00,1.000000000000000000e+00,1.000000000000000000e+00,1.000000000000000000e+00,1.000000000000000000e+00,2.941178560256957897e-01,2.891036510467529519e-01,2.877543210983276589e-01,2.879454374313354381e-01,1.000000000000000000e+00,1.000000000000000000e+00,2.164331674575805664e-01,2.093142271041870117e-01,2.076598405838012695e-01,2.060313940048217884e-01,2.050456047058105413e-01,2.047694206237792858e-01,2.124578714370727595e-01,1.000000000000000000e+00,1.000000000000000000e+00,1.000000000000000000e+00,1.000000000000000000e+00,1.000000000000000000e+00,1.000000000000000000e+00,1.000000000000000000e+00,1.000000000000000000e+00,1.000000000000000000e+00,1.000000000000000000e+00,1.000000000000000000e+00,1.000000000000000000e+00,1.000000000000000000e+00,1.000000000000000000e+00,1.000000000000000000e+00,1.000000000000000000e+00,1.000000000000000000e+00,1.000000000000000000e+00,1.000000000000000000e+00,1.000000000000000000e+00,1.000000000000000000e+00,1.000000000000000000e+00,1.000000000000000000e+00,1.000000000000000000e+00,1.000000000000000000e+00,1.000000000000000000e+00,1.000000000000000000e+00,1.000000000000000000e+00,1.000000000000000000e+00,9.689344406127929910e-01,9.372432708740234819e-01,9.075595855712890181e-01,8.796982765197753906e-01,8.534967422485351118e-01,8.288107872009277122e-01,8.055128097534179910e-01,7.834887981414795366e-01,7.626370429992676003e-01,7.428664684295653853e-01
6.196470260620117188e-01,6.353637218475342019e-01,6.518984317779541460e-01,6.693167686462402344e-01,6.876914978027344194e-01,7.071035385131836382e-01,7.276433467864990012e-01,7.494120597839355469e-01,7.725235462188720925e-01,7.971057891845703125e-01,8.233039855957031694e-01,8.512827873229980025e-01,8.812301635742187944e-01,9.133612632751464400e-01,9.479242324829101340e-01,9.852059364318848100e-01,1.000000000000000000e+00,1.000000000000000000e+00,1.000000000000000000e+00,1.000000000000000000e+00,1.000000000000000000e+00,1.000000000000000000e+00,1.000000000000000000e+00,1.000000000000000000e+00,1.000000000000000000e+00,1.000000000000000000e+00,1.000000000000000000e+00,1.000000000000000000e+00,2.960694789886474387e-01,2.919110059738159180e-01,2.916471004486084206e-01,1.000000000000000000e+00,1.000000000000000000e+00,1.000000000000000000e+00,2.180884361267089733e-01,2.098928451538085993e-01,2.082608699798584040e-01,2.066540718078613281e-01,2.058664083480835072e-01,2.056213617324829102e-01,2.123244762420654352e-01,1.000000000000000000e+00,1.000000000000000000e+00,1.000000000000000000e+00,1.000000000000000000e+00,1.000000000000000000e+00,1.000000000000000000e+00,1.000000000000000000e+00,1.000000000000000000e+00,1.000000000000000000e+00,1.000000000000000000e+00,1.000000000000000000e+00,1.000000000000000000e+00,1.000000000000000000e+00,1.000000000000000000e+00,1.000000000000000000e+00,1.000000000000000000e+00,1.000000000000000000e+00,1.000000000000000000e+00,1.000000000000000000e+00,1.000000000000000000e+00,1.000000000000000000e+00,1.000000000000000000e+00,1.000000000000000000e+00,1.000000000000000000e+00,1.000000000000000000e+00,1.000000000000000000e+00,1.000000000000000000e+00,1.000000000000000000e+00,1.000000000000000000e+00,9.689627647399902122e-01,9.372697830200195090e-01,9.075843811035155806e-01,8.797216415405273438e-01,8.535186767578124556e-01,8.288315773010254128e-01,8.055323600769043191e-01,7.835072517395019753e-01,7.626546382904052512e-01,7.428830623626708762e-01
6.196337699890136497e-01,6.353497982025146928e-01,6.518838405609130859e-01,6.693013191223144975e-01,6.876751422882080300e-01,7.070862293243408425e-01,7.276250362396240456e-01,7.493927478790283203e-01,7.725029945373534934e-01,7.970839023590088335e-01,8.232806205749512163e-01,8.512578010559082031e-01,8.812033653259276900e-01,9.133325576782226340e-01,9.478932380676269309e-01,9.710073471069335938e-01,9.707662582397460493e-01,9.705254554748534712e-01,9.702847480773926225e-01,9.700440406799316628e-01,9.698036193847656694e-01,9.695631980895995650e-01,9.693228721618651900e-01,9.690827369689941628e-01,9.688426971435546431e-01,9.686028480529784712e-01,9.683629989624022993e-01,3.069504976272582897e-01,2.980093002319336160e-01,2.956149101257324330e-01,2.997781515121459850e-01,9.671657562255859819e-01,9.669266700744628684e-01,9.666876792907714844e-01,9.664488792419433372e-01,2.105742931365966741e-01,2.089317321777343639e-01,2.073145866394043024e-01,2.064307689666748102e-01,2.065118551254272461e-01,2.121912479400634710e-01,9.647801399230957475e-01,9.645421981811523882e-01,9.643044471740722656e-01,9.640667915344238725e-01,9.638292312622069868e-01,9.635917663574218306e-01,9.633543968200684038e-01,9.631172180175781028e-01,9.628801345825195312e-01,9.626431465148925781e-01,9.624062538146972434e-01,9.621695518493652566e-01,9.619329452514648882e-01,9.616964340209961382e-01,9.614600181579590066e-01,9.612236976623534934e-01,9.609875679016113281e-01,9.607515335083007812e-01,9.605155944824218528e-01,9.602797508239746538e-01,9.600440979003905806e-01,9.598085403442382368e-01,9.595730781555176225e-01,9.593377113342285156e-01,9.591024398803711382e-01,9.588673591613769975e-01,9.586323738098144753e-01,9.583974838256835715e-01,9.581626892089843972e-01,9.579279899597168413e-01,9.372961997985840288e-01,9.076091766357421431e-01,8.797450065612792969e-01,8.535407066345215288e-01,8.288522720336913840e-01,8.055519104003906472e-01,7.835258483886718972e-01,7.626721382141112837e-01,7.428997993469238503e-01
6.196205615997314453e-01,6.353358745574950728e-01,6.518691539764404075e-01,6.692858695983886497e-01,6.876588344573975053e-01,7.070690155029296653e-01,7.276068210601807085e-01,7.493733406066894753e-01,7.542415618896484153e-01,7.540961265563964622e-01,7.539507389068603738e-01,7.538055419921875222e-01,7.536602497100830522e-01,7.535150527954102007e-01,7.533699035644531028e-01,7.532248497009277344e-01,7.530798435211181197e-01,7.529348373413086160e-01,7.527899742126464844e-01,7.526451110839843528e-01,7.525002956390380859e-01,7.523555278778075728e-01,7.522109031677246538e-01,7.520662307739257590e-01,7.519216537475585938e-01,7.517771720886230469e-01,7.516326904296875000e-01,3.044181108474731667e-01,3.018321275711059459e-01,3.096342563629150280e-01,7.510553836822509988e-01,7.509111881256103072e-01,7.507670879364013450e-01,7.506229877471923828e-01,7.504789352416991743e-01,2.114377498626708873e-01,2.096069097518920843e-01,2.079914093017578014e-01,2.066624879837036244e-01,2.074100732803344782e-01,2.120582103729247991e-01,7.494723320007323775e-01,7.493287563323974831e-01,7.491852760314940962e-01,7.490417957305908203e-01,7.488983631134032981e-01,7.487549781799316406e-01,7.486117362976074663e-01,7.484684467315674272e-01,7.483252048492431419e-01,7.481821537017822044e-01,7.480390548706055132e-01,7.478960037231445757e-01,7.477530956268310103e-01,7.476101398468018022e-01,7.474672317504882368e-01,7.473243713378906472e-01,7.471817016601562944e-01,7.470389842987060769e-01,7.468963146209717241e-01,7.467536926269531250e-01,7.466112136840820090e-01,7.464686870574951394e-01,7.463262557983398882e-01,7.461839199066162553e-01,7.460415840148926225e-01,7.458992958068847434e-01,7.457571506500244585e-01,7.456149578094481978e-01,7.454728126525879128e-01,7.453307151794433816e-01,7.451888084411620872e-01,7.450468063354491743e-01,7.449048995971679910e-01,7.447630405426025613e-01,7.446213245391846147e-01,7.444795608520508035e-01,7.443378925323486106e-01,7.441963195800781472e-01,7.429163932800293413e-01
6.166915893554687500e-01,6.165943622589111772e-01,6.164971351623534934e-01,6.164000034332275391e-01,6.163028240203857200e-01,6.162057399749756303e-01,6.161086559295654297e-01,6.160116195678710938e-01,6.159146308898926225e-01,6.158176422119140403e-01,6.157207012176513228e-01,6.156238555908203347e-01,6.155269622802734819e-01,6.154300689697265181e-01,6.153332233428955300e-01,6.152364730834960493e-01,6.151397228240966797e-01,6.150429725646973100e-01,6.149463176727294478e-01,6.148496150970459428e-01,6.147530078887939453e-01,6.146563529968261941e-01,6.145598411560058150e-01,6.144632816314696822e-01,6.143667221069335493e-01,6.142703056335448997e-01,6.141738414764403853e-01,3.028450489044189342e-01,3.019092559814453014e-01,6.138846397399901900e-01,6.137883186340331587e-01,6.136919975280761275e-01,6.135957717895508257e-01,6.134994983673095481e-01,6.134032726287841353e-01,2.133342742919921986e-01,2.102864742279052790e-01,2.086803197860717662e-01,2.071462154388427623e-01,2.083161592483520619e-01,2.119253396987915150e-01,6.127306461334228738e-01,6.126346588134765625e-01,6.125387668609618697e-01,6.124428272247314231e-01,6.123469352722168413e-01,6.122510910034180132e-01,6.121552944183349387e-01,6.120594978332519753e-01,6.119637012481689009e-01,6.118680477142334206e-01,6.117722988128662109e-01,6.116766452789306197e-01,6.115810394287108931e-01,6.114853858947754128e-01,6.113897800445556863e-01,6.112942218780517134e-01,6.111987590789794700e-01,6.111032485961913618e-01,6.110077381134033647e-01,6.109123229980468750e-01,6.108169555664062500e-01,6.107215404510497603e-01,6.106262207031250000e-01,6.105309486389159934e-01,6.104356288909912331e-01,6.103403568267822266e-01,6.102451801300048384e-01,6.101499557495116965e-01,6.100547790527344194e-01,6.099596500396728960e-01,6.098645687103271262e-01,6.097694873809814675e-01,6.096744060516356978e-01,6.095794200897216575e-01,6.094844341278076172e-01,6.093894958496093306e-01,6.092945575714111550e-01,6.091996669769287331e-01,6.091048240661620650e-01
5.210172176361084206e-01,5.209477901458740012e-01,5.208784103393554465e-01,5.208090305328368919e-01,5.207396984100342019e-01,5.206703662872314009e-01,5.206010341644287109e-01,5.205317974090576394e-01,5.204625129699707031e-01,5.203932285308837669e-01,5.203239917755126953e-01,5.202548027038573775e-01,5.201856136322021706e-01,5.201164245605468528e-01,5.200472354888916460e-01,5.199781417846679465e-01,5.199090480804443581e-01,5.198399066925049050e-01,5.197708606719970703e-01,5.197017669677734819e-01,5.196327209472656472e-01,5.195636749267578125e-01,5.194947242736815962e-01,5.194257259368896262e-01,5.193567276000976562e-01,5.192878246307373047e-01,5.192188739776610884e-01,3.003910779953002930e-01,3.013374567031860130e-01,3.123086690902709961e-01,5.189433097839355469e-01,5.188744544982910600e-01,5.188056945800780806e-01,5.187368392944335938e-01,5.186680793762207253e-01,2.152606964111328236e-01,2.109704732894897572e-01,2.093738317489624023e-01,2.078295469284057728e-01,2.089374303817748968e-01,2.117926120758056585e-01,5.181870460510253906e-01,5.181184291839600053e-01,5.180498123168945090e-01,5.179811954498291238e-01,5.179126262664794922e-01,5.178440093994141069e-01,5.177754878997802290e-01,5.177069664001464622e-01,5.176384449005126953e-01,5.175699710845946822e-01,5.175014972686767800e-01,5.174330234527587669e-01,5.173645973205566184e-01,5.172961711883544700e-01,5.172277450561523215e-01,5.171593666076660378e-01,5.170910358428955078e-01,5.170226573944092241e-01,5.169543266296386941e-01,5.168859958648681641e-01,5.168177127838134988e-01,5.167494297027588335e-01,5.166811466217040572e-01,5.166129589080810103e-01,5.165447235107422097e-01,5.164764881134032981e-01,5.164083480834961160e-01,5.163401603698730691e-01,5.162720203399657759e-01,5.162038326263427290e-01,5.161357402801514116e-01,5.160676479339599831e-01,5.159995555877685547e-01,5.159315109252929910e-01,5.158634662628174272e-01,5.157954216003417525e-01,5.157274246215820535e-01,5.156594276428222434e-01,5.155914783477782981e-01
4.510419368743896484e-01,4.509899139404296986e-01,4.509378910064697488e-01,4.508859157562256081e-01,4.508339405059814675e-01,4.507819652557373269e-01,4.507300376892089955e-01,4.506781101226806641e-01,4.506261825561523326e-01,4.505742549896240012e-01,4.505223751068115345e-01,4.504704475402832031e-01,4.504185676574706809e-01,4.503666877746582142e-01,4.503148078918456920e-01,4.502630233764648438e-01,4.502111911773681863e-01,4.501593589782714733e-01,4.501075744628906250e-01,4.500557899475097767e-01,4.500040054321289285e-01,4.499522209167480247e-01,4.499004840850829856e-01,4.498487472534179465e-01,4.497970104217529075e-01,4.497452735900878684e-01,4.496935844421386941e-01,2.980182647705078014e-01,3.005816936492919922e-01,3.081599712371826394e-01,4.494868755340576394e-01,4.494352340698242188e-01,4.493835926055907981e-01,4.493319511413574330e-01,4.492803573608398215e-01,2.166662693023681530e-01,2.116589307785034235e-01,2.100719690322875866e-01,2.085174083709716852e-01,2.091748476028442438e-01,2.116600751876830944e-01,4.489193916320800559e-01,4.488678455352783092e-01,4.488163948059081809e-01,4.487648963928222434e-01,4.487133979797363059e-01,4.486618995666503684e-01,4.486104965209961049e-01,4.485589981079101674e-01,4.485075950622558483e-01,4.484561920166015847e-01,4.484047412872314564e-01,4.483533382415771373e-01,4.483019828796386830e-01,4.482505798339843639e-01,4.481992244720459095e-01,4.481478691101073997e-01,4.480965614318847545e-01,4.480452060699463002e-01,4.479938983917236550e-01,4.479425430297851451e-01,4.478912830352783092e-01,4.478400230407714733e-01,4.477887153625488281e-01,4.477375030517578014e-01,4.476862430572509655e-01,4.476349830627441295e-01,4.475837707519531028e-01,4.475325584411621316e-01,4.474813461303711049e-01,4.474301815032958873e-01,4.473790168762207253e-01,4.473278522491455078e-01,4.472766876220702903e-01,4.472255229949951283e-01,4.471744060516357200e-01,4.471232891082763672e-01,4.470721721649170144e-01,4.470211029052734153e-01,4.469700336456298717e-01
3.976372480392456055e-01,3.975968122482299583e-01,3.975564002990722434e-01,3.975159883499145286e-01,3.974755764007568137e-01,3.974351882934570312e-01,3.973948001861572488e-01,3.973544359207153431e-01,3.973140478134155051e-01,3.972737073898315319e-01,3.972333431243896262e-01,3.971930027008056530e-01,3.971526622772216797e-01,3.971123456954955833e-01,3.970720291137695424e-01,3.970317125320434459e-01,3.969914197921752819e-01,3.969511032104492410e-01,3.969108343124389537e-01,3.968705415725707897e-01,3.968302726745605580e-01,3.967900037765502708e-01,3.967498064041137806e-01,3.967095613479614258e-01,3.966693162918090709e-01,3.966290950775146484e-01,2.991363286972045787e-01,2.961902379989623801e-01,2.997996568679809348e-01,3.059693336486816184e-01,3.964281082153320312e-01,3.963879346847534180e-01,3.963477611541748047e-01,3.963075876235961914e-01,3.962674379348755105e-01,2.180903196334838812e-01,2.123633146286010853e-01,2.107747793197631836e-01,2.092098474502563366e-01,2.094127655029296986e-01,2.115276813507080134e-01,3.959866046905517467e-01,3.959465265274048074e-01,3.959064722061157449e-01,3.958664178848266824e-01,3.958263397216796875e-01,3.957862854003906250e-01,3.957462310791015625e-01,3.957061767578125000e-01,3.956661462783813699e-01,3.956261634826659934e-01,3.955861568450927956e-01,3.955461502075195424e-01,3.955061435699462891e-01,3.954661369323730358e-01,3.954261541366577148e-01,3.953861713409423939e-01,3.953462600708007590e-01,3.953062772750854381e-01,3.952663421630859264e-01,3.952263832092285378e-01,3.951864480972290261e-01,3.951465129852295144e-01,3.951066017150878795e-01,3.950667381286621094e-01,3.950268268585205300e-01,3.949869155883788951e-01,3.949470281600951926e-01,3.949071407318115456e-01,3.948672771453857200e-01,3.948274135589599498e-01,3.947875976562499889e-01,3.947477579116821511e-01,3.947079181671142578e-01,3.946680784225463645e-01,3.946282625198364036e-01,3.945884227752685658e-01,3.945486307144164817e-01,3.945088624954223855e-01,3.944690704345703014e-01
3.555402278900146595e-01,3.555078983306884655e-01,3.554755926132202037e-01,3.554432868957519420e-01,3.554109811782836803e-01,3.553786754608154186e-01,3.553463935852050892e-01,3.553141117095947044e-01,3.552818298339843750e-01,3.552495479583740456e-01,3.552172899246215931e-01,3.551850318908691406e-01,3.551527738571166881e-01,3.551205158233642356e-01,3.550882816314697155e-01,3.550560474395751953e-01,3.550238132476806752e-01,3.549915790557861550e-01,3.549593687057495117e-01,3.549271821975708008e-01,3.548949241638183483e-01,3.548627376556396373e-01,3.548305273056030495e-01,3.547983407974243386e-01,3.547661542892456277e-01,3.547340154647827259e-01,3.547018527984618919e-01,2.921306610107421986e-01,2.954713106155395508e-01,3.042003393173217662e-01,3.545732021331787220e-01,3.545410633087158203e-01,3.545089483261108509e-01,3.544768333435058816e-01,3.544446945190429799e-01,3.544125795364380105e-01,2.184937477111816295e-01,2.131515502929687556e-01,2.123822450637817272e-01,2.124699115753173884e-01,3.542520761489867942e-01,3.542200088500976340e-01,3.541879177093505970e-01,3.541558504104614369e-01,3.541237831115722767e-01,3.540917158126831166e-01,3.540596485137939564e-01,3.540276288986206055e-01,3.539955854415893777e-01,3.539635419845580944e-01,3.539315223693847434e-01,3.538994789123535156e-01,3.538674592971801647e-01,3.538354873657226785e-01,3.538034677505493275e-01,3.537714719772339089e-01,3.537394762039184348e-01,3.537074804306030162e-01,3.536754846572875977e-01,3.536435127258300559e-01,3.536115169525146373e-01,3.535795927047729603e-01,3.535476207733154186e-01,3.535156726837158092e-01,3.534837245941161998e-01,3.534517765045165905e-01,3.534198284149169811e-01,3.533879280090331809e-01,3.533560037612915039e-01,3.533240795135498269e-01,3.532921552658080944e-01,3.532602310180664174e-01,3.532283306121826172e-01,3.531964302062988170e-01,3.531645298004150169e-01,3.531326770782470814e-01,3.531008005142212136e-01,3.530689239501952903e-01,3.530370712280273549e-01,3.530051946640014870e-01
3.215033531188964955e-01,3.214769124984740989e-01,3.214504957199096902e-01,3.214240789413452259e-01,3.213976621627807617e-01,3.213712453842162975e-01,3.213448286056518333e-01,3.213184356689453014e-01,3.212920427322387695e-01,3.212656497955322377e-01,3.212392568588257058e-01,3.212128639221191184e-01,3.211864948272705189e-01,3.211601018905639870e-01,3.211337327957153320e-01,3.211073637008666770e-01,3.210810184478759544e-01,3.210546493530273549e-01,3.210283041000366322e-01,3.210019826889037864e-01,3.209756374359130637e-01,3.209492921829223411e-01,3.209229469299316184e-01,3.208965778350830189e-01,3.208702564239501731e-01,3.208439350128173828e-01,3.208176136016845925e-01,2.880983352661132812e-01,2.927856922149658092e-01,3.207386970520019753e-01,3.207123994827270619e-01,3.206861019134521484e-01,3.206598043441772350e-01,3.206335306167602539e-01,3.206072330474853405e-01,3.205809593200683594e-01,2.228740453720092773e-01,2.135208129882812389e-01,2.123580455780029186e-01,2.119108438491821289e-01,3.204496383666992076e-01,3.204233884811401589e-01,3.203971385955810547e-01,3.203709125518798828e-01,3.203446865081787109e-01,3.203184366226196067e-01,3.202922105789184348e-01,3.202659845352172630e-01,3.202397584915160911e-01,3.202135324478149192e-01,3.201873540878296120e-01,3.201611280441284402e-01,3.201349258422851451e-01,3.201087236404419056e-01,3.200825214385986106e-01,3.200563192367553711e-01,3.200301408767700084e-01,3.200039863586425781e-01,3.199777841567993386e-01,3.199516057968139759e-01,3.199254274368286133e-01,3.198992729187011830e-01,3.198730945587158203e-01,3.198469400405883900e-01,3.198208093643188366e-01,3.197946548461914062e-01,3.197685003280639759e-01,3.197423696517944225e-01,3.197162389755249245e-01,3.196900844573974387e-01,3.196639537811279408e-01,3.196378707885741965e-01,3.196117401123046986e-01,3.195856332778930775e-01,3.195595026016235241e-01,3.195333957672119030e-01,3.195072889328002819e-01,3.194812059402465931e-01,3.194551229476928489e-01,3.194290399551391602e-01
2.934139728546142356e-01,2.933919668197632058e-01,2.933699607849121205e-01,2.933479547500610352e-01,2.933259487152099498e-01,2.933039426803588645e-01,2.932819604873657116e-01,2.932599544525146262e-01,2.932379722595214733e-01,2.932159900665283203e-01,2.931940078735351674e-01,2.931720256805420144e-01,2.931500434875488059e-01,2.931280851364135853e-01,2.931061029434204324e-01,2.930841445922851562e-01,2.930621862411498801e-01,2.930402040481567272e-01,2.930182695388793834e-01,2.929963350296020397e-01,2.929743766784668191e-01,2.929524421691894753e-01,2.929304838180541992e-01,2.929085493087768555e-01,2.928866147994995117e-01,2.928646802902221680e-01,2.928427457809448242e-01,2.928207874298095481e-01,2.927988767623901367e-01,2.927769660949707253e-01,2.927550315856933816e-01,2.927331209182739147e-01,2.927112340927123801e-01,2.926893234252929688e-01,2.926674365997314342e-01,2.926455259323120228e-01,2.204704046249389704e-01,2.137003660202026478e-01,2.118539094924926647e-01,2.105973958969116211e-01,2.106172561645507924e-01,2.925142288208008035e-01,2.924923419952392689e-01,2.924704790115356667e-01,2.924485921859741322e-01,2.924267292022705300e-01,2.924048662185668723e-01,2.923830270767212025e-01,2.923611640930176003e-01,2.923393249511718750e-01,2.923174619674682728e-01,2.922956228256225475e-01,2.922737836837768777e-01,2.922519683837890847e-01,2.922301292419433594e-01,2.922082901000976340e-01,2.921864509582519642e-01,2.921646356582641713e-01,2.921427965164184459e-01,2.921209812164306530e-01,2.920991659164428600e-01,2.920773744583129994e-01,2.920555591583252064e-01,2.920337438583374134e-01,2.920119524002074973e-01,2.919901371002197044e-01,2.919683456420898438e-01,2.919465780258178600e-01,2.919247865676879994e-01,2.919029951095580833e-01,2.918812036514282227e-01,2.918594121932983620e-01,2.918376445770263783e-01,2.918158531188964622e-01,2.917940855026245339e-01,2.917723417282104270e-01,2.917505741119384988e-01,2.917288064956665150e-01,2.917070627212524636e-01,2.916852951049804799e-01
2.698385000228881725e-01,2.698198795318603738e-01,2.698012828826904519e-01,2.697826623916625977e-01,2.697640419006347434e-01,2.697454452514648215e-01,2.697268486022948997e-01,2.697082281112671009e-01,2.696896314620971791e-01,2.696710348129272572e-01,2.696524381637573353e-01,2.696338653564452903e-01,2.696152687072753684e-01,2.695966720581054465e-01,2.695780992507934570e-01,2.695595264434814675e-01,2.695409297943115456e-01,2.695223569869995006e-01,2.695037841796875111e-01,2.694852352142333984e-01,2.694666862487792858e-01,2.694481134414672963e-01,2.694295406341552512e-01,2.694109916687011941e-01,2.693924427032470814e-01,2.693738698959350364e-01,2.693553209304809792e-01,2.693367719650268666e-01,2.693182229995727539e-01,2.692996740341186412e-01,2.692811489105224609e-01,2.692625761032104714e-01,2.692440271377563588e-01,2.692255020141601785e-01,2.692069768905639426e-01,2.691884279251098855e-01,2.200214862823486328e-01,2.131909847259521595e-01,2.104319334030151367e-01,2.084385633468627819e-01,2.073916196823120117e-01,2.078536272048950306e-01,2.690588235855102539e-01,2.690403223037719505e-01,2.690218210220337025e-01,2.690033197402953991e-01,2.689848184585571511e-01,2.689663171768188477e-01,2.689478158950805442e-01,2.689293146133422963e-01,2.689108610153198020e-01,2.688923597335815541e-01,2.688738822937011830e-01,2.688554048538208119e-01,2.688369035720825084e-01,2.688184261322021373e-01,2.687999486923217662e-01,2.687814950942993275e-01,2.687630414962768333e-01,2.687445640563964622e-01,2.687260866165160911e-01,2.687076330184936523e-01,2.686891794204712136e-01,2.686707019805908425e-01,2.686522722244262806e-01,2.686338186264037864e-01,2.686153650283813477e-01,2.685969114303589089e-01,2.685784816741943470e-01,2.685600280761718528e-01,2.685415983200073464e-01,2.685231685638427845e-01,2.685047388076782227e-01,2.684863090515136608e-01,2.684678554534912220e-01,2.684494495391845925e-01,2.684310197830200306e-01,2.684125900268554688e-01,2.683941841125488392e-01,2.683757781982422097e-01
2.497697830200195368e-01,2.497538566589355413e-01,2.497379064559936412e-01,2.497219562530517689e-01,2.497060060501098688e-01,2.496900558471679688e-01,2.496741294860839733e-01,2.496581792831421009e-01,2.496422529220581055e-01,2.496263027191162054e-01,2.496103763580322377e-01,2.495944499969482422e-01,2.495785236358642467e-01,2.495625972747802790e-01,2.495466709136962835e-01,2.495307445526123158e-01,2.495148181915283203e-01,2.494989156723022572e-01,2.494829893112182617e-01,2.494670867919921986e-01,2.494511842727661077e-01,2.494352817535400446e-01,2.494193553924560491e-01,2.494034528732299860e-01,2.493875503540038951e-01,2.493716478347778320e-01,2.493557453155517689e-01,2.493398427963256780e-01,2.493239641189575195e-01,2.493080615997314564e-01,2.492921590805053655e-01,2.492762804031372070e-01,2.492604017257690485e-01,2.492444992065429576e-01,2.492285966873168945e-01,2.492127180099487360e-01,2.196234941482543834e-01,2.133361339569091741e-01,2.088297843933105413e-01,2.065603494644165095e-01,2.052838087081909069e-01,2.046527624130249079e-01,2.049826383590698242e-01,2.059758424758911244e-01,2.490698814392089955e-01,2.490540266036987416e-01,2.490381717681884877e-01,2.490223407745361384e-01,2.490064859390258845e-01,2.489906311035156306e-01,2.489747762680053766e-01,2.489589214324951227e-01,2.489430665969848688e-01,2.489272356033325195e-01,2.489114046096801702e-01,2.488955497741699163e-01,2.488797187805175670e-01,2.488638877868652455e-01,2.488480567932128962e-01,2.488322257995605469e-01,2.488163948059081976e-01,2.488005638122558483e-01,2.487847328186035267e-01,2.487689256668090820e-01,2.487530946731567327e-01,2.487372636795043834e-01,2.487214565277099665e-01,2.487056493759155218e-01,2.486898422241211049e-01,2.486740350723266602e-01,2.486582279205322155e-01,2.486423969268798939e-01,2.486265897750854492e-01,2.486108064651489369e-01,2.485949993133544922e-01,2.485792160034179799e-01,2.485634088516235352e-01,2.485476255416870228e-01,2.485318183898925781e-01,2.485160350799560658e-01
2.324795961380004827e-01,2.324657678604125921e-01,2.324519634246826061e-01,2.324381351470947155e-01,2.324243307113647572e-01,2.324105024337768666e-01,2.323966979980468806e-01,2.323828935623168945e-01,2.323690891265869085e-01,2.323552846908569225e-01,2.323414802551269642e-01,2.323276758193969782e-01,2.323138713836669922e-01,2.323000669479370062e-01,2.322862625122070201e-01,2.322724819183349665e-01,2.322586774826049805e-01,2.322448968887328991e-01,2.322310924530029408e-01,2.322173118591308594e-01,2.322035312652587780e-01,2.321897506713867243e-01,2.321759700775146429e-01,2.321621894836425892e-01,2.321484088897705078e-01,2.321346282958984264e-01,2.321208477020263727e-01,2.321070671081542913e-01,2.320932865142822377e-01,2.320795059204101562e-01,2.320657491683960072e-01,2.320519685745239258e-01,2.320382118225097767e-01,2.320244312286376953e-01,2.320106744766235463e-01,2.319969177246093694e-01,2.319831371307373158e-01,2.138826847076416016e-01,2.072442770004272461e-01,2.041887283325195257e-01,2.023999452590942438e-01,2.018132209777832031e-01,2.014343976974487249e-01,2.020690679550170843e-01,2.025269746780395397e-01,2.318593502044677679e-01,2.318456172943115234e-01,2.318318605422973744e-01,2.318181276321411022e-01,2.318043947219848577e-01,2.317906618118286133e-01,2.317769289016723688e-01,2.317631959915161244e-01,2.317494630813598522e-01,2.317357301712036077e-01,2.317219972610473633e-01,2.317082643508911188e-01,2.316945552825927790e-01,2.316808223724365345e-01,2.316671133041381947e-01,2.316533803939819225e-01,2.316396713256835826e-01,2.316259384155273382e-01,2.316122293472289984e-01,2.315985202789306585e-01,2.315848112106323187e-01,2.315711021423339788e-01,2.315573930740356390e-01,2.315436840057372991e-01,2.315299749374389593e-01,2.315162658691406194e-01,2.315025806427001842e-01,2.314888715744018444e-01,2.314751625061035045e-01,2.314614772796630970e-01,2.314477682113647572e-01,2.314340829849243220e-01,2.314203739166259821e-01,2.314067125320434515e-01,2.313930034637451116e-01
2.174282073974609375e-01,2.174161195755004994e-01,2.174040317535400335e-01,2.173919439315795954e-01,2.173798561096191295e-01,2.173677921295165960e-01,2.173557043075561579e-01,2.173436164855956920e-01,2.173315525054931585e-01,2.173194646835327204e-01,2.173074007034301869e-01,2.172953128814697210e-01,2.172832489013671875e-01,2.172711610794067494e-01,2.172590970993041881e-01,2.172470331192016546e-01,2.172349691390991211e-01,2.172229051589965876e-01,2.172108411788940541e-01,2.171987771987914928e-01,2.171867132186889593e-01,2.171746730804443304e-01,2.171626091003417969e-01,2.171505451202392634e-01,2.171384811401367299e-01,2.171264410018921009e-01,2.171143770217895397e-01,2.171023368835449108e-01,2.170902729034423773e-01,2.170782327651977484e-01,2.170661687850952148e-01,2.170541286468505859e-01,2.170420885086059570e-01,2.170300483703613281e-01,2.170180082321166992e-01,2.170059442520141657e-01,2.169939041137695368e-01,2.169818639755249079e-01,2.169698476791381836e-01,2.013051986694335826e-01,1.988717913627624512e-01,1.980901956558227539e-01,1.971600294113159124e-01,1.965645670890808216e-01,1.970908999443054255e-01,1.983004331588745228e-01,1.966104269027710016e-01,2.168615579605102650e-01,2.168495178222656361e-01,2.168375015258789118e-01,2.168254852294921875e-01,2.168134689331054632e-01,2.168014526367187389e-01,2.167894363403320424e-01,2.167774200439453181e-01,2.167654037475585938e-01,2.167533874511718694e-01,2.167413711547851451e-01,2.167293787002563532e-01,2.167173624038696289e-01,2.167053461074829046e-01,2.166933536529541127e-01,2.166813373565673884e-01,2.166693449020385687e-01,2.166573286056518444e-01,2.166453361511230524e-01,2.166333436965942327e-01,2.166213512420654408e-01,2.166093587875366211e-01,2.165973663330078014e-01,2.165853500366211049e-01,2.165733575820922852e-01,2.165613651275634655e-01,2.165493726730346735e-01,2.165373802185058538e-01,2.165254116058349665e-01,2.165134191513061468e-01,2.165014505386352595e-01,2.164894580841064398e-01,2.164774656295776478e-01
2.042072534561157338e-01,2.041965961456298773e-01,2.041859388351440485e-01,2.041752815246581920e-01,2.041646242141723633e-01,2.041539669036865345e-01,2.041433095932006780e-01,2.041326522827148493e-01,2.041219949722289928e-01,2.041113376617431641e-01,2.041006803512573353e-01,2.040900230407714788e-01,2.040793895721435547e-01,2.040687322616577259e-01,2.040580749511718694e-01,2.040474414825439453e-01,2.040367841720581166e-01,2.040261507034301647e-01,2.040154933929443359e-01,2.040048837661743164e-01,2.039942264556884877e-01,2.039835929870605358e-01,2.039729595184326116e-01,2.039623260498046875e-01,2.039516687393188588e-01,2.039410352706909069e-01,2.039304018020629827e-01,2.039197683334350586e-01,2.039091348648071345e-01,2.038985013961792103e-01,2.038878917694091908e-01,2.038772583007812389e-01,2.038666248321533148e-01,2.038559913635253906e-01,2.038453817367553711e-01,2.038347482681274470e-01,2.038241147994995228e-01,2.038135051727295033e-01,2.038028717041015514e-01,2.037922620773315319e-01,1.979754567146301270e-01,1.952274322509765514e-01,1.941326022148132380e-01,1.937558293342590277e-01,1.933133840560913030e-01,1.939635396003723256e-01,1.957056045532226674e-01,2.037073373794555664e-01,2.036967277526855469e-01,2.036861181259155273e-01,2.036755084991455078e-01,2.036648988723754883e-01,2.036542892456054688e-01,2.036437034606933538e-01,2.036330938339233343e-01,2.036224842071533148e-01,2.036118984222411998e-01,2.036012887954711803e-01,2.035907030105590931e-01,2.035800933837890736e-01,2.035695075988769587e-01,2.035588979721069391e-01,2.035483121871948242e-01,2.035377264022827093e-01,2.035271406173705944e-01,2.035165548324585072e-01,2.035059690475463923e-01,2.034953594207763727e-01,2.034847736358642578e-01,2.034741878509521429e-01,2.034636020660400280e-01,2.034530401229858454e-01,2.034424543380737305e-01,2.034318685531616155e-01,2.034212827682495006e-01,2.034106969833374134e-01,2.034001350402832031e-01,2.033895492553710882e-01,2.033789873123169056e-01,2.033684015274047907e-01
1.925019860267639105e-01,1.924925208091735895e-01,1.924830436706543024e-01,1.924735665321350153e-01,1.924640893936157282e-01,1.924546241760253795e-01,1.924451470375060924e-01,1.924356818199157715e-01,1.924262166023254506e-01,1.924167394638061634e-01,1.924072742462158148e-01,1.923978090286254938e-01,1.923883438110351451e-01,1.923788785934448242e-01,1.923694252967834417e-01,1.923599600791931208e-01,1.923504948616027721e-01,1.923410415649414174e-01,1.923315763473510687e-01,1.923221230506896862e-01,1.923126578330993652e-01,1.923032045364379827e-01,1.922937512397766002e-01,1.922842979431152455e-01,1.922748446464538630e-01,1.922653913497924805e-01,1.922559380531310980e-01,1.922464847564697155e-01,1.922370314598083607e-01,1.922275900840759166e-01,1.922181367874145619e-01,1.922086954116821178e-01,1.921992421150207631e-01,1.921898007392883190e-01,1.921803593635559027e-01,1.921709179878234863e-01,1.921614766120910700e-01,1.921520233154296875e-01,1.921425938606262096e-01,1.921331524848937933e-01,1.921237111091613770e-01,1.921142697334289606e-01,1.921048402786254827e-01,1.920953989028930664e-01,1.920859694480895885e-01,1.920765519142150768e-01,1.920671224594116266e-01,1.920576810836792103e-01,1.920482516288757324e-01,1.920387983322143499e-01,1.920293688774108998e-01,1.920199394226074219e-01,1.920105099678039440e-01,1.920010924339294323e-01,1.919916629791259821e-01,1.919822335243225042e-01,1.919728159904479925e-01,1.919633865356445424e-01,1.919539690017700306e-01,1.919445514678955189e-01,1.919351220130920410e-01,1.919257283210754339e-01,1.919163107872009222e-01,1.919068932533264105e-01,1.918974757194518987e-01,1.918880581855773870e-01,1.918786406517028753e-01,1.918692350387573298e-01,1.918598175048828181e-01,1.918503999710083063e-01,1.918409943580627330e-01,1.918315887451171875e-01,1.918221712112426758e-01,1.918127655982971302e-01,1.918033599853515569e-01,1.917939782142639160e-01,1.917845726013183705e-01,1.917751669883727972e-01,1.917657613754272516e-01,1.917563557624816784e-01
1.820658564567566029e-01,1.820573806762695312e-01,1.820489048957824596e-01,1.820404410362243541e-01,1.820319652557373102e-01,1.820234894752502386e-01,1.820150136947631947e-01,1.820065498352050892e-01,1.819980740547180176e-01,1.819896101951599121e-01,1.819811344146728405e-01,1.819726705551147350e-01,1.819642066955566295e-01,1.819557309150695856e-01,1.819472670555114802e-01,1.819388031959533747e-01,1.819303393363952692e-01,1.819218754768371638e-01,1.819134116172790583e-01,1.819049596786498912e-01,1.818964958190917858e-01,1.818880319595336803e-01,1.818795800209045410e-01,1.818711161613464355e-01,1.818626642227172963e-01,1.818542003631591908e-01,1.818457484245300237e-01,1.818372964859008845e-01,1.818288326263427790e-01,1.818203806877136119e-01,1.818119287490844727e-01,1.818034768104553334e-01,1.817950248718261663e-01,1.817865729331970270e-01,1.817781329154968262e-01,1.817696809768676869e-01,1.817612290382385198e-01,1.817527890205383190e-01,1.817443370819091797e-01,1.817358970642089788e-01,1.817274451255798395e-01,1.817190051078796387e-01,1.817105650901794378e-01,1.817021131515502985e-01,1.816936731338500977e-01,1.816852569580078014e-01,1.816768169403076283e-01,1.816683769226074274e-01,1.816599369049072266e-01,1.816514968872070257e-01,1.816430568695068248e-01,1.816346287727355902e-01,1.816261887550353893e-01,1.816177368164062500e-01,1.816092967987060491e-01,1.816008687019348145e-01,1.815924406051635798e-01,1.815840005874633789e-01,1.815755724906921442e-01,1.815671443939209095e-01,1.815587162971496471e-01,1.815502882003784124e-01,1.815418601036071777e-01,1.815334320068359431e-01,1.815250277519226130e-01,1.815165996551513783e-01,1.815081715583801159e-01,1.814997553825378473e-01,1.814913272857666127e-01,1.814828991889953502e-01,1.814744830131530817e-01,1.814660668373107855e-01,1.814576387405395508e-01,1.814492225646972545e-01,1.814408063888549860e-01,1.814323902130126898e-01,1.814239740371704213e-01,1.814155578613281250e-01,1.814071655273437611e-01,1.813987493515014648e-01
1.727030873298645020e-01,1.726954698562622181e-01,1.726878404617309681e-01,1.726802110671997181e-01,1.726725935935974066e-01,1.726649641990661566e-01,1.726573467254638727e-01,1.726497173309326227e-01,1.726420998573303112e-01,1.726344823837280273e-01,1.726268529891967773e-01,1.726192355155944935e-01,1.726116180419921819e-01,1.726040005683898981e-01,1.725963830947875866e-01,1.725887656211853027e-01,1.725811481475830189e-01,1.725735306739807073e-01,1.725659251213073619e-01,1.725583076477050781e-01,1.725506901741027943e-01,1.725430846214294489e-01,1.725354671478271373e-01,1.725278496742248535e-01,1.725202441215515081e-01,1.725126385688781627e-01,1.725050210952758789e-01,1.724974155426025335e-01,1.724898099899291881e-01,1.724822044372558705e-01,1.724745869636535589e-01,1.724669814109802135e-01,1.724593758583068959e-01,1.724517822265624889e-01,1.724441766738891713e-01,1.724365711212158259e-01,1.724289655685424805e-01,1.724213600158691351e-01,1.724137663841247559e-01,1.724061608314514105e-01,1.723985552787780651e-01,1.723909616470336859e-01,1.723833680152893066e-01,1.723757624626159612e-01,1.723681688308715820e-01,1.723605871200561412e-01,1.723529934883117620e-01,1.723453998565673828e-01,1.723378062248230036e-01,1.723302125930786244e-01,1.723226070404052790e-01,1.723150253295898382e-01,1.723074316978454590e-01,1.722998380661010798e-01,1.722922444343567006e-01,1.722846508026122936e-01,1.722770690917968806e-01,1.722694635391235352e-01,1.722618699073791559e-01,1.722542881965637152e-01,1.722466945648193359e-01,1.722391128540038951e-01,1.722315311431884821e-01,1.722239375114441029e-01,1.722163558006286621e-01,1.722087740898132213e-01,1.722011923789978083e-01,1.721936225891113337e-01,1.721860408782958929e-01,1.721784591674804799e-01,1.721708893775940052e-01,1.721633076667785645e-01,1.721557259559631237e-01,1.721481442451477106e-01,1.721405744552612360e-01,1.721329927444457952e-01,1.721254229545593206e-01,1.721178412437439076e-01,1.721102714538574330e-01,1.721026897430419922e-01
1.642561912536621149e-01,1.642492890357971080e-01,1.642423987388610951e-01,1.642354965209960882e-01,1.642285943031311091e-01,1.642217040061950684e-01,1.642148017883300892e-01,1.642079114913940485e-01,1.642010211944580078e-01,1.641941189765930287e-01,1.641872286796569880e-01,1.641803383827209473e-01,1.641734480857849066e-01,1.641665577888488659e-01,1.641596674919128529e-01,1.641527771949768122e-01,1.641458868980407715e-01,1.641389966011047308e-01,1.641321063041686901e-01,1.641252160072326771e-01,1.641183257102966364e-01,1.641114473342895619e-01,1.641045570373535212e-01,1.640976667404174805e-01,1.640907883644104059e-01,1.640838980674743652e-01,1.640770196914672907e-01,1.640701293945312500e-01,1.640632510185241755e-01,1.640563726425171009e-01,1.640494823455810602e-01,1.640426039695739857e-01,1.640357255935668834e-01,1.640288472175598089e-01,1.640219688415527344e-01,1.640150904655456598e-01,1.640082120895385853e-01,1.640013337135314830e-01,1.639944553375244085e-01,1.639875769615173340e-01,1.639806985855102595e-01,1.639738202095031849e-01,1.639669537544250488e-01,1.639600753784179743e-01,1.639531970024108998e-01,1.639463424682617299e-01,1.639394760131835938e-01,1.639325976371765192e-01,1.639257311820983831e-01,1.639188528060913086e-01,1.639119863510131725e-01,1.639051198959350641e-01,1.638982534408569280e-01,1.638913750648498535e-01,1.638845086097717174e-01,1.638776421546936091e-01,1.638707756996154730e-01,1.638639092445373646e-01,1.638570427894592285e-01,1.638501763343810924e-01,1.638432979583740179e-01,1.638364315032959095e-01,1.638295769691467396e-01,1.638227105140686035e-01,1.638158440589904674e-01,1.638089895248412975e-01,1.638021230697631891e-01,1.637952685356140192e-01,1.637884020805358831e-01,1.637815475463867132e-01,1.637746810913086049e-01,1.637678384780883734e-01,1.637609839439392034e-01,1.637541294097900335e-01,1.637472748756408636e-01,1.637404203414916937e-01,1.637335538864135853e-01,1.637266993522644154e-01,1.637198448181152455e-01,1.637130022048950140e-01
1.565970420837402288e-01,1.565907716751098744e-01,1.565845012664794922e-01,1.565782308578491100e-01,1.565719604492187556e-01,1.565656900405883734e-01,1.565594196319580189e-01,1.565531611442566029e-01,1.565468907356262207e-01,1.565406203269958385e-01,1.565343618392944225e-01,1.565280914306640681e-01,1.565218329429626520e-01,1.565155625343322698e-01,1.565093040466308538e-01,1.565030336380004994e-01,1.564967751502990834e-01,1.564905047416687012e-01,1.564842462539672852e-01,1.564779877662658691e-01,1.564717292785644531e-01,1.564654707908630371e-01,1.564592003822326549e-01,1.564529418945312389e-01,1.564466834068298229e-01,1.564404249191284069e-01,1.564341664314269909e-01,1.564279198646545410e-01,1.564216613769531250e-01,1.564154028892517090e-01,1.564091444015502930e-01,1.564028859138488770e-01,1.563966393470764271e-01,1.563903808593750111e-01,1.563841223716735951e-01,1.563778758049011175e-01,1.563716173171997015e-01,1.563653707504272516e-01,1.563591122627258356e-01,1.563528656959533580e-01,1.563466191291809082e-01,1.563403606414794922e-01,1.563341140747070424e-01,1.563278675079345648e-01,1.563216209411621149e-01,1.563153862953186035e-01,1.563091397285461537e-01,1.563028931617736761e-01,1.562966465950012263e-01,1.562904000282287487e-01,1.562841534614562988e-01,1.562779068946838490e-01,1.562716603279113714e-01,1.562654137611389216e-01,1.562591671943664440e-01,1.562529325485229603e-01,1.562466859817504827e-01,1.562404394149780329e-01,1.562342047691345215e-01,1.562279582023620716e-01,1.562217235565185602e-01,1.562154769897460826e-01,1.562092423439025990e-01,1.562029957771301214e-01,1.561967492103576716e-01,1.561905026435851940e-01,1.561842679977417103e-01,1.561780333518981989e-01,1.561717987060546875e-01,1.561655640602111761e-01,1.561593174934387263e-01,1.561530828475952148e-01,1.561468482017517034e-01,1.561406135559081920e-01,1.561343789100647084e-01,1.561281681060791016e-01,1.561219334602355902e-01,1.561156988143920787e-01,1.561094641685485951e-01,1.561032414436340221e-01
