6.199771404266357644e-01,6.357107639312744585e-01,6.522637844085693581e-01,6.697019577026367410e-01,6.880980968475342019e-01,7.075334072113037553e-01,7.280965805053710715e-01,7.498906612396240012e-01,7.730297565460204634e-01,7.976423263549804465e-01,8.238737106323241743e-01,8.518890380859375222e-01,8.818767547607422319e-01,9.140526771545409712e-01,9.486655235290527566e-01,9.860029220581054688e-01,1.000000000000000000e+00,1.000000000000000000e+00,1.000000000000000000e+00,1.000000000000000000e+00,1.000000000000000000e+00,1.000000000000000000e+00,1.000000000000000000e+00,1.000000000000000000e+00,1.000000000000000000e+00,1.000000000000000000e+00,1.000000000000000000e+00,1.000000000000000000e+00,1.000000000000000000e+00,1.000000000000000000e+00,1.000000000000000000e+00,1.000000000000000000e+00,1.000000000000000000e+00,1.000000000000000000e+00,1.000000000000000000e+00,1.000000000000000000e+00,1.000000000000000000e+00,1.000000000000000000e+00,1.000000000000000000e+00,1.000000000000000000e+00,1.000000000000000000e+00,1.000000000000000000e+00,1.000000000000000000e+00,1.000000000000000000e+00,1.000000000000000000e+00,1.000000000000000000e+00,1.000000000000000000e+00,1.000000000000000000e+00,1.000000000000000000e+00,1.000000000000000000e+00,1.000000000000000000e+00,1.000000000000000000e+00,1.000000000000000000e+00,1.000000000000000000e+00,1.000000000000000000e+00,1.000000000000000000e+00,1.000000000000000000e+00,1.000000000000000000e+00,1.000000000000000000e+00,1.000000000000000000e+00,1.000000000000000000e+00,1.000000000000000000e+00,1.000000000000000000e+00,1.000000000000000000e+00,1.000000000000000000e+00,1.000000000000000000e+00,1.000000000000000000e+00,1.000000000000000000e+00,1.000000000000000000e+00,1.000000000000000000e+00,9.682345390319824219e-01,9.365883827209472434e-01,9.069453239440917747e-01,8.791212081909179910e-01,8.529534339904785156e-01,8.282984733581543191e-01,8.050288200378418191e-01,7.830308914184570535e-01,7.622026443481445535e-01,7.424534797668457253e-01
6.199638366699218306e-01,6.356968402862548384e-01,6.522491455078125444e-01,6.696864604949951394e-01,6.880816936492919478e-01,7.075161457061767134e-01,7.280802726745605469e-01,7.498733997344970703e-01,7.730114459991455078e-01,7.976227760314941184e-01,8.238529205322265847e-01,8.518668174743652122e-01,8.818529129028320757e-01,9.140271186828613503e-01,9.486378669738769753e-01,9.859730720520019087e-01,1.000000000000000000e+00,1.000000000000000000e+00,1.000000000000000000e+00,1.000000000000000000e+00,1.000000000000000000e+00,1.000000000000000000e+00,1.000000000000000000e+00,1.000000000000000000e+00,1.000000000000000000e+00,1.000000000000000000e+00,1.000000000000000000e+00,1.000000000000000000e+00,1.000000000000000000e+00,1.000000000000000000e+00,1.000000000000000000e+00,1.000000000000000000e+00,1.000000000000000000e+00,1.000000000000000000e+00,1.000000000000000000e+00,1.000000000000000000e+00,1.000000000000000000e+00,1.000000000000000000e+00,1.000000000000000000e+00,1.000000000000000000e+00,1.000000000000000000e+00,1.000000000000000000e+00,1.000000000000000000e+00,1.000000000000000000e+00,1.000000000000000000e+00,1.000000000000000000e+00,1.000000000000000000e+00,1.000000000000000000e+00,1.000000000000000000e+00,1.000000000000000000e+00,1.000000000000000000e+00,1.000000000000000000e+00,1.000000000000000000e+00,1.000000000000000000e+00,1.000000000000000000e+00,1.000000000000000000e+00,1.000000000000000000e+00,1.000000000000000000e+00,1.000000000000000000e+00,1.000000000000000000e+00,1.000000000000000000e+00,1.000000000000000000e+00,1.000000000000000000e+00,1.000000000000000000e+00,1.000000000000000000e+00,1.000000000000000000e+00,1.000000000000000000e+00,1.000000000000000000e+00,1.000000000000000000e+00,1.000000000000000000e+00,9.682627677917480247e-01,9.366147994995117632e-01,9.069701194763183372e-01,8.791444778442383257e-01,8.529753684997558594e-01,8.283188819885254350e-01,8.050472259521483931e-01,7.830475330352782981e-01,7.622181415557861550e-01,7.424682140350341575e-01
6.199505805969238725e-01,6.356828689575195757e-01,6.522344589233398660e-01,6.696710109710692915e-01,6.880654335021972878e-01,7.074988365173340288e-01,7.280619621276855913e-01,7.498561382293701394e-01,7.729931831359863059e-01,7.976033687591552734e-01,8.238321304321288840e-01,8.518445968627930132e-01,8.818290710449219194e-01,9.140014648437500000e-01,9.486103057861328125e-01,9.859433174133300781e-01,1.000000000000000000e+00,1.000000000000000000e+00,1.000000000000000000e+00,1.000000000000000000e+00,1.000000000000000000e+00,1.000000000000000000e+00,1.000000000000000000e+00,1.000000000000000000e+00,1.000000000000000000e+00,1.000000000000000000e+00,1.000000000000000000e+00,1.000000000000000000e+00,1.000000000000000000e+00,1.000000000000000000e+00,1.000000000000000000e+00,1.000000000000000000e+00,1.000000000000000000e+00,1.000000000000000000e+00,1.000000000000000000e+00,1.000000000000000000e+00,1.000000000000000000e+00,1.000000000000000000e+00,1.000000000000000000e+00,1.000000000000000000e+00,1.000000000000000000e+00,1.000000000000000000e+00,1.000000000000000000e+00,1.000000000000000000e+00,1.000000000000000000e+00,1.000000000000000000e+00,1.000000000000000000e+00,1.000000000000000000e+00,1.000000000000000000e+00,1.000000000000000000e+00,1.000000000000000000e+00,1.000000000000000000e+00,1.000000000000000000e+00,1.000000000000000000e+00,1.000000000000000000e+00,1.000000000000000000e+00,1.000000000000000000e+00,1.000000000000000000e+00,1.000000000000000000e+00,1.000000000000000000e+00,1.000000000000000000e+00,1.000000000000000000e+00,1.000000000000000000e+00,1.000000000000000000e+00,1.000000000000000000e+00,1.000000000000000000e+00,1.000000000000000000e+00,1.000000000000000000e+00,1.000000000000000000e+00,1.000000000000000000e+00,9.682909965515136275e-01,9.366411209106445535e-01,9.069949150085448997e-01,8.791667938232421431e-01,8.529954910278320090e-01,8.283371925354003906e-01,8.050644874572754350e-01,7.830638885498046875e-01,7.622336387634277566e-01,7.424829006195068359e-01
6.199373245239258035e-01,6.356689929962158203e-01,6.522197723388671875e-01,6.696555137634276900e-01,6.880490303039550337e-01,7.074815273284912331e-01,7.280436992645263894e-01,7.498367786407470481e-01,7.729748249053954856e-01,7.975838184356689453e-01,8.238112449645995650e-01,8.518222808837890847e-01,8.818052291870117632e-01,9.139758110046386497e-01,9.485827445983886497e-01,9.859134674072265181e-01,1.000000000000000000e+00,1.000000000000000000e+00,1.000000000000000000e+00,1.000000000000000000e+00,1.000000000000000000e+00,1.000000000000000000e+00,1.000000000000000000e+00,1.000000000000000000e+00,1.000000000000000000e+00,1.000000000000000000e+00,1.000000000000000000e+00,1.000000000000000000e+00,1.000000000000000000e+00,1.000000000000000000e+00,1.000000000000000000e+00,1.000000000000000000e+00,1.000000000000000000e+00,1.000000000000000000e+00,1.000000000000000000e+00,1.000000000000000000e+00,1.000000000000000000e+00,1.000000000000000000e+00,1.000000000000000000e+00,1.000000000000000000e+00,1.000000000000000000e+00,1.000000000000000000e+00,1.000000000000000000e+00,1.000000000000000000e+00,1.000000000000000000e+00,1.000000000000000000e+00,1.000000000000000000e+00,1.000000000000000000e+00,1.000000000000000000e+00,1.000000000000000000e+00,1.000000000000000000e+00,1.000000000000000000e+00,1.000000000000000000e+00,1.000000000000000000e+00,1.000000000000000000e+00,1.000000000000000000e+00,1.000000000000000000e+00,1.000000000000000000e+00,1.000000000000000000e+00,1.000000000000000000e+00,1.000000000000000000e+00,1.000000000000000000e+00,1.000000000000000000e+00,1.000000000000000000e+00,1.000000000000000000e+00,1.000000000000000000e+00,1.000000000000000000e+00,1.000000000000000000e+00,1.000000000000000000e+00,1.000000000000000000e+00,9.683186531066894087e-01,9.366659164428711160e-01,9.070169448852538618e-01,8.791874885559082253e-01,8.530148506164551003e-01,8.283555030822753462e-01,8.050818443298339844e-01,7.830802440643310769e-01,7.622491359710693581e-01,7.424976825714111328e-01
6.199240684509277344e-01,6.356550216674804465e-01,6.522050857543945090e-01,6.696400165557860884e-01,6.880327701568603738e-01,7.074643135070800559e-01,7.280253887176513228e-01,7.498173713684082031e-01,7.729541778564452681e-01,7.975643157958984819e-01,8.237904548645019753e-01,8.518000602722167747e-01,8.817813873291016069e-01,9.139502525329590288e-01,9.485550880432128684e-01,9.858836174011230691e-01,1.000000000000000000e+00,1.000000000000000000e+00,1.000000000000000000e+00,1.000000000000000000e+00,1.000000000000000000e+00,1.000000000000000000e+00,1.000000000000000000e+00,1.000000000000000000e+00,1.000000000000000000e+00,1.000000000000000000e+00,1.000000000000000000e+00,1.000000000000000000e+00,1.000000000000000000e+00,1.000000000000000000e+00,1.000000000000000000e+00,1.000000000000000000e+00,1.000000000000000000e+00,1.000000000000000000e+00,1.000000000000000000e+00,1.000000000000000000e+00,1.000000000000000000e+00,1.000000000000000000e+00,1.000000000000000000e+00,1.000000000000000000e+00,1.000000000000000000e+00,1.000000000000000000e+00,1.000000000000000000e+00,1.000000000000000000e+00,1.000000000000000000e+00,1.000000000000000000e+00,1.000000000000000000e+00,1.000000000000000000e+00,1.000000000000000000e+00,1.000000000000000000e+00,1.000000000000000000e+00,1.000000000000000000e+00,1.000000000000000000e+00,1.000000000000000000e+00,1.000000000000000000e+00,1.000000000000000000e+00,1.000000000000000000e+00,1.000000000000000000e+00,1.000000000000000000e+00,1.000000000000000000e+00,1.000000000000000000e+00,1.000000000000000000e+00,1.000000000000000000e+00,1.000000000000000000e+00,1.000000000000000000e+00,1.000000000000000000e+00,1.000000000000000000e+00,1.000000000000000000e+00,1.000000000000000000e+00,1.000000000000000000e+00,9.683437347412109375e-01,9.366892814636230691e-01,9.070389747619629350e-01,8.792080879211425781e-01,8.530343055725098100e-01,8.283738136291504128e-01,8.050991058349609153e-01,7.830965995788574663e-01,7.622647285461425781e-01,7.425124168395995650e-01
6.199108123779296653e-01,6.356410503387450728e-01,6.521904468536376953e-01,6.696245670318603516e-01,6.880163669586181197e-01,7.074470043182372603e-01,7.280070781707763672e-01,7.497980117797851118e-01,7.729336261749267800e-01,7.975424289703368919e-01,8.237696647644042747e-01,8.517778396606445757e-01,8.817575454711914507e-01,9.139245986938476785e-01,9.485275268554687056e-01,9.858538627624511275e-01,1.000000000000000000e+00,1.000000000000000000e+00,1.000000000000000000e+00,1.000000000000000000e+00,1.000000000000000000e+00,1.000000000000000000e+00,1.000000000000000000e+00,1.000000000000000000e+00,1.000000000000000000e+00,1.000000000000000000e+00,1.000000000000000000e+00,1.000000000000000000e+00,1.000000000000000000e+00,1.000000000000000000e+00,1.000000000000000000e+00,1.000000000000000000e+00,1.000000000000000000e+00,1.000000000000000000e+00,1.000000000000000000e+00,1.000000000000000000e+00,1.000000000000000000e+00,1.000000000000000000e+00,1.000000000000000000e+00,1.000000000000000000e+00,1.000000000000000000e+00,1.000000000000000000e+00,1.000000000000000000e+00,1.000000000000000000e+00,1.000000000000000000e+00,1.000000000000000000e+00,1.000000000000000000e+00,1.000000000000000000e+00,1.000000000000000000e+00,1.000000000000000000e+00,1.000000000000000000e+00,1.000000000000000000e+00,1.000000000000000000e+00,1.000000000000000000e+00,1.000000000000000000e+00,1.000000000000000000e+00,1.000000000000000000e+00,1.000000000000000000e+00,1.000000000000000000e+00,1.000000000000000000e+00,1.000000000000000000e+00,1.000000000000000000e+00,1.000000000000000000e+00,1.000000000000000000e+00,1.000000000000000000e+00,1.000000000000000000e+00,1.000000000000000000e+00,1.000000000000000000e+00,1.000000000000000000e+00,1.000000000000000000e+00,9.683687210083007368e-01,9.367127418518066406e-01,9.070609092712402788e-01,8.792287826538085493e-01,8.530537605285644087e-01,8.283921241760253684e-01,8.051164627075195757e-01,7.831130504608154741e-01,7.622802257537841797e-01,7.425271034240722434e-01
6.198975563049315962e-01,6.356271266937255637e-01,6.521757602691650169e-01,6.696090698242187500e-01,6.880000114440918413e-01,7.074297904968261941e-01,7.279888153076171653e-01,7.497785568237305132e-01,7.729129791259765625e-01,7.975205421447754128e-01,8.237462997436523215e-01,8.517555236816406472e-01,8.817337036132812944e-01,9.138990402221679465e-01,9.484999656677246538e-01,9.858240127563476785e-01,1.000000000000000000e+00,1.000000000000000000e+00,1.000000000000000000e+00,1.000000000000000000e+00,1.000000000000000000e+00,1.000000000000000000e+00,1.000000000000000000e+00,1.000000000000000000e+00,1.000000000000000000e+00,1.000000000000000000e+00,1.000000000000000000e+00,1.000000000000000000e+00,1.000000000000000000e+00,1.000000000000000000e+00,1.000000000000000000e+00,1.000000000000000000e+00,1.000000000000000000e+00,1.000000000000000000e+00,1.000000000000000000e+00,1.000000000000000000e+00,1.000000000000000000e+00,1.000000000000000000e+00,1.000000000000000000e+00,1.000000000000000000e+00,1.000000000000000000e+00,1.000000000000000000e+00,1.000000000000000000e+00,1.000000000000000000e+00,1.000000000000000000e+00,1.000000000000000000e+00,1.000000000000000000e+00,1.000000000000000000e+00,1.000000000000000000e+00,1.000000000000000000e+00,1.000000000000000000e+00,1.000000000000000000e+00,1.000000000000000000e+00,1.000000000000000000e+00,1.000000000000000000e+00,1.000000000000000000e+00,1.000000000000000000e+00,1.000000000000000000e+00,1.000000000000000000e+00,1.000000000000000000e+00,1.000000000000000000e+00,1.000000000000000000e+00,1.000000000000000000e+00,1.000000000000000000e+00,1.000000000000000000e+00,1.000000000000000000e+00,1.000000000000000000e+00,1.000000000000000000e+00,1.000000000000000000e+00,1.000000000000000000e+00,9.683937072753906472e-01,9.367361068725585938e-01,9.070828437805176225e-01,8.792493820190430132e-01,8.530731201171875000e-01,8.284104347229004350e-01,8.051337242126465066e-01,7.831294059753417525e-01,7.622957229614257812e-01,7.425417900085449219e-01
6.198843002319336382e-01,6.356131553649901900e-01,6.521610260009765847e-01,6.695936203002930132e-01,6.879837512969970703e-01,7.074124813079833984e-01,7.279705047607422097e-01,7.497591495513915572e-01,7.728924274444579634e-01,7.974985122680664507e-01,8.237229347229003684e-01,8.517306327819824663e-01,8.817098617553711382e-01,9.138733863830565962e-01,9.484724044799804910e-01,9.857942581176757368e-01,1.000000000000000000e+00,1.000000000000000000e+00,1.000000000000000000e+00,1.000000000000000000e+00,1.000000000000000000e+00,1.000000000000000000e+00,1.000000000000000000e+00,1.000000000000000000e+00,1.000000000000000000e+00,1.000000000000000000e+00,1.000000000000000000e+00,1.000000000000000000e+00,1.000000000000000000e+00,1.000000000000000000e+00,1.000000000000000000e+00,1.000000000000000000e+00,1.000000000000000000e+00,1.000000000000000000e+00,1.000000000000000000e+00,1.000000000000000000e+00,1.000000000000000000e+00,1.000000000000000000e+00,1.000000000000000000e+00,1.000000000000000000e+00,1.000000000000000000e+00,1.000000000000000000e+00,1.000000000000000000e+00,1.000000000000000000e+00,1.000000000000000000e+00,1.000000000000000000e+00,1.000000000000000000e+00,1.000000000000000000e+00,1.000000000000000000e+00,1.000000000000000000e+00,1.000000000000000000e+00,1.000000000000000000e+00,1.000000000000000000e+00,1.000000000000000000e+00,1.000000000000000000e+00,1.000000000000000000e+00,1.000000000000000000e+00,1.000000000000000000e+00,1.000000000000000000e+00,1.000000000000000000e+00,1.000000000000000000e+00,1.000000000000000000e+00,1.000000000000000000e+00,1.000000000000000000e+00,1.000000000000000000e+00,1.000000000000000000e+00,1.000000000000000000e+00,1.000000000000000000e+00,1.000000000000000000e+00,1.000000000000000000e+00,9.684187889099120650e-01,9.367595672607421653e-01,9.071048736572265847e-01,8.792699813842773660e-01,8.530926704406738281e-01,8.284287452697753906e-01,8.051510810852050559e-01,7.831457614898681419e-01,7.623112201690673828e-01,7.425565242767333540e-01
6.198709964752197044e-01,6.355992794036865456e-01,6.521463871002197710e-01,6.695781230926514116e-01,6.879673480987549272e-01,7.073951721191406028e-01,7.279522895812988725e-01,7.497397899627685769e-01,7.728717327117919922e-01,7.974765300750732422e-01,8.236995697021484153e-01,8.517056465148925559e-01,8.816832542419433816e-01,9.138478279113769753e-01,9.484447479248047097e-01,9.857644081115722878e-01,1.000000000000000000e+00,1.000000000000000000e+00,1.000000000000000000e+00,1.000000000000000000e+00,1.000000000000000000e+00,1.000000000000000000e+00,1.000000000000000000e+00,1.000000000000000000e+00,1.000000000000000000e+00,1.000000000000000000e+00,1.000000000000000000e+00,1.000000000000000000e+00,1.000000000000000000e+00,1.000000000000000000e+00,1.000000000000000000e+00,1.000000000000000000e+00,1.000000000000000000e+00,1.000000000000000000e+00,1.000000000000000000e+00,1.000000000000000000e+00,1.000000000000000000e+00,1.000000000000000000e+00,1.000000000000000000e+00,1.000000000000000000e+00,1.000000000000000000e+00,1.000000000000000000e+00,1.000000000000000000e+00,1.000000000000000000e+00,1.000000000000000000e+00,1.000000000000000000e+00,1.000000000000000000e+00,1.000000000000000000e+00,1.000000000000000000e+00,1.000000000000000000e+00,1.000000000000000000e+00,1.000000000000000000e+00,1.000000000000000000e+00,1.000000000000000000e+00,1.000000000000000000e+00,1.000000000000000000e+00,1.000000000000000000e+00,1.000000000000000000e+00,1.000000000000000000e+00,1.000000000000000000e+00,1.000000000000000000e+00,1.000000000000000000e+00,1.000000000000000000e+00,1.000000000000000000e+00,1.000000000000000000e+00,1.000000000000000000e+00,1.000000000000000000e+00,1.000000000000000000e+00,1.000000000000000000e+00,1.000000000000000000e+00,9.684437751770019753e-01,9.367830276489257368e-01,9.071268081665039285e-01,8.792906761169433372e-01,8.531120300292969194e-01,8.284471511840820757e-01,8.051683425903319868e-01,7.831621170043945312e-01,7.623267173767089844e-01,7.425713062286376509e-01
6.198577880859375000e-01,6.355853080749511719e-01,6.521317005157470925e-01,6.695626258850098100e-01,6.879510879516601562e-01,7.073779582977295366e-01,7.279339313507080522e-01,7.497203350067138672e-01,7.728511810302733931e-01,7.974546432495117632e-01,8.236761093139648438e-01,8.516806602478027566e-01,8.816563606262206587e-01,9.138193130493164062e-01,9.484171867370605469e-01,9.857346534729003462e-01,1.000000000000000000e+00,1.000000000000000000e+00,1.000000000000000000e+00,1.000000000000000000e+00,1.000000000000000000e+00,1.000000000000000000e+00,1.000000000000000000e+00,1.000000000000000000e+00,1.000000000000000000e+00,1.000000000000000000e+00,1.000000000000000000e+00,1.000000000000000000e+00,1.000000000000000000e+00,1.000000000000000000e+00,1.000000000000000000e+00,1.000000000000000000e+00,1.000000000000000000e+00,1.000000000000000000e+00,1.000000000000000000e+00,1.000000000000000000e+00,1.000000000000000000e+00,1.000000000000000000e+00,1.000000000000000000e+00,1.000000000000000000e+00,1.000000000000000000e+00,1.000000000000000000e+00,1.000000000000000000e+00,1.000000000000000000e+00,1.000000000000000000e+00,1.000000000000000000e+00,1.000000000000000000e+00,1.000000000000000000e+00,1.000000000000000000e+00,1.000000000000000000e+00,1.000000000000000000e+00,1.000000000000000000e+00,1.000000000000000000e+00,1.000000000000000000e+00,1.000000000000000000e+00,1.000000000000000000e+00,1.000000000000000000e+00,1.000000000000000000e+00,1.000000000000000000e+00,1.000000000000000000e+00,1.000000000000000000e+00,1.000000000000000000e+00,1.000000000000000000e+00,1.000000000000000000e+00,1.000000000000000000e+00,1.000000000000000000e+00,1.000000000000000000e+00,1.000000000000000000e+00,1.000000000000000000e+00,1.000000000000000000e+00,9.684688568115233931e-01,9.368063926696776900e-01,9.071488380432128906e-01,8.793112754821776900e-01,8.531314849853515181e-01,8.284654617309570312e-01,8.051856994628906472e-01,7.831784725189209206e-01,7.623423099517822044e-01,7.425859928131103294e-01
6.198368072509765625e-01,6.355677604675292747e-01,6.521170616149902788e-01,6.695472240447998269e-01,6.879347324371337669e-01,7.073606491088867410e-01,7.279157161712646040e-01,7.497010231018066406e-01,7.728305339813232866e-01,7.974326610565185547e-01,8.236526489257812722e-01,8.516555786132812278e-01,8.816295623779296653e-01,9.137905120849609819e-01,9.483865737915039285e-01,9.857048034667968972e-01,1.000000000000000000e+00,1.000000000000000000e+00,1.000000000000000000e+00,1.000000000000000000e+00,1.000000000000000000e+00,1.000000000000000000e+00,1.000000000000000000e+00,1.000000000000000000e+00,1.000000000000000000e+00,1.000000000000000000e+00,1.000000000000000000e+00,1.000000000000000000e+00,1.000000000000000000e+00,1.000000000000000000e+00,1.000000000000000000e+00,1.000000000000000000e+00,1.000000000000000000e+00,1.000000000000000000e+00,1.000000000000000000e+00,1.000000000000000000e+00,1.000000000000000000e+00,1.000000000000000000e+00,1.000000000000000000e+00,1.000000000000000000e+00,1.000000000000000000e+00,1.000000000000000000e+00,1.000000000000000000e+00,1.000000000000000000e+00,1.000000000000000000e+00,1.000000000000000000e+00,1.000000000000000000e+00,1.000000000000000000e+00,1.000000000000000000e+00,1.000000000000000000e+00,1.000000000000000000e+00,1.000000000000000000e+00,1.000000000000000000e+00,1.000000000000000000e+00,1.000000000000000000e+00,1.000000000000000000e+00,1.000000000000000000e+00,1.000000000000000000e+00,1.000000000000000000e+00,1.000000000000000000e+00,1.000000000000000000e+00,1.000000000000000000e+00,1.000000000000000000e+00,1.000000000000000000e+00,1.000000000000000000e+00,1.000000000000000000e+00,1.000000000000000000e+00,1.000000000000000000e+00,1.000000000000000000e+00,1.000000000000000000e+00,9.684939384460449219e-01,9.368299484252929910e-01,9.071707725524902344e-01,8.793319702148437722e-01,8.531509399414062278e-01,8.284837722778319868e-01,8.052029609680175781e-01,7.831949234008789285e-01,7.623578071594238059e-01,7.426007270812988725e-01
6.198138236999511941e-01,6.355435848236083984e-01,6.520924568176269531e-01,6.695262908935546431e-01,6.879178524017334206e-01,7.073434352874755637e-01,7.278974056243896484e-01,7.496815681457519309e-01,7.728098869323730691e-01,7.974107742309570757e-01,8.236292839050293191e-01,8.516305923461914285e-01,8.816027641296386719e-01,9.137616157531738281e-01,9.483554840087891069e-01,9.856718063354492632e-01,1.000000000000000000e+00,1.000000000000000000e+00,1.000000000000000000e+00,1.000000000000000000e+00,1.000000000000000000e+00,1.000000000000000000e+00,1.000000000000000000e+00,1.000000000000000000e+00,1.000000000000000000e+00,1.000000000000000000e+00,1.000000000000000000e+00,1.000000000000000000e+00,1.000000000000000000e+00,1.000000000000000000e+00,1.000000000000000000e+00,1.000000000000000000e+00,1.000000000000000000e+00,1.000000000000000000e+00,1.000000000000000000e+00,1.000000000000000000e+00,1.000000000000000000e+00,1.000000000000000000e+00,1.000000000000000000e+00,1.000000000000000000e+00,1.000000000000000000e+00,1.000000000000000000e+00,1.000000000000000000e+00,1.000000000000000000e+00,1.000000000000000000e+00,1.000000000000000000e+00,1.000000000000000000e+00,1.000000000000000000e+00,1.000000000000000000e+00,1.000000000000000000e+00,1.000000000000000000e+00,1.000000000000000000e+00,1.000000000000000000e+00,1.000000000000000000e+00,1.000000000000000000e+00,1.000000000000000000e+00,1.000000000000000000e+00,1.000000000000000000e+00,1.000000000000000000e+00,1.000000000000000000e+00,1.000000000000000000e+00,1.000000000000000000e+00,1.000000000000000000e+00,1.000000000000000000e+00,1.000000000000000000e+00,1.000000000000000000e+00,1.000000000000000000e+00,1.000000000000000000e+00,1.000000000000000000e+00,1.000000000000000000e+00,9.685190200805664507e-01,9.368533134460449441e-01,9.071928024291991965e-01,8.793526649475097434e-01,8.531703948974609375e-01,8.285020828247070535e-01,8.052203178405761275e-01,7.832112789154053178e-01,7.623733520507812722e-01,7.426154136657714400e-01
6.197931766510009766e-01,6.355194091796875222e-01,6.520670890808105691e-01,6.694994449615478960e-01,6.878895759582519531e-01,7.073184490203857644e-01,7.278768539428710493e-01,7.496622085571289507e-01,7.727893352508544700e-01,7.973887920379638672e-01,8.236058235168457475e-01,8.516055107116698997e-01,8.815759658813476785e-01,9.137328147888184038e-01,9.483244895935059038e-01,9.856382369995116965e-01,1.000000000000000000e+00,1.000000000000000000e+00,1.000000000000000000e+00,1.000000000000000000e+00,1.000000000000000000e+00,1.000000000000000000e+00,1.000000000000000000e+00,1.000000000000000000e+00,1.000000000000000000e+00,1.000000000000000000e+00,1.000000000000000000e+00,1.000000000000000000e+00,1.000000000000000000e+00,1.000000000000000000e+00,1.000000000000000000e+00,1.000000000000000000e+00,1.000000000000000000e+00,1.000000000000000000e+00,1.000000000000000000e+00,1.000000000000000000e+00,1.000000000000000000e+00,1.000000000000000000e+00,1.000000000000000000e+00,1.000000000000000000e+00,1.000000000000000000e+00,1.000000000000000000e+00,1.000000000000000000e+00,1.000000000000000000e+00,1.000000000000000000e+00,1.000000000000000000e+00,1.000000000000000000e+00,1.000000000000000000e+00,1.000000000000000000e+00,1.000000000000000000e+00,1.000000000000000000e+00,1.000000000000000000e+00,1.000000000000000000e+00,1.000000000000000000e+00,1.000000000000000000e+00,1.000000000000000000e+00,1.000000000000000000e+00,1.000000000000000000e+00,1.000000000000000000e+00,1.000000000000000000e+00,1.000000000000000000e+00,1.000000000000000000e+00,1.000000000000000000e+00,1.000000000000000000e+00,1.000000000000000000e+00,1.000000000000000000e+00,1.000000000000000000e+00,1.000000000000000000e+00,1.000000000000000000e+00,1.000000000000000000e+00,9.685440063476562500e-01,9.368767738342285156e-01,9.072147369384765403e-01,8.793732643127440962e-01,8.531898498535156472e-01,8.285204887390136275e-01,8.052376747131347878e-01,7.832276344299315962e-01,7.623888492584228738e-01,7.426301956176757368e-01
6.197799682617187722e-01,6.355034828186034712e-01,6.520455360412598100e-01,6.694726467132567915e-01,6.878612518310547319e-01,7.072885513305664507e-01,7.278451442718505415e-01,7.496324062347412553e-01,7.727642536163330522e-01,7.973668098449706587e-01,8.235824584960937944e-01,8.515805244445801003e-01,8.815491676330566850e-01,9.137040138244628684e-01,9.482933998107909712e-01,9.856047630310058594e-01,1.000000000000000000e+00,1.000000000000000000e+00,1.000000000000000000e+00,1.000000000000000000e+00,1.000000000000000000e+00,1.000000000000000000e+00,1.000000000000000000e+00,1.000000000000000000e+00,1.000000000000000000e+00,1.000000000000000000e+00,1.000000000000000000e+00,1.000000000000000000e+00,1.000000000000000000e+00,1.000000000000000000e+00,1.000000000000000000e+00,1.000000000000000000e+00,1.000000000000000000e+00,1.000000000000000000e+00,1.000000000000000000e+00,1.000000000000000000e+00,1.000000000000000000e+00,1.000000000000000000e+00,1.000000000000000000e+00,1.000000000000000000e+00,1.000000000000000000e+00,1.000000000000000000e+00,1.000000000000000000e+00,1.000000000000000000e+00,1.000000000000000000e+00,1.000000000000000000e+00,1.000000000000000000e+00,1.000000000000000000e+00,1.000000000000000000e+00,1.000000000000000000e+00,1.000000000000000000e+00,1.000000000000000000e+00,1.000000000000000000e+00,1.000000000000000000e+00,1.000000000000000000e+00,1.000000000000000000e+00,1.000000000000000000e+00,1.000000000000000000e+00,1.000000000000000000e+00,1.000000000000000000e+00,1.000000000000000000e+00,1.000000000000000000e+00,1.000000000000000000e+00,1.000000000000000000e+00,1.000000000000000000e+00,1.000000000000000000e+00,1.000000000000000000e+00,1.000000000000000000e+00,1.000000000000000000e+00,1.000000000000000000e+00,9.685690879821777788e-01,9.369002342224120872e-01,9.072366714477538840e-01,8.793939590454101785e-01,8.532092094421386275e-01,8.285387992858886941e-01,8.052549362182617188e-01,7.832439899444579856e-01,7.624043464660644753e-01,7.426449298858642800e-01
6.197667598724365678e-01,6.354896068572998269e-01,6.520308971405028853e-01,6.694563865661621316e-01,6.878387451171874556e-01,7.072592258453369585e-01,7.278134822845458984e-01,7.495987415313720703e-01,7.727284908294678178e-01,7.973310947418212891e-01,8.235517501831054465e-01,8.515554428100585715e-01,8.815222740173339622e-01,9.136752128601074441e-01,9.482624053955077681e-01,9.855711936950684038e-01,1.000000000000000000e+00,1.000000000000000000e+00,1.000000000000000000e+00,1.000000000000000000e+00,1.000000000000000000e+00,1.000000000000000000e+00,1.000000000000000000e+00,1.000000000000000000e+00,1.000000000000000000e+00,1.000000000000000000e+00,1.000000000000000000e+00,1.000000000000000000e+00,1.000000000000000000e+00,1.000000000000000000e+00,1.000000000000000000e+00,1.000000000000000000e+00,1.000000000000000000e+00,1.000000000000000000e+00,1.000000000000000000e+00,1.000000000000000000e+00,1.000000000000000000e+00,1.000000000000000000e+00,1.000000000000000000e+00,1.000000000000000000e+00,1.000000000000000000e+00,1.000000000000000000e+00,1.000000000000000000e+00,1.000000000000000000e+00,1.000000000000000000e+00,1.000000000000000000e+00,1.000000000000000000e+00,1.000000000000000000e+00,1.000000000000000000e+00,1.000000000000000000e+00,1.000000000000000000e+00,1.000000000000000000e+00,1.000000000000000000e+00,1.000000000000000000e+00,1.000000000000000000e+00,1.000000000000000000e+00,1.000000000000000000e+00,1.000000000000000000e+00,1.000000000000000000e+00,1.000000000000000000e+00,1.000000000000000000e+00,1.000000000000000000e+00,1.000000000000000000e+00,1.000000000000000000e+00,1.000000000000000000e+00,1.000000000000000000e+00,1.000000000000000000e+00,1.000000000000000000e+00,1.000000000000000000e+00,1.000000000000000000e+00,9.685941696166991965e-01,9.369235992431640403e-01,9.072587013244628462e-01,8.794145584106445312e-01,8.532286643981933372e-01,8.285571098327636497e-01,8.052722930908202681e-01,7.832603454589843750e-01,7.624199390411376953e-01,7.426596164703369585e-01
6.197535991668701172e-01,6.354756832122803178e-01,6.520163059234619363e-01,6.694409370422362837e-01,6.878225326538085493e-01,7.072419643402099165e-01,7.277898788452148438e-01,7.495675086975097656e-01,7.726927757263183372e-01,7.972930431365966575e-01,8.235112190246581809e-01,8.515123367309570535e-01,8.814846992492675337e-01,9.136440277099608931e-01,9.482313156127929465e-01,9.855377197265624556e-01,1.000000000000000000e+00,1.000000000000000000e+00,1.000000000000000000e+00,1.000000000000000000e+00,1.000000000000000000e+00,1.000000000000000000e+00,1.000000000000000000e+00,1.000000000000000000e+00,1.000000000000000000e+00,1.000000000000000000e+00,1.000000000000000000e+00,1.000000000000000000e+00,1.000000000000000000e+00,1.000000000000000000e+00,1.000000000000000000e+00,1.000000000000000000e+00,1.000000000000000000e+00,1.000000000000000000e+00,1.000000000000000000e+00,1.000000000000000000e+00,1.000000000000000000e+00,1.000000000000000000e+00,1.000000000000000000e+00,1.000000000000000000e+00,1.000000000000000000e+00,1.000000000000000000e+00,1.000000000000000000e+00,1.000000000000000000e+00,1.000000000000000000e+00,1.000000000000000000e+00,1.000000000000000000e+00,1.000000000000000000e+00,1.000000000000000000e+00,1.000000000000000000e+00,1.000000000000000000e+00,1.000000000000000000e+00,1.000000000000000000e+00,1.000000000000000000e+00,1.000000000000000000e+00,1.000000000000000000e+00,1.000000000000000000e+00,1.000000000000000000e+00,1.000000000000000000e+00,1.000000000000000000e+00,1.000000000000000000e+00,1.000000000000000000e+00,1.000000000000000000e+00,1.000000000000000000e+00,1.000000000000000000e+00,1.000000000000000000e+00,1.000000000000000000e+00,1.000000000000000000e+00,1.000000000000000000e+00,1.000000000000000000e+00,9.686191558837891069e-01,9.369470596313476118e-01,9.072806358337401900e-01,8.794352531433105025e-01,8.532481193542480469e-01,8.285754203796387163e-01,8.052895545959473100e-01,7.832767963409423828e-01,7.624357700347900169e-01,7.426754951477050337e-01
6.197403907775879128e-01,6.354618072509765625e-01,6.520016670227051225e-01,6.694255352020264116e-01,6.878062725067138894e-01,7.072247505187988503e-01,7.277717113494872603e-01,7.495481967926025391e-01,7.726681709289551225e-01,7.972596645355224387e-01,8.234706878662109153e-01,8.514689445495605691e-01,8.814382553100585938e-01,9.135941505432129128e-01,9.481849670410156250e-01,9.854983329772949441e-01,1.000000000000000000e+00,1.000000000000000000e+00,1.000000000000000000e+00,1.000000000000000000e+00,1.000000000000000000e+00,1.000000000000000000e+00,1.000000000000000000e+00,1.000000000000000000e+00,1.000000000000000000e+00,1.000000000000000000e+00,1.000000000000000000e+00,1.000000000000000000e+00,1.000000000000000000e+00,1.000000000000000000e+00,1.000000000000000000e+00,1.000000000000000000e+00,1.000000000000000000e+00,1.000000000000000000e+00,1.000000000000000000e+00,1.000000000000000000e+00,1.000000000000000000e+00,1.000000000000000000e+00,1.000000000000000000e+00,1.000000000000000000e+00,1.000000000000000000e+00,1.000000000000000000e+00,1.000000000000000000e+00,1.000000000000000000e+00,1.000000000000000000e+00,1.000000000000000000e+00,1.000000000000000000e+00,1.000000000000000000e+00,1.000000000000000000e+00,1.000000000000000000e+00,1.000000000000000000e+00,1.000000000000000000e+00,1.000000000000000000e+00,1.000000000000000000e+00,1.000000000000000000e+00,1.000000000000000000e+00,1.000000000000000000e+00,1.000000000000000000e+00,1.000000000000000000e+00,1.000000000000000000e+00,1.000000000000000000e+00,1.000000000000000000e+00,1.000000000000000000e+00,1.000000000000000000e+00,1.000000000000000000e+00,1.000000000000000000e+00,1.000000000000000000e+00,1.000000000000000000e+00,1.000000000000000000e+00,1.000000000000000000e+00,9.686442375183105247e-01,9.369705200195312944e-01,9.073026657104492632e-01,8.794558525085449663e-01,8.532675743103027566e-01,8.285937309265136719e-01,8.053077697753906472e-01,7.832949161529541016e-01,7.624533653259277788e-01,7.426921844482421431e-01
6.197271347045898438e-01,6.354479789733886719e-01,6.519870758056640625e-01,6.694101333618164285e-01,6.877899646759033647e-01,7.072076320648192915e-01,7.277534961700439231e-01,7.495288372039794478e-01,7.726476192474365234e-01,7.972378253936767134e-01,8.234447479248047097e-01,8.514331817626953347e-01,8.813917160034179243e-01,9.135441780090332031e-01,9.481311798095702903e-01,9.854401588439941628e-01,1.000000000000000000e+00,1.000000000000000000e+00,1.000000000000000000e+00,1.000000000000000000e+00,1.000000000000000000e+00,1.000000000000000000e+00,1.000000000000000000e+00,1.000000000000000000e+00,1.000000000000000000e+00,1.000000000000000000e+00,1.000000000000000000e+00,1.000000000000000000e+00,1.000000000000000000e+00,1.000000000000000000e+00,1.000000000000000000e+00,1.000000000000000000e+00,1.000000000000000000e+00,1.000000000000000000e+00,1.000000000000000000e+00,1.000000000000000000e+00,1.000000000000000000e+00,1.000000000000000000e+00,1.000000000000000000e+00,1.000000000000000000e+00,1.000000000000000000e+00,1.000000000000000000e+00,1.000000000000000000e+00,1.000000000000000000e+00,1.000000000000000000e+00,1.000000000000000000e+00,1.000000000000000000e+00,1.000000000000000000e+00,1.000000000000000000e+00,1.000000000000000000e+00,1.000000000000000000e+00,1.000000000000000000e+00,1.000000000000000000e+00,1.000000000000000000e+00,1.000000000000000000e+00,1.000000000000000000e+00,1.000000000000000000e+00,1.000000000000000000e+00,1.000000000000000000e+00,1.000000000000000000e+00,1.000000000000000000e+00,1.000000000000000000e+00,1.000000000000000000e+00,1.000000000000000000e+00,1.000000000000000000e+00,1.000000000000000000e+00,1.000000000000000000e+00,1.000000000000000000e+00,1.000000000000000000e+00,1.000000000000000000e+00,9.686693191528320535e-01,9.369939804077148660e-01,9.073246002197266069e-01,8.794771194458007590e-01,8.532885551452636941e-01,8.286145210266113725e-01,8.053274154663085938e-01,7.833134651184081587e-01,7.624710559844970481e-01,7.427088737487792525e-01
6.197139263153076394e-01,6.354340553283691628e-01,6.519724369049072488e-01,6.693947315216064453e-01,6.877737045288085938e-01,7.071904182434082253e-01,7.277352809906005859e-01,7.495095729827880859e-01,7.726270675659179243e-01,7.972160339355468528e-01,8.234214782714843750e-01,8.514082908630371538e-01,8.813645362854003462e-01,9.135055541992187500e-01,9.480795860290527344e-01,9.853820800781250000e-01,1.000000000000000000e+00,1.000000000000000000e+00,1.000000000000000000e+00,1.000000000000000000e+00,1.000000000000000000e+00,1.000000000000000000e+00,1.000000000000000000e+00,1.000000000000000000e+00,1.000000000000000000e+00,1.000000000000000000e+00,1.000000000000000000e+00,1.000000000000000000e+00,1.000000000000000000e+00,1.000000000000000000e+00,1.000000000000000000e+00,1.000000000000000000e+00,1.000000000000000000e+00,1.000000000000000000e+00,1.000000000000000000e+00,1.000000000000000000e+00,1.000000000000000000e+00,1.000000000000000000e+00,1.000000000000000000e+00,1.000000000000000000e+00,1.000000000000000000e+00,1.000000000000000000e+00,1.000000000000000000e+00,1.000000000000000000e+00,1.000000000000000000e+00,1.000000000000000000e+00,1.000000000000000000e+00,1.000000000000000000e+00,1.000000000000000000e+00,1.000000000000000000e+00,1.000000000000000000e+00,1.000000000000000000e+00,1.000000000000000000e+00,1.000000000000000000e+00,1.000000000000000000e+00,1.000000000000000000e+00,1.000000000000000000e+00,1.000000000000000000e+00,1.000000000000000000e+00,1.000000000000000000e+00,1.000000000000000000e+00,1.000000000000000000e+00,1.000000000000000000e+00,1.000000000000000000e+00,1.000000000000000000e+00,1.000000000000000000e+00,1.000000000000000000e+00,1.000000000000000000e+00,1.000000000000000000e+00,1.000000000000000000e+00,9.686944007873534712e-01,9.370187759399414285e-01,9.073490142822265847e-01,8.795005798339843306e-01,8.533105850219726562e-01,8.286354064941405806e-01,8.053470611572265403e-01,7.833320617675780806e-01,7.624886035919189453e-01,7.427256584167480913e-01
6.197007656097411887e-01,6.354201793670654075e-01,6.519578456878661887e-01,6.693793296813964622e-01,6.877574920654296875e-01,7.071732044219970481e-01,7.277171134948730025e-01,7.494902610778808594e-01,7.726065158843994363e-01,7.971941471099853738e-01,8.233981132507324219e-01,8.513833045959472434e-01,8.813377380371093528e-01,9.134768486022949441e-01,9.480485916137695312e-01,9.853402137756347434e-01,1.000000000000000000e+00,1.000000000000000000e+00,1.000000000000000000e+00,1.000000000000000000e+00,1.000000000000000000e+00,1.000000000000000000e+00,1.000000000000000000e+00,1.000000000000000000e+00,1.000000000000000000e+00,1.000000000000000000e+00,1.000000000000000000e+00,1.000000000000000000e+00,1.000000000000000000e+00,1.000000000000000000e+00,1.000000000000000000e+00,1.000000000000000000e+00,1.000000000000000000e+00,1.000000000000000000e+00,1.000000000000000000e+00,1.000000000000000000e+00,1.000000000000000000e+00,1.000000000000000000e+00,1.000000000000000000e+00,1.000000000000000000e+00,1.000000000000000000e+00,1.000000000000000000e+00,1.000000000000000000e+00,1.000000000000000000e+00,1.000000000000000000e+00,1.000000000000000000e+00,1.000000000000000000e+00,1.000000000000000000e+00,1.000000000000000000e+00,1.000000000000000000e+00,1.000000000000000000e+00,1.000000000000000000e+00,1.000000000000000000e+00,1.000000000000000000e+00,1.000000000000000000e+00,1.000000000000000000e+00,1.000000000000000000e+00,1.000000000000000000e+00,1.000000000000000000e+00,1.000000000000000000e+00,1.000000000000000000e+00,1.000000000000000000e+00,1.000000000000000000e+00,1.000000000000000000e+00,1.000000000000000000e+00,1.000000000000000000e+00,1.000000000000000000e+00,1.000000000000000000e+00,1.000000000000000000e+00,1.000000000000000000e+00,9.687228202819824219e-01,9.370452880859374556e-01,9.073739051818847656e-01,8.795239448547362837e-01,8.533327102661132368e-01,8.286561965942382812e-01,8.053667068481444868e-01,7.833507061004638672e-01,7.625061988830565962e-01,7.427423477172852007e-01
6.196875572204589844e-01,6.354062557220458984e-01,6.519432067871093750e-01,6.693638801574707253e-01,6.877411842346191628e-01,7.071559906005859819e-01,7.276988983154296653e-01,7.494709014892577681e-01,7.725860595703124556e-01,7.971722602844237837e-01,8.233748435974120872e-01,8.513584136962890625e-01,8.813110351562499778e-01,9.134482383728027566e-01,9.480177879333495650e-01,9.853068351745605247e-01,1.000000000000000000e+00,1.000000000000000000e+00,1.000000000000000000e+00,1.000000000000000000e+00,1.000000000000000000e+00,1.000000000000000000e+00,1.000000000000000000e+00,1.000000000000000000e+00,1.000000000000000000e+00,1.000000000000000000e+00,1.000000000000000000e+00,1.000000000000000000e+00,1.000000000000000000e+00,1.000000000000000000e+00,1.000000000000000000e+00,1.000000000000000000e+00,1.000000000000000000e+00,1.000000000000000000e+00,1.000000000000000000e+00,1.000000000000000000e+00,1.000000000000000000e+00,1.000000000000000000e+00,1.000000000000000000e+00,1.000000000000000000e+00,1.000000000000000000e+00,1.000000000000000000e+00,1.000000000000000000e+00,1.000000000000000000e+00,1.000000000000000000e+00,1.000000000000000000e+00,1.000000000000000000e+00,1.000000000000000000e+00,1.000000000000000000e+00,1.000000000000000000e+00,1.000000000000000000e+00,1.000000000000000000e+00,1.000000000000000000e+00,1.000000000000000000e+00,1.000000000000000000e+00,1.000000000000000000e+00,1.000000000000000000e+00,1.000000000000000000e+00,1.000000000000000000e+00,1.000000000000000000e+00,1.000000000000000000e+00,1.000000000000000000e+00,1.000000000000000000e+00,1.000000000000000000e+00,1.000000000000000000e+00,1.000000000000000000e+00,1.000000000000000000e+00,1.000000000000000000e+00,1.000000000000000000e+00,1.000000000000000000e+00,9.687512397766113725e-01,9.370718955993652122e-01,9.073988914489745650e-01,8.795474052429199663e-01,8.533547401428223100e-01,8.286769866943359819e-01,8.053864479064941628e-01,7.833692550659179243e-01,7.625238895416259766e-01,7.427589893341064453e-01
6.196743488311767800e-01,6.353924274444580078e-01,6.519286155700683150e-01,6.693485260009766069e-01,6.877249240875243919e-01,7.071388244628906694e-01,7.276806354522704634e-01,7.494516849517822710e-01,7.725655078887939675e-01,7.971503734588623047e-01,8.233514785766601340e-01,8.513335227966308816e-01,8.812843322753906028e-01,9.134194374084472212e-01,9.479867935180663618e-01,9.852734565734863059e-01,1.000000000000000000e+00,1.000000000000000000e+00,1.000000000000000000e+00,1.000000000000000000e+00,1.000000000000000000e+00,1.000000000000000000e+00,1.000000000000000000e+00,1.000000000000000000e+00,1.000000000000000000e+00,1.000000000000000000e+00,1.000000000000000000e+00,1.000000000000000000e+00,1.000000000000000000e+00,1.000000000000000000e+00,1.000000000000000000e+00,1.000000000000000000e+00,1.000000000000000000e+00,1.000000000000000000e+00,1.000000000000000000e+00,1.000000000000000000e+00,1.000000000000000000e+00,1.000000000000000000e+00,1.000000000000000000e+00,1.000000000000000000e+00,1.000000000000000000e+00,1.000000000000000000e+00,1.000000000000000000e+00,1.000000000000000000e+00,1.000000000000000000e+00,1.000000000000000000e+00,1.000000000000000000e+00,1.000000000000000000e+00,1.000000000000000000e+00,1.000000000000000000e+00,1.000000000000000000e+00,1.000000000000000000e+00,1.000000000000000000e+00,1.000000000000000000e+00,1.000000000000000000e+00,1.000000000000000000e+00,1.000000000000000000e+00,1.000000000000000000e+00,1.000000000000000000e+00,1.000000000000000000e+00,1.000000000000000000e+00,1.000000000000000000e+00,1.000000000000000000e+00,1.000000000000000000e+00,1.000000000000000000e+00,1.000000000000000000e+00,1.000000000000000000e+00,1.000000000000000000e+00,1.000000000000000000e+00,1.000000000000000000e+00,9.687796592712402122e-01,9.370985031127929688e-01,9.074237823486328569e-01,8.795708656311035378e-01,8.533767700195312722e-01,8.286977767944335715e-01,8.054059982299804910e-01,7.833878040313720925e-01,7.625414848327636275e-01,8.524459004402160089e-02
6.196611881256103294e-01,6.353785514831542525e-01,6.519139766693115012e-01,6.693331241607666238e-01,6.877086162567138672e-01,7.071216106414794922e-01,7.276624202728271262e-01,7.494323253631591797e-01,7.725449562072753684e-01,7.971286296844481978e-01,8.233282089233397993e-01,8.513086318969727007e-01,8.812576293945312278e-01,9.133908271789550337e-01,9.479559898376465066e-01,9.852400779724120872e-01,1.000000000000000000e+00,1.000000000000000000e+00,1.000000000000000000e+00,1.000000000000000000e+00,1.000000000000000000e+00,1.000000000000000000e+00,1.000000000000000000e+00,1.000000000000000000e+00,1.000000000000000000e+00,1.000000000000000000e+00,1.000000000000000000e+00,1.000000000000000000e+00,1.000000000000000000e+00,1.000000000000000000e+00,1.000000000000000000e+00,1.000000000000000000e+00,1.000000000000000000e+00,1.000000000000000000e+00,1.000000000000000000e+00,1.000000000000000000e+00,1.000000000000000000e+00,1.000000000000000000e+00,1.000000000000000000e+00,1.000000000000000000e+00,1.000000000000000000e+00,1.000000000000000000e+00,1.000000000000000000e+00,1.000000000000000000e+00,1.000000000000000000e+00,1.000000000000000000e+00,1.000000000000000000e+00,1.000000000000000000e+00,1.000000000000000000e+00,1.000000000000000000e+00,1.000000000000000000e+00,1.000000000000000000e+00,1.000000000000000000e+00,1.000000000000000000e+00,1.000000000000000000e+00,1.000000000000000000e+00,1.000000000000000000e+00,1.000000000000000000e+00,1.000000000000000000e+00,1.000000000000000000e+00,1.000000000000000000e+00,1.000000000000000000e+00,1.000000000000000000e+00,1.000000000000000000e+00,1.000000000000000000e+00,1.000000000000000000e+00,1.000000000000000000e+00,1.000000000000000000e+00,1.000000000000000000e+00,1.000000000000000000e+00,9.688081741333007812e-01,9.371251106262207253e-01,9.074487686157226562e-01,8.795942306518554910e-01,8.533988952636718528e-01,8.287185668945312722e-01,8.054257392883300559e-01,7.834064006805420144e-01,8.757753968238830844e-02,8.426074981689453403e-02
6.196479320526122603e-01,6.353646278381347434e-01,6.518993854522705522e-01,6.693176746368407759e-01,6.876924037933349609e-01,7.071044445037841797e-01,7.276443004608154075e-01,7.494130134582519531e-01,7.725244998931884988e-01,7.971067428588867188e-01,8.233048439025878462e-01,8.512836456298827903e-01,8.812309265136718528e-01,9.133621215820312278e-01,9.479249954223633035e-01,9.852066993713378684e-01,1.000000000000000000e+00,1.000000000000000000e+00,1.000000000000000000e+00,1.000000000000000000e+00,1.000000000000000000e+00,1.000000000000000000e+00,1.000000000000000000e+00,1.000000000000000000e+00,1.000000000000000000e+00,1.000000000000000000e+00,1.000000000000000000e+00,1.000000000000000000e+00,1.000000000000000000e+00,1.000000000000000000e+00,1.000000000000000000e+00,1.000000000000000000e+00,1.000000000000000000e+00,1.000000000000000000e+00,1.000000000000000000e+00,1.000000000000000000e+00,1.000000000000000000e+00,1.000000000000000000e+00,1.000000000000000000e+00,1.000000000000000000e+00,1.000000000000000000e+00,1.000000000000000000e+00,1.000000000000000000e+00,1.000000000000000000e+00,1.000000000000000000e+00,1.000000000000000000e+00,1.000000000000000000e+00,1.000000000000000000e+00,1.000000000000000000e+00,1.000000000000000000e+00,1.000000000000000000e+00,1.000000000000000000e+00,1.000000000000000000e+00,1.000000000000000000e+00,1.000000000000000000e+00,1.000000000000000000e+00,1.000000000000000000e+00,1.000000000000000000e+00,1.000000000000000000e+00,1.000000000000000000e+00,1.000000000000000000e+00,1.000000000000000000e+00,1.000000000000000000e+00,1.000000000000000000e+00,1.000000000000000000e+00,1.000000000000000000e+00,1.000000000000000000e+00,1.000000000000000000e+00,1.000000000000000000e+00,1.000000000000000000e+00,9.688365936279297319e-01,9.371517181396484819e-01,9.074736595153808372e-01,8.796176910400390625e-01,8.534209251403808150e-01,8.287393569946288618e-01,8.054453849792480025e-01,7.834250450134276900e-01,8.653943538665771762e-02,8.370192050933837613e-02
6.196347236633300559e-01,6.353507995605468528e-01,6.518847942352294922e-01,6.693022727966309038e-01,6.876761436462401900e-01,7.070872306823730025e-01,7.276260375976562056e-01,7.493936538696288618e-01,7.725039482116698997e-01,7.970848560333252397e-01,8.232815742492676225e-01,8.512587547302246094e-01,8.812042236328124778e-01,9.133334159851074219e-01,9.478941917419433372e-01,9.710196495056152566e-01,9.707787513732910600e-01,9.705380439758301003e-01,9.702973365783691406e-01,9.700568199157715288e-01,9.698163986206054243e-01,9.695760726928710493e-01,9.693359375000000222e-01,9.690958976745605025e-01,9.688558578491210938e-01,9.686160087585449219e-01,9.683763504028319868e-01,9.681366920471191628e-01,9.678972244262695757e-01,9.676578521728516069e-01,9.674186706542968750e-01,9.671795845031738725e-01,9.669404983520507590e-01,9.667016029357909934e-01,9.664628028869628462e-01,9.662241935729980469e-01,9.659856796264648660e-01,9.657472610473633035e-01,9.655089378356933594e-01,9.652708053588867632e-01,9.650327682495116743e-01,9.647948265075683150e-01,9.645569801330566850e-01,9.643192291259765625e-01,9.640816688537597878e-01,9.638442039489746316e-01,9.636068344116210938e-01,9.633695602416991743e-01,9.631324768066406028e-01,9.628954887390136497e-01,9.626585960388183150e-01,9.624217987060547097e-01,9.621851921081543413e-01,9.619485855102538618e-01,9.617121696472168413e-01,9.614758491516113281e-01,9.612396240234375444e-01,9.610035896301269975e-01,9.607676506042480691e-01,9.605318069458007590e-01,9.602960586547851785e-01,9.600604057312012163e-01,9.598248481750488725e-01,9.595894813537597656e-01,9.593542098999023882e-01,9.591191291809082475e-01,9.588840484619141069e-01,9.586491584777832031e-01,9.584143638610840288e-01,9.581796646118163618e-01,9.579451560974121538e-01,9.371783256530761275e-01,9.074986457824707475e-01,8.796411514282226340e-01,8.534429550170898882e-01,8.287602424621581809e-01,8.054650306701660600e-01,8.894480466842651090e-02,8.552566170692443848e-02,8.362585902214050848e-02
6.196215152740478516e-01,6.353369235992432085e-01,6.518701553344726785e-01,6.692869186401366743e-01,6.876598834991455300e-01,7.070700645446776900e-01,7.276078224182128684e-01,7.493744373321533647e-01,7.542498588562012163e-01,7.541045188903808816e-01,7.539592266082764116e-01,7.538139820098876953e-01,7.536687850952148438e-01,7.535236835479736106e-01,7.533785820007323775e-01,7.532335758209228738e-01,7.530885219573975053e-01,7.529436111450195090e-01,7.527987480163573775e-01,7.526539802551269753e-01,7.525092124938964622e-01,7.523645401000976785e-01,7.522199153900146484e-01,7.520753383636474831e-01,7.519308090209960715e-01,7.517863750457763894e-01,7.516419410705565962e-01,7.514976024627685325e-01,7.513533115386963335e-01,7.512090682983398882e-01,7.510648727416991965e-01,7.509207248687743697e-01,7.507766723632812722e-01,7.506326675415039285e-01,7.504886627197265847e-01,7.503447532653808594e-01,7.502008438110351340e-01,7.500570297241211382e-01,7.499133110046386497e-01,7.497695922851562722e-01,7.496259689331055132e-01,7.494823932647705078e-01,7.493388652801513672e-01,7.491953849792480913e-01,7.490520000457763228e-01,7.489086151123046653e-01,7.487653255462646262e-01,7.486220836639404519e-01,7.484788894653320312e-01,7.483357429504394753e-01,7.481926441192626731e-01,7.480496406555176003e-01,7.479066371917724165e-01,7.477637290954589622e-01,7.476208686828613725e-01,7.474780082702636719e-01,7.473351955413818359e-01,7.471925258636474831e-01,7.470498561859131303e-01,7.469072818756103960e-01,7.467647552490234153e-01,7.466222763061522993e-01,7.464798450469970481e-01,7.463374614715576616e-01,7.461951255798340288e-01,7.460528373718261497e-01,7.459106445312500000e-01,7.457684993743896040e-01,7.456263542175293191e-01,7.454843044281005415e-01,7.453423023223877397e-01,7.452003955841064453e-01,7.450584888458251509e-01,7.449166774749755859e-01,7.447748661041260210e-01,7.446330547332763450e-01,7.444913864135742632e-01,8.787423968315125067e-02,8.521119952201842984e-02,8.354992866516113004e-02
6.166975975036621538e-01,6.166004180908203347e-01,6.165032863616943803e-01,6.164061546325683150e-01,6.163090705871582253e-01,6.162120342254638894e-01,6.161149978637695535e-01,6.160180091857909712e-01,6.159209728240966353e-01,6.158240318298340288e-01,6.157271385192870650e-01,6.156302928924560769e-01,6.155334472656249778e-01,6.154366016387939897e-01,6.153398513793945090e-01,6.152431011199951394e-01,6.151463508605956587e-01,6.150496959686279075e-01,6.149530410766601562e-01,6.148563861846924050e-01,6.147597789764404075e-01,6.146632194519042747e-01,6.145667076110840066e-01,6.144701957702636275e-01,6.143737316131592241e-01,6.142772674560547097e-01,6.141808509826660600e-01,6.140844821929931641e-01,6.139880657196045144e-01,6.138917446136474831e-01,6.137954235076904519e-01,6.136991500854491743e-01,6.136029243469238725e-01,6.135067462921142134e-01,6.134105682373046653e-01,6.133144378662109819e-01,6.132183074951171875e-01,6.131222248077392578e-01,6.130261898040771928e-01,6.129301548004150169e-01,6.128341674804687056e-01,6.127382278442382590e-01,6.126422882080078125e-01,6.125463962554931197e-01,6.124505043029785378e-01,6.123546600341797097e-01,6.122588634490966353e-01,6.121630668640136719e-01,6.120672702789307085e-01,6.119715213775634988e-01,6.118758201599121538e-01,6.117801666259765625e-01,6.116845607757568359e-01,6.115889549255371094e-01,6.114933490753173828e-01,6.113978385925292747e-01,6.113022804260254128e-01,6.112068176269531694e-01,6.111113548278808150e-01,6.110159397125244363e-01,6.109205245971679465e-01,6.108251571655273215e-01,6.107298374176025613e-01,6.106345176696776900e-01,6.105392456054687944e-01,6.104440212249755415e-01,6.103487968444823997e-01,6.102536201477051225e-01,6.101583957672118697e-01,6.100632667541503462e-01,6.099681854248046875e-01,6.098731040954590288e-01,6.097780704498291238e-01,6.096830844879150835e-01,6.095880985260009322e-01,6.094931602478027566e-01,6.093982219696044700e-01,6.093033313751220481e-01,8.513236641883850653e-02,8.347414135932922086e-02
5.210220336914062056e-01,5.209527015686035156e-01,5.208833217620849609e-01,5.208139896392822710e-01,5.207447052001953347e-01,5.206754207611083984e-01,5.206061363220214622e-01,5.205368995666503906e-01,5.204676628112793191e-01,5.203983783721923828e-01,5.203291893005370650e-01,5.202600002288818581e-01,5.201908588409424050e-01,5.201217174530029519e-01,5.200525760650634988e-01,5.199834823608397993e-01,5.199143886566162109e-01,5.198452949523926225e-01,5.197762489318847878e-01,5.197072029113769531e-01,5.196382045745849831e-01,5.195691585540771484e-01,5.195002079010009322e-01,5.194312095642089622e-01,5.193623065948486106e-01,5.192933559417725053e-01,5.192244529724121538e-01,5.191555976867675559e-01,5.190866947174072044e-01,5.190178394317627175e-01,5.189490318298339844e-01,5.188802242279052512e-01,5.188114166259765181e-01,5.187426567077636497e-01,5.186738967895507812e-01,5.186051368713379128e-01,5.185364246368407981e-01,5.184677124023437944e-01,5.183990001678466797e-01,5.183303356170654297e-01,5.182616710662841797e-01,5.181930541992187944e-01,5.181244373321532981e-01,5.180558204650879128e-01,5.179872512817382812e-01,5.179186820983886497e-01,5.178501605987548828e-01,5.177816390991211160e-01,5.177131175994873491e-01,5.176446437835693359e-01,5.175761699676513228e-01,5.175076961517334206e-01,5.174392700195312722e-01,5.173708915710448775e-01,5.173024654388427290e-01,5.172340869903564453e-01,5.171657562255859153e-01,5.170973777770996316e-01,5.170290946960449663e-01,5.169607639312744363e-01,5.168924331665039062e-01,5.168241977691649947e-01,5.167559146881103294e-01,5.166876792907715288e-01,5.166194915771484819e-01,5.165513038635254350e-01,5.164831161499023882e-01,5.164149284362793413e-01,5.163467884063720481e-01,5.162786483764648660e-01,5.162105560302734375e-01,5.161424636840820090e-01,5.160744190216064453e-01,5.160063266754150169e-01,5.159383296966553178e-01,5.158702850341796431e-01,5.158022880554199441e-01,5.157342910766601340e-01,9.165391921997070868e-02,8.339848518371581476e-02
4.510459423065185658e-01,4.509939670562744252e-01,4.509419918060302845e-01,4.508900642395019531e-01,4.508380889892578125e-01,4.507861614227294811e-01,4.507342338562011497e-01,4.506823062896728738e-01,4.506304264068603516e-01,4.505785465240478294e-01,4.505266666412353627e-01,4.504747867584228405e-01,4.504229545593261830e-01,4.503711223602294700e-01,4.503192424774170033e-01,4.502674102783202903e-01,4.502156257629394420e-01,4.501638412475585938e-01,4.501120567321777455e-01,4.500602722167968972e-01,4.500085353851318581e-01,4.499567508697509544e-01,4.499050617218017800e-01,4.498533248901367410e-01,4.498015880584717019e-01,4.497498989105224720e-01,4.496982097625732422e-01,4.496465682983398215e-01,4.495948791503906472e-01,4.495432376861572266e-01,4.494915962219238059e-01,4.494399547576904408e-01,4.493883609771728294e-01,4.493367195129394642e-01,4.492851257324218528e-01,4.492335319519042969e-01,4.491819858551025502e-01,4.491304397583008035e-01,4.490788936614990012e-01,4.490273475646972545e-01,4.489758014678955078e-01,4.489243030548095703e-01,4.488728046417236328e-01,4.488213539123535045e-01,4.487698554992675670e-01,4.487184047698974387e-01,4.486669540405273660e-01,4.486155033111572377e-01,4.485641002655029186e-01,4.485126495361327903e-01,4.484612464904785267e-01,4.484098911285400169e-01,4.483584880828857533e-01,4.483070850372314342e-01,4.482557296752929799e-01,4.482044219970703347e-01,4.481530666351318248e-01,4.481017589569091797e-01,4.480504512786865345e-01,4.479991436004638894e-01,4.479478359222411887e-01,4.478965759277343528e-01,4.478453159332275169e-01,4.477940559387206809e-01,4.477428436279297097e-01,4.476916313171386830e-01,4.476404190063476562e-01,4.475892066955566295e-01,4.475379943847656028e-01,4.474868297576904408e-01,4.474356651306152233e-01,4.473845005035400613e-01,4.473333358764648438e-01,4.472822189331054910e-01,4.472310543060302734e-01,4.471799850463867299e-01,4.471288681030273215e-01,9.328745603561401645e-02,9.072048068046570379e-02,8.332296609878539484e-02
3.976406812667846458e-01,3.976002931594848633e-01,3.975598812103271484e-01,3.975195169448852428e-01,3.974791049957275280e-01,3.974387645721435547e-01,3.973983764648437722e-01,3.973580598831176758e-01,3.973176717758178933e-01,3.972773790359497292e-01,3.972370147705078236e-01,3.971967220306396595e-01,3.971563816070556863e-01,3.971160888671875222e-01,3.970757722854614258e-01,3.970355272293090709e-01,3.969952106475830300e-01,3.969549179077148660e-01,3.969146728515625111e-01,3.968743801116943470e-01,3.968341588973999245e-01,3.967939138412475697e-01,3.967536926269531472e-01,3.967134475708007924e-01,3.966732501983642467e-01,3.966330289840698242e-01,3.965928077697754017e-01,3.965526342391967884e-01,3.965124368667602428e-01,3.964722871780395619e-01,3.964320898056030162e-01,3.963919639587402122e-01,3.963517904281615989e-01,3.963116645812988503e-01,3.962715148925781139e-01,3.962314128875732422e-01,3.961912631988525613e-01,3.961511850357055664e-01,3.961110591888427623e-01,3.960709810256958230e-01,3.960308790206908958e-01,3.959908246994018333e-01,3.959507226943969616e-01,3.959106922149658314e-01,3.958706140518188366e-01,3.958305835723877064e-01,3.957905292510986439e-01,3.957504749298095814e-01,3.957104682922363281e-01,3.956704378128051980e-01,3.956304550170898215e-01,3.955904483795166238e-01,3.955504655838012473e-01,3.955104589462280495e-01,3.954705238342285378e-01,3.954305410385131614e-01,3.953906059265136497e-01,3.953506231307983287e-01,3.953107118606567494e-01,3.952707529067993053e-01,3.952308654785156028e-01,3.951909065246582142e-01,3.951510429382324441e-01,3.951111078262329324e-01,3.950712442398071067e-01,3.950313329696655273e-01,3.949914455413818248e-01,3.949515819549560547e-01,3.949117183685302845e-01,3.948718786239623912e-01,3.948320150375366211e-01,3.947921991348266602e-01,3.947523593902587669e-01,3.947125434875488059e-01,3.946727275848388450e-01,3.946329355239868164e-01,9.502032995223999579e-02,9.226240515708923617e-02,8.959532976150512418e-02,8.661773800849914551e-02
3.555432319641113059e-01,3.555109500885009766e-01,3.554786443710327148e-01,3.554463624954223855e-01,3.554140567779541238e-01,3.553817987442016713e-01,3.553495168685912864e-01,3.553172588348388894e-01,3.552849769592285045e-01,3.552527427673339844e-01,3.552204847335815319e-01,3.551882505416870117e-01,3.551559925079345592e-01,3.551237821578979714e-01,3.550915479660033958e-01,3.550593376159668080e-01,3.550271034240722878e-01,3.549949169158935769e-01,3.549627065658569336e-01,3.549304962158202903e-01,3.548982858657837025e-01,3.548660993576049916e-01,3.548339128494262806e-01,3.548017501831054465e-01,3.547695636749267356e-01,3.547374248504638894e-01,3.547052621841430553e-01,3.546731233596801536e-01,3.546409606933593750e-01,3.546088457107544056e-01,3.545766830444335715e-01,3.545445680618286022e-01,3.545124292373657005e-01,3.544803380966186634e-01,3.544482231140136941e-01,3.544161319732666016e-01,3.543840169906616322e-01,3.543519258499145397e-01,3.543198347091675027e-01,3.542877435684204102e-01,3.542556762695312500e-01,3.542235851287841575e-01,3.541915416717529297e-01,3.541594743728637695e-01,3.541274309158325417e-01,3.540953636169433816e-01,3.540633440017700306e-01,3.540313005447387473e-01,3.539992809295654519e-01,3.539672374725341686e-01,3.539352416992187500e-01,3.539032220840453991e-01,3.538712263107299805e-01,3.538392066955566295e-01,3.538072347640991433e-01,3.537752389907836692e-01,3.537432670593261830e-01,3.537112712860107644e-01,3.536792993545532227e-01,3.536473512649536133e-01,3.536153554916381947e-01,3.535834312438964622e-01,3.535514593124389759e-01,3.535195350646972434e-01,3.534875869750976340e-01,3.534556865692138894e-01,3.534237384796142800e-01,3.533918380737304799e-01,3.533599138259887473e-01,3.533280134201050027e-01,3.532960891723632701e-01,3.532642126083374023e-01,3.532323122024536022e-01,3.532004594802856667e-01,3.531685590744018666e-01,9.657154679298400601e-02,9.370279312133789062e-02,9.129401445388793390e-02,8.813467621803283691e-02,8.635389804840087891e-02
3.215060234069824219e-01,3.214795827865600808e-01,3.214531898498534934e-01,3.214267730712890847e-01,3.214004039764404297e-01,3.213739871978759655e-01,3.213475942611694336e-01,3.213212013244629017e-01,3.212948322296142467e-01,3.212684392929077148e-01,3.212420701980590598e-01,3.212157011032104603e-01,3.211893558502197377e-01,3.211629629135132058e-01,3.211366176605224831e-01,3.211102485656738281e-01,3.210839271545410378e-01,3.210575580596923828e-01,3.210312366485595925e-01,3.210048913955688699e-01,3.209785699844360241e-01,3.209522247314453014e-01,3.209259271621703880e-01,3.208995819091796653e-01,3.208732604980468750e-01,3.208469629287719616e-01,3.208206415176391713e-01,3.207943677902221902e-01,3.207680463790893444e-01,3.207417726516723633e-01,3.207154750823974498e-01,3.206891775131225364e-01,3.206629037857055553e-01,3.206366062164306419e-01,3.206103563308715931e-01,3.205840826034546120e-01,3.205578327178955078e-01,3.205315589904785267e-01,3.205053091049194225e-01,3.204790592193603738e-01,3.204528331756592019e-01,3.204265594482421653e-01,3.204003572463989258e-01,3.203741073608398215e-01,3.203478813171386497e-01,3.203216552734374778e-01,3.202954530715942383e-01,3.202692031860351340e-01,3.202430248260498269e-01,3.202167987823486550e-01,3.201905727386474831e-01,3.201643943786621205e-01,3.201381921768188255e-01,3.201120138168335183e-01,3.200858116149902233e-01,3.200596570968627930e-01,3.200334548950195535e-01,3.200073003768920676e-01,3.199811220169067605e-01,3.199549674987792747e-01,3.199287891387939675e-01,3.199026584625244141e-01,3.198764801025390514e-01,3.198503494262695535e-01,3.198241949081420676e-01,3.197980642318725697e-01,3.197719335556030162e-01,3.197458028793335183e-01,3.197196722030639648e-01,3.196935653686523438e-01,3.196674346923827903e-01,3.196413040161132924e-01,3.196152210235595481e-01,3.195890903472900502e-01,9.772844314575195035e-02,9.513204693794249933e-02,9.244115948677063266e-02,8.974126577377319891e-02,8.787882924079895575e-02,8.609166741371154785e-02
2.934163808822631836e-01,2.933943748474120983e-01,2.933723926544189453e-01,2.933503866195678600e-01,2.933284044265747070e-01,2.933064222335815541e-01,2.932844400405884011e-01,2.932624578475951926e-01,2.932404756546020397e-01,2.932184934616088867e-01,2.931965351104736106e-01,2.931745529174804576e-01,2.931526184082031139e-01,2.931306362152099609e-01,2.931087017059326172e-01,2.930867195129394642e-01,2.930647850036621205e-01,2.930428266525268444e-01,2.930208921432495006e-01,2.929989337921142800e-01,2.929770231246948131e-01,2.929550647735595925e-01,2.929331541061401256e-01,2.929112195968627819e-01,2.928893089294433705e-01,2.928673744201660267e-01,2.928454637527465598e-01,2.928235054016113392e-01,2.928016185760498047e-01,2.927796840667724609e-01,2.927577972412109264e-01,2.927358865737915150e-01,2.927139997482299805e-01,2.926920890808105691e-01,2.926702022552490345e-01,2.926483154296875000e-01,2.926264286041259655e-01,2.926045417785644309e-01,2.925826787948608287e-01,2.925607919692992942e-01,2.925389289855956920e-01,2.925170421600341575e-01,2.924952030181884877e-01,2.924733161926269531e-01,2.924514532089233509e-01,2.924296140670776256e-01,2.924077510833740234e-01,2.923859119415282981e-01,2.923640489578246959e-01,2.923422336578369030e-01,2.923203706741333008e-01,2.922985553741455078e-01,2.922766923904419056e-01,2.922548770904541127e-01,2.922330379486083873e-01,2.922112464904785267e-01,2.921894073486328014e-01,2.921675920486450084e-01,2.921457767486572155e-01,2.921239852905273549e-01,2.921021699905395619e-01,2.920803785324096458e-01,2.920585632324218528e-01,2.920367479324340598e-01,2.920149564743041992e-01,2.919931650161743386e-01,2.919713973999023549e-01,2.919496059417724387e-01,2.919278383255005105e-01,2.919060468673705944e-01,2.918842792510986106e-01,2.918624877929687500e-01,2.918407440185546986e-01,9.890007972717285156e-02,9.631626009941100797e-02,9.399699568748473566e-02,9.142661690711975653e-02,8.948892951011658270e-02,8.763671517372131903e-02,8.590453267097472589e-02
2.698406934738158958e-01,2.698220729827880970e-01,2.698034763336181752e-01,2.697848796844482533e-01,2.697662830352783314e-01,2.697476863861084095e-01,2.697290658950805553e-01,2.697104930877685658e-01,2.696918964385986439e-01,2.696733236312865989e-01,2.696547269821166770e-01,2.696361541748046875e-01,2.696175575256347656e-01,2.695990085601806530e-01,2.695804119110107311e-01,2.695618629455566184e-01,2.695432662963866965e-01,2.695247173309326394e-01,2.695061445236205944e-01,2.694875955581664817e-01,2.694690465927124245e-01,2.694504976272583119e-01,2.694319248199462669e-01,2.694133996963500866e-01,2.693948268890380970e-01,2.693763017654419167e-01,2.693577527999878041e-01,2.693392276763916238e-01,2.693206787109375111e-01,2.693021535873413308e-01,2.692836046218872181e-01,2.692650556564331055e-01,2.692465543746948020e-01,2.692280054092407449e-01,2.692095041275024414e-01,2.691909551620483287e-01,2.691724300384521484e-01,2.691539287567138450e-01,2.691354036331176647e-01,2.691169023513794167e-01,2.690984010696411133e-01,2.690798997879028098e-01,2.690613985061645619e-01,2.690428972244262584e-01,2.690243959426880105e-01,2.690059185028076394e-01,2.689873933792114036e-01,2.689689159393310325e-01,2.689504384994506614e-01,2.689319610595702903e-01,2.689134597778320424e-01,2.688950061798095481e-01,2.688765048980713002e-01,2.688580513000488059e-01,2.688395500183105580e-01,2.688210725784301869e-01,2.688026189804076926e-01,2.687841415405273215e-01,2.687657117843628152e-01,2.687472343444824441e-01,2.687287807464599498e-01,2.687103271484375111e-01,2.686918735504150169e-01,2.686734199523925781e-01,2.686549901962280162e-01,2.686365365982055775e-01,2.686181068420410156e-01,2.685996532440185769e-01,2.685812234878540150e-01,2.685627698898315208e-01,2.685443639755248912e-01,2.685259103775024525e-01,1.008973836898803683e-01,9.760290980339050848e-02,9.543330073356628973e-02,9.344431161880492609e-02,9.111991524696350098e-02,8.923800587654114047e-02,8.739594817161559781e-02,8.599702119827271063e-02
2.497717857360839955e-01,2.497558593750000000e-01,2.497399091720580999e-01,2.497239828109741322e-01,2.497080326080322321e-01,2.496921062469482366e-01,2.496761798858642689e-01,2.496602535247802734e-01,2.496443033218383734e-01,2.496284008026123102e-01,2.496124505996704102e-01,2.495965480804443470e-01,2.495806217193603516e-01,2.495647192001342884e-01,2.495487928390502930e-01,2.495328903198242299e-01,2.495169639587402344e-01,2.495010614395141713e-01,2.494851350784301758e-01,2.494692564010620173e-01,2.494533300399780218e-01,2.494374513626098633e-01,2.494215250015258678e-01,2.494056463241577093e-01,2.493897438049316462e-01,2.493738651275634877e-01,2.493579626083373968e-01,2.493420839309692383e-01,2.493261814117431752e-01,2.493103027343749889e-01,2.492944002151489258e-01,2.492785453796386719e-01,2.492626428604126088e-01,2.492467880249023549e-01,2.492308855056762640e-01,2.492150068283081055e-01,2.491991281509399470e-01,2.491832733154296931e-01,2.491673946380615345e-01,2.491515398025512806e-01,2.491356611251830944e-01,2.491198301315307728e-01,2.491039514541625866e-01,2.490880966186523326e-01,2.490722417831420787e-01,2.490563869476318248e-01,2.490405321121215709e-01,2.490247011184692494e-01,2.490088462829589955e-01,2.489929914474487416e-01,2.489771604537963923e-01,2.489613056182861384e-01,2.489454746246337891e-01,2.489296197891235352e-01,2.489138126373290905e-01,2.488979578018188366e-01,2.488821506500244196e-01,2.488662958145141657e-01,2.488504886627197210e-01,2.488346576690673717e-01,2.488188266754150502e-01,2.488029956817627009e-01,2.487871885299682562e-01,2.487713813781738392e-01,2.487555742263793945e-01,2.487397432327270452e-01,2.487239360809326283e-01,2.487081289291381836e-01,2.486923217773437389e-01,2.486765146255493220e-01,2.486607074737548773e-01,2.486449241638183649e-01,9.936380982398987372e-02,9.687886238098145086e-02,9.488139152526856024e-02,9.276149272918701727e-02,9.083099961280823031e-02,8.897923231124878207e-02,8.729097843170166571e-02,8.608970046043395996e-02
2.324814319610595814e-01,2.324676275253295954e-01,2.324537992477417048e-01,2.324400186538696234e-01,2.324261903762817327e-01,2.324123859405517467e-01,2.323985815048217884e-01,2.323848009109497070e-01,2.323709726333618164e-01,2.323571920394897350e-01,2.323433876037597767e-01,2.323296070098876953e-01,2.323158025741577093e-01,2.323020219802856556e-01,2.322882175445556696e-01,2.322744369506835882e-01,2.322606325149536022e-01,2.322468757629394531e-01,2.322330713272094671e-01,2.322192907333374134e-01,2.322055101394653320e-01,2.321917533874511830e-01,2.321779489517211970e-01,2.321641921997070201e-01,2.321504116058349665e-01,2.321366548538207897e-01,2.321228742599487360e-01,2.321090936660766546e-01,2.320953369140625056e-01,2.320815801620483287e-01,2.320677995681762751e-01,2.320540189743041937e-01,2.320402860641479492e-01,2.320265054702758678e-01,2.320127487182617188e-01,2.319989919662475697e-01,2.319852590560912975e-01,2.319714784622192438e-01,2.319577217102050670e-01,2.319439888000488226e-01,2.319302320480346735e-01,2.319164752960204967e-01,2.319027423858642523e-01,2.318889856338501032e-01,2.318752527236938588e-01,2.318615198135375866e-01,2.318477869033813421e-01,2.318340301513671931e-01,2.318202972412109486e-01,2.318065643310546764e-01,2.317928314208984319e-01,2.317790985107421875e-01,2.317653894424438477e-01,2.317516565322876032e-01,2.317379236221313588e-01,2.317241907119750866e-01,2.317104816436767467e-01,2.316967487335205023e-01,2.316830396652221624e-01,2.316693305969238226e-01,2.316555976867675781e-01,2.316419124603271429e-01,2.316281795501708984e-01,2.316144704818725586e-01,2.316007614135742188e-01,2.315870761871337835e-01,2.315733432769775391e-01,2.315596580505371038e-01,2.315459489822387640e-01,2.315322637557983287e-01,2.315185546874999889e-01,2.315048694610595814e-01,9.880451560020446500e-02,9.628778100013732355e-02,9.437422752380371371e-02,9.250504374504089911e-02,9.058480262756347934e-02,8.874265551567077359e-02,8.728185892105103094e-02,8.612849712371825617e-02
2.174299240112304576e-01,2.174178361892700195e-01,2.174057483673095814e-01,2.173936605453491155e-01,2.173815965652465820e-01,2.173695087432861439e-01,2.173574447631835826e-01,2.173453569412231445e-01,2.173332929611206110e-01,2.173212289810180775e-01,2.173091650009155162e-01,2.172971010208129827e-01,2.172850370407104492e-01,2.172729492187500111e-01,2.172609090805053822e-01,2.172488451004028209e-01,2.172367811203002874e-01,2.172247171401977539e-01,2.172126531600952204e-01,2.172005891799926869e-01,2.171885490417480580e-01,2.171764850616454967e-01,2.171644449234008678e-01,2.171523809432983343e-01,2.171403408050537054e-01,2.171282768249511719e-01,2.171162366867065430e-01,2.171041965484619141e-01,2.170921564102172852e-01,2.170801162719726562e-01,2.170680761337280273e-01,2.170560359954833984e-01,2.170439958572387695e-01,2.170319557189941406e-01,2.170199155807495117e-01,2.170078754425048828e-01,2.169958591461181585e-01,2.169838190078735296e-01,2.169717788696289007e-01,2.169597387313842718e-01,2.169477224349975475e-01,2.169356822967529186e-01,2.169236660003662220e-01,2.169116258621215931e-01,2.168996095657348688e-01,2.168875694274902399e-01,2.168755769729614202e-01,2.168635368347167913e-01,2.168515205383300670e-01,2.168395042419433705e-01,2.168274879455566462e-01,2.168154716491699219e-01,2.168034791946411022e-01,2.167914628982544056e-01,2.167794466018676813e-01,2.167674303054809570e-01,2.167554140090942327e-01,2.167434215545654408e-01,2.167314052581787165e-01,2.167194128036498968e-01,2.167073965072631725e-01,2.166954040527343806e-01,2.166834115982055609e-01,2.166714191436767689e-01,2.166594028472900446e-01,2.166474103927612249e-01,2.166354179382324330e-01,2.166234254837036133e-01,2.166114330291747936e-01,2.165994644165039062e-01,2.165874481201171819e-01,2.165754795074462946e-01,2.165634870529174749e-01,9.581796526908874234e-02,9.388158917427062711e-02,9.214009046554565152e-02,9.037611484527588446e-02,8.860155940055847168e-02,8.702504634857177734e-02,8.599171042442321777e-02
2.042088508605957031e-01,2.041981935501098744e-01,2.041875362396240179e-01,2.041768789291381891e-01,2.041662216186523326e-01,2.041555643081665039e-01,2.041449308395385798e-01,2.041342735290527233e-01,2.041236400604247991e-01,2.041129827499389704e-01,2.041023254394531139e-01,2.040916919708251898e-01,2.040810346603393610e-01,2.040704011917114369e-01,2.040597677230834850e-01,2.040491104125976562e-01,2.040384769439697321e-01,2.040278434753418080e-01,2.040172100067138561e-01,2.040065526962280273e-01,2.039959430694580078e-01,2.039852857589721791e-01,2.039746761322021595e-01,2.039640188217163030e-01,2.039534091949462835e-01,2.039427757263183594e-01,2.039321422576904352e-01,2.039215087890625111e-01,2.039108991622924916e-01,2.039002656936645397e-01,2.038896322250366155e-01,2.038790225982665960e-01,2.038683891296386719e-01,2.038577795028686523e-01,2.038471460342407282e-01,2.038365364074707087e-01,2.038259267807006891e-01,2.038152933120727650e-01,2.038046836853027455e-01,2.037940740585327259e-01,2.037834644317627064e-01,2.037728548049926869e-01,2.037622451782226674e-01,2.037516117095947155e-01,2.037410259246826283e-01,2.037304162979126088e-01,2.037197828292846569e-01,2.037091732025146373e-01,2.036985635757446178e-01,2.036879777908325306e-01,2.036773681640625111e-01,2.036667823791503962e-01,2.036561727523803766e-01,2.036455631256103571e-01,2.036349773406982422e-01,2.036243677139282227e-01,2.036137819290161077e-01,2.036031961441039928e-01,2.035925865173339733e-01,2.035820007324218861e-01,2.035714149475097712e-01,2.035608291625976562e-01,2.035502195358276367e-01,2.035396575927734264e-01,2.035290479660034069e-01,2.035184621810913197e-01,2.035078763961792048e-01,2.034972906112670898e-01,2.034867286682128795e-01,2.034761190414428600e-01,2.034655570983886774e-01,2.034549713134765625e-01,2.034444093704223522e-01,9.566256999969482977e-02,9.351115226745605746e-02,9.175789952278137762e-02,9.006320834159850519e-02,8.850456476211547574e-02,8.693147897720336637e-02,8.567144274711609164e-02
1.925034642219543568e-01,1.924939990043640081e-01,1.924845457077026256e-01,1.924750685691833385e-01,1.924655914306640514e-01,1.924561142921447643e-01,1.924466729164123480e-01,1.924372076988220270e-01,1.924277305603027399e-01,1.924182653427123912e-01,1.924088239669799749e-01,1.923993587493896540e-01,1.923898935317993053e-01,1.923804283142089844e-01,1.923709869384765681e-01,1.923615217208862194e-01,1.923520684242248646e-01,1.923426032066345159e-01,1.923331379890441950e-01,1.923237085342407171e-01,1.923142433166503962e-01,1.923047900199890137e-01,1.922953367233276312e-01,1.922859072685241810e-01,1.922764539718627985e-01,1.922670006752014160e-01,1.922575473785400335e-01,1.922481179237365834e-01,1.922386646270752009e-01,1.922292232513427845e-01,1.922197699546814020e-01,1.922103404998779241e-01,1.922008991241455078e-01,1.921914577484130915e-01,1.921820044517517090e-01,1.921725869178771973e-01,1.921631455421447809e-01,1.921537041664123646e-01,1.921442627906799205e-01,1.921348452568054088e-01,1.921254038810729925e-01,1.921159625053405762e-01,1.921065330505370983e-01,1.920971155166625866e-01,1.920876741409301702e-01,1.920782446861267201e-01,1.920688152313232422e-01,1.920593976974487305e-01,1.920499682426452526e-01,1.920405387878418024e-01,1.920311093330383245e-01,1.920216798782348744e-01,1.920122504234313965e-01,1.920028448104858509e-01,1.919934153556823730e-01,1.919839978218078613e-01,1.919745683670043834e-01,1.919651746749878041e-01,1.919557452201843262e-01,1.919463276863098145e-01,1.919369101524353027e-01,1.919274806976318248e-01,1.919180870056152455e-01,1.919086694717407338e-01,1.918992519378662220e-01,1.918898344039917103e-01,1.918804407119751032e-01,1.918710350990295299e-01,1.918616175651550182e-01,1.918522000312805065e-01,1.918428182601928655e-01,1.918334007263183538e-01,1.918239951133728083e-01,1.918145895004272350e-01,9.335106015205382746e-02,9.140073060989380160e-02,8.972863554954528531e-02,8.827746510505676825e-02,8.683811426162720004e-02,8.535354733467101496e-02
1.820672392845153753e-01,1.820587873458862360e-01,1.820503115653991644e-01,1.820418357849121205e-01,1.820333600044250488e-01,1.820249080657959095e-01,1.820164442062378041e-01,1.820079684257507324e-01,1.819994926452636608e-01,1.819910526275634877e-01,1.819825768470764160e-01,1.819741129875183105e-01,1.819656491279602051e-01,1.819571971893310658e-01,1.819487333297729603e-01,1.819402694702148549e-01,1.819318056106567494e-01,1.819233536720275823e-01,1.819149017333984431e-01,1.819064378738403376e-01,1.818979740142822321e-01,1.818895339965820312e-01,1.818810701370239258e-01,1.818726181983947865e-01,1.818641543388366810e-01,1.818557262420654186e-01,1.818472623825073131e-01,1.818388104438781738e-01,1.818303585052490345e-01,1.818219184875488337e-01,1.818134665489196666e-01,1.818050146102905273e-01,1.817965626716613881e-01,1.817881345748901256e-01,1.817796826362609863e-01,1.817712306976318470e-01,1.817627906799316462e-01,1.817543625831604115e-01,1.817459106445312444e-01,1.817374706268310436e-01,1.817290186882019043e-01,1.817206025123596080e-01,1.817121505737304688e-01,1.817037105560302679e-01,1.816952705383300670e-01,1.816868424415588323e-01,1.816784024238586315e-01,1.816699624061584584e-01,1.816615343093871959e-01,1.816531062126159612e-01,1.816446781158447266e-01,1.816362380981445257e-01,1.816277980804443248e-01,1.816193699836730902e-01,1.816109299659728893e-01,1.816025018692016546e-01,1.815940856933593861e-01,1.815856575965881237e-01,1.815772294998168890e-01,1.815687894821166881e-01,1.815603852272033580e-01,1.815519571304321234e-01,1.815435290336608887e-01,1.815351009368896540e-01,1.815266966819763239e-01,1.815182685852050892e-01,1.815098404884338268e-01,1.815014243125915583e-01,1.814930200576782282e-01,1.814845919609069935e-01,1.814761757850646973e-01,1.814677476882934626e-01,1.814593315124511663e-01,1.814509272575378362e-01,1.814425110816955677e-01,9.132528901100159247e-02,8.938191533088683804e-02,8.789250254631042480e-02,8.660732507705688754e-02,8.523324728012085516e-02
1.727044105529785267e-01,1.726967811584472767e-01,1.726891517639160267e-01,1.726815462112426813e-01,1.726739287376403698e-01,1.726662993431091198e-01,1.726586818695068359e-01,1.726510763168334905e-01,1.726434469223022405e-01,1.726358294486999567e-01,1.726282119750976451e-01,1.726206064224243275e-01,1.726129889488220159e-01,1.726053714752197321e-01,1.725977540016174205e-01,1.725901484489441029e-01,1.725825309753417913e-01,1.725749254226684459e-01,1.725673079490661621e-01,1.725597023963928167e-01,1.725520968437194713e-01,1.725444793701171875e-01,1.725368738174438421e-01,1.725292801856994629e-01,1.725216627120971791e-01,1.725140571594238337e-01,1.725064396858215221e-01,1.724988579750061091e-01,1.724912405014037975e-01,1.724836349487304799e-01,1.724760293960571345e-01,1.724684357643127552e-01,1.724608302116394098e-01,1.724532246589660645e-01,1.724456191062927191e-01,1.724380373954773060e-01,1.724304318428039606e-01,1.724228382110595814e-01,1.724152326583862360e-01,1.724076509475707952e-01,1.724000453948974498e-01,1.723924517631530706e-01,1.723848462104797252e-01,1.723772525787353460e-01,1.723696708679199330e-01,1.723620772361755260e-01,1.723544836044311468e-01,1.723468780517578014e-01,1.723393082618713268e-01,1.723317146301269476e-01,1.723241209983825684e-01,1.723165273666381891e-01,1.723089456558227484e-01,1.723013639450073353e-01,1.722937703132629284e-01,1.722861766815185491e-01,1.722786068916320745e-01,1.722710013389587291e-01,1.722634315490722545e-01,1.722558379173278753e-01,1.722482562065124623e-01,1.722406625747680553e-01,1.722330808639526423e-01,1.722255110740661677e-01,1.722179293632507269e-01,1.722103476524353138e-01,1.722027659416198730e-01,1.721951961517333984e-01,1.721876144409179576e-01,1.721800327301025446e-01,1.721724510192871038e-01,1.721648931503295954e-01,1.721573114395141546e-01,1.721497416496276800e-01,1.120413422584533719e-01,1.090221405029296875e-01,8.924802541732787531e-02,8.746682405471802035e-02,8.606880903244018555e-02,8.484922051429748258e-02
1.642574310302734319e-01,1.642505407333373912e-01,1.642436504364013783e-01,1.642367482185363714e-01,1.642298579216003307e-01,1.642229676246643177e-01,1.642160773277282770e-01,1.642091870307922363e-01,1.642022848129272572e-01,1.641953945159912165e-01,1.641885161399841420e-01,1.641816258430481013e-01,1.641747355461120605e-01,1.641678333282470814e-01,1.641609668731689453e-01,1.641540765762329046e-01,1.641471862792968639e-01,1.641402959823608509e-01,1.641334176063537487e-01,1.641265392303466741e-01,1.641196489334106334e-01,1.641127586364746205e-01,1.641058921813964844e-01,1.640990018844604437e-01,1.640921235084533691e-01,1.640852332115173284e-01,1.640783667564392201e-01,1.640714764595031794e-01,1.640645980834961049e-01,1.640577197074890026e-01,1.640508532524108942e-01,1.640439629554748535e-01,1.640370845794677790e-01,1.640302062034607045e-01,1.640233397483825684e-01,1.640164613723754938e-01,1.640095829963684193e-01,1.640027046203613170e-01,1.639958500862121471e-01,1.639889717102050726e-01,1.639820933341979980e-01,1.639752149581909235e-01,1.639683604240417536e-01,1.639614820480346791e-01,1.639546155929565430e-01,1.639477372169494684e-01,1.639408826828002985e-01,1.639340043067932240e-01,1.639271378517150879e-01,1.639202713966369518e-01,1.639134168624877819e-01,1.639065384864807073e-01,1.638996720314025990e-01,1.638928055763244629e-01,1.638859510421752930e-01,1.638790845870971569e-01,1.638722181320190485e-01,1.638653516769409124e-01,1.638584971427917425e-01,1.638516306877136341e-01,1.638447523117065319e-01,1.638379096984863281e-01,1.638310432434081920e-01,1.638241767883300837e-01,1.638173222541809138e-01,1.638104677200317438e-01,1.638036131858825739e-01,1.637967467308044378e-01,1.637898921966552679e-01,1.637830495834350641e-01,1.637761831283569280e-01,1.637693285942077581e-01,1.637624740600585882e-01,1.637556314468383845e-01,1.107491493225097601e-01,1.082695603370666532e-01,9.022003412246704102e-02,8.723850846290588656e-02,8.566676974296569269e-02,8.438678979873656671e-02
1.565982222557067982e-01,1.565919518470764160e-01,1.565856814384460338e-01,1.565794110298156794e-01,1.565731525421142634e-01,1.565668940544128473e-01,1.565606236457824652e-01,1.565543532371521107e-01,1.565481066703796331e-01,1.565418362617492787e-01,1.565355658531188965e-01,1.565293073654174805e-01,1.565230488777160645e-01,1.565167903900146484e-01,1.565105199813842662e-01,1.565042614936828502e-01,1.564980149269104004e-01,1.564917564392089844e-01,1.564854860305786022e-01,1.564792275428771862e-01,1.564729809761047363e-01,1.564667224884033203e-01,1.564604640007019043e-01,1.564542055130004883e-01,1.564479589462280384e-01,1.564417004585266224e-01,1.564354419708252064e-01,1.564291834831237904e-01,1.564229369163513128e-01,1.564166903495788630e-01,1.564104318618774470e-01,1.564041733741760309e-01,1.563979268074035534e-01,1.563916802406311035e-01,1.563854217529296875e-01,1.563791751861572377e-01,1.563729286193847601e-01,1.563666820526123102e-01,1.563604235649108942e-01,1.563541769981384166e-01,1.563479423522949330e-01,1.563416957855224554e-01,1.563354372978210394e-01,1.563291907310485895e-01,1.563229560852050781e-01,1.563167095184326283e-01,1.563104629516601507e-01,1.563042163848877009e-01,1.562979817390441895e-01,1.562917351722717396e-01,1.562854886054992620e-01,1.562792420387268122e-01,1.562730073928833008e-01,1.562667727470397894e-01,1.562605261802673395e-01,1.562542796134948619e-01,1.562480568885803167e-01,1.562418103218078669e-01,1.562355637550353893e-01,1.562293291091919056e-01,1.562230944633483942e-01,1.562168598175048828e-01,1.562106251716613714e-01,1.562043786048889216e-01,1.561981439590454102e-01,1.561918973922729603e-01,1.561856627464294489e-01,1.561794400215149037e-01,1.561732053756713923e-01,1.561669707298278809e-01,1.561607360839843694e-01,1.561545014381408580e-01,1.561482787132263128e-01,1.123147010803222656e-01,1.100837349891662653e-01,1.081392765045166016e-01,1.060441970825195257e-01,8.733050227165221890e-02,8.541613817214965820e-02,8.397316336631774347e-02
1.496214628219604548e-01,1.496157407760620173e-01,1.496100306510925182e-01,1.496043086051940807e-01,1.495985865592956432e-01,1.495928645133972057e-01,1.495871543884277344e-01,1.495814323425292969e-01,1.495757102966308594e-01,1.495699882507324219e-01,1.495642781257629506e-01,1.495585560798645131e-01,1.495528459548950140e-01,1.495471239089965765e-01,1.495414137840271052e-01,1.495357036590576061e-01,1.495299816131591686e-01,1.495242714881896973e-01,1.495185613632202259e-01,1.495128512382507269e-01,1.495071291923522894e-01,1.495014190673828181e-01,1.494957089424133190e-01,1.494899988174438477e-01,1.494842886924743763e-01,1.494785666465759388e-01,1.494728684425354059e-01,1.494671583175659069e-01,1.494614481925964355e-01,1.494557380676269642e-01,1.494500279426574652e-01,1.494443297386169323e-01,1.494386196136474609e-01,1.494329094886779896e-01,1.494271993637084905e-01,1.494215011596679576e-01,1.494157910346984863e-01,1.494100809097290150e-01,1.494043707847595159e-01,1.493986845016479492e-01,1.493929743766784779e-01,1.493872642517089788e-01,1.493815541267395075e-01,1.493758678436279408e-01,1.493701577186584417e-01,1.493644595146179088e-01,1.493587493896484375e-01,1.493530631065368708e-01,1.493473529815673717e-01,1.493416547775268666e-01,1.493359446525573675e-01,1.493302583694458008e-01,1.493245601654052679e-01,1.493188619613647350e-01,1.493131518363952637e-01,1.493074655532836970e-01,1.493017673492431641e-01,1.492960691452026312e-01,1.492903709411620983e-01,1.492846846580505316e-01,1.492789864540099987e-01,1.492732882499694935e-01,1.492675900459289606e-01,1.492619037628173939e-01,1.492562055587768610e-01,1.492505192756652943e-01,1.492448210716247614e-01,1.492391347885131947e-01,1.492334246635436956e-01,1.492277383804321289e-01,1.492220520973205622e-01,1.492163538932800293e-01,1.137862682342529325e-01,1.112259626388549805e-01,1.092413067817687988e-01,1.073926925659179632e-01,1.056859970092773465e-01,1.038589477539062500e-01,8.542844057083129328e-02,8.378099799156188410e-02
1.432398438453674205e-01,1.432346105575561523e-01,1.432293653488159180e-01,1.432241201400756836e-01,1.432188749313354492e-01,1.432136416435241810e-01,1.432083964347839466e-01,1.432031512260437123e-01,1.431979060173034779e-01,1.431926846504211481e-01,1.431874394416809138e-01,1.431821942329406794e-01,1.431769490242004450e-01,1.431717276573181152e-01,1.431664824485778809e-01,1.431612372398376465e-01,1.431560039520263783e-01,1.431507706642150823e-01,1.431455373764038141e-01,1.431402921676635798e-01,1.431350588798522838e-01,1.431298255920410156e-01,1.431245923042297474e-01,1.431193470954895131e-01,1.431141138076782171e-01,1.431088924407958873e-01,1.431036591529846191e-01,1.430984139442443848e-01,1.430931806564331166e-01,1.430879592895507868e-01,1.430827260017394909e-01,1.430774927139282227e-01,1.430722594261169545e-01,1.430670261383056585e-01,1.430617928504943903e-01,1.430565595626830944e-01,1.430513381958007924e-01,1.430461168289184626e-01,1.430408835411071666e-01,1.430356502532958984e-01,1.430304169654846302e-01,1.430251955986023005e-01,1.430199623107910045e-01,1.430147409439087025e-01,1.430095076560974066e-01,1.430042862892150768e-01,1.429990649223327748e-01,1.429938316345214788e-01,1.429886102676391491e-01,1.429833889007568470e-01,1.429781675338745173e-01,1.429729342460632213e-01,1.429677128791809193e-01,1.429624915122985895e-01,1.429572701454162598e-01,1.429520487785339300e-01,1.429468154907226618e-01,1.429416060447692982e-01,1.429363846778869684e-01,1.429311513900756725e-01,1.429259300231933705e-01,1.429207205772399791e-01,1.429154992103576771e-01,1.429102778434753473e-01,1.429050564765930176e-01,1.428998470306396540e-01,1.428946256637573242e-01,1.428894042968749944e-01,1.428841829299926647e-01,1.428789734840393011e-01,1.428737521171569713e-01,1.428685188293457031e-01,1.130669116973876953e-01,1.104544401168823242e-01,1.086814641952514593e-01,1.069645285606384277e-01,1.052155971527099637e-01,1.034130692481994573e-01,1.016712784767150879e-01,8.354127407073974609e-02
1.373803496360778698e-01,1.373755216598510631e-01,1.373706936836242565e-01,1.373658776283264160e-01,1.373610615730285756e-01,1.373562335968017689e-01,1.373514056205749623e-01,1.373465895652770941e-01,1.373417735099792536e-01,1.373369455337524470e-01,1.373321294784545787e-01,1.373273134231567383e-01,1.373224973678588978e-01,1.373176693916320912e-01,1.373128533363342230e-01,1.373080372810363825e-01,1.373032212257385143e-01,1.372983932495117076e-01,1.372935771942138672e-01,1.372887730598449652e-01,1.372839450836181585e-01,1.372791290283203181e-01,1.372743129730224498e-01,1.372695088386535756e-01,1.372646927833557073e-01,1.372598648071289007e-01,1.372550487518310602e-01,1.372502446174621582e-01,1.372454285621643177e-01,1.372406125068664495e-01,1.372357964515686091e-01,1.372309923171997070e-01,1.372261762619018666e-01,1.372213602066039984e-01,1.372165441513061579e-01,1.372117400169372559e-01,1.372069358825683538e-01,1.372021198272705134e-01,1.371973037719726451e-01,1.371924996376037709e-01,1.371876835823059027e-01,1.371828794479370006e-01,1.371780633926391602e-01,1.371732592582702581e-01,1.371684551239013561e-01,1.371636390686035156e-01,1.371588349342346136e-01,1.371540307998657116e-01,1.371492266654968373e-01,1.371444106101989691e-01,1.371396064758300670e-01,1.371348023414611927e-01,1.371299982070922907e-01,1.371251940727233887e-01,1.371203780174255482e-01,1.371155738830566462e-01,1.371107816696167103e-01,1.371059656143188421e-01,1.371011614799499401e-01,1.370963573455810658e-01,1.370915651321411022e-01,1.370867609977722279e-01,1.370819568634033259e-01,1.370771527290344238e-01,1.370723485946655218e-01,1.370675563812255859e-01,1.370627522468566839e-01,1.370579481124877819e-01,1.370531558990478460e-01,1.370483517646789440e-01,1.370435476303100697e-01,1.370387434959411677e-01,1.133413672447204645e-01,1.101151347160339300e-01,1.082429766654968289e-01,1.065397500991821234e-01,1.047493577003479059e-01,1.031050562858581571e-01,1.015896916389465304e-01,8.369814157485962192e-02
1.319813847541809193e-01,1.319769382476806696e-01,1.319724917411804199e-01,1.319680333137512318e-01,1.319635868072509821e-01,1.319591403007507324e-01,1.319546818733215443e-01,1.319502353668212946e-01,1.319457769393920787e-01,1.319413423538207952e-01,1.319368958473205455e-01,1.319324374198913574e-01,1.319279909133911077e-01,1.319235444068908580e-01,1.319190979003906361e-01,1.319146513938903864e-01,1.319102048873901367e-01,1.319057583808898870e-01,1.319013118743896373e-01,1.318968653678894154e-01,1.318924188613891657e-01,1.318879723548889160e-01,1.318835258483886663e-01,1.318790793418884166e-01,1.318746328353881947e-01,1.318701863288879450e-01,1.318657517433166615e-01,1.318613052368164118e-01,1.318568587303161621e-01,1.318524122238159124e-01,1.318479776382446289e-01,1.318435311317443792e-01,1.318390965461730957e-01,1.318346500396728460e-01,1.318302154541015625e-01,1.318257689476013128e-01,1.318213224411010631e-01,1.318168878555297796e-01,1.318124532699584961e-01,1.318080067634582464e-01,1.318035602569579967e-01,1.317991256713867132e-01,1.317946910858154297e-01,1.317902565002441462e-01,1.317858099937438965e-01,1.317813634872436468e-01,1.317769408226013295e-01,1.317724943161010798e-01,1.317680597305297963e-01,1.317636132240295466e-01,1.317591905593872015e-01,1.317547559738159180e-01,1.317503094673156683e-01,1.317458748817443848e-01,1.317414402961731013e-01,1.317370057106018177e-01,1.317325711250305065e-01,1.317281365394592230e-01,1.317237019538879395e-01,1.317192673683166559e-01,1.317148327827453724e-01,1.317103981971740612e-01,1.317059755325317438e-01,1.317015409469604603e-01,1.316971063613891491e-01,1.316926717758178655e-01,1.316882371902465820e-01,1.316838145256042369e-01,1.316793799400329534e-01,1.316749453544616699e-01,1.316705226898193248e-01,1.316660881042480413e-01,1.316616535186767578e-01,1.099140644073486328e-01,1.080264568328857394e-01,1.062010288238525446e-01,1.046182155609130804e-01,1.030629754066467313e-01,1.015488266944885309e-01,9.992891550064086914e-02
