6.195737361907959206e-01,6.352895736694336160e-01,6.518234252929687722e-01,6.692409515380859375e-01,6.876147747039794700e-01,7.070259571075439009e-01,7.275650024414062056e-01,7.493330955505370650e-01,7.724438667297363059e-01,7.970255374908447044e-01,8.232231140136718750e-01,8.512015342712402344e-01,8.811486244201660600e-01,9.132797241210937056e-01,9.478428840637207475e-01,1.000000000000000000e+00,1.000000000000000000e+00,1.000000000000000000e+00,1.000000000000000000e+00,1.000000000000000000e+00,1.000000000000000000e+00,1.000000000000000000e+00,1.000000000000000000e+00,1.000000000000000000e+00,1.000000000000000000e+00,1.000000000000000000e+00,1.000000000000000000e+00,1.000000000000000000e+00,1.000000000000000000e+00,1.000000000000000000e+00,1.000000000000000000e+00,1.000000000000000000e+00,1.000000000000000000e+00,1.000000000000000000e+00,1.000000000000000000e+00,1.000000000000000000e+00,1.000000000000000000e+00,1.000000000000000000e+00,1.000000000000000000e+00,1.000000000000000000e+00,1.000000000000000000e+00,1.000000000000000000e+00,1.000000000000000000e+00,1.000000000000000000e+00,1.000000000000000000e+00,1.000000000000000000e+00,1.000000000000000000e+00,1.000000000000000000e+00,1.000000000000000000e+00,1.000000000000000000e+00,1.000000000000000000e+00,1.000000000000000000e+00,1.000000000000000000e+00,1.000000000000000000e+00,1.000000000000000000e+00,1.000000000000000000e+00,1.000000000000000000e+00,3.052130460739135853e-01,2.999198198318481223e-01,2.979637622833252175e-01,3.014348030090331920e-01,3.040020465850830078e-01,2.966471195220947155e-01,2.937428236007690319e-01,2.909390926361083984e-01,2.889923572540283314e-01,2.881513833999633789e-01,2.873152971267700084e-01,2.865800380706787220e-01,2.883622169494629017e-01,2.893099784851074219e-01,2.940715789794922097e-01,3.179182052612304910e-01,3.175703763961791881e-01,8.536260604858398882e-01,8.289335250854492632e-01,8.056293487548827903e-01,7.835997581481933816e-01,7.627428054809570757e-01,7.429673671722412109e-01
6.195585250854491743e-01,6.352730274200439897e-01,6.518060684204101118e-01,6.692225933074951172e-01,6.875954151153564897e-01,7.070055007934570312e-01,7.275434017181396928e-01,7.493100643157959428e-01,7.724194049835204634e-01,7.969995975494384988e-01,8.231954574584960938e-01,8.511719703674316406e-01,8.811168670654296875e-01,9.132456779479980469e-01,9.478060722351073775e-01,9.850852966308594194e-01,1.000000000000000000e+00,1.000000000000000000e+00,1.000000000000000000e+00,1.000000000000000000e+00,1.000000000000000000e+00,1.000000000000000000e+00,1.000000000000000000e+00,1.000000000000000000e+00,1.000000000000000000e+00,1.000000000000000000e+00,1.000000000000000000e+00,1.000000000000000000e+00,1.000000000000000000e+00,1.000000000000000000e+00,1.000000000000000000e+00,1.000000000000000000e+00,1.000000000000000000e+00,1.000000000000000000e+00,1.000000000000000000e+00,1.000000000000000000e+00,1.000000000000000000e+00,1.000000000000000000e+00,1.000000000000000000e+00,1.000000000000000000e+00,1.000000000000000000e+00,1.000000000000000000e+00,1.000000000000000000e+00,1.000000000000000000e+00,1.000000000000000000e+00,1.000000000000000000e+00,1.000000000000000000e+00,1.000000000000000000e+00,1.000000000000000000e+00,1.000000000000000000e+00,1.000000000000000000e+00,1.000000000000000000e+00,1.000000000000000000e+00,1.000000000000000000e+00,1.000000000000000000e+00,1.000000000000000000e+00,1.000000000000000000e+00,3.037517786026001088e-01,2.966966152191162220e-01,2.937304019927978738e-01,2.947856187820434570e-01,3.014967679977417214e-01,2.958846092224121094e-01,2.933883190155029408e-01,2.910852670669555886e-01,2.895722150802612083e-01,2.885964632034301869e-01,2.874670267105102761e-01,2.877487659454345814e-01,2.895674467086791770e-01,2.914191961288452037e-01,2.965773344039916992e-01,3.165285348892211692e-01,3.155384778976440541e-01,8.536480903625488503e-01,8.289542198181152344e-01,8.056489944458007368e-01,7.836182594299316850e-01,7.627604007720947266e-01,7.429840087890624556e-01
6.195453166961669700e-01,6.352570533752441850e-01,6.517886638641356978e-01,6.692042350769042969e-01,6.875760078430175337e-01,7.069850921630859153e-01,7.275217056274414507e-01,7.492870807647704634e-01,7.723950386047363503e-01,7.969735622406005637e-01,8.231677055358886941e-01,8.511422157287598100e-01,8.810851097106933150e-01,9.132114410400390403e-01,9.477693557739257368e-01,9.850456237792968306e-01,1.000000000000000000e+00,1.000000000000000000e+00,1.000000000000000000e+00,1.000000000000000000e+00,1.000000000000000000e+00,1.000000000000000000e+00,1.000000000000000000e+00,1.000000000000000000e+00,1.000000000000000000e+00,1.000000000000000000e+00,1.000000000000000000e+00,1.000000000000000000e+00,1.000000000000000000e+00,1.000000000000000000e+00,1.000000000000000000e+00,1.000000000000000000e+00,1.000000000000000000e+00,1.000000000000000000e+00,1.000000000000000000e+00,1.000000000000000000e+00,1.000000000000000000e+00,1.000000000000000000e+00,1.000000000000000000e+00,1.000000000000000000e+00,1.000000000000000000e+00,1.000000000000000000e+00,1.000000000000000000e+00,1.000000000000000000e+00,1.000000000000000000e+00,1.000000000000000000e+00,1.000000000000000000e+00,1.000000000000000000e+00,1.000000000000000000e+00,1.000000000000000000e+00,1.000000000000000000e+00,1.000000000000000000e+00,1.000000000000000000e+00,1.000000000000000000e+00,1.000000000000000000e+00,1.000000000000000000e+00,1.000000000000000000e+00,3.044894456863403431e-01,2.944897651672363503e-01,2.903004169464111217e-01,2.911087512969970925e-01,3.003273963928222434e-01,2.956981658935546875e-01,2.934789657592773438e-01,2.912315845489502064e-01,2.904557466506957897e-01,2.904070377349853294e-01,2.903583526611328014e-01,2.906756162643432395e-01,2.921422481536865012e-01,2.933534860610961803e-01,2.965298414230346791e-01,3.159203529357910156e-01,3.142620325088500977e-01,3.143489837646484264e-01,8.289750099182129350e-01,8.056685447692870650e-01,7.836368083953857422e-01,7.627779006958007590e-01,7.430006980895995650e-01
6.195321083068847656e-01,6.352431297302245650e-01,6.517716884613037331e-01,6.691858768463134766e-01,6.875567436218261719e-01,7.069645881652831809e-01,7.275000095367432085e-01,7.492641448974609597e-01,7.723705768585205078e-01,7.969475269317627397e-01,8.231399536132812944e-01,8.511126518249512163e-01,8.810532569885254350e-01,9.131773948669433816e-01,9.477326393127440962e-01,9.850058555603027344e-01,1.000000000000000000e+00,1.000000000000000000e+00,1.000000000000000000e+00,1.000000000000000000e+00,1.000000000000000000e+00,1.000000000000000000e+00,1.000000000000000000e+00,1.000000000000000000e+00,1.000000000000000000e+00,1.000000000000000000e+00,1.000000000000000000e+00,1.000000000000000000e+00,1.000000000000000000e+00,1.000000000000000000e+00,1.000000000000000000e+00,1.000000000000000000e+00,1.000000000000000000e+00,1.000000000000000000e+00,1.000000000000000000e+00,1.000000000000000000e+00,1.000000000000000000e+00,1.000000000000000000e+00,1.000000000000000000e+00,1.000000000000000000e+00,1.000000000000000000e+00,1.000000000000000000e+00,1.000000000000000000e+00,1.000000000000000000e+00,1.000000000000000000e+00,1.000000000000000000e+00,1.000000000000000000e+00,1.000000000000000000e+00,1.000000000000000000e+00,1.000000000000000000e+00,1.000000000000000000e+00,1.000000000000000000e+00,1.000000000000000000e+00,1.000000000000000000e+00,1.000000000000000000e+00,1.000000000000000000e+00,1.000000000000000000e+00,1.000000000000000000e+00,2.923879146575927845e-01,2.873254060745239480e-01,2.864175796508788840e-01,2.996904611587524192e-01,2.954291343688965066e-01,2.933722972869873269e-01,2.913890123367309792e-01,2.934077978134155273e-01,2.933580875396728516e-01,2.906635522842407338e-01,2.936625957489013561e-01,2.924511671066284402e-01,2.894768953323364480e-01,2.837212324142456277e-01,2.797689437866210938e-01,3.128586530685424916e-01,3.131985187530517689e-01,8.289957046508789062e-01,8.056880950927733931e-01,7.836553096771240456e-01,7.627954959869385210e-01,7.430172920227050559e-01
6.195188999176025613e-01,6.352292537689209206e-01,6.517570972442626731e-01,6.691679954528808594e-01,6.875373363494873269e-01,7.069441318511963113e-01,7.274784088134765847e-01,7.492411613464355913e-01,7.723461627960205300e-01,7.969214916229248047e-01,8.231122016906737837e-01,8.510828971862792747e-01,8.810214996337890625e-01,9.131432533264159934e-01,9.476958274841308372e-01,9.849661827087402566e-01,1.000000000000000000e+00,1.000000000000000000e+00,1.000000000000000000e+00,1.000000000000000000e+00,1.000000000000000000e+00,1.000000000000000000e+00,1.000000000000000000e+00,1.000000000000000000e+00,1.000000000000000000e+00,1.000000000000000000e+00,1.000000000000000000e+00,1.000000000000000000e+00,1.000000000000000000e+00,1.000000000000000000e+00,1.000000000000000000e+00,1.000000000000000000e+00,1.000000000000000000e+00,1.000000000000000000e+00,1.000000000000000000e+00,1.000000000000000000e+00,1.000000000000000000e+00,1.000000000000000000e+00,1.000000000000000000e+00,1.000000000000000000e+00,1.000000000000000000e+00,1.000000000000000000e+00,1.000000000000000000e+00,1.000000000000000000e+00,1.000000000000000000e+00,1.000000000000000000e+00,1.000000000000000000e+00,1.000000000000000000e+00,1.000000000000000000e+00,1.000000000000000000e+00,1.000000000000000000e+00,1.000000000000000000e+00,1.000000000000000000e+00,1.000000000000000000e+00,1.000000000000000000e+00,1.000000000000000000e+00,1.000000000000000000e+00,1.000000000000000000e+00,2.892071962356567161e-01,2.848465919494628795e-01,2.825840473175048606e-01,2.993426322937011719e-01,2.953440666198730580e-01,2.935117244720458762e-01,2.915887117385864147e-01,2.936787843704223855e-01,2.963697195053100475e-01,2.957353830337524636e-01,2.913337230682372936e-01,2.865097999572753795e-01,2.820071935653686301e-01,2.794315814971923828e-01,2.769026041030883678e-01,2.795680522918700950e-01,3.117929697036743164e-01,8.290164947509766069e-01,8.057077407836914507e-01,7.836739063262939675e-01,7.628130435943603072e-01,7.430340290069580300e-01
6.195056915283203569e-01,6.352153778076171653e-01,6.517425060272217241e-01,6.691525936126708762e-01,6.875184059143066850e-01,7.069237232208251953e-01,7.274567127227783425e-01,7.492181301116943581e-01,7.723217010498046875e-01,7.968955516815185991e-01,8.230844497680663840e-01,8.510533332824706809e-01,8.809897422790526900e-01,9.131091117858887163e-01,9.476590156555175781e-01,9.849264144897460493e-01,1.000000000000000000e+00,1.000000000000000000e+00,1.000000000000000000e+00,1.000000000000000000e+00,1.000000000000000000e+00,1.000000000000000000e+00,1.000000000000000000e+00,1.000000000000000000e+00,1.000000000000000000e+00,1.000000000000000000e+00,1.000000000000000000e+00,1.000000000000000000e+00,1.000000000000000000e+00,1.000000000000000000e+00,1.000000000000000000e+00,1.000000000000000000e+00,1.000000000000000000e+00,1.000000000000000000e+00,1.000000000000000000e+00,1.000000000000000000e+00,1.000000000000000000e+00,1.000000000000000000e+00,1.000000000000000000e+00,1.000000000000000000e+00,1.000000000000000000e+00,1.000000000000000000e+00,1.000000000000000000e+00,1.000000000000000000e+00,1.000000000000000000e+00,1.000000000000000000e+00,1.000000000000000000e+00,1.000000000000000000e+00,1.000000000000000000e+00,1.000000000000000000e+00,1.000000000000000000e+00,1.000000000000000000e+00,1.000000000000000000e+00,1.000000000000000000e+00,1.000000000000000000e+00,1.000000000000000000e+00,1.000000000000000000e+00,1.000000000000000000e+00,2.881154775619506614e-01,2.840427875518798939e-01,2.833662748336792103e-01,2.990445613861084095e-01,2.947778224945068470e-01,2.931994438171386941e-01,2.914218187332153209e-01,2.927234411239624245e-01,2.972656249999999778e-01,2.961737871170043723e-01,2.894522666931152455e-01,2.829822301864624023e-01,2.796965837478637695e-01,2.772274017333984375e-01,2.749885082244872825e-01,2.728138208389282449e-01,2.805790901184082031e-01,8.290371894836425781e-01,8.057272911071777788e-01,7.836923599243164062e-01,7.628306388854980691e-01,7.430506229400635210e-01
6.194924831390380415e-01,6.352014541625976562e-01,6.517279148101806641e-01,6.691371917724608931e-01,6.875021457672119141e-01,7.069036006927490456e-01,7.274350166320801003e-01,7.491951465606689897e-01,7.722973346710204634e-01,7.968695640563965288e-01,8.230567932128906028e-01,8.510236740112304688e-01,8.809579849243164285e-01,9.130749702453613281e-01,9.476222991943359375e-01,9.848867416381835715e-01,1.000000000000000000e+00,1.000000000000000000e+00,1.000000000000000000e+00,1.000000000000000000e+00,1.000000000000000000e+00,1.000000000000000000e+00,1.000000000000000000e+00,1.000000000000000000e+00,1.000000000000000000e+00,1.000000000000000000e+00,1.000000000000000000e+00,1.000000000000000000e+00,1.000000000000000000e+00,1.000000000000000000e+00,1.000000000000000000e+00,1.000000000000000000e+00,1.000000000000000000e+00,1.000000000000000000e+00,1.000000000000000000e+00,1.000000000000000000e+00,1.000000000000000000e+00,1.000000000000000000e+00,1.000000000000000000e+00,1.000000000000000000e+00,1.000000000000000000e+00,1.000000000000000000e+00,1.000000000000000000e+00,1.000000000000000000e+00,1.000000000000000000e+00,1.000000000000000000e+00,1.000000000000000000e+00,1.000000000000000000e+00,1.000000000000000000e+00,1.000000000000000000e+00,1.000000000000000000e+00,1.000000000000000000e+00,1.000000000000000000e+00,1.000000000000000000e+00,1.000000000000000000e+00,1.000000000000000000e+00,1.000000000000000000e+00,1.000000000000000000e+00,2.874907255172729492e-01,2.810547351837158203e-01,2.780097007751464733e-01,2.778192043304443248e-01,2.942137479782104270e-01,2.926413774490356223e-01,2.910857439041137917e-01,2.909366846084594505e-01,2.959216356277465931e-01,2.952824354171753041e-01,2.886355400085449108e-01,2.828810691833495983e-01,2.777602672576904297e-01,2.755769014358520619e-01,2.733929395675659402e-01,2.712433099746703880e-01,2.741097450256347878e-01,8.290579795837402788e-01,8.057469367980957253e-01,7.837109565734863281e-01,7.628476142883300337e-01,7.430661201477051225e-01
6.194792747497558372e-01,6.351875782012939009e-01,6.517132759094238503e-01,6.691217899322510210e-01,6.874858856201171431e-01,7.068864345550537331e-01,7.274137496948241965e-01,7.491722106933593750e-01,7.722729206085204856e-01,7.968435287475585938e-01,8.230290412902832031e-01,8.509940147399902566e-01,8.809262275695800559e-01,9.130408287048339400e-01,9.475854873657226785e-01,9.848469734191894753e-01,1.000000000000000000e+00,1.000000000000000000e+00,1.000000000000000000e+00,1.000000000000000000e+00,1.000000000000000000e+00,1.000000000000000000e+00,1.000000000000000000e+00,1.000000000000000000e+00,1.000000000000000000e+00,1.000000000000000000e+00,1.000000000000000000e+00,1.000000000000000000e+00,1.000000000000000000e+00,1.000000000000000000e+00,1.000000000000000000e+00,1.000000000000000000e+00,1.000000000000000000e+00,1.000000000000000000e+00,1.000000000000000000e+00,1.000000000000000000e+00,1.000000000000000000e+00,1.000000000000000000e+00,1.000000000000000000e+00,1.000000000000000000e+00,1.000000000000000000e+00,1.000000000000000000e+00,1.000000000000000000e+00,1.000000000000000000e+00,1.000000000000000000e+00,1.000000000000000000e+00,1.000000000000000000e+00,1.000000000000000000e+00,1.000000000000000000e+00,1.000000000000000000e+00,1.000000000000000000e+00,1.000000000000000000e+00,1.000000000000000000e+00,1.000000000000000000e+00,1.000000000000000000e+00,1.000000000000000000e+00,1.000000000000000000e+00,1.000000000000000000e+00,1.000000000000000000e+00,2.779071331024169922e-01,2.721753358840942605e-01,2.732052564620971458e-01,2.713369607925414928e-01,2.929709434509277233e-01,2.912341594696045144e-01,2.900956630706786887e-01,2.945866346359252708e-01,2.950773954391479603e-01,2.885988950729370117e-01,2.827276706695556752e-01,2.769279479980468750e-01,2.736792325973510520e-01,2.717627286911010742e-01,2.696907758712768777e-01,2.679319858551025280e-01,2.766711235046386830e-01,8.057653427124022993e-01,7.837275981903075728e-01,7.628631591796875000e-01,7.430808067321776900e-01
6.194660663604736328e-01,6.351737022399902566e-01,6.516986846923827903e-01,6.691063404083251731e-01,6.874696254730224831e-01,7.068692207336425559e-01,7.273955345153808594e-01,7.491494655609131081e-01,7.722484588623046431e-01,7.968175888061523882e-01,8.230012893676758035e-01,8.509643554687500444e-01,8.808944702148437944e-01,9.130066871643066628e-01,9.475487709045410378e-01,9.848073005676269975e-01,1.000000000000000000e+00,1.000000000000000000e+00,1.000000000000000000e+00,1.000000000000000000e+00,1.000000000000000000e+00,1.000000000000000000e+00,1.000000000000000000e+00,1.000000000000000000e+00,1.000000000000000000e+00,1.000000000000000000e+00,1.000000000000000000e+00,1.000000000000000000e+00,1.000000000000000000e+00,1.000000000000000000e+00,1.000000000000000000e+00,1.000000000000000000e+00,1.000000000000000000e+00,1.000000000000000000e+00,1.000000000000000000e+00,1.000000000000000000e+00,1.000000000000000000e+00,1.000000000000000000e+00,1.000000000000000000e+00,1.000000000000000000e+00,1.000000000000000000e+00,1.000000000000000000e+00,1.000000000000000000e+00,1.000000000000000000e+00,1.000000000000000000e+00,1.000000000000000000e+00,1.000000000000000000e+00,1.000000000000000000e+00,1.000000000000000000e+00,1.000000000000000000e+00,1.000000000000000000e+00,1.000000000000000000e+00,1.000000000000000000e+00,1.000000000000000000e+00,1.000000000000000000e+00,1.000000000000000000e+00,1.000000000000000000e+00,1.000000000000000000e+00,2.846873283386230358e-01,2.744890451431274414e-01,2.707161426544189564e-01,2.980580568313598855e-01,2.682860374450683483e-01,2.935717582702636608e-01,2.917860746383666992e-01,2.902903318405151145e-01,2.947371006011962891e-01,2.978511810302734153e-01,2.884931802749634011e-01,2.824818134307861550e-01,2.766860008239745983e-01,2.716040372848510520e-01,2.697163581848144309e-01,2.678547620773315541e-01,2.660187005996704213e-01,2.704713582992553933e-01,8.057826995849609597e-01,7.837440013885498269e-01,7.628786563873291016e-01,7.430955410003662331e-01
6.194528579711914285e-01,6.351598262786865012e-01,6.516840457916259766e-01,6.690910339355469194e-01,6.874533176422119585e-01,7.068520069122314897e-01,7.273773193359375222e-01,7.491302490234375000e-01,7.722242832183837669e-01,7.967916011810303178e-01,8.229736328125000222e-01,8.509346961975097212e-01,8.808627128601074219e-01,9.129726409912108931e-01,9.475120544433593972e-01,9.847676277160644087e-01,1.000000000000000000e+00,1.000000000000000000e+00,1.000000000000000000e+00,1.000000000000000000e+00,1.000000000000000000e+00,1.000000000000000000e+00,1.000000000000000000e+00,1.000000000000000000e+00,1.000000000000000000e+00,1.000000000000000000e+00,1.000000000000000000e+00,1.000000000000000000e+00,1.000000000000000000e+00,1.000000000000000000e+00,1.000000000000000000e+00,1.000000000000000000e+00,1.000000000000000000e+00,1.000000000000000000e+00,1.000000000000000000e+00,1.000000000000000000e+00,1.000000000000000000e+00,1.000000000000000000e+00,1.000000000000000000e+00,1.000000000000000000e+00,1.000000000000000000e+00,1.000000000000000000e+00,1.000000000000000000e+00,1.000000000000000000e+00,1.000000000000000000e+00,1.000000000000000000e+00,1.000000000000000000e+00,1.000000000000000000e+00,1.000000000000000000e+00,1.000000000000000000e+00,1.000000000000000000e+00,1.000000000000000000e+00,1.000000000000000000e+00,1.000000000000000000e+00,1.000000000000000000e+00,1.000000000000000000e+00,1.000000000000000000e+00,1.000000000000000000e+00,2.826354026794433705e-01,2.757414340972900169e-01,2.716890335083007590e-01,2.633262157440185436e-01,2.962038278579711692e-01,2.943685770034790150e-01,2.925559282302856445e-01,2.910437583923339844e-01,2.955610275268554799e-01,2.999724149703979492e-01,2.895251989364623912e-01,2.822363615036010964e-01,2.764444589614868386e-01,2.708576917648315430e-01,2.677006006240844616e-01,2.659377813339233176e-01,2.641980886459350808e-01,2.624810457229614369e-01,8.058000564575195090e-01,7.837603569030762163e-01,7.628942012786865678e-01,7.431102752685546653e-01
6.194396495819092241e-01,6.351459503173828569e-01,6.516694068908691628e-01,6.690755844116210715e-01,6.874370574951171875e-01,7.068347930908203125e-01,7.273591041564941850e-01,7.491109371185302734e-01,7.722037792205810325e-01,7.967657566070556197e-01,8.229458808898926225e-01,8.509051322937011275e-01,8.808309555053710493e-01,9.129384994506836160e-01,9.474752426147461382e-01,9.847278594970703125e-01,1.000000000000000000e+00,1.000000000000000000e+00,1.000000000000000000e+00,1.000000000000000000e+00,1.000000000000000000e+00,1.000000000000000000e+00,1.000000000000000000e+00,1.000000000000000000e+00,1.000000000000000000e+00,1.000000000000000000e+00,1.000000000000000000e+00,1.000000000000000000e+00,1.000000000000000000e+00,1.000000000000000000e+00,1.000000000000000000e+00,1.000000000000000000e+00,1.000000000000000000e+00,1.000000000000000000e+00,1.000000000000000000e+00,1.000000000000000000e+00,1.000000000000000000e+00,1.000000000000000000e+00,1.000000000000000000e+00,1.000000000000000000e+00,1.000000000000000000e+00,1.000000000000000000e+00,1.000000000000000000e+00,1.000000000000000000e+00,1.000000000000000000e+00,1.000000000000000000e+00,1.000000000000000000e+00,1.000000000000000000e+00,1.000000000000000000e+00,1.000000000000000000e+00,1.000000000000000000e+00,1.000000000000000000e+00,1.000000000000000000e+00,1.000000000000000000e+00,1.000000000000000000e+00,1.000000000000000000e+00,1.000000000000000000e+00,1.000000000000000000e+00,2.821687459945678711e-01,2.737875461578369030e-01,2.670530080795288086e-01,2.610147714614868275e-01,2.971945285797119030e-01,2.952927827835082897e-01,2.934687376022339089e-01,2.923613548278808372e-01,2.969181776046753152e-01,3.012816190719604381e-01,2.907965421676635964e-01,2.819913625717163086e-01,2.762033462524414174e-01,2.704950571060180664e-01,2.655235767364502175e-01,2.641670227050781361e-01,2.624503612518310769e-01,2.607558727264404075e-01,2.643420696258544922e-01,7.837767601013183594e-01,7.629097938537597878e-01,7.431250095367432085e-01
6.194264411926269087e-01,6.351320266723632368e-01,6.516548156738281028e-01,6.690601825714110884e-01,6.874207973480224165e-01,7.068176269531250000e-01,7.273408889770507368e-01,7.490916252136230469e-01,7.721832752227782981e-01,7.967439174652100053e-01,8.229182243347168413e-01,8.508754730224609153e-01,8.807991981506347878e-01,9.129043579101562278e-01,9.474385261535644975e-01,9.846882820129394531e-01,1.000000000000000000e+00,1.000000000000000000e+00,1.000000000000000000e+00,1.000000000000000000e+00,1.000000000000000000e+00,1.000000000000000000e+00,1.000000000000000000e+00,1.000000000000000000e+00,1.000000000000000000e+00,1.000000000000000000e+00,1.000000000000000000e+00,1.000000000000000000e+00,1.000000000000000000e+00,1.000000000000000000e+00,1.000000000000000000e+00,1.000000000000000000e+00,1.000000000000000000e+00,1.000000000000000000e+00,1.000000000000000000e+00,1.000000000000000000e+00,1.000000000000000000e+00,1.000000000000000000e+00,1.000000000000000000e+00,1.000000000000000000e+00,1.000000000000000000e+00,1.000000000000000000e+00,1.000000000000000000e+00,1.000000000000000000e+00,1.000000000000000000e+00,1.000000000000000000e+00,1.000000000000000000e+00,1.000000000000000000e+00,1.000000000000000000e+00,1.000000000000000000e+00,1.000000000000000000e+00,1.000000000000000000e+00,1.000000000000000000e+00,1.000000000000000000e+00,1.000000000000000000e+00,1.000000000000000000e+00,1.000000000000000000e+00,1.000000000000000000e+00,1.000000000000000000e+00,2.709107875823974498e-01,2.639800310134887695e-01,3.032050371170044167e-01,2.982895612716675027e-01,2.962227821350097434e-01,2.943872690200805553e-01,2.936909437179565652e-01,2.980549335479736328e-01,1.000000000000000000e+00,2.925484418869018777e-01,2.822176694869995006e-01,2.757991790771484597e-01,2.699111223220825306e-01,2.649984598159790261e-01,2.617334127426147461e-01,2.604969978332519753e-01,2.590532064437865989e-01,2.574021577835082786e-01,7.837931632995605025e-01,7.629253387451171431e-01,7.431397438049316406e-01
6.194132804870605691e-01,6.351181507110595925e-01,6.516401767730712891e-01,6.690447807312012163e-01,6.874046325683593750e-01,7.068004131317138228e-01,7.273226737976073997e-01,7.490723133087158203e-01,7.721628189086914285e-01,7.967220783233642800e-01,8.228949546813965066e-01,8.508458137512207031e-01,8.807674407958984153e-01,9.128702163696289507e-01,9.474018096923828569e-01,9.846485137939453569e-01,1.000000000000000000e+00,1.000000000000000000e+00,1.000000000000000000e+00,1.000000000000000000e+00,1.000000000000000000e+00,1.000000000000000000e+00,1.000000000000000000e+00,1.000000000000000000e+00,1.000000000000000000e+00,1.000000000000000000e+00,1.000000000000000000e+00,1.000000000000000000e+00,1.000000000000000000e+00,1.000000000000000000e+00,1.000000000000000000e+00,1.000000000000000000e+00,1.000000000000000000e+00,1.000000000000000000e+00,1.000000000000000000e+00,1.000000000000000000e+00,1.000000000000000000e+00,1.000000000000000000e+00,1.000000000000000000e+00,1.000000000000000000e+00,1.000000000000000000e+00,1.000000000000000000e+00,1.000000000000000000e+00,1.000000000000000000e+00,1.000000000000000000e+00,1.000000000000000000e+00,1.000000000000000000e+00,1.000000000000000000e+00,1.000000000000000000e+00,1.000000000000000000e+00,1.000000000000000000e+00,1.000000000000000000e+00,1.000000000000000000e+00,1.000000000000000000e+00,1.000000000000000000e+00,1.000000000000000000e+00,1.000000000000000000e+00,1.000000000000000000e+00,1.000000000000000000e+00,1.000000000000000000e+00,3.161756753921508567e-01,3.052545070648193248e-01,2.993927240371704324e-01,2.972985029220581166e-01,2.953115940093994363e-01,2.950326442718506081e-01,2.990161418914795144e-01,1.000000000000000000e+00,1.000000000000000000e+00,2.843730688095092995e-01,2.751921176910400169e-01,2.693296909332275613e-01,2.645010471343994252e-01,2.601878166198730580e-01,2.580499172210693470e-01,2.568480014801025613e-01,2.556572198867798074e-01,7.838095188140868919e-01,7.629408359527587447e-01,7.431544780731200728e-01
6.194000720977783647e-01,6.351042747497558372e-01,6.516255855560302290e-01,6.690293788909912331e-01,6.873883247375488503e-01,7.067832469940185103e-01,7.273044586181640625e-01,7.490530014038085938e-01,7.721423149108886941e-01,7.967001914978026900e-01,8.228716850280761719e-01,8.508209228515625222e-01,8.807356834411621538e-01,9.128361701965331809e-01,9.473649978637694868e-01,9.846088409423827681e-01,1.000000000000000000e+00,1.000000000000000000e+00,1.000000000000000000e+00,1.000000000000000000e+00,1.000000000000000000e+00,1.000000000000000000e+00,1.000000000000000000e+00,1.000000000000000000e+00,1.000000000000000000e+00,1.000000000000000000e+00,1.000000000000000000e+00,1.000000000000000000e+00,1.000000000000000000e+00,1.000000000000000000e+00,1.000000000000000000e+00,1.000000000000000000e+00,1.000000000000000000e+00,1.000000000000000000e+00,1.000000000000000000e+00,1.000000000000000000e+00,1.000000000000000000e+00,1.000000000000000000e+00,1.000000000000000000e+00,1.000000000000000000e+00,1.000000000000000000e+00,1.000000000000000000e+00,1.000000000000000000e+00,1.000000000000000000e+00,1.000000000000000000e+00,1.000000000000000000e+00,1.000000000000000000e+00,1.000000000000000000e+00,1.000000000000000000e+00,1.000000000000000000e+00,1.000000000000000000e+00,1.000000000000000000e+00,1.000000000000000000e+00,1.000000000000000000e+00,1.000000000000000000e+00,1.000000000000000000e+00,1.000000000000000000e+00,1.000000000000000000e+00,1.000000000000000000e+00,1.000000000000000000e+00,3.192180156707763450e-01,3.073318243026733620e-01,3.005040168762206920e-01,2.983943223953247070e-01,2.963140010833740234e-01,2.962641239166259877e-01,2.999835729598999134e-01,1.000000000000000000e+00,1.000000000000000000e+00,2.865481853485107311e-01,2.758230209350586160e-01,2.687507629394531028e-01,2.640055418014526367e-01,2.597083091735840066e-01,2.556483745574951172e-01,2.545670032501220481e-01,2.536256551742553933e-01,2.526912450790405051e-01,7.629563808441162109e-01,7.431692123413086160e-01
6.193868637084960493e-01,6.350903987884521928e-01,6.516109466552734153e-01,6.690139770507812500e-01,6.873720645904540794e-01,7.067660331726074441e-01,7.272862911224364790e-01,7.490336894989013672e-01,7.721217632293700950e-01,7.966783523559570757e-01,8.228484153747558372e-01,8.507960319519043413e-01,8.807089805603027788e-01,9.128020286560059038e-01,9.473282814025878462e-01,9.845691680908202903e-01,1.000000000000000000e+00,1.000000000000000000e+00,1.000000000000000000e+00,1.000000000000000000e+00,1.000000000000000000e+00,1.000000000000000000e+00,1.000000000000000000e+00,1.000000000000000000e+00,1.000000000000000000e+00,1.000000000000000000e+00,1.000000000000000000e+00,1.000000000000000000e+00,1.000000000000000000e+00,1.000000000000000000e+00,1.000000000000000000e+00,1.000000000000000000e+00,1.000000000000000000e+00,1.000000000000000000e+00,1.000000000000000000e+00,1.000000000000000000e+00,1.000000000000000000e+00,1.000000000000000000e+00,1.000000000000000000e+00,1.000000000000000000e+00,1.000000000000000000e+00,1.000000000000000000e+00,1.000000000000000000e+00,1.000000000000000000e+00,1.000000000000000000e+00,1.000000000000000000e+00,1.000000000000000000e+00,1.000000000000000000e+00,1.000000000000000000e+00,1.000000000000000000e+00,1.000000000000000000e+00,1.000000000000000000e+00,1.000000000000000000e+00,1.000000000000000000e+00,1.000000000000000000e+00,1.000000000000000000e+00,1.000000000000000000e+00,1.000000000000000000e+00,1.000000000000000000e+00,1.000000000000000000e+00,3.224007129669189675e-01,3.095571041107177956e-01,3.014047145843505859e-01,2.992037773132324441e-01,2.971289396286010964e-01,2.972478866577148438e-01,3.009839773178100697e-01,1.000000000000000000e+00,1.000000000000000000e+00,1.000000000000000000e+00,2.785607814788818581e-01,2.681742906570434570e-01,2.635118961334228516e-01,2.591642141342163086e-01,2.552402496337890514e-01,2.531970977783203347e-01,2.523607015609741211e-01,2.515292882919311634e-01,7.629719257354736772e-01,7.431839466094970481e-01
6.193736553192138450e-01,6.350765705108643022e-01,6.515963554382324663e-01,6.689985752105712669e-01,6.873558044433594194e-01,7.067489147186278853e-01,7.272680759429931419e-01,7.490143775939941406e-01,7.721012592315673606e-01,7.966566085815429688e-01,8.228250503540038840e-01,8.507711410522460493e-01,8.806822776794434038e-01,9.127732276916503684e-01,9.472915649414062056e-01,9.845293998718261941e-01,1.000000000000000000e+00,1.000000000000000000e+00,1.000000000000000000e+00,1.000000000000000000e+00,1.000000000000000000e+00,1.000000000000000000e+00,1.000000000000000000e+00,1.000000000000000000e+00,1.000000000000000000e+00,1.000000000000000000e+00,1.000000000000000000e+00,1.000000000000000000e+00,1.000000000000000000e+00,1.000000000000000000e+00,1.000000000000000000e+00,1.000000000000000000e+00,1.000000000000000000e+00,1.000000000000000000e+00,1.000000000000000000e+00,1.000000000000000000e+00,1.000000000000000000e+00,1.000000000000000000e+00,1.000000000000000000e+00,1.000000000000000000e+00,1.000000000000000000e+00,1.000000000000000000e+00,1.000000000000000000e+00,1.000000000000000000e+00,1.000000000000000000e+00,1.000000000000000000e+00,1.000000000000000000e+00,1.000000000000000000e+00,1.000000000000000000e+00,1.000000000000000000e+00,1.000000000000000000e+00,1.000000000000000000e+00,1.000000000000000000e+00,1.000000000000000000e+00,1.000000000000000000e+00,1.000000000000000000e+00,1.000000000000000000e+00,1.000000000000000000e+00,1.000000000000000000e+00,1.000000000000000000e+00,1.000000000000000000e+00,3.119442701339721902e-01,3.026911973953246848e-01,2.998062372207641602e-01,2.977230787277221902e-01,2.982741594314575195e-01,3.017145633697509988e-01,1.000000000000000000e+00,1.000000000000000000e+00,1.000000000000000000e+00,9.695022583007812944e-01,2.715902805328369030e-01,2.628628253936767800e-01,2.588469266891479381e-01,2.552209138870239480e-01,2.526389360427856445e-01,2.519508361816406028e-01,2.513414859771728738e-01,7.629874229431152788e-01,7.431987762451172097e-01
6.193709373474121094e-01,6.350676059722900613e-01,6.515817165374755415e-01,6.689831733703612837e-01,6.873395442962646484e-01,7.067317008972168191e-01,7.272498607635498047e-01,7.489950656890869141e-01,7.720807552337646262e-01,7.966347694396972434e-01,8.228017807006835493e-01,8.507462501525878684e-01,8.806555747985840288e-01,9.127446174621581809e-01,9.472604751586913840e-01,9.844898223876953347e-01,1.000000000000000000e+00,1.000000000000000000e+00,1.000000000000000000e+00,1.000000000000000000e+00,1.000000000000000000e+00,1.000000000000000000e+00,1.000000000000000000e+00,1.000000000000000000e+00,1.000000000000000000e+00,1.000000000000000000e+00,1.000000000000000000e+00,1.000000000000000000e+00,1.000000000000000000e+00,1.000000000000000000e+00,1.000000000000000000e+00,1.000000000000000000e+00,1.000000000000000000e+00,1.000000000000000000e+00,1.000000000000000000e+00,1.000000000000000000e+00,1.000000000000000000e+00,1.000000000000000000e+00,1.000000000000000000e+00,1.000000000000000000e+00,1.000000000000000000e+00,1.000000000000000000e+00,1.000000000000000000e+00,1.000000000000000000e+00,1.000000000000000000e+00,1.000000000000000000e+00,1.000000000000000000e+00,1.000000000000000000e+00,1.000000000000000000e+00,1.000000000000000000e+00,1.000000000000000000e+00,1.000000000000000000e+00,1.000000000000000000e+00,1.000000000000000000e+00,1.000000000000000000e+00,1.000000000000000000e+00,1.000000000000000000e+00,1.000000000000000000e+00,1.000000000000000000e+00,1.000000000000000000e+00,1.000000000000000000e+00,3.149242401123046875e-01,3.049432992935180442e-01,3.005392551422119141e-01,2.983195781707763672e-01,2.993075370788574330e-01,3.022227764129638561e-01,1.000000000000000000e+00,1.000000000000000000e+00,1.000000000000000000e+00,9.695273399353027122e-01,2.766669273376464733e-01,2.633177518844604381e-01,2.594519376754760853e-01,2.555697441101074108e-01,2.531953811645507590e-01,2.524789094924926869e-01,2.517808675765991211e-01,7.630029678344726340e-01,7.432134628295898882e-01
6.193709373474121094e-01,6.350676059722900613e-01,6.515805721282958984e-01,6.689752101898193137e-01,6.873240947723389116e-01,7.067145347595215066e-01,7.272316455841064675e-01,7.489757537841796875e-01,7.720602035522461382e-01,7.966129302978515181e-01,8.227784156799315962e-01,8.507213592529296875e-01,8.806288719177246538e-01,9.127159118652343750e-01,9.472295761108397993e-01,9.844560623168945312e-01,1.000000000000000000e+00,1.000000000000000000e+00,1.000000000000000000e+00,1.000000000000000000e+00,1.000000000000000000e+00,1.000000000000000000e+00,1.000000000000000000e+00,1.000000000000000000e+00,1.000000000000000000e+00,1.000000000000000000e+00,1.000000000000000000e+00,1.000000000000000000e+00,1.000000000000000000e+00,1.000000000000000000e+00,1.000000000000000000e+00,1.000000000000000000e+00,1.000000000000000000e+00,1.000000000000000000e+00,1.000000000000000000e+00,1.000000000000000000e+00,1.000000000000000000e+00,1.000000000000000000e+00,1.000000000000000000e+00,1.000000000000000000e+00,1.000000000000000000e+00,1.000000000000000000e+00,1.000000000000000000e+00,1.000000000000000000e+00,1.000000000000000000e+00,1.000000000000000000e+00,1.000000000000000000e+00,1.000000000000000000e+00,1.000000000000000000e+00,1.000000000000000000e+00,1.000000000000000000e+00,1.000000000000000000e+00,1.000000000000000000e+00,1.000000000000000000e+00,1.000000000000000000e+00,1.000000000000000000e+00,1.000000000000000000e+00,1.000000000000000000e+00,1.000000000000000000e+00,1.000000000000000000e+00,1.000000000000000000e+00,3.182792901992798074e-01,3.072476387023925781e-01,3.018183231353759877e-01,2.989185094833374245e-01,3.001955986022949441e-01,3.027327060699462891e-01,1.000000000000000000e+00,1.000000000000000000e+00,1.000000000000000000e+00,9.695523262023926225e-01,9.378211975097656694e-01,2.643746137619018555e-01,2.605516195297241100e-01,2.566993713378906139e-01,2.546300411224365345e-01,2.539200782775878906e-01,2.532140493392944225e-01,7.630185127258301003e-01,7.432281970977783203e-01
6.193676471710205522e-01,6.350676059722900613e-01,6.515805721282958984e-01,6.689752101898193137e-01,6.873240947723389116e-01,7.067078113555907981e-01,7.272166728973388228e-01,7.489564418792724609e-01,7.720396995544434038e-01,7.965910911560059038e-01,8.227552413940429910e-01,8.506964683532715066e-01,8.806022644042968972e-01,9.126872062683105691e-01,9.471987724304199441e-01,9.844226837158203125e-01,1.000000000000000000e+00,1.000000000000000000e+00,1.000000000000000000e+00,1.000000000000000000e+00,1.000000000000000000e+00,1.000000000000000000e+00,1.000000000000000000e+00,1.000000000000000000e+00,1.000000000000000000e+00,1.000000000000000000e+00,1.000000000000000000e+00,1.000000000000000000e+00,1.000000000000000000e+00,1.000000000000000000e+00,1.000000000000000000e+00,1.000000000000000000e+00,1.000000000000000000e+00,1.000000000000000000e+00,1.000000000000000000e+00,1.000000000000000000e+00,1.000000000000000000e+00,1.000000000000000000e+00,1.000000000000000000e+00,1.000000000000000000e+00,1.000000000000000000e+00,1.000000000000000000e+00,1.000000000000000000e+00,1.000000000000000000e+00,1.000000000000000000e+00,1.000000000000000000e+00,1.000000000000000000e+00,1.000000000000000000e+00,1.000000000000000000e+00,1.000000000000000000e+00,1.000000000000000000e+00,1.000000000000000000e+00,1.000000000000000000e+00,1.000000000000000000e+00,1.000000000000000000e+00,1.000000000000000000e+00,1.000000000000000000e+00,1.000000000000000000e+00,1.000000000000000000e+00,1.000000000000000000e+00,1.000000000000000000e+00,3.206092596054077037e-01,3.095870971679687278e-01,3.031083345413208008e-01,2.996787548065185658e-01,3.006987094879150502e-01,3.032443284988403098e-01,1.000000000000000000e+00,1.000000000000000000e+00,1.000000000000000000e+00,9.695774078369140403e-01,9.378446578979492410e-01,2.658907651901245006e-01,2.620241403579711692e-01,2.580161571502685436e-01,2.561247587203979714e-01,2.553777933120727761e-01,2.604865074157715066e-01,7.630340099334717019e-01,7.432429313659667525e-01
6.193544864654541016e-01,6.350563526153564231e-01,6.515752315521240456e-01,6.689752101898193137e-01,6.873240947723389116e-01,7.067078113555907981e-01,7.272166728973388228e-01,7.489514350891113281e-01,7.720253944396973100e-01,7.965692520141601785e-01,8.227318763732910378e-01,8.506715774536133257e-01,8.805755615234375222e-01,9.126585960388183816e-01,9.471678733825683594e-01,9.843893051147460938e-01,1.000000000000000000e+00,1.000000000000000000e+00,1.000000000000000000e+00,1.000000000000000000e+00,1.000000000000000000e+00,1.000000000000000000e+00,1.000000000000000000e+00,1.000000000000000000e+00,1.000000000000000000e+00,1.000000000000000000e+00,1.000000000000000000e+00,1.000000000000000000e+00,1.000000000000000000e+00,1.000000000000000000e+00,1.000000000000000000e+00,1.000000000000000000e+00,1.000000000000000000e+00,1.000000000000000000e+00,1.000000000000000000e+00,1.000000000000000000e+00,1.000000000000000000e+00,1.000000000000000000e+00,1.000000000000000000e+00,1.000000000000000000e+00,1.000000000000000000e+00,1.000000000000000000e+00,1.000000000000000000e+00,1.000000000000000000e+00,1.000000000000000000e+00,1.000000000000000000e+00,1.000000000000000000e+00,1.000000000000000000e+00,1.000000000000000000e+00,1.000000000000000000e+00,1.000000000000000000e+00,1.000000000000000000e+00,1.000000000000000000e+00,1.000000000000000000e+00,1.000000000000000000e+00,1.000000000000000000e+00,1.000000000000000000e+00,1.000000000000000000e+00,1.000000000000000000e+00,1.000000000000000000e+00,1.000000000000000000e+00,3.233289718627929688e-01,3.120891094207763894e-01,3.044553279876708873e-01,3.006806135177612083e-01,3.019174098968505637e-01,1.000000000000000000e+00,1.000000000000000000e+00,1.000000000000000000e+00,1.000000000000000000e+00,9.696025848388671875e-01,2.788530826568603738e-01,2.674244165420532338e-01,2.629621982574462669e-01,2.598208427429199441e-01,2.579030275344848522e-01,2.568523406982421986e-01,7.839243412017822266e-01,7.630495548248290572e-01,7.432576656341552956e-01
6.193411827087402788e-01,6.350424766540527788e-01,6.515605449676513672e-01,6.689609050750732200e-01,6.873160362243652122e-01,7.067069530487060103e-01,7.272166728973388228e-01,7.489514350891113281e-01,7.720253944396973100e-01,7.965662956237793413e-01,8.227186203002929688e-01,8.506465911865234153e-01,8.805488586425781472e-01,9.126298904418945757e-01,9.471369743347167747e-01,9.843560218811034934e-01,1.000000000000000000e+00,1.000000000000000000e+00,1.000000000000000000e+00,1.000000000000000000e+00,1.000000000000000000e+00,1.000000000000000000e+00,1.000000000000000000e+00,1.000000000000000000e+00,1.000000000000000000e+00,1.000000000000000000e+00,1.000000000000000000e+00,1.000000000000000000e+00,1.000000000000000000e+00,1.000000000000000000e+00,1.000000000000000000e+00,1.000000000000000000e+00,1.000000000000000000e+00,1.000000000000000000e+00,1.000000000000000000e+00,1.000000000000000000e+00,1.000000000000000000e+00,1.000000000000000000e+00,1.000000000000000000e+00,1.000000000000000000e+00,1.000000000000000000e+00,1.000000000000000000e+00,1.000000000000000000e+00,1.000000000000000000e+00,1.000000000000000000e+00,1.000000000000000000e+00,1.000000000000000000e+00,1.000000000000000000e+00,1.000000000000000000e+00,1.000000000000000000e+00,1.000000000000000000e+00,1.000000000000000000e+00,1.000000000000000000e+00,1.000000000000000000e+00,1.000000000000000000e+00,1.000000000000000000e+00,1.000000000000000000e+00,1.000000000000000000e+00,1.000000000000000000e+00,1.000000000000000000e+00,1.000000000000000000e+00,3.241012811660766713e-01,3.132908582687378152e-01,3.065984487533569558e-01,3.021699190139770508e-01,3.044891119003295676e-01,1.000000000000000000e+00,1.000000000000000000e+00,1.000000000000000000e+00,1.000000000000000000e+00,9.696276664733887163e-01,2.761271715164184681e-01,2.686997175216674916e-01,2.637652873992920033e-01,2.616509675979614147e-01,2.597061395645141602e-01,2.583440065383911244e-01,7.839407444000243697e-01,7.630651950836181419e-01,7.432723999023437278e-01
6.193280220031738281e-01,6.350285530090331587e-01,6.515459060668945535e-01,6.689454078674316184e-01,6.872997760772705522e-01,7.066896915435790794e-01,7.272054672241210493e-01,7.489480018615722878e-01,7.720253944396973100e-01,7.965662956237793413e-01,8.227186203002929688e-01,8.506464958190917969e-01,8.805370330810546875e-01,9.126047134399414285e-01,9.471060752868651900e-01,9.843226432800292747e-01,1.000000000000000000e+00,1.000000000000000000e+00,1.000000000000000000e+00,1.000000000000000000e+00,1.000000000000000000e+00,1.000000000000000000e+00,1.000000000000000000e+00,1.000000000000000000e+00,1.000000000000000000e+00,1.000000000000000000e+00,1.000000000000000000e+00,1.000000000000000000e+00,1.000000000000000000e+00,1.000000000000000000e+00,1.000000000000000000e+00,1.000000000000000000e+00,1.000000000000000000e+00,1.000000000000000000e+00,1.000000000000000000e+00,1.000000000000000000e+00,1.000000000000000000e+00,1.000000000000000000e+00,1.000000000000000000e+00,1.000000000000000000e+00,1.000000000000000000e+00,1.000000000000000000e+00,1.000000000000000000e+00,1.000000000000000000e+00,1.000000000000000000e+00,1.000000000000000000e+00,1.000000000000000000e+00,1.000000000000000000e+00,1.000000000000000000e+00,1.000000000000000000e+00,1.000000000000000000e+00,1.000000000000000000e+00,1.000000000000000000e+00,1.000000000000000000e+00,1.000000000000000000e+00,1.000000000000000000e+00,1.000000000000000000e+00,1.000000000000000000e+00,1.000000000000000000e+00,1.000000000000000000e+00,1.000000000000000000e+00,3.234600067138672097e-01,3.145368814468383900e-01,3.097757339477539285e-01,3.061630249023437611e-01,3.093080997467040905e-01,1.000000000000000000e+00,1.000000000000000000e+00,1.000000000000000000e+00,1.000000000000000000e+00,9.696527481079101340e-01,2.746696233749389426e-01,2.695188283920287864e-01,2.652570962905883567e-01,2.633756399154663086e-01,2.615206956863403431e-01,2.614639282226562389e-01,7.839571475982666238e-01,7.630810737609863281e-01,7.432883262634277788e-01
6.193147182464600053e-01,6.350146770477295144e-01,6.515312671661377397e-01,6.689300060272216353e-01,6.872834682464599165e-01,7.066724777221680132e-01,7.271872043609619585e-01,7.489286899566650613e-01,7.720102310180664285e-01,7.965597629547118697e-01,8.227186203002929688e-01,8.506464958190917969e-01,8.805370330810546875e-01,9.126047134399414285e-01,9.470963478088378906e-01,9.842975616455078569e-01,1.000000000000000000e+00,1.000000000000000000e+00,1.000000000000000000e+00,1.000000000000000000e+00,1.000000000000000000e+00,1.000000000000000000e+00,1.000000000000000000e+00,1.000000000000000000e+00,1.000000000000000000e+00,1.000000000000000000e+00,1.000000000000000000e+00,1.000000000000000000e+00,1.000000000000000000e+00,1.000000000000000000e+00,1.000000000000000000e+00,1.000000000000000000e+00,1.000000000000000000e+00,1.000000000000000000e+00,1.000000000000000000e+00,1.000000000000000000e+00,1.000000000000000000e+00,1.000000000000000000e+00,1.000000000000000000e+00,1.000000000000000000e+00,1.000000000000000000e+00,1.000000000000000000e+00,1.000000000000000000e+00,1.000000000000000000e+00,1.000000000000000000e+00,1.000000000000000000e+00,1.000000000000000000e+00,1.000000000000000000e+00,1.000000000000000000e+00,1.000000000000000000e+00,1.000000000000000000e+00,1.000000000000000000e+00,1.000000000000000000e+00,1.000000000000000000e+00,1.000000000000000000e+00,1.000000000000000000e+00,1.000000000000000000e+00,1.000000000000000000e+00,1.000000000000000000e+00,1.000000000000000000e+00,1.000000000000000000e+00,3.234064340591430442e-01,3.166586160659790039e-01,3.134096384048462025e-01,3.111002922058105358e-01,3.178373098373413197e-01,1.000000000000000000e+00,1.000000000000000000e+00,1.000000000000000000e+00,1.000000000000000000e+00,9.696778297424316628e-01,2.750302553176879883e-01,2.697381496429443470e-01,2.655004024505615012e-01,2.636917114257812389e-01,2.618323326110839622e-01,2.616441726684570201e-01,7.839752674102783425e-01,7.630985736846923606e-01,7.433049201965331587e-01
6.193015575408935547e-01,6.350007057189941406e-01,6.515166282653808150e-01,6.689145565032958984e-01,6.872672080993652566e-01,7.066552162170409712e-01,7.271689891815185103e-01,7.489092826843262163e-01,7.719896793365478294e-01,7.965378284454345259e-01,8.226984977722168191e-01,8.506359100341797097e-01,8.805370330810546875e-01,9.126047134399414285e-01,9.470963478088378906e-01,9.842975616455078569e-01,1.000000000000000000e+00,1.000000000000000000e+00,1.000000000000000000e+00,1.000000000000000000e+00,1.000000000000000000e+00,1.000000000000000000e+00,1.000000000000000000e+00,1.000000000000000000e+00,1.000000000000000000e+00,1.000000000000000000e+00,1.000000000000000000e+00,1.000000000000000000e+00,1.000000000000000000e+00,1.000000000000000000e+00,1.000000000000000000e+00,1.000000000000000000e+00,1.000000000000000000e+00,1.000000000000000000e+00,1.000000000000000000e+00,1.000000000000000000e+00,1.000000000000000000e+00,1.000000000000000000e+00,1.000000000000000000e+00,1.000000000000000000e+00,1.000000000000000000e+00,1.000000000000000000e+00,1.000000000000000000e+00,1.000000000000000000e+00,1.000000000000000000e+00,1.000000000000000000e+00,1.000000000000000000e+00,1.000000000000000000e+00,1.000000000000000000e+00,1.000000000000000000e+00,1.000000000000000000e+00,1.000000000000000000e+00,1.000000000000000000e+00,1.000000000000000000e+00,1.000000000000000000e+00,1.000000000000000000e+00,1.000000000000000000e+00,1.000000000000000000e+00,1.000000000000000000e+00,1.000000000000000000e+00,1.000000000000000000e+00,3.251293182373046764e-01,3.195114612579345592e-01,3.167842149734497181e-01,3.169147491455078236e-01,1.000000000000000000e+00,1.000000000000000000e+00,1.000000000000000000e+00,1.000000000000000000e+00,1.000000000000000000e+00,9.697029113769530806e-01,2.754559040069580189e-01,2.699578046798706277e-01,2.657099962234497070e-01,2.640085220336914062e-01,2.621447086334228738e-01,2.616565465927124245e-01,7.839937686920166460e-01,7.631162166595458762e-01,7.433215618133545144e-01
6.192883014678954856e-01,6.349868297576903853e-01,6.515019416809082475e-01,6.688991546630859153e-01,6.872508525848388672e-01,7.066380500793456587e-01,7.271507263183594194e-01,7.488899707794189897e-01,7.719690799713134766e-01,7.965159893035889116e-01,8.226751327514648660e-01,8.506110191345215288e-01,8.805107116699218972e-01,9.125890731811523438e-01,9.470931053161620872e-01,9.842975616455078569e-01,1.000000000000000000e+00,1.000000000000000000e+00,1.000000000000000000e+00,1.000000000000000000e+00,1.000000000000000000e+00,1.000000000000000000e+00,1.000000000000000000e+00,1.000000000000000000e+00,1.000000000000000000e+00,1.000000000000000000e+00,1.000000000000000000e+00,1.000000000000000000e+00,1.000000000000000000e+00,1.000000000000000000e+00,1.000000000000000000e+00,1.000000000000000000e+00,1.000000000000000000e+00,1.000000000000000000e+00,1.000000000000000000e+00,1.000000000000000000e+00,1.000000000000000000e+00,1.000000000000000000e+00,1.000000000000000000e+00,1.000000000000000000e+00,1.000000000000000000e+00,1.000000000000000000e+00,1.000000000000000000e+00,1.000000000000000000e+00,1.000000000000000000e+00,1.000000000000000000e+00,1.000000000000000000e+00,1.000000000000000000e+00,1.000000000000000000e+00,1.000000000000000000e+00,1.000000000000000000e+00,1.000000000000000000e+00,1.000000000000000000e+00,1.000000000000000000e+00,1.000000000000000000e+00,1.000000000000000000e+00,1.000000000000000000e+00,1.000000000000000000e+00,1.000000000000000000e+00,1.000000000000000000e+00,1.000000000000000000e+00,3.274438858032226451e-01,3.223755359649658203e-01,3.196794271469116100e-01,3.230836629867553933e-01,1.000000000000000000e+00,1.000000000000000000e+00,1.000000000000000000e+00,1.000000000000000000e+00,1.000000000000000000e+00,9.697280883789062278e-01,2.767832756042480358e-01,2.702188491821289062e-01,2.659199237823486328e-01,2.642367839813232200e-01,2.624577999114990345e-01,2.616688966751098411e-01,7.840122699737548384e-01,7.631337165832519087e-01,7.433382987976073775e-01
6.192750930786132812e-01,6.349729061126708762e-01,6.514873504638671875e-01,6.688836574554443137e-01,6.872345924377440962e-01,7.066207885742187278e-01,7.271325111389159712e-01,7.488706111907958984e-01,7.719485759735107422e-01,7.964940547943115678e-01,8.226518630981445312e-01,8.505860328674316184e-01,8.804840087890625222e-01,9.125603675842285378e-01,9.470621109008788840e-01,9.842752456665039285e-01,1.000000000000000000e+00,1.000000000000000000e+00,1.000000000000000000e+00,1.000000000000000000e+00,1.000000000000000000e+00,1.000000000000000000e+00,1.000000000000000000e+00,1.000000000000000000e+00,1.000000000000000000e+00,1.000000000000000000e+00,1.000000000000000000e+00,1.000000000000000000e+00,1.000000000000000000e+00,1.000000000000000000e+00,1.000000000000000000e+00,1.000000000000000000e+00,1.000000000000000000e+00,1.000000000000000000e+00,1.000000000000000000e+00,1.000000000000000000e+00,1.000000000000000000e+00,1.000000000000000000e+00,1.000000000000000000e+00,1.000000000000000000e+00,1.000000000000000000e+00,1.000000000000000000e+00,1.000000000000000000e+00,1.000000000000000000e+00,1.000000000000000000e+00,1.000000000000000000e+00,1.000000000000000000e+00,1.000000000000000000e+00,1.000000000000000000e+00,1.000000000000000000e+00,1.000000000000000000e+00,1.000000000000000000e+00,1.000000000000000000e+00,1.000000000000000000e+00,1.000000000000000000e+00,1.000000000000000000e+00,1.000000000000000000e+00,1.000000000000000000e+00,1.000000000000000000e+00,1.000000000000000000e+00,1.000000000000000000e+00,3.296483039855956920e-01,3.240932703018188366e-01,3.213684320449828880e-01,3.255486726760864480e-01,1.000000000000000000e+00,1.000000000000000000e+00,1.000000000000000000e+00,1.000000000000000000e+00,1.000000000000000000e+00,9.697564125061035600e-01,2.781333684921264426e-01,2.705341577529907227e-01,2.661302089691162109e-01,2.644443988800048717e-01,2.627716779708862416e-01,2.616812467575073131e-01,7.840308666229247603e-01,7.631512641906738059e-01,7.433549404144287331e-01
6.192618370056152122e-01,6.349590301513672319e-01,6.514726638793945090e-01,6.688682556152343306e-01,6.872182846069335715e-01,7.066035747528076616e-01,7.271142482757568803e-01,7.488512992858886719e-01,7.719279766082763894e-01,7.964722156524658425e-01,8.226284980773925781e-01,8.505610466003418191e-01,8.804572105407715288e-01,9.125315666198730025e-01,9.470312118530272993e-01,9.842418670654297097e-01,1.000000000000000000e+00,1.000000000000000000e+00,1.000000000000000000e+00,1.000000000000000000e+00,1.000000000000000000e+00,1.000000000000000000e+00,1.000000000000000000e+00,1.000000000000000000e+00,1.000000000000000000e+00,1.000000000000000000e+00,1.000000000000000000e+00,1.000000000000000000e+00,1.000000000000000000e+00,1.000000000000000000e+00,1.000000000000000000e+00,1.000000000000000000e+00,1.000000000000000000e+00,1.000000000000000000e+00,1.000000000000000000e+00,1.000000000000000000e+00,1.000000000000000000e+00,1.000000000000000000e+00,1.000000000000000000e+00,1.000000000000000000e+00,1.000000000000000000e+00,1.000000000000000000e+00,1.000000000000000000e+00,1.000000000000000000e+00,1.000000000000000000e+00,1.000000000000000000e+00,1.000000000000000000e+00,1.000000000000000000e+00,1.000000000000000000e+00,1.000000000000000000e+00,1.000000000000000000e+00,1.000000000000000000e+00,1.000000000000000000e+00,1.000000000000000000e+00,1.000000000000000000e+00,1.000000000000000000e+00,1.000000000000000000e+00,1.000000000000000000e+00,1.000000000000000000e+00,1.000000000000000000e+00,1.000000000000000000e+00,3.318958282470703125e-01,3.261249303817749245e-01,3.230754137039184570e-01,3.277601242065429910e-01,1.000000000000000000e+00,1.000000000000000000e+00,1.000000000000000000e+00,1.000000000000000000e+00,1.000000000000000000e+00,9.697847366333007812e-01,2.795259714126586692e-01,2.708501815795898438e-01,2.663408279418945090e-01,2.646523475646972434e-01,2.629851341247558816e-01,2.616935968399047852e-01,7.840493679046630637e-01,7.631688594818115678e-01,7.433715343475342241e-01
6.192486286163330078e-01,6.349451065063476118e-01,6.514580726623535600e-01,6.688528060913085938e-01,6.872020244598389116e-01,7.065863132476806197e-01,7.270960330963134322e-01,7.488318920135498269e-01,7.719074726104736550e-01,7.964502811431884988e-01,8.226051330566406250e-01,8.505361557006836382e-01,8.804305076599121538e-01,9.125028610229491965e-01,9.470002174377440962e-01,9.842084884643554910e-01,1.000000000000000000e+00,1.000000000000000000e+00,1.000000000000000000e+00,1.000000000000000000e+00,1.000000000000000000e+00,1.000000000000000000e+00,1.000000000000000000e+00,1.000000000000000000e+00,1.000000000000000000e+00,1.000000000000000000e+00,1.000000000000000000e+00,1.000000000000000000e+00,1.000000000000000000e+00,1.000000000000000000e+00,1.000000000000000000e+00,1.000000000000000000e+00,1.000000000000000000e+00,1.000000000000000000e+00,1.000000000000000000e+00,1.000000000000000000e+00,1.000000000000000000e+00,1.000000000000000000e+00,1.000000000000000000e+00,1.000000000000000000e+00,1.000000000000000000e+00,1.000000000000000000e+00,1.000000000000000000e+00,1.000000000000000000e+00,1.000000000000000000e+00,1.000000000000000000e+00,1.000000000000000000e+00,1.000000000000000000e+00,1.000000000000000000e+00,1.000000000000000000e+00,1.000000000000000000e+00,1.000000000000000000e+00,1.000000000000000000e+00,1.000000000000000000e+00,1.000000000000000000e+00,1.000000000000000000e+00,1.000000000000000000e+00,1.000000000000000000e+00,1.000000000000000000e+00,1.000000000000000000e+00,1.000000000000000000e+00,3.342110157012939675e-01,3.281887531280517356e-01,3.248006343841552956e-01,3.300018072128295676e-01,1.000000000000000000e+00,1.000000000000000000e+00,1.000000000000000000e+00,1.000000000000000000e+00,1.000000000000000000e+00,9.698131561279297319e-01,2.810886383056640514e-01,2.713739395141601674e-01,2.666323900222778431e-01,2.649008035659790039e-01,2.632151126861572155e-01,2.630319118499755970e-01,7.840678691864013672e-01,7.631864070892333540e-01,7.433882713317870872e-01
6.192353725433349387e-01,6.349312305450439675e-01,6.514433860778808816e-01,6.688374042510986106e-01,6.871856689453125222e-01,7.065691471099853072e-01,7.270777702331543413e-01,7.488126277923583540e-01,7.718868732452393022e-01,7.964284896850586382e-01,8.225817680358886719e-01,8.505111694335937278e-01,8.804037094116210493e-01,9.124741554260253906e-01,9.469693183898926225e-01,9.841750144958496538e-01,1.000000000000000000e+00,1.000000000000000000e+00,1.000000000000000000e+00,1.000000000000000000e+00,1.000000000000000000e+00,1.000000000000000000e+00,1.000000000000000000e+00,1.000000000000000000e+00,1.000000000000000000e+00,1.000000000000000000e+00,1.000000000000000000e+00,1.000000000000000000e+00,1.000000000000000000e+00,1.000000000000000000e+00,1.000000000000000000e+00,1.000000000000000000e+00,1.000000000000000000e+00,1.000000000000000000e+00,1.000000000000000000e+00,1.000000000000000000e+00,1.000000000000000000e+00,1.000000000000000000e+00,1.000000000000000000e+00,1.000000000000000000e+00,1.000000000000000000e+00,1.000000000000000000e+00,1.000000000000000000e+00,1.000000000000000000e+00,1.000000000000000000e+00,1.000000000000000000e+00,1.000000000000000000e+00,1.000000000000000000e+00,1.000000000000000000e+00,1.000000000000000000e+00,1.000000000000000000e+00,1.000000000000000000e+00,1.000000000000000000e+00,1.000000000000000000e+00,1.000000000000000000e+00,1.000000000000000000e+00,1.000000000000000000e+00,1.000000000000000000e+00,1.000000000000000000e+00,1.000000000000000000e+00,1.000000000000000000e+00,3.365587472915649303e-01,3.302788496017455833e-01,3.265443563461303822e-01,3.324155330657959095e-01,1.000000000000000000e+00,1.000000000000000000e+00,1.000000000000000000e+00,1.000000000000000000e+00,1.000000000000000000e+00,9.698414802551269531e-01,2.828421831130981667e-01,2.720573425292968639e-01,2.671457767486572488e-01,2.652292966842651478e-01,2.635394096374511497e-01,8.061437606811523438e-01,7.840864658355712891e-01,7.632039546966552512e-01,7.434049129486084428e-01
6.192221641540527344e-01,6.349172592163085938e-01,6.514287948608398215e-01,6.688219547271728738e-01,6.871694087982177512e-01,7.065518856048583762e-01,7.270595550537108931e-01,7.487932205200195090e-01,7.718663692474365678e-01,7.964065551757812944e-01,8.225584983825683372e-01,8.504861831665039285e-01,8.803770065307616743e-01,9.124454498291015847e-01,9.469384193420410378e-01,9.841416358947754350e-01,1.000000000000000000e+00,1.000000000000000000e+00,1.000000000000000000e+00,1.000000000000000000e+00,1.000000000000000000e+00,1.000000000000000000e+00,1.000000000000000000e+00,1.000000000000000000e+00,1.000000000000000000e+00,1.000000000000000000e+00,1.000000000000000000e+00,1.000000000000000000e+00,1.000000000000000000e+00,1.000000000000000000e+00,1.000000000000000000e+00,1.000000000000000000e+00,1.000000000000000000e+00,1.000000000000000000e+00,1.000000000000000000e+00,1.000000000000000000e+00,1.000000000000000000e+00,1.000000000000000000e+00,1.000000000000000000e+00,1.000000000000000000e+00,1.000000000000000000e+00,1.000000000000000000e+00,1.000000000000000000e+00,1.000000000000000000e+00,1.000000000000000000e+00,1.000000000000000000e+00,1.000000000000000000e+00,1.000000000000000000e+00,1.000000000000000000e+00,1.000000000000000000e+00,1.000000000000000000e+00,1.000000000000000000e+00,1.000000000000000000e+00,1.000000000000000000e+00,1.000000000000000000e+00,1.000000000000000000e+00,1.000000000000000000e+00,1.000000000000000000e+00,1.000000000000000000e+00,1.000000000000000000e+00,1.000000000000000000e+00,3.391781330108642467e-01,3.327357530593871848e-01,3.292351245880126842e-01,1.000000000000000000e+00,1.000000000000000000e+00,1.000000000000000000e+00,1.000000000000000000e+00,1.000000000000000000e+00,1.000000000000000000e+00,9.698698043823241743e-01,9.381194114685058594e-01,2.727441787719726562e-01,2.677868843078613503e-01,2.655585527420044056e-01,2.638645172119140625e-01,8.061634063720702903e-01,7.841049671173095925e-01,7.632215499877930132e-01,7.434215545654296875e-01
6.192089080810546653e-01,6.349033832550048384e-01,6.514141082763671431e-01,6.688065528869628906e-01,6.871531009674072266e-01,7.065346717834473100e-01,7.270412921905518022e-01,7.487739086151122825e-01,7.718457698822021040e-01,7.963847160339355691e-01,8.225351333618163840e-01,8.504612922668457475e-01,8.803503036499022993e-01,9.124167442321777788e-01,9.469074249267578347e-01,9.710221290588378906e-01,9.707811355590820757e-01,9.705403327941894975e-01,9.702996253967285378e-01,9.700590133666991965e-01,9.698184967041015847e-01,9.695781707763672097e-01,9.693378448486328347e-01,9.690977096557616965e-01,9.688577651977539062e-01,9.686178207397461160e-01,9.683780670166015625e-01,9.681384086608886275e-01,9.678987503051758035e-01,9.676593780517578347e-01,9.674201011657714844e-01,9.671808242797851340e-01,9.669418334960937500e-01,9.667028427124023660e-01,9.664640426635742188e-01,9.662253379821776900e-01,9.659867286682128906e-01,9.657482147216797097e-01,9.655098915100097656e-01,9.652716636657714400e-01,9.650335311889648438e-01,9.647954940795898660e-01,9.645575523376465066e-01,9.643198013305663840e-01,9.640821456909179910e-01,9.638445854187012163e-01,9.636071205139160600e-01,9.633698463439941406e-01,9.631326675415039507e-01,9.628955841064452681e-01,9.626586914062500444e-01,9.624217987060547097e-01,9.621850967407226118e-01,9.619484901428222434e-01,9.617119789123534934e-01,9.614756584167480913e-01,9.612393379211425781e-01,9.610031127929687944e-01,9.607671737670898660e-01,9.605312347412109375e-01,9.602953910827636275e-01,3.418588876724243386e-01,3.352663516998291016e-01,3.324382066726684348e-01,9.593534469604492188e-01,9.591181755065918413e-01,9.588830947875977007e-01,9.586481094360351785e-01,9.584133148193358931e-01,9.581785202026367188e-01,9.579438209533691628e-01,9.381459236145019975e-01,2.734345197677612305e-01,2.684310674667358398e-01,2.658886909484863281e-01,2.641904354095458984e-01,8.061830520629882368e-01,7.841234683990478960e-01,7.632390975952147993e-01,7.434382438659667969e-01
6.191956996917724609e-01,6.348894596099853294e-01,6.513995170593261941e-01,6.687911033630371538e-01,6.871368408203124556e-01,7.065174102783202681e-01,7.270231246948242188e-01,7.487545490264893022e-01,7.542522430419922319e-01,7.541069030761718972e-01,7.539615154266356978e-01,7.538162708282470925e-01,7.536709785461426225e-01,7.535258769989013894e-01,7.533807277679442915e-01,7.532356262207031694e-01,7.530906677246094194e-01,7.529456615447998047e-01,7.528007984161376731e-01,7.526558876037597878e-01,7.525111675262451394e-01,7.523663997650146262e-01,7.522217750549315962e-01,7.520771026611328125e-01,7.519325733184814009e-01,7.517880439758301003e-01,7.516436576843261719e-01,7.514992237091064897e-01,7.513548374176025613e-01,7.512105941772461160e-01,7.510663032531738059e-01,7.509221553802489790e-01,7.507780075073242632e-01,7.506340026855469194e-01,7.504899501800537109e-01,7.503460407257079856e-01,7.502020835876465066e-01,7.500583171844482644e-01,7.499144554138184038e-01,7.497707843780517800e-01,7.496270656585692915e-01,7.494834899902343972e-01,7.493398666381836382e-01,7.491963386535644975e-01,7.490529060363769753e-01,7.489094734191894531e-01,7.487661361694335493e-01,7.486228466033935103e-01,7.484796524047852007e-01,7.483364105224609153e-01,7.481933116912842241e-01,7.480502128601074219e-01,7.479072570800781028e-01,7.477642536163330300e-01,7.476213932037353294e-01,7.474784851074218750e-01,7.473356246948241743e-01,7.471929073333740678e-01,7.470501899719238503e-01,7.469076156616211160e-01,7.467649936676025169e-01,3.446019172668456920e-01,3.379370927810668723e-01,3.357042074203491211e-01,7.461952209472656472e-01,7.460529327392577681e-01,7.459106445312500000e-01,7.457684993743896040e-01,7.456263065338134544e-01,7.454842567443847878e-01,7.453421592712402566e-01,7.452001094818114790e-01,2.741264820098877064e-01,2.690783977508545144e-01,2.662196159362792969e-01,2.660843849182129017e-01,7.444910526275634322e-01,7.443493366241454856e-01,7.442078113555907759e-01,7.434548854827880415e-01
6.166998386383056863e-01,6.166026592254638672e-01,6.165054798126220481e-01,6.164083003997802290e-01,6.163111686706542747e-01,6.162140846252441850e-01,6.161170482635498491e-01,6.160200119018555132e-01,6.159230232238769309e-01,6.158260822296142134e-01,6.157291412353516069e-01,6.156322479248046431e-01,6.155353546142577903e-01,6.154385566711425559e-01,6.153417110443115678e-01,6.152449131011963335e-01,6.151481628417968528e-01,6.150514125823974831e-01,6.149547576904297319e-01,6.148581027984618697e-01,6.147614955902099831e-01,6.146648883819579856e-01,6.145683288574218528e-01,6.144717693328857200e-01,6.143753051757812056e-01,6.142787933349609375e-01,6.141823768615722878e-01,6.140859127044677734e-01,6.139894962310791238e-01,6.138931751251220925e-01,6.137968540191650613e-01,6.137005805969237837e-01,6.136043071746826172e-01,6.135080814361572044e-01,6.134118556976317915e-01,6.133157253265381081e-01,6.132195472717285600e-01,6.131234645843506303e-01,6.130273818969727007e-01,6.129313468933105247e-01,6.128353118896484597e-01,6.127393245697021484e-01,6.126433372497558372e-01,6.125473976135253906e-01,6.124515056610106978e-01,6.123556137084961160e-01,6.122598171234130415e-01,6.121639728546142134e-01,6.120682239532471147e-01,6.119724273681640403e-01,6.118767261505126953e-01,6.117810249328613503e-01,6.116853713989257590e-01,6.115897178649902788e-01,6.114941596984863059e-01,6.113985538482665794e-01,6.113029956817627175e-01,6.112074851989746094e-01,6.111119747161865012e-01,6.110165596008301225e-01,6.109210968017577681e-01,3.474241018295288197e-01,3.406507492065429799e-01,3.388570547103881836e-01,6.105397224426269975e-01,6.104444503784179910e-01,6.103491783142089844e-01,6.102540016174315962e-01,6.101587772369384544e-01,6.100636482238769309e-01,6.099685192108154075e-01,6.098733901977538840e-01,2.748015880584716575e-01,2.697288036346435769e-01,2.667046308517456166e-01,2.666411876678466686e-01,6.093984127044678178e-01,6.093034267425536665e-01,6.092085838317871094e-01,6.091136932373046875e-01
5.210239887237548828e-01,5.209546089172363281e-01,5.208852291107177734e-01,5.208158493041992188e-01,5.207465171813965288e-01,5.206771850585937278e-01,5.206079006195067915e-01,5.205386161804199663e-01,5.204693317413330300e-01,5.204001426696777122e-01,5.203309059143066406e-01,5.202617168426513228e-01,5.201924800872802512e-01,5.201233386993407981e-01,5.200541973114013450e-01,5.199850559234618919e-01,5.199159622192383035e-01,5.198468685150146040e-01,5.197777748107910156e-01,5.197087287902831809e-01,5.196396827697753462e-01,5.195706367492676225e-01,5.195016860961914062e-01,5.194326877593994363e-01,5.193637371063232200e-01,5.192947864532471147e-01,5.192258834838867632e-01,5.191569328308105469e-01,5.190880298614501953e-01,5.190191745758057085e-01,5.189503192901611106e-01,5.188815116882323775e-01,5.188126564025878906e-01,5.187438964843750222e-01,5.186750888824462891e-01,5.186063289642334206e-01,5.185375690460205522e-01,5.184688568115234375e-01,5.184001445770263228e-01,5.183314800262450728e-01,5.182627677917480691e-01,5.181941509246825728e-01,5.181254863739013228e-01,5.180568695068359375e-01,5.179883003234863059e-01,5.179196834564209206e-01,5.178511619567871538e-01,5.177825927734375222e-01,5.177140712738037553e-01,5.176455497741698775e-01,5.175770759582519753e-01,5.175086021423339622e-01,5.174401760101318137e-01,5.173717021942139116e-01,5.173033237457275169e-01,5.172348976135253684e-01,5.171665191650390847e-01,5.170981407165526900e-01,5.170298099517822710e-01,5.169614791870117410e-01,5.168931484222412109e-01,3.528228521347046009e-01,3.460644721984863503e-01,3.437142372131347656e-01,5.166201114654540572e-01,5.165519237518310103e-01,5.164836883544922097e-01,5.164155483245849165e-01,5.163473606109618697e-01,5.162792205810546875e-01,5.162110805511475053e-01,5.161429405212402122e-01,2.786324501037597545e-01,2.725321769714355580e-01,2.694081068038940430e-01,5.158706665039062278e-01,5.158026695251465288e-01,5.157346725463867188e-01,5.156667232513427734e-01,5.155987262725829634e-01
4.510477066040038951e-01,4.509956836700439453e-01,4.509437084197998047e-01,4.508916854858398549e-01,4.508397102355957142e-01,4.507877826690673828e-01,4.507358074188232422e-01,4.506838798522949108e-01,4.506319522857665794e-01,4.505800247192383035e-01,4.505281448364257812e-01,4.504762649536132590e-01,4.504243850708007924e-01,4.503725528717040794e-01,4.503206729888916127e-01,4.502688407897948997e-01,4.502170562744140514e-01,4.501652240753173939e-01,4.501134395599365456e-01,4.500616550445556419e-01,4.500098705291747936e-01,4.499580860137939453e-01,4.499063491821289062e-01,4.498546123504638672e-01,4.498029232025146373e-01,4.497511863708495983e-01,4.496994972229003684e-01,4.496477603912353294e-01,4.495960712432861550e-01,4.495444297790527344e-01,4.494927883148193137e-01,4.494411468505859486e-01,4.493895053863525280e-01,4.493379116058349720e-01,4.492862701416015514e-01,4.492346763610839955e-01,4.491830825805663840e-01,4.491315364837646373e-01,4.490799427032470814e-01,4.490284442901611439e-01,4.489768505096435325e-01,4.489253520965575950e-01,4.488738536834716575e-01,4.488223075866699108e-01,4.487708568572997825e-01,4.487193584442138450e-01,4.486679077148437722e-01,4.486164569854736439e-01,4.485650062561035156e-01,4.485135555267333873e-01,4.484621524810791238e-01,4.484107494354248047e-01,4.483593463897704856e-01,4.483079910278320312e-01,4.482566356658935769e-01,4.482052326202392578e-01,4.481538772583008035e-01,4.481025695800781028e-01,4.480512142181396484e-01,4.479999065399170033e-01,4.479485988616943581e-01,3.540389537811279297e-01,3.437146186828613503e-01,3.393479347229003684e-01,4.477435111999511497e-01,4.476922988891601785e-01,4.476410388946533425e-01,4.475898265838623158e-01,4.475386142730712891e-01,4.474874496459960715e-01,4.474362373352051003e-01,4.473850727081298828e-01,2.770083904266357200e-01,2.719365835189819225e-01,2.685992240905761830e-01,4.471805095672607422e-01,4.471293926239013894e-01,4.470782756805419811e-01,4.470272064208984375e-01,4.469760894775390847e-01
3.976422309875488059e-01,3.976017951965332142e-01,3.975613832473754994e-01,3.975209712982177845e-01,3.974805593490600697e-01,3.974401712417602317e-01,3.973997831344604492e-01,3.973594665527343528e-01,3.973191022872925027e-01,3.972787380218505970e-01,3.972383737564086914e-01,3.971980333328247181e-01,3.971576929092407449e-01,3.971173763275146484e-01,3.970770597457885520e-01,3.970367431640625111e-01,3.969964742660522239e-01,3.969561815261840598e-01,3.969158887863158958e-01,3.968756198883056641e-01,3.968353986740112416e-01,3.967951297760009544e-01,3.967548608779907227e-01,3.967146158218383678e-01,3.966744422912597545e-01,3.966341972351073997e-01,3.965939760208129772e-01,3.965537548065185547e-01,3.965135574340820090e-01,3.964734077453613281e-01,3.964332103729247825e-01,3.963930368423461692e-01,3.963528633117675559e-01,3.963127374649048074e-01,3.962725877761840709e-01,3.962324380874633900e-01,3.961922883987426536e-01,3.961522102355957142e-01,3.961120843887329102e-01,3.960719585418701061e-01,3.960318565368652344e-01,3.959918022155761719e-01,3.959517002105713002e-01,3.959116220474243053e-01,3.958715438842773660e-01,3.958314657211303711e-01,3.957914590835571178e-01,3.957514047622680553e-01,3.957113742828369252e-01,3.956713199615478627e-01,3.956313371658325417e-01,3.955913305282592884e-01,3.955513238906860352e-01,3.955113172531127819e-01,3.954713582992553933e-01,3.954313755035400169e-01,3.953913927078246959e-01,3.953514337539673074e-01,3.953114509582519309e-01,3.952715396881103516e-01,3.952316045761108398e-01,3.951916694641113281e-01,3.402498006820678933e-01,3.353420972824096569e-01,3.326824426651001088e-01,3.950320243835448997e-01,3.949921369552612527e-01,3.949522972106933594e-01,3.949124097824096569e-01,3.948725223541259544e-01,3.948326587677001842e-01,3.947927951812744141e-01,2.774269104003906361e-01,2.706531763076782116e-01,2.660345077514648660e-01,2.633911848068237194e-01,3.945937156677246094e-01,3.945539236068725808e-01,3.945141077041626199e-01,3.944743156433105358e-01
3.555446386337280384e-01,3.555123090744018444e-01,3.554800033569335826e-01,3.554476737976074441e-01,3.554153919219970592e-01,3.553830862045287975e-01,3.553508043289184681e-01,3.553184986114502064e-01,3.552862644195556863e-01,3.552539825439453014e-01,3.552217245101928489e-01,3.551894664764404519e-01,3.551572084426879994e-01,3.551249504089355469e-01,3.550927162170410267e-01,3.550604820251465066e-01,3.550282478332519309e-01,3.549960374832153431e-01,3.549638271331786998e-01,3.549316167831421120e-01,3.548994064331054688e-01,3.548671960830688255e-01,3.548350334167480469e-01,3.548028469085693359e-01,3.547706604003906250e-01,3.547384738922119141e-01,3.547063350677490123e-01,3.546741724014282338e-01,3.546420097351073997e-01,3.546098470687866211e-01,3.545777082443237194e-01,3.545455932617187500e-01,3.545134544372558483e-01,3.544813156127929465e-01,3.544491767883301003e-01,3.544171094894409402e-01,3.543849945068359153e-01,3.543528795242309459e-01,3.543207645416259766e-01,3.542886972427368164e-01,3.542566061019897239e-01,3.542245149612426869e-01,3.541924476623535267e-01,3.541603565216064342e-01,3.541283369064330833e-01,3.540962696075439231e-01,3.540642023086547630e-01,3.540321588516235352e-01,3.540001392364501842e-01,3.539680957794189564e-01,3.539360761642456055e-01,3.539040327072143777e-01,3.538720607757568359e-01,3.538400411605834850e-01,3.538080215454101340e-01,3.537760257720947155e-01,3.537440299987792969e-01,3.537120580673217551e-01,3.536800622940063366e-01,3.536480903625488503e-01,3.536161184310913086e-01,3.535841703414916992e-01,3.343930959701538197e-01,3.302603006362915261e-01,3.253035545349121094e-01,3.252504348754882701e-01,3.534244537353515847e-01,3.533925056457519753e-01,3.533605813980102428e-01,3.533286809921264426e-01,3.532967567443847656e-01,2.853761911392211914e-01,2.776654005050659402e-01,2.709111690521240345e-01,2.644299268722534180e-01,2.596099138259887473e-01,2.570011615753173828e-01,3.530735492706298939e-01,3.530416965484619030e-01,3.530098438262939675e-01
3.215072870254516713e-01,3.214808464050292747e-01,3.214544296264648660e-01,3.214280128479004017e-01,3.214015960693359375e-01,3.213751792907714733e-01,3.213487863540649414e-01,3.213223695755004772e-01,3.212960004806518777e-01,3.212696075439452903e-01,3.212432146072387584e-01,3.212168455123901589e-01,3.211904525756835715e-01,3.211640834808349720e-01,3.211377143859863170e-01,3.211113452911377175e-01,3.210849761962890625e-01,3.210586309432983398e-01,3.210322856903076172e-01,3.210059404373168945e-01,3.209795951843261719e-01,3.209532499313354492e-01,3.209269046783447266e-01,3.209005832672119363e-01,3.208742856979370228e-01,3.208479404449463002e-01,3.208216190338134544e-01,3.207953214645385964e-01,3.207690000534057506e-01,3.207427263259887695e-01,3.207164287567138561e-01,3.206901073455810658e-01,3.206638336181640847e-01,3.206375598907470481e-01,3.206112861633300670e-01,3.205849885940551536e-01,3.205587148666381725e-01,3.205324649810791238e-01,3.205062150955200195e-01,3.204799413681030384e-01,3.204536914825439342e-01,3.204274654388427623e-01,3.204011917114257812e-01,3.203749656677246094e-01,3.203487157821655051e-01,3.203224658966064564e-01,3.202962636947631614e-01,3.202700376510619895e-01,3.202438116073608176e-01,3.202175855636596458e-01,3.201914072036743386e-01,3.201651811599731667e-01,3.201389789581298717e-01,3.201127767562866322e-01,3.200866222381592019e-01,3.200604200363159069e-01,3.200342178344726674e-01,3.200080394744873047e-01,3.199818372726440652e-01,3.199557065963745117e-01,3.199295282363891491e-01,3.199033498764037864e-01,3.198771953582763561e-01,3.198510646820068581e-01,3.198248863220214955e-01,3.197237968444824330e-01,3.180734395980834850e-01,3.197464942932128906e-01,3.197203397750854603e-01,3.196942090988159069e-01,3.196680784225464089e-01,3.196419477462768555e-01,2.789407730102538840e-01,2.735816955566406361e-01,2.662556171417236328e-01,2.568356037139892800e-01,2.526040554046630748e-01,2.500177860260009988e-01,2.523650407791137584e-01,3.194331407546996959e-01
2.934175491333007590e-01,2.933955430984497292e-01,2.933735132217407116e-01,2.933515071868896262e-01,2.933295249938964733e-01,2.933075189590453880e-01,2.932855129241943581e-01,2.932635307312011497e-01,2.932415246963501199e-01,2.932195663452148438e-01,2.931975841522216908e-01,2.931756019592285378e-01,2.931536436080932617e-01,2.931316614151001088e-01,2.931096792221069558e-01,2.930877208709716797e-01,2.930657625198364036e-01,2.930438041687011830e-01,2.930218696594238392e-01,2.929999113082885631e-01,2.929779529571533425e-01,2.929560184478759988e-01,2.929340600967407227e-01,2.929121255874633789e-01,2.928901910781860352e-01,2.928682565689086914e-01,2.928463220596313477e-01,2.928244352340698131e-01,2.928025007247924694e-01,2.927805900573730580e-01,2.927586555480957142e-01,2.927367687225341797e-01,2.927148580551147683e-01,2.926929473876953014e-01,2.926710605621337669e-01,2.926491737365722878e-01,2.926272869110107533e-01,2.926053762435912864e-01,2.925834894180298074e-01,2.925616264343261497e-01,2.925397396087646706e-01,2.925178766250610130e-01,2.924959897994995339e-01,2.924741029739379994e-01,2.924522638320922741e-01,2.924304008483886719e-01,2.924085378646850697e-01,2.923866748809814675e-01,2.923648357391357422e-01,2.923429965972900169e-01,2.923211336135864147e-01,2.922992944717407449e-01,2.922774791717529519e-01,2.922556161880492942e-01,2.922337770462036244e-01,2.922119617462158314e-01,2.921901226043701061e-01,2.921683073043823131e-01,2.921464920043945201e-01,2.921246767044067272e-01,2.921028375625610574e-01,2.920810461044311412e-01,2.920592546463012806e-01,2.920374393463134877e-01,2.920156240463256947e-01,2.919938564300537109e-01,2.919720411300659180e-01,2.919502496719360574e-01,2.919284582138061412e-01,2.919066905975341575e-01,2.918848991394042969e-01,2.918631315231323131e-01,2.918413400650024525e-01,2.918195724487304688e-01,2.917978286743164174e-01,2.917760610580444336e-01,2.510632038116454856e-01,2.461818218231201227e-01,2.415295839309692383e-01,2.384785175323486384e-01
2.698417663574218528e-01,2.698231458663940541e-01,2.698045253753661998e-01,2.697859048843384011e-01,2.697673082351684792e-01,2.697486877441406250e-01,2.697300910949707031e-01,2.697114944458007812e-01,2.696928977966308594e-01,2.696743249893188699e-01,2.696557283401489480e-01,2.696371316909790261e-01,2.696185350418091042e-01,2.695999622344970592e-01,2.695813655853271373e-01,2.695627927780151478e-01,2.695442199707031028e-01,2.695256233215331809e-01,2.695070743560791238e-01,2.694885015487670787e-01,2.694699525833129661e-01,2.694513797760009766e-01,2.694328069686889870e-01,2.694142580032348744e-01,2.693957090377807617e-01,2.693771362304687722e-01,2.693585872650146595e-01,2.693400621414184792e-01,2.693215131759643666e-01,2.693029642105102539e-01,2.692844152450561412e-01,2.692658901214599609e-01,2.692473411560058483e-01,2.692288398742676003e-01,2.692102909088134877e-01,2.691917657852173074e-01,2.691732406616210715e-01,2.691547393798828236e-01,2.691362142562866433e-01,2.691176891326904075e-01,2.690991640090942272e-01,2.690806865692138561e-01,2.690621614456176758e-01,2.690436601638793723e-01,2.690251350402831920e-01,2.690066337585449441e-01,2.689881563186645730e-01,2.689696550369262695e-01,2.689511537551879661e-01,2.689326763153075950e-01,2.689141988754272239e-01,2.688956975936889759e-01,2.688772201538086049e-01,2.688587427139282338e-01,2.688402652740478627e-01,2.688217878341674916e-01,2.688033103942871205e-01,2.687848329544067494e-01,2.687663793563842551e-01,2.687479257583618164e-01,2.687294483184814453e-01,2.687109947204590066e-01,2.686925172805786355e-01,2.686740875244140736e-01,2.686556339263915794e-01,2.686371803283691406e-01,2.686187267303467019e-01,2.686002969741821400e-01,2.685818433761596458e-01,2.685634136199951394e-01,2.685449600219726451e-01,2.685265302658080833e-01,2.685081005096435769e-01,2.684896707534790150e-01,2.684712409973144531e-01,2.684528112411498912e-01,2.684344053268432617e-01,2.684159755706786998e-01,2.683975696563720703e-01,2.683791399002075084e-01
2.497727632522583063e-01,2.497568368911743109e-01,2.497408866882324108e-01,2.497249364852905384e-01,2.497090101242065430e-01,2.496930599212646429e-01,2.496771097183227428e-01,2.496611833572387751e-01,2.496452331542968750e-01,2.496293067932128795e-01,2.496133804321289118e-01,2.495974540710449163e-01,2.495815277099609486e-01,2.495656013488769531e-01,2.495496749877929576e-01,2.495337486267089899e-01,2.495178222656249944e-01,2.495019197463989313e-01,2.494859933853149359e-01,2.494700908660888727e-01,2.494541883468627819e-01,2.494382858276367188e-01,2.494223594665527233e-01,2.494064569473266602e-01,2.493905544281005970e-01,2.493746519088745062e-01,2.493587493896484431e-01,2.493428468704223522e-01,2.493269681930541937e-01,2.493110895156860352e-01,2.492951869964599720e-01,2.492793083190917858e-01,2.492634057998657227e-01,2.492475271224975641e-01,2.492316484451294056e-01,2.492157697677612194e-01,2.491998910903930609e-01,2.491840124130249023e-01,2.491681337356567438e-01,2.491522789001464899e-01,2.491364002227783314e-01,2.491205453872680775e-01,2.491046667098998912e-01,2.490888118743896373e-01,2.490729570388793834e-01,2.490571022033691295e-01,2.490412473678588756e-01,2.490253686904907171e-01,2.490095376968383678e-01,2.489936828613281139e-01,2.489778280258178600e-01,2.489619970321655384e-01,2.489461660385131891e-01,2.489303112030029352e-01,2.489144563674926813e-01,2.488986253738403320e-01,2.488827943801879827e-01,2.488669633865356334e-01,2.488511323928833119e-01,2.488353013992309626e-01,2.488194704055786133e-01,2.488036632537841686e-01,2.487878322601318470e-01,2.487720012664794977e-01,2.487561702728271484e-01,2.487403631210327037e-01,2.487245559692382868e-01,2.487087249755859375e-01,2.486929178237914928e-01,2.486771345138549805e-01,2.486613035202026312e-01,2.486454963684082142e-01,2.486296892166137695e-01,2.486138820648193248e-01,2.485980987548828125e-01,2.485822916030883678e-01,2.485665082931518555e-01,2.485507011413574108e-01,2.485349416732788030e-01,2.485191345214843861e-01
2.324823379516601507e-01,2.324685335159301647e-01,2.324547290802002064e-01,2.324409008026123158e-01,2.324270963668823298e-01,2.324132919311523438e-01,2.323994636535644531e-01,2.323856592178344671e-01,2.323718547821044811e-01,2.323580503463745228e-01,2.323442459106445368e-01,2.323304653167724554e-01,2.323166608810424694e-01,2.323028564453125111e-01,2.322890520095825251e-01,2.322752475738525391e-01,2.322614669799804576e-01,2.322476625442504994e-01,2.322338819503784180e-01,2.322201013565063366e-01,2.322063207626342829e-01,2.321925401687622015e-01,2.321787357330322155e-01,2.321649551391601618e-01,2.321511745452880804e-01,2.321373939514160267e-01,2.321236133575439453e-01,2.321098327636718639e-01,2.320960760116577148e-01,2.320823192596435658e-01,2.320685386657714844e-01,2.320547580718994030e-01,2.320410013198852539e-01,2.320272207260131725e-01,2.320134639739990234e-01,2.319997072219848744e-01,2.319859266281127930e-01,2.319721937179565485e-01,2.319584369659423717e-01,2.319446802139282227e-01,2.319309234619140736e-01,2.319171905517578014e-01,2.319034337997436523e-01,2.318896770477295033e-01,2.318759202957153265e-01,2.318621873855590820e-01,2.318484544754028376e-01,2.318346977233886608e-01,2.318209648132324163e-01,2.318072319030761719e-01,2.317934989929199274e-01,2.317797660827636830e-01,2.317660331726074108e-01,2.317523002624511663e-01,2.317385673522949219e-01,2.317248344421386774e-01,2.317111015319824330e-01,2.316973924636840931e-01,2.316836595535278209e-01,2.316699504852294811e-01,2.316562414169311412e-01,2.316425085067748968e-01,2.316287994384765569e-01,2.316150903701782171e-01,2.316013813018798773e-01,2.315876483917236328e-01,2.315739393234252930e-01,2.315602540969848577e-01,2.315465450286865179e-01,2.315328359603881780e-01,2.315191268920898382e-01,2.315054178237914984e-01,2.314917325973510631e-01,2.314780235290527233e-01,2.314643383026123158e-01,2.314506292343139759e-01,2.314369440078735407e-01,2.314232587814331055e-01,2.314095497131347656e-01,2.313958644866943304e-01
2.174307823181152455e-01,2.174186944961547796e-01,2.174066066741943415e-01,2.173945188522338756e-01,2.173824310302734375e-01,2.173703670501709040e-01,2.173582792282104381e-01,2.173461914062500000e-01,2.173341274261474665e-01,2.173220396041870006e-01,2.173099756240844671e-01,2.172979116439819336e-01,2.172858238220214955e-01,2.172737598419189342e-01,2.172616958618164007e-01,2.172496318817138672e-01,2.172375440597534291e-01,2.172254800796508678e-01,2.172134160995483343e-01,2.172013521194458008e-01,2.171893119812011719e-01,2.171772480010986384e-01,2.171651840209961049e-01,2.171531200408935436e-01,2.171410799026489147e-01,2.171290159225463812e-01,2.171169757843017523e-01,2.171049118041992188e-01,2.170928716659545898e-01,2.170808315277099609e-01,2.170687675476074274e-01,2.170567274093627985e-01,2.170446872711181696e-01,2.170326471328735407e-01,2.170205831527710072e-01,2.170085430145263783e-01,2.169965028762817494e-01,2.169844627380371205e-01,2.169724464416503962e-01,2.169604063034057673e-01,2.169483661651611384e-01,2.169363260269165095e-01,2.169243097305297852e-01,2.169122695922851562e-01,2.169002532958984319e-01,2.168882369995117076e-01,2.168761968612670787e-01,2.168641805648803822e-01,2.168521642684936579e-01,2.168401479721069336e-01,2.168281078338623047e-01,2.168160915374755804e-01,2.168040990829467884e-01,2.167920589447021595e-01,2.167800426483154352e-01,2.167680263519287109e-01,2.167560338973998912e-01,2.167440176010131947e-01,2.167320013046264704e-01,2.167200088500976507e-01,2.167079925537109264e-01,2.166960000991821345e-01,2.166839838027954102e-01,2.166719913482665905e-01,2.166599750518798939e-01,2.166480064392089788e-01,2.166359901428222545e-01,2.166239976882934626e-01,2.166120052337646429e-01,2.166000127792358509e-01,2.165880203247070312e-01,2.165760278701782116e-01,2.165640354156494196e-01,2.165520429611205999e-01,2.165400505065918080e-01,2.165280818939208929e-01,2.165160894393921009e-01,2.165040969848632812e-01,2.164921283721923939e-01,2.164801359176635742e-01
2.042096614837646540e-01,2.041990041732787975e-01,2.041883230209350641e-01,2.041776895523071400e-01,2.041670322418212835e-01,2.041563749313354548e-01,2.041457176208495983e-01,2.041350603103637695e-01,2.041244029998779408e-01,2.041137456893920843e-01,2.041030883789062556e-01,2.040924549102783314e-01,2.040817975997924749e-01,2.040711641311645508e-01,2.040605068206787220e-01,2.040498495101928655e-01,2.040392160415649414e-01,2.040285587310791127e-01,2.040179252624511608e-01,2.040072917938232366e-01,2.039966344833374079e-01,2.039860010147094838e-01,2.039753675460815319e-01,2.039647340774536077e-01,2.039541006088256836e-01,2.039434671401977595e-01,2.039328336715698353e-01,2.039222002029418834e-01,2.039115667343139593e-01,2.039009332656860352e-01,2.038902997970581110e-01,2.038796901702880915e-01,2.038690567016601674e-01,2.038584232330322155e-01,2.038477897644042913e-01,2.038371801376342718e-01,2.038265466690063477e-01,2.038159370422363281e-01,2.038053035736084040e-01,2.037946939468383845e-01,2.037840843200683649e-01,2.037734508514404408e-01,2.037628412246704213e-01,2.037522315979004017e-01,2.037416219711303822e-01,2.037309885025024303e-01,2.037204027175903431e-01,2.037097930908203236e-01,2.036991834640503041e-01,2.036885738372802845e-01,2.036779642105102650e-01,2.036673545837402455e-01,2.036567687988281306e-01,2.036461591720581110e-01,2.036355733871459961e-01,2.036249637603759766e-01,2.036143541336059570e-01,2.036037683486938421e-01,2.035931587219238226e-01,2.035825729370117076e-01,2.035719633102416881e-01,2.035613775253296009e-01,2.035507917404174860e-01,2.035402059555053711e-01,2.035296201705932562e-01,2.035190105438232366e-01,2.035084247589111217e-01,2.034978389739990345e-01,2.034872531890869196e-01,2.034766674041748047e-01,2.034660816192626898e-01,2.034554958343505748e-01,2.034449338912963923e-01,2.034343481063842773e-01,2.034237623214721624e-01,2.034131765365600475e-01,2.034026145935058649e-01,2.033920288085937500e-01,2.033814668655395397e-01,2.033708810806274525e-01
1.925042390823364369e-01,1.924947619438171498e-01,1.924852967262268011e-01,1.924758195877075140e-01,1.924663424491882269e-01,1.924568653106689398e-01,1.924474000930786188e-01,1.924379348754882701e-01,1.924284577369689830e-01,1.924189925193786621e-01,1.924095273017883412e-01,1.924000620841979925e-01,1.923906207084655762e-01,1.923811554908752552e-01,1.923716902732849066e-01,1.923622250556945856e-01,1.923527717590332031e-01,1.923433065414428822e-01,1.923338532447814997e-01,1.923243880271911510e-01,1.923149347305297963e-01,1.923054814338684138e-01,1.922960162162780651e-01,1.922865629196167103e-01,1.922771096229553278e-01,1.922676563262939453e-01,1.922582030296325628e-01,1.922487616539001465e-01,1.922393083572387640e-01,1.922298550605773815e-01,1.922204256057739313e-01,1.922109842300415150e-01,1.922015309333801325e-01,1.921920895576477162e-01,1.921826481819152721e-01,1.921732068061828558e-01,1.921637654304504395e-01,1.921543121337890569e-01,1.921448826789856068e-01,1.921354413032531627e-01,1.921259999275207464e-01,1.921165585517883301e-01,1.921071171760559138e-01,1.920976877212524359e-01,1.920882463455200195e-01,1.920788168907165416e-01,1.920693874359130915e-01,1.920599460601806752e-01,1.920505404472351019e-01,1.920411109924316517e-01,1.920316815376281738e-01,1.920222520828246959e-01,1.920128226280212458e-01,1.920033931732177679e-01,1.919939637184143177e-01,1.919845461845398060e-01,1.919751167297363281e-01,1.919657230377197210e-01,1.919562935829162709e-01,1.919468760490417591e-01,1.919374585151672474e-01,1.919280290603637695e-01,1.919186115264892578e-01,1.919091939926147461e-01,1.918997764587402344e-01,1.918903827667236273e-01,1.918809652328491155e-01,1.918715596199035700e-01,1.918621420860290583e-01,1.918527364730834850e-01,1.918433189392089733e-01,1.918339133262634277e-01,1.918244957923889160e-01,1.918150901794433705e-01,1.918057084083557018e-01,1.917963027954101562e-01,1.917868971824646107e-01,1.917774915695190374e-01,1.917680859565734919e-01,1.917586803436279186e-01
1.820679783821105846e-01,1.820595026016235407e-01,1.820510268211364691e-01,1.820425510406494252e-01,1.820340991020202581e-01,1.820256233215332142e-01,1.820171475410461426e-01,1.820086836814880371e-01,1.820002079010009655e-01,1.819917440414428600e-01,1.819832682609558161e-01,1.819748044013977106e-01,1.819663286209106390e-01,1.819578647613525335e-01,1.819494009017944280e-01,1.819409370422363226e-01,1.819324731826782171e-01,1.819240093231201116e-01,1.819155454635620062e-01,1.819070816040039007e-01,1.818986296653747614e-01,1.818901658058166559e-01,1.818817257881164551e-01,1.818732619285583496e-01,1.818648099899292103e-01,1.818563580513000433e-01,1.818478941917419378e-01,1.818394422531127985e-01,1.818309903144836315e-01,1.818225264549255260e-01,1.818140745162963867e-01,1.818056225776672474e-01,1.817971706390380804e-01,1.817887306213378795e-01,1.817802786827087402e-01,1.817718267440796009e-01,1.817633748054504339e-01,1.817549347877502330e-01,1.817464828491210938e-01,1.817380428314208929e-01,1.817296147346496582e-01,1.817211627960205189e-01,1.817127227783203181e-01,1.817042827606201172e-01,1.816958427429199163e-01,1.816874027252197155e-01,1.816789627075195424e-01,1.816705226898193415e-01,1.816620826721191406e-01,1.816536426544189398e-01,1.816452026367187389e-01,1.816367626190185658e-01,1.816283345222473034e-01,1.816198945045471302e-01,1.816114783287048340e-01,1.816030502319335993e-01,1.815946221351623646e-01,1.815861821174621638e-01,1.815777540206909291e-01,1.815693259239196666e-01,1.815608978271484319e-01,1.815524697303771973e-01,1.815440416336059626e-01,1.815356254577636663e-01,1.815272092819213978e-01,1.815187811851501354e-01,1.815103530883789007e-01,1.815019249916076660e-01,1.814935088157653698e-01,1.814850807189941351e-01,1.814766645431518666e-01,1.814682364463806041e-01,1.814598441123962402e-01,1.814514279365539440e-01,1.814429998397827093e-01,1.814345836639404408e-01,1.814261674880981445e-01,1.814177513122558483e-01,1.814093351364135798e-01,1.814009189605712835e-01
1.727051019668578991e-01,1.726974725723266491e-01,1.726898431777953991e-01,1.726822257041931152e-01,1.726745963096618652e-01,1.726669788360595814e-01,1.726593494415283314e-01,1.726517319679260198e-01,1.726441025733947698e-01,1.726364850997924860e-01,1.726288676261901744e-01,1.726212501525878906e-01,1.726136326789856068e-01,1.726060271263122614e-01,1.725984096527099498e-01,1.725907921791076660e-01,1.725831747055053822e-01,1.725755572319030706e-01,1.725679397583007868e-01,1.725603342056274414e-01,1.725527167320251576e-01,1.725450992584228460e-01,1.725374937057495006e-01,1.725298762321472168e-01,1.725222706794738714e-01,1.725146532058715876e-01,1.725070476531982422e-01,1.724994421005248968e-01,1.724918246269226130e-01,1.724842190742492676e-01,1.724766135215759222e-01,1.724690198898315430e-01,1.724614143371581976e-01,1.724538087844848522e-01,1.724462151527404730e-01,1.724386096000671276e-01,1.724310040473938099e-01,1.724233984947204645e-01,1.724158048629760853e-01,1.724081993103027399e-01,1.724005937576293945e-01,1.723930001258850153e-01,1.723853945732116699e-01,1.723778009414672907e-01,1.723702073097229115e-01,1.723626017570495661e-01,1.723550081253051869e-01,1.723474144935607799e-01,1.723398208618164007e-01,1.723322391510009877e-01,1.723246455192565807e-01,1.723170518875122015e-01,1.723094582557678223e-01,1.723018765449523815e-01,1.722942829132080023e-01,1.722866892814636230e-01,1.722790956497192438e-01,1.722715139389038030e-01,1.722639203071594238e-01,1.722563385963439830e-01,1.722487449645996038e-01,1.722411751747131292e-01,1.722335934638977162e-01,1.722260117530822754e-01,1.722184300422668346e-01,1.722108364105224554e-01,1.722032546997070424e-01,1.721956729888916016e-01,1.721880912780761608e-01,1.721805334091186523e-01,1.721729516983032116e-01,1.721653699874877985e-01,1.721577882766723577e-01,1.721502184867858831e-01,1.721426367759704701e-01,1.721350550651550293e-01,1.721274852752685547e-01,1.721199035644531139e-01,1.721123456954956055e-01,1.721047759056091309e-01
