6.198801517486571822e-01,6.356088161468506081e-01,6.521564960479736550e-01,6.695887088775634988e-01,6.879785060882568359e-01,7.074069499969481978e-01,7.279645919799804243e-01,7.497528553009032981e-01,7.728856563568115012e-01,7.974953174591064009e-01,8.237238883972167747e-01,8.517362594604491743e-01,8.817210197448730469e-01,9.138940811157226785e-01,9.485038757324218972e-01,9.858383178710937722e-01,1.000000000000000000e+00,1.000000000000000000e+00,3.247895717620849498e-01,3.222053289413452370e-01,3.252753019332885742e-01,3.557299375534057617e-01,3.565225601196289062e-01,3.595297813415527233e-01,3.668347835540771706e-01,3.712450265884399414e-01,3.614820241928100586e-01,3.599467754364013561e-01,3.599121332168578880e-01,3.685423374176025613e-01,4.154733657836914285e-01,1.000000000000000000e+00,1.000000000000000000e+00,1.000000000000000000e+00,1.000000000000000000e+00,1.000000000000000000e+00,1.000000000000000000e+00,1.000000000000000000e+00,1.000000000000000000e+00,1.000000000000000000e+00,1.000000000000000000e+00,1.000000000000000000e+00,1.000000000000000000e+00,1.000000000000000000e+00,1.000000000000000000e+00,1.000000000000000000e+00,1.000000000000000000e+00,1.000000000000000000e+00,1.000000000000000000e+00,1.000000000000000000e+00,1.000000000000000000e+00,1.000000000000000000e+00,1.000000000000000000e+00,1.000000000000000000e+00,1.000000000000000000e+00,1.000000000000000000e+00,1.000000000000000000e+00,1.000000000000000000e+00,1.000000000000000000e+00,1.000000000000000000e+00,1.000000000000000000e+00,1.000000000000000000e+00,1.000000000000000000e+00,1.000000000000000000e+00,1.000000000000000000e+00,1.000000000000000000e+00,1.000000000000000000e+00,1.000000000000000000e+00,1.000000000000000000e+00,1.000000000000000000e+00,9.684474945068359819e-01,9.367864608764648882e-01,9.071301460266113503e-01,8.792938232421875222e-01,8.531149864196777566e-01,8.284499168395995650e-01,8.051711082458495872e-01,7.831646442413330300e-01,7.623292446136474831e-01,7.425735950469970481e-01
6.198668956756592241e-01,6.355948448181152344e-01,6.521417140960693581e-01,6.695731639862060325e-01,6.879621505737304465e-01,7.073895931243896484e-01,7.279462814331054688e-01,7.497334003448485884e-01,7.728649139404296653e-01,7.974692344665527122e-01,8.236960411071777566e-01,8.517066001892089622e-01,8.816891670227050559e-01,9.138597488403320535e-01,9.484670639038086382e-01,9.857984542846679465e-01,1.000000000000000000e+00,1.000000000000000000e+00,3.195080041885375866e-01,3.164789915084839089e-01,3.217306375503540261e-01,3.557409524917602428e-01,3.569685459136963113e-01,3.596114397048950084e-01,3.669931411743164174e-01,3.666375160217285045e-01,3.578691720962524636e-01,3.568621158599853405e-01,3.569018602371215598e-01,3.627647161483764648e-01,3.740541934967041016e-01,1.000000000000000000e+00,1.000000000000000000e+00,1.000000000000000000e+00,1.000000000000000000e+00,1.000000000000000000e+00,1.000000000000000000e+00,1.000000000000000000e+00,1.000000000000000000e+00,1.000000000000000000e+00,1.000000000000000000e+00,1.000000000000000000e+00,1.000000000000000000e+00,1.000000000000000000e+00,1.000000000000000000e+00,1.000000000000000000e+00,1.000000000000000000e+00,1.000000000000000000e+00,1.000000000000000000e+00,1.000000000000000000e+00,1.000000000000000000e+00,1.000000000000000000e+00,1.000000000000000000e+00,1.000000000000000000e+00,1.000000000000000000e+00,1.000000000000000000e+00,1.000000000000000000e+00,1.000000000000000000e+00,1.000000000000000000e+00,1.000000000000000000e+00,1.000000000000000000e+00,1.000000000000000000e+00,1.000000000000000000e+00,1.000000000000000000e+00,1.000000000000000000e+00,1.000000000000000000e+00,1.000000000000000000e+00,1.000000000000000000e+00,1.000000000000000000e+00,1.000000000000000000e+00,9.684724807739257812e-01,9.368098258972168413e-01,9.071519851684570757e-01,8.793143272399902566e-01,8.531343460083007368e-01,8.284682273864746316e-01,8.051882743835448997e-01,7.831809997558594194e-01,7.623447418212890847e-01,7.425883293151855913e-01
6.198535919189452903e-01,6.355808258056641069e-01,6.521270275115966797e-01,6.695576667785644309e-01,6.879456996917724387e-01,7.073722839355468528e-01,7.279279708862305132e-01,7.497138977050781250e-01,7.728442668914794478e-01,7.974472522735596147e-01,8.236681938171386275e-01,8.516768455505371316e-01,8.816573143005370650e-01,9.138256072998046653e-01,9.484301567077636497e-01,9.857586860656738503e-01,1.000000000000000000e+00,1.000000000000000000e+00,3.161405086517333762e-01,3.115551710128784402e-01,3.559071540832519642e-01,3.565206289291381614e-01,3.572121381759643666e-01,3.595818996429443470e-01,3.673621416091918945e-01,3.649415731430053489e-01,3.573813676834106667e-01,3.546139240264892800e-01,3.547299385070800670e-01,3.582331657409668080e-01,3.688900947570800670e-01,1.000000000000000000e+00,1.000000000000000000e+00,1.000000000000000000e+00,1.000000000000000000e+00,1.000000000000000000e+00,1.000000000000000000e+00,1.000000000000000000e+00,1.000000000000000000e+00,1.000000000000000000e+00,1.000000000000000000e+00,1.000000000000000000e+00,1.000000000000000000e+00,1.000000000000000000e+00,1.000000000000000000e+00,1.000000000000000000e+00,1.000000000000000000e+00,1.000000000000000000e+00,1.000000000000000000e+00,1.000000000000000000e+00,1.000000000000000000e+00,1.000000000000000000e+00,1.000000000000000000e+00,1.000000000000000000e+00,1.000000000000000000e+00,1.000000000000000000e+00,1.000000000000000000e+00,1.000000000000000000e+00,1.000000000000000000e+00,1.000000000000000000e+00,1.000000000000000000e+00,1.000000000000000000e+00,1.000000000000000000e+00,1.000000000000000000e+00,1.000000000000000000e+00,1.000000000000000000e+00,1.000000000000000000e+00,1.000000000000000000e+00,1.000000000000000000e+00,1.000000000000000000e+00,9.684974670410155806e-01,9.368332862854004128e-01,9.071739196777344194e-01,8.793350219726562278e-01,8.531538009643554465e-01,8.284865379333495872e-01,8.052056312561035600e-01,7.831974029541015625e-01,7.623601436614990678e-01,7.426030158996581587e-01
6.198402404785156028e-01,6.355668544769287331e-01,6.521122932434082475e-01,6.695421218872070757e-01,6.879293441772460493e-01,7.073549747467040572e-01,7.279095649719238281e-01,7.496944904327392800e-01,7.728236198425293413e-01,7.974251747131347878e-01,8.236446380615234375e-01,8.516470909118651900e-01,8.816254615783691850e-01,9.137913703918456587e-01,9.483932495117187722e-01,9.857188224792480247e-01,1.000000000000000000e+00,1.000000000000000000e+00,3.174728870391845814e-01,3.653388023376464844e-01,3.572771310806274192e-01,3.578764438629150613e-01,3.584967374801635853e-01,3.606916427612304465e-01,3.681563377380371316e-01,3.687828540802001731e-01,3.566796541213989036e-01,3.519271373748779075e-01,3.525666713714599720e-01,3.538134098052978516e-01,3.647118091583251842e-01,1.000000000000000000e+00,1.000000000000000000e+00,1.000000000000000000e+00,1.000000000000000000e+00,1.000000000000000000e+00,1.000000000000000000e+00,1.000000000000000000e+00,1.000000000000000000e+00,1.000000000000000000e+00,1.000000000000000000e+00,1.000000000000000000e+00,1.000000000000000000e+00,1.000000000000000000e+00,1.000000000000000000e+00,1.000000000000000000e+00,1.000000000000000000e+00,1.000000000000000000e+00,1.000000000000000000e+00,1.000000000000000000e+00,1.000000000000000000e+00,1.000000000000000000e+00,1.000000000000000000e+00,1.000000000000000000e+00,1.000000000000000000e+00,1.000000000000000000e+00,1.000000000000000000e+00,1.000000000000000000e+00,1.000000000000000000e+00,1.000000000000000000e+00,1.000000000000000000e+00,1.000000000000000000e+00,1.000000000000000000e+00,1.000000000000000000e+00,1.000000000000000000e+00,1.000000000000000000e+00,1.000000000000000000e+00,1.000000000000000000e+00,1.000000000000000000e+00,1.000000000000000000e+00,9.685224533081054910e-01,9.368565559387207475e-01,9.071958541870117632e-01,8.793555259704589622e-01,8.531731605529785378e-01,8.285047531127929243e-01,8.052228927612304910e-01,7.832136631011963335e-01,7.623756885528564231e-01,7.426176548004150835e-01
6.198269844055175337e-01,6.355529308319092241e-01,6.520975589752197044e-01,6.695266246795654741e-01,6.879129886627197710e-01,7.073376178741455078e-01,7.278912544250488725e-01,7.496750354766845703e-01,7.728028774261475053e-01,7.974031925201415794e-01,8.236211776733398660e-01,8.516218185424804243e-01,8.815936088562011941e-01,9.137571334838867632e-01,9.483563423156737837e-01,9.856790542602539285e-01,1.000000000000000000e+00,1.000000000000000000e+00,3.135081529617309570e-01,3.724241018295287864e-01,3.591585159301757812e-01,3.595388650894165150e-01,3.600386142730712669e-01,3.623105287551879883e-01,3.701493740081787109e-01,3.712578058242798074e-01,3.559700965881347767e-01,3.492229223251342995e-01,3.498527050018310769e-01,3.504987001419067605e-01,3.606271266937255970e-01,1.000000000000000000e+00,1.000000000000000000e+00,1.000000000000000000e+00,1.000000000000000000e+00,1.000000000000000000e+00,1.000000000000000000e+00,1.000000000000000000e+00,1.000000000000000000e+00,1.000000000000000000e+00,1.000000000000000000e+00,1.000000000000000000e+00,1.000000000000000000e+00,1.000000000000000000e+00,1.000000000000000000e+00,1.000000000000000000e+00,1.000000000000000000e+00,1.000000000000000000e+00,1.000000000000000000e+00,1.000000000000000000e+00,1.000000000000000000e+00,1.000000000000000000e+00,1.000000000000000000e+00,1.000000000000000000e+00,1.000000000000000000e+00,1.000000000000000000e+00,1.000000000000000000e+00,1.000000000000000000e+00,1.000000000000000000e+00,1.000000000000000000e+00,1.000000000000000000e+00,1.000000000000000000e+00,1.000000000000000000e+00,1.000000000000000000e+00,1.000000000000000000e+00,1.000000000000000000e+00,1.000000000000000000e+00,1.000000000000000000e+00,1.000000000000000000e+00,1.000000000000000000e+00,9.685473442077636719e-01,9.368799209594727007e-01,9.072176933288573775e-01,8.793761253356933150e-01,8.531925201416015181e-01,8.285230636596679910e-01,8.052400588989258035e-01,7.832300186157226118e-01,7.623910903930664062e-01,7.426323413848876509e-01
6.198136806488037109e-01,6.355389118194579856e-01,6.520828247070312722e-01,6.695111274719238725e-01,6.878965854644775169e-01,7.073203086853027122e-01,7.278728961944580522e-01,7.496555328369141069e-01,7.727822303771972878e-01,7.973812103271484819e-01,8.235977172851562944e-01,8.515967369079590066e-01,8.815664291381836160e-01,9.137228965759277566e-01,9.483195304870605247e-01,9.856390953063964844e-01,1.000000000000000000e+00,1.000000000000000000e+00,1.000000000000000000e+00,3.788912534713745339e-01,3.611258506774902566e-01,3.613247632980346458e-01,3.618294715881347767e-01,3.649096965789794811e-01,3.725852251052856334e-01,1.000000000000000000e+00,3.552506923675536887e-01,3.473486423492431752e-01,3.473938941955566628e-01,3.480770111083984486e-01,3.553585290908813366e-01,1.000000000000000000e+00,1.000000000000000000e+00,1.000000000000000000e+00,1.000000000000000000e+00,1.000000000000000000e+00,1.000000000000000000e+00,1.000000000000000000e+00,1.000000000000000000e+00,1.000000000000000000e+00,1.000000000000000000e+00,1.000000000000000000e+00,1.000000000000000000e+00,1.000000000000000000e+00,1.000000000000000000e+00,1.000000000000000000e+00,1.000000000000000000e+00,1.000000000000000000e+00,1.000000000000000000e+00,1.000000000000000000e+00,1.000000000000000000e+00,1.000000000000000000e+00,1.000000000000000000e+00,1.000000000000000000e+00,1.000000000000000000e+00,1.000000000000000000e+00,1.000000000000000000e+00,1.000000000000000000e+00,1.000000000000000000e+00,1.000000000000000000e+00,1.000000000000000000e+00,1.000000000000000000e+00,1.000000000000000000e+00,1.000000000000000000e+00,1.000000000000000000e+00,1.000000000000000000e+00,1.000000000000000000e+00,1.000000000000000000e+00,1.000000000000000000e+00,1.000000000000000000e+00,9.685723304748534712e-01,9.369033813476562722e-01,9.072397232055664507e-01,8.793967247009277788e-01,8.532119750976562278e-01,8.285413742065429465e-01,8.052574157714843528e-01,7.832463741302490012e-01,7.624065876007080078e-01,7.426470756530761941e-01
6.198003768920898882e-01,6.355249404907226118e-01,6.520681381225585938e-01,6.694955825805664062e-01,6.878802299499511275e-01,7.073030471801757812e-01,7.278545379638672319e-01,7.496360778808593972e-01,7.727615833282470703e-01,7.973591327667236550e-01,8.235742568969726118e-01,8.515716552734374778e-01,8.815395355224608931e-01,9.136937141418457475e-01,9.482827186584472656e-01,9.855993270874023882e-01,1.000000000000000000e+00,1.000000000000000000e+00,1.000000000000000000e+00,1.000000000000000000e+00,3.633775949478149636e-01,3.632767915725708119e-01,3.636382579803466575e-01,3.675463914871215931e-01,3.748250961303710715e-01,1.000000000000000000e+00,3.540998458862304465e-01,3.463567495346069336e-01,3.444679975509643555e-01,3.456885099411010631e-01,3.494229078292846458e-01,1.000000000000000000e+00,1.000000000000000000e+00,1.000000000000000000e+00,1.000000000000000000e+00,1.000000000000000000e+00,1.000000000000000000e+00,1.000000000000000000e+00,1.000000000000000000e+00,1.000000000000000000e+00,1.000000000000000000e+00,1.000000000000000000e+00,1.000000000000000000e+00,1.000000000000000000e+00,1.000000000000000000e+00,1.000000000000000000e+00,1.000000000000000000e+00,1.000000000000000000e+00,1.000000000000000000e+00,1.000000000000000000e+00,1.000000000000000000e+00,1.000000000000000000e+00,1.000000000000000000e+00,1.000000000000000000e+00,1.000000000000000000e+00,1.000000000000000000e+00,1.000000000000000000e+00,1.000000000000000000e+00,1.000000000000000000e+00,1.000000000000000000e+00,1.000000000000000000e+00,1.000000000000000000e+00,1.000000000000000000e+00,1.000000000000000000e+00,1.000000000000000000e+00,1.000000000000000000e+00,1.000000000000000000e+00,1.000000000000000000e+00,1.000000000000000000e+00,1.000000000000000000e+00,9.685973167419433816e-01,9.369267463684082253e-01,9.072615623474120650e-01,8.794173240661621316e-01,8.532313346862793191e-01,8.285595893859862837e-01,8.052746772766112837e-01,7.832626342773437722e-01,7.624220848083496094e-01,7.426616668701171431e-01
6.197974205017089400e-01,6.355157375335693803e-01,6.520534038543701616e-01,6.694800853729248047e-01,6.878638267517089844e-01,7.072856426239013672e-01,7.278362274169921653e-01,7.496166706085205522e-01,7.727408409118652344e-01,7.973371505737304465e-01,8.235507011413574219e-01,8.515464782714843306e-01,8.815126419067382812e-01,9.136647224426269753e-01,9.482510566711426225e-01,9.855595588684081809e-01,1.000000000000000000e+00,1.000000000000000000e+00,1.000000000000000000e+00,1.000000000000000000e+00,3.665859460830688255e-01,3.652896404266357533e-01,3.654651641845703125e-01,3.699957847595214955e-01,1.000000000000000000e+00,1.000000000000000000e+00,3.550397634506225475e-01,3.453704833984375111e-01,3.412372350692748912e-01,3.427496433258056530e-01,3.439998388290405051e-01,1.000000000000000000e+00,1.000000000000000000e+00,1.000000000000000000e+00,1.000000000000000000e+00,1.000000000000000000e+00,1.000000000000000000e+00,1.000000000000000000e+00,1.000000000000000000e+00,1.000000000000000000e+00,1.000000000000000000e+00,1.000000000000000000e+00,1.000000000000000000e+00,1.000000000000000000e+00,1.000000000000000000e+00,1.000000000000000000e+00,1.000000000000000000e+00,1.000000000000000000e+00,1.000000000000000000e+00,1.000000000000000000e+00,1.000000000000000000e+00,1.000000000000000000e+00,1.000000000000000000e+00,1.000000000000000000e+00,1.000000000000000000e+00,1.000000000000000000e+00,1.000000000000000000e+00,1.000000000000000000e+00,1.000000000000000000e+00,1.000000000000000000e+00,1.000000000000000000e+00,1.000000000000000000e+00,1.000000000000000000e+00,1.000000000000000000e+00,1.000000000000000000e+00,1.000000000000000000e+00,1.000000000000000000e+00,1.000000000000000000e+00,1.000000000000000000e+00,1.000000000000000000e+00,9.686223030090331809e-01,9.369500160217285600e-01,9.072834968566894087e-01,8.794379234313964844e-01,8.532506942749022993e-01,8.285778999328613503e-01,8.052918434143065962e-01,7.832790374755859153e-01,7.624375343322753462e-01,7.426764011383056863e-01
6.197974205017089400e-01,6.355157375335693803e-01,6.520520687103271706e-01,6.694718360900878684e-01,6.878479957580566628e-01,7.072683811187744363e-01,7.278179168701172097e-01,7.495971679687499778e-01,7.727201938629150169e-01,7.973151683807373491e-01,8.235272407531738503e-01,8.515213966369629128e-01,8.814857482910156694e-01,9.136358261108398215e-01,9.482199668884276900e-01,9.855253219604491743e-01,1.000000000000000000e+00,1.000000000000000000e+00,1.000000000000000000e+00,1.000000000000000000e+00,3.702641487121581809e-01,3.668849229812621848e-01,3.672207117080688588e-01,3.722155094146728516e-01,1.000000000000000000e+00,1.000000000000000000e+00,1.000000000000000000e+00,3.443898677825927845e-01,3.393748283386230358e-01,3.401308059692382812e-01,3.417502403259277122e-01,1.000000000000000000e+00,1.000000000000000000e+00,1.000000000000000000e+00,1.000000000000000000e+00,1.000000000000000000e+00,1.000000000000000000e+00,1.000000000000000000e+00,1.000000000000000000e+00,1.000000000000000000e+00,1.000000000000000000e+00,1.000000000000000000e+00,1.000000000000000000e+00,1.000000000000000000e+00,1.000000000000000000e+00,1.000000000000000000e+00,1.000000000000000000e+00,1.000000000000000000e+00,1.000000000000000000e+00,1.000000000000000000e+00,1.000000000000000000e+00,1.000000000000000000e+00,1.000000000000000000e+00,1.000000000000000000e+00,1.000000000000000000e+00,1.000000000000000000e+00,1.000000000000000000e+00,1.000000000000000000e+00,1.000000000000000000e+00,1.000000000000000000e+00,1.000000000000000000e+00,1.000000000000000000e+00,1.000000000000000000e+00,1.000000000000000000e+00,1.000000000000000000e+00,1.000000000000000000e+00,1.000000000000000000e+00,1.000000000000000000e+00,1.000000000000000000e+00,1.000000000000000000e+00,9.686472892761230913e-01,9.369733810424805132e-01,9.073053359985351340e-01,8.794584274291992188e-01,8.532700538635253906e-01,8.285962104797363059e-01,8.053092002868652566e-01,7.832953929901123047e-01,7.624530315399169478e-01,7.426911354064941184e-01
6.197943687438964844e-01,6.355157375335693803e-01,6.520520687103271706e-01,6.694718360900878684e-01,6.878479957580566628e-01,7.072613716125488725e-01,7.278025150299072266e-01,7.495777606964111328e-01,7.726995468139647993e-01,7.972931385040282759e-01,8.235037803649902788e-01,8.514963150024413840e-01,8.814588546752929465e-01,9.136069297790527788e-01,9.481887817382812500e-01,9.854916572570801003e-01,1.000000000000000000e+00,1.000000000000000000e+00,1.000000000000000000e+00,1.000000000000000000e+00,3.740549087524414062e-01,3.682615041732787975e-01,3.685998439788818470e-01,3.744983911514282449e-01,1.000000000000000000e+00,1.000000000000000000e+00,1.000000000000000000e+00,3.431668043136596458e-01,3.389569759368896706e-01,3.386736631393432728e-01,3.405622720718383678e-01,1.000000000000000000e+00,1.000000000000000000e+00,1.000000000000000000e+00,1.000000000000000000e+00,1.000000000000000000e+00,1.000000000000000000e+00,1.000000000000000000e+00,1.000000000000000000e+00,1.000000000000000000e+00,1.000000000000000000e+00,1.000000000000000000e+00,1.000000000000000000e+00,1.000000000000000000e+00,1.000000000000000000e+00,1.000000000000000000e+00,1.000000000000000000e+00,1.000000000000000000e+00,1.000000000000000000e+00,1.000000000000000000e+00,1.000000000000000000e+00,1.000000000000000000e+00,1.000000000000000000e+00,1.000000000000000000e+00,1.000000000000000000e+00,1.000000000000000000e+00,1.000000000000000000e+00,1.000000000000000000e+00,1.000000000000000000e+00,1.000000000000000000e+00,1.000000000000000000e+00,1.000000000000000000e+00,1.000000000000000000e+00,1.000000000000000000e+00,1.000000000000000000e+00,1.000000000000000000e+00,1.000000000000000000e+00,1.000000000000000000e+00,1.000000000000000000e+00,1.000000000000000000e+00,9.686722755432128906e-01,9.369968414306640847e-01,9.073273658752440962e-01,8.794791221618651900e-01,8.532894134521484819e-01,8.286144256591796431e-01,8.053264617919921875e-01,7.833116531372070757e-01,7.624685287475585493e-01,7.427057266235351785e-01
6.197810173034667969e-01,6.355045795440673606e-01,6.520467758178710715e-01,6.694718360900878684e-01,6.878479957580566628e-01,7.072613716125488725e-01,7.278025150299072266e-01,7.495723724365234153e-01,7.726848125457763672e-01,7.972711563110351785e-01,8.234803199768065962e-01,8.514712333679199663e-01,8.814319610595703347e-01,9.135780334472656250e-01,9.481576919555664285e-01,9.854580879211425337e-01,1.000000000000000000e+00,1.000000000000000000e+00,1.000000000000000000e+00,1.000000000000000000e+00,3.779240846633911133e-01,3.700569391250610463e-01,3.699893712997436301e-01,3.764768838882446289e-01,1.000000000000000000e+00,1.000000000000000000e+00,1.000000000000000000e+00,3.438608646392822266e-01,3.396103858947753795e-01,3.395126819610595481e-01,3.411268949508666770e-01,1.000000000000000000e+00,1.000000000000000000e+00,1.000000000000000000e+00,1.000000000000000000e+00,1.000000000000000000e+00,1.000000000000000000e+00,1.000000000000000000e+00,1.000000000000000000e+00,1.000000000000000000e+00,1.000000000000000000e+00,1.000000000000000000e+00,1.000000000000000000e+00,1.000000000000000000e+00,1.000000000000000000e+00,1.000000000000000000e+00,1.000000000000000000e+00,1.000000000000000000e+00,1.000000000000000000e+00,1.000000000000000000e+00,1.000000000000000000e+00,1.000000000000000000e+00,1.000000000000000000e+00,1.000000000000000000e+00,1.000000000000000000e+00,1.000000000000000000e+00,1.000000000000000000e+00,1.000000000000000000e+00,1.000000000000000000e+00,1.000000000000000000e+00,1.000000000000000000e+00,1.000000000000000000e+00,1.000000000000000000e+00,1.000000000000000000e+00,1.000000000000000000e+00,1.000000000000000000e+00,1.000000000000000000e+00,1.000000000000000000e+00,1.000000000000000000e+00,1.000000000000000000e+00,9.686972618103026900e-01,9.370202064514160378e-01,9.073492050170898215e-01,8.794997215270996538e-01,8.533087730407714622e-01,8.286327362060547097e-01,8.053437232971191184e-01,7.833280086517333540e-01,7.624839305877685325e-01,7.427204608917236106e-01
6.197676658630371094e-01,6.354905605316162331e-01,6.520320415496826394e-01,6.694575786590576394e-01,6.878401756286620650e-01,7.072607040405273215e-01,7.278025150299072266e-01,7.495723724365234153e-01,7.726848125457763672e-01,7.972678184509277566e-01,8.234665870666504350e-01,8.514460563659668191e-01,8.814050674438476118e-01,9.135491371154784712e-01,9.481265068054198775e-01,9.854244232177734597e-01,1.000000000000000000e+00,1.000000000000000000e+00,1.000000000000000000e+00,1.000000000000000000e+00,3.826460361480713002e-01,3.722417831420898326e-01,3.719819068908691295e-01,3.781318664550781250e-01,1.000000000000000000e+00,1.000000000000000000e+00,1.000000000000000000e+00,3.456759929656982311e-01,3.407516479492187500e-01,3.409063577651977317e-01,3.425338983535766713e-01,1.000000000000000000e+00,1.000000000000000000e+00,1.000000000000000000e+00,1.000000000000000000e+00,1.000000000000000000e+00,1.000000000000000000e+00,1.000000000000000000e+00,1.000000000000000000e+00,1.000000000000000000e+00,1.000000000000000000e+00,1.000000000000000000e+00,1.000000000000000000e+00,1.000000000000000000e+00,1.000000000000000000e+00,1.000000000000000000e+00,1.000000000000000000e+00,1.000000000000000000e+00,1.000000000000000000e+00,1.000000000000000000e+00,1.000000000000000000e+00,1.000000000000000000e+00,1.000000000000000000e+00,1.000000000000000000e+00,1.000000000000000000e+00,1.000000000000000000e+00,1.000000000000000000e+00,1.000000000000000000e+00,1.000000000000000000e+00,1.000000000000000000e+00,1.000000000000000000e+00,1.000000000000000000e+00,1.000000000000000000e+00,1.000000000000000000e+00,1.000000000000000000e+00,1.000000000000000000e+00,1.000000000000000000e+00,1.000000000000000000e+00,1.000000000000000000e+00,1.000000000000000000e+00,9.687222480773926003e-01,9.370435714721679910e-01,9.073711395263671653e-01,8.795202255249023882e-01,8.533282279968261719e-01,8.286509513854980469e-01,8.053608894348144309e-01,7.833443164825439897e-01,7.624994754791259988e-01,7.427351474761962891e-01
6.197543144226074219e-01,6.354765415191649947e-01,6.520172595977783425e-01,6.694419860839844194e-01,6.878237247467040572e-01,7.072433471679687722e-01,7.277914524078369363e-01,7.495691776275634766e-01,7.726848125457763672e-01,7.972678184509277566e-01,8.234665870666504350e-01,8.514455795288086160e-01,8.813927650451660600e-01,9.135232925415038840e-01,9.480954170227050559e-01,9.853907585144042747e-01,1.000000000000000000e+00,1.000000000000000000e+00,1.000000000000000000e+00,1.000000000000000000e+00,3.857183694839477761e-01,3.744490861892700306e-01,3.743519783020019531e-01,3.803237199783325306e-01,1.000000000000000000e+00,1.000000000000000000e+00,1.000000000000000000e+00,3.475103855133056530e-01,3.427222728729247825e-01,3.423991918563842884e-01,3.471977710723876953e-01,1.000000000000000000e+00,1.000000000000000000e+00,1.000000000000000000e+00,1.000000000000000000e+00,1.000000000000000000e+00,1.000000000000000000e+00,1.000000000000000000e+00,1.000000000000000000e+00,1.000000000000000000e+00,1.000000000000000000e+00,1.000000000000000000e+00,1.000000000000000000e+00,1.000000000000000000e+00,1.000000000000000000e+00,1.000000000000000000e+00,1.000000000000000000e+00,1.000000000000000000e+00,1.000000000000000000e+00,1.000000000000000000e+00,1.000000000000000000e+00,1.000000000000000000e+00,1.000000000000000000e+00,1.000000000000000000e+00,1.000000000000000000e+00,1.000000000000000000e+00,1.000000000000000000e+00,1.000000000000000000e+00,1.000000000000000000e+00,1.000000000000000000e+00,1.000000000000000000e+00,1.000000000000000000e+00,1.000000000000000000e+00,1.000000000000000000e+00,1.000000000000000000e+00,1.000000000000000000e+00,1.000000000000000000e+00,1.000000000000000000e+00,1.000000000000000000e+00,1.000000000000000000e+00,9.687472343444823997e-01,9.370669364929199441e-01,9.073930740356445090e-01,8.795409202575683594e-01,8.533475875854492632e-01,8.286692619323730025e-01,8.053782463073730913e-01,7.833606719970702681e-01,7.625152111053467019e-01,7.427508831024169922e-01
6.197410106658935991e-01,6.354625225067138672e-01,6.520025253295897993e-01,6.694264411926269531e-01,6.878073215484619141e-01,7.072259426116943581e-01,7.277730464935302512e-01,7.495496749877930132e-01,7.726697444915771040e-01,7.972615718841552512e-01,8.234665870666504350e-01,8.514455795288086160e-01,8.813927650451660600e-01,9.135232925415038840e-01,9.480851173400879350e-01,9.853649139404296875e-01,1.000000000000000000e+00,1.000000000000000000e+00,1.000000000000000000e+00,1.000000000000000000e+00,3.857015609741211160e-01,3.782463788986206166e-01,3.784304380416870228e-01,3.849320411682128906e-01,1.000000000000000000e+00,1.000000000000000000e+00,1.000000000000000000e+00,3.491163969039917103e-01,3.448020458221435769e-01,3.444749832153320424e-01,3.488630294799804910e-01,1.000000000000000000e+00,1.000000000000000000e+00,1.000000000000000000e+00,1.000000000000000000e+00,1.000000000000000000e+00,1.000000000000000000e+00,1.000000000000000000e+00,1.000000000000000000e+00,1.000000000000000000e+00,1.000000000000000000e+00,1.000000000000000000e+00,1.000000000000000000e+00,1.000000000000000000e+00,1.000000000000000000e+00,1.000000000000000000e+00,1.000000000000000000e+00,1.000000000000000000e+00,1.000000000000000000e+00,1.000000000000000000e+00,1.000000000000000000e+00,1.000000000000000000e+00,1.000000000000000000e+00,1.000000000000000000e+00,1.000000000000000000e+00,1.000000000000000000e+00,1.000000000000000000e+00,1.000000000000000000e+00,1.000000000000000000e+00,1.000000000000000000e+00,1.000000000000000000e+00,1.000000000000000000e+00,1.000000000000000000e+00,1.000000000000000000e+00,1.000000000000000000e+00,1.000000000000000000e+00,1.000000000000000000e+00,1.000000000000000000e+00,1.000000000000000000e+00,1.000000000000000000e+00,9.687722206115723100e-01,9.370903015136718972e-01,9.074150085449218528e-01,8.795614242553710938e-01,8.533669471740722434e-01,8.286875724792480691e-01,8.053962707519530806e-01,7.833786964416503684e-01,7.625327110290527344e-01,7.427674770355224831e-01
6.197276592254639116e-01,6.354485034942627397e-01,6.519877433776855025e-01,6.694108963012694868e-01,6.877908706665039062e-01,7.072085857391356978e-01,7.277546882629394309e-01,7.495301723480224387e-01,7.726490020751952681e-01,7.972394943237304243e-01,8.234465599060059038e-01,8.514352798461913840e-01,8.813927650451660600e-01,9.135232925415038840e-01,9.480851173400879350e-01,9.853649139404296875e-01,1.000000000000000000e+00,1.000000000000000000e+00,1.000000000000000000e+00,3.971709489822387584e-01,3.892814159393310769e-01,3.853582143783569336e-01,3.880776882171630970e-01,1.000000000000000000e+00,1.000000000000000000e+00,1.000000000000000000e+00,1.000000000000000000e+00,3.493991613388061634e-01,3.452894449234008567e-01,3.451991319656372292e-01,3.495003938674926536e-01,1.000000000000000000e+00,1.000000000000000000e+00,1.000000000000000000e+00,1.000000000000000000e+00,1.000000000000000000e+00,1.000000000000000000e+00,1.000000000000000000e+00,1.000000000000000000e+00,1.000000000000000000e+00,1.000000000000000000e+00,1.000000000000000000e+00,1.000000000000000000e+00,1.000000000000000000e+00,1.000000000000000000e+00,1.000000000000000000e+00,1.000000000000000000e+00,1.000000000000000000e+00,1.000000000000000000e+00,1.000000000000000000e+00,1.000000000000000000e+00,1.000000000000000000e+00,1.000000000000000000e+00,1.000000000000000000e+00,1.000000000000000000e+00,1.000000000000000000e+00,1.000000000000000000e+00,1.000000000000000000e+00,1.000000000000000000e+00,1.000000000000000000e+00,1.000000000000000000e+00,1.000000000000000000e+00,1.000000000000000000e+00,1.000000000000000000e+00,1.000000000000000000e+00,1.000000000000000000e+00,1.000000000000000000e+00,1.000000000000000000e+00,1.000000000000000000e+00,1.000000000000000000e+00,9.687972068786621094e-01,9.371136665344238503e-01,9.074368476867675781e-01,8.795825004577636497e-01,8.533878326416015625e-01,8.287081718444824219e-01,8.054159164428711382e-01,7.833971500396728072e-01,7.625503063201903853e-01,7.427841663360595925e-01
6.197143554687499778e-01,6.354344844818115012e-01,6.519730091094970703e-01,6.693953514099121316e-01,6.877744674682617632e-01,7.071912288665771484e-01,7.277362823486328569e-01,7.495106697082519753e-01,7.726283073425292969e-01,7.972174167633057085e-01,8.234230995178222212e-01,8.514101028442382368e-01,8.813665390014648882e-01,9.135079383850097656e-01,9.480822563171387163e-01,9.853649139404296875e-01,1.000000000000000000e+00,1.000000000000000000e+00,1.000000000000000000e+00,4.017081737518310436e-01,3.957472324371337780e-01,3.936152219772338645e-01,4.051218509674072155e-01,1.000000000000000000e+00,1.000000000000000000e+00,1.000000000000000000e+00,1.000000000000000000e+00,3.489843130111694447e-01,3.447817087173462025e-01,3.448311567306518444e-01,3.485295057296752819e-01,1.000000000000000000e+00,1.000000000000000000e+00,1.000000000000000000e+00,1.000000000000000000e+00,1.000000000000000000e+00,1.000000000000000000e+00,1.000000000000000000e+00,1.000000000000000000e+00,1.000000000000000000e+00,1.000000000000000000e+00,1.000000000000000000e+00,1.000000000000000000e+00,1.000000000000000000e+00,1.000000000000000000e+00,1.000000000000000000e+00,1.000000000000000000e+00,1.000000000000000000e+00,1.000000000000000000e+00,1.000000000000000000e+00,1.000000000000000000e+00,1.000000000000000000e+00,1.000000000000000000e+00,1.000000000000000000e+00,1.000000000000000000e+00,1.000000000000000000e+00,1.000000000000000000e+00,1.000000000000000000e+00,1.000000000000000000e+00,1.000000000000000000e+00,1.000000000000000000e+00,1.000000000000000000e+00,1.000000000000000000e+00,1.000000000000000000e+00,1.000000000000000000e+00,1.000000000000000000e+00,1.000000000000000000e+00,1.000000000000000000e+00,1.000000000000000000e+00,1.000000000000000000e+00,9.688220977783202903e-01,9.371382713317870650e-01,9.074610710144043191e-01,8.796058654785156028e-01,8.534097671508789062e-01,8.287288665771483931e-01,8.054353713989257368e-01,7.834156036376953569e-01,7.625678062438965288e-01,7.428007602691650835e-01
6.197010040283202903e-01,6.354204654693603738e-01,6.519582271575927734e-01,6.693797588348389116e-01,6.877580165863037553e-01,7.071738719940185991e-01,7.277179241180420366e-01,7.494911670684814009e-01,7.726075649261474609e-01,7.971953868865966353e-01,8.233995437622070312e-01,8.513849258422852007e-01,8.813396453857421653e-01,9.134789466857909934e-01,9.480510711669921653e-01,9.853428840637207253e-01,1.000000000000000000e+00,1.000000000000000000e+00,1.000000000000000000e+00,4.065237045288085938e-01,4.005023956298828236e-01,4.010428428649902566e-01,1.000000000000000000e+00,1.000000000000000000e+00,1.000000000000000000e+00,1.000000000000000000e+00,1.000000000000000000e+00,3.485704421997070090e-01,3.442373991012573353e-01,3.444639444351196289e-01,3.475640296936035045e-01,1.000000000000000000e+00,1.000000000000000000e+00,1.000000000000000000e+00,1.000000000000000000e+00,1.000000000000000000e+00,1.000000000000000000e+00,1.000000000000000000e+00,1.000000000000000000e+00,1.000000000000000000e+00,1.000000000000000000e+00,1.000000000000000000e+00,1.000000000000000000e+00,1.000000000000000000e+00,1.000000000000000000e+00,1.000000000000000000e+00,1.000000000000000000e+00,1.000000000000000000e+00,1.000000000000000000e+00,1.000000000000000000e+00,1.000000000000000000e+00,1.000000000000000000e+00,1.000000000000000000e+00,1.000000000000000000e+00,1.000000000000000000e+00,1.000000000000000000e+00,1.000000000000000000e+00,1.000000000000000000e+00,1.000000000000000000e+00,1.000000000000000000e+00,1.000000000000000000e+00,1.000000000000000000e+00,1.000000000000000000e+00,1.000000000000000000e+00,1.000000000000000000e+00,1.000000000000000000e+00,1.000000000000000000e+00,1.000000000000000000e+00,1.000000000000000000e+00,1.000000000000000000e+00,9.688504219055176225e-01,9.371646881103515847e-01,9.074858665466308816e-01,8.796292304992675559e-01,8.534317016601562500e-01,8.287495613098144753e-01,8.054550170898437944e-01,7.834342002868652788e-01,7.625854015350341797e-01,7.428174018859863281e-01
6.196876525878906028e-01,6.354064464569091353e-01,6.519434928894043413e-01,6.693642139434814453e-01,6.877416133880615012e-01,7.071565151214599387e-01,7.276995182037353516e-01,7.494716644287109375e-01,7.725868701934814897e-01,7.971733093261719194e-01,8.233759880065918413e-01,8.513597488403320535e-01,8.813126564025879350e-01,9.134499549865722212e-01,9.480198860168457253e-01,9.853092193603515403e-01,1.000000000000000000e+00,1.000000000000000000e+00,1.000000000000000000e+00,4.115310192108154186e-01,4.054329395294189453e-01,4.083353996276855580e-01,1.000000000000000000e+00,1.000000000000000000e+00,1.000000000000000000e+00,1.000000000000000000e+00,1.000000000000000000e+00,3.481923103332519309e-01,3.436947584152221791e-01,3.439697980880737083e-01,3.471293210983276145e-01,1.000000000000000000e+00,1.000000000000000000e+00,1.000000000000000000e+00,1.000000000000000000e+00,1.000000000000000000e+00,1.000000000000000000e+00,1.000000000000000000e+00,1.000000000000000000e+00,1.000000000000000000e+00,1.000000000000000000e+00,1.000000000000000000e+00,1.000000000000000000e+00,1.000000000000000000e+00,1.000000000000000000e+00,1.000000000000000000e+00,1.000000000000000000e+00,1.000000000000000000e+00,1.000000000000000000e+00,1.000000000000000000e+00,1.000000000000000000e+00,1.000000000000000000e+00,1.000000000000000000e+00,1.000000000000000000e+00,1.000000000000000000e+00,1.000000000000000000e+00,1.000000000000000000e+00,1.000000000000000000e+00,1.000000000000000000e+00,1.000000000000000000e+00,1.000000000000000000e+00,1.000000000000000000e+00,1.000000000000000000e+00,1.000000000000000000e+00,1.000000000000000000e+00,1.000000000000000000e+00,1.000000000000000000e+00,1.000000000000000000e+00,1.000000000000000000e+00,1.000000000000000000e+00,9.688787460327148438e-01,9.371912002563476118e-01,9.075107574462890625e-01,8.796525001525878906e-01,8.534536361694335938e-01,8.287702560424804465e-01,8.054745674133301225e-01,7.834526538848877175e-01,7.626029014587402122e-01,7.428340911865234375e-01
6.196743488311767800e-01,6.353924274444580078e-01,6.519287109375000444e-01,6.693486690521239790e-01,6.877252101898193581e-01,7.071391582489013894e-01,7.276811122894286665e-01,7.494521617889404741e-01,7.725661277770996538e-01,7.971512317657470925e-01,8.233524322509765403e-01,8.513345718383789062e-01,8.812856674194335938e-01,9.134210586547851785e-01,9.479886054992675559e-01,9.852755546569824663e-01,1.000000000000000000e+00,1.000000000000000000e+00,1.000000000000000000e+00,4.169499397277832142e-01,4.106060028076171653e-01,4.153940677642822266e-01,1.000000000000000000e+00,1.000000000000000000e+00,1.000000000000000000e+00,1.000000000000000000e+00,1.000000000000000000e+00,3.481389999389648549e-01,3.432070016860961914e-01,3.434593677520751953e-01,3.472434043884277122e-01,1.000000000000000000e+00,1.000000000000000000e+00,1.000000000000000000e+00,1.000000000000000000e+00,1.000000000000000000e+00,1.000000000000000000e+00,1.000000000000000000e+00,1.000000000000000000e+00,1.000000000000000000e+00,1.000000000000000000e+00,1.000000000000000000e+00,1.000000000000000000e+00,1.000000000000000000e+00,1.000000000000000000e+00,1.000000000000000000e+00,1.000000000000000000e+00,1.000000000000000000e+00,1.000000000000000000e+00,1.000000000000000000e+00,1.000000000000000000e+00,1.000000000000000000e+00,1.000000000000000000e+00,1.000000000000000000e+00,1.000000000000000000e+00,1.000000000000000000e+00,1.000000000000000000e+00,1.000000000000000000e+00,1.000000000000000000e+00,1.000000000000000000e+00,1.000000000000000000e+00,1.000000000000000000e+00,1.000000000000000000e+00,1.000000000000000000e+00,1.000000000000000000e+00,1.000000000000000000e+00,1.000000000000000000e+00,1.000000000000000000e+00,1.000000000000000000e+00,1.000000000000000000e+00,9.689070701599120650e-01,9.372177124023437500e-01,9.075356483459472434e-01,8.796758651733398438e-01,8.534756660461425559e-01,8.287910461425781472e-01,8.054941177368164507e-01,7.834711551666260210e-01,7.626204013824462447e-01,7.428506851196289285e-01
6.196609973907470925e-01,6.353784084320068803e-01,6.519139766693115012e-01,6.693331241607666238e-01,6.877087593078613503e-01,7.071218013763427290e-01,7.276627540588378462e-01,7.494326591491698997e-01,7.725453853607178178e-01,7.971292018890381303e-01,8.233288764953613503e-01,8.513094902038573775e-01,8.812586784362792525e-01,9.133920669555664062e-01,9.479574203491211160e-01,9.852418899536132812e-01,1.000000000000000000e+00,1.000000000000000000e+00,1.000000000000000000e+00,4.228538513183593972e-01,4.179264068603515403e-01,4.233208179473876842e-01,1.000000000000000000e+00,1.000000000000000000e+00,1.000000000000000000e+00,1.000000000000000000e+00,1.000000000000000000e+00,3.485537052154540905e-01,3.429278612136840709e-01,3.430972814559936634e-01,3.482738256454467884e-01,1.000000000000000000e+00,1.000000000000000000e+00,1.000000000000000000e+00,1.000000000000000000e+00,1.000000000000000000e+00,1.000000000000000000e+00,1.000000000000000000e+00,1.000000000000000000e+00,1.000000000000000000e+00,1.000000000000000000e+00,1.000000000000000000e+00,1.000000000000000000e+00,1.000000000000000000e+00,1.000000000000000000e+00,1.000000000000000000e+00,1.000000000000000000e+00,1.000000000000000000e+00,1.000000000000000000e+00,1.000000000000000000e+00,1.000000000000000000e+00,1.000000000000000000e+00,1.000000000000000000e+00,1.000000000000000000e+00,1.000000000000000000e+00,1.000000000000000000e+00,1.000000000000000000e+00,1.000000000000000000e+00,1.000000000000000000e+00,1.000000000000000000e+00,1.000000000000000000e+00,1.000000000000000000e+00,1.000000000000000000e+00,1.000000000000000000e+00,1.000000000000000000e+00,1.000000000000000000e+00,1.000000000000000000e+00,1.000000000000000000e+00,1.000000000000000000e+00,1.000000000000000000e+00,9.689353942871093972e-01,9.372442245483398882e-01,9.075604438781738059e-01,8.796992301940917969e-01,8.534976005554198997e-01,8.288117408752441184e-01,8.055136680603027788e-01,7.834897041320800781e-01,7.626379966735840066e-01,7.428673744201660378e-01
6.196476459503174050e-01,6.353643894195556419e-01,6.518991947174072044e-01,6.693175315856934038e-01,6.876923561096190962e-01,7.071044445037841797e-01,7.276443481445312722e-01,7.494131565093994363e-01,7.725246906280517356e-01,7.971071243286133035e-01,8.233053207397460493e-01,8.512843132019043413e-01,8.812317848205566406e-01,9.133630752563476340e-01,9.479262351989745650e-01,9.852081298828124778e-01,1.000000000000000000e+00,1.000000000000000000e+00,1.000000000000000000e+00,4.290603637695312722e-01,4.248382568359375111e-01,1.000000000000000000e+00,1.000000000000000000e+00,1.000000000000000000e+00,1.000000000000000000e+00,1.000000000000000000e+00,1.000000000000000000e+00,1.000000000000000000e+00,3.428474426269531028e-01,3.427359342575073131e-01,3.509167909622192272e-01,1.000000000000000000e+00,1.000000000000000000e+00,1.000000000000000000e+00,1.000000000000000000e+00,1.000000000000000000e+00,1.000000000000000000e+00,1.000000000000000000e+00,1.000000000000000000e+00,1.000000000000000000e+00,1.000000000000000000e+00,1.000000000000000000e+00,1.000000000000000000e+00,1.000000000000000000e+00,1.000000000000000000e+00,1.000000000000000000e+00,1.000000000000000000e+00,1.000000000000000000e+00,1.000000000000000000e+00,1.000000000000000000e+00,1.000000000000000000e+00,1.000000000000000000e+00,1.000000000000000000e+00,1.000000000000000000e+00,1.000000000000000000e+00,1.000000000000000000e+00,1.000000000000000000e+00,1.000000000000000000e+00,1.000000000000000000e+00,1.000000000000000000e+00,1.000000000000000000e+00,1.000000000000000000e+00,1.000000000000000000e+00,1.000000000000000000e+00,1.000000000000000000e+00,1.000000000000000000e+00,1.000000000000000000e+00,1.000000000000000000e+00,1.000000000000000000e+00,1.000000000000000000e+00,9.689636230468750000e-01,9.372706413269042969e-01,9.075852394104003684e-01,8.797224998474121316e-01,8.535195350646972434e-01,8.288324356079102007e-01,8.055332183837891069e-01,7.835082054138183816e-01,7.626554965972900391e-01,7.428839683532715288e-01
6.196343421936034712e-01,6.353503704071045144e-01,6.518844604492187722e-01,6.693019866943359375e-01,6.876759529113769531e-01,7.070870399475097656e-01,7.276259899139404519e-01,7.493936538696288618e-01,7.725039482116698997e-01,7.970850467681884766e-01,8.232818603515624778e-01,8.512591361999511941e-01,8.812047958374022993e-01,9.133340835571288618e-01,9.478950500488281250e-01,9.709985733032227007e-01,9.707569122314453347e-01,9.705153465270995872e-01,9.702738761901855691e-01,4.367642402648925781e-01,4.342471599578857644e-01,9.695502281188964622e-01,9.693092346191406472e-01,9.690683364868164507e-01,9.688276290893554910e-01,9.685870170593261497e-01,9.683465003967285378e-01,9.681061744689941628e-01,3.429491043090820424e-01,3.423753738403320090e-01,3.557589054107666016e-01,9.671457290649414507e-01,9.669058799743652788e-01,9.666663169860839622e-01,9.664267539978027566e-01,9.661872863769531694e-01,9.659480094909668191e-01,9.657087326049804688e-01,9.654697418212890847e-01,9.652307510375977007e-01,9.649918556213379350e-01,9.647532463073730247e-01,9.645145416259766069e-01,9.642760276794433150e-01,9.640377044677734819e-01,9.637994766235351562e-01,9.635613441467285600e-01,9.633233070373534712e-01,9.630853652954101118e-01,9.628476142883301003e-01,9.626099586486815962e-01,9.623723983764648215e-01,9.621350288391112837e-01,9.618976593017578569e-01,9.616604804992675559e-01,9.614233970642089844e-01,9.611864089965820312e-01,9.609496116638183150e-01,9.607129096984863281e-01,9.604762077331543413e-01,9.602397918701172097e-01,9.600033760070800781e-01,9.597670555114745650e-01,9.595310211181640181e-01,9.592948913574218528e-01,9.590589523315429243e-01,9.588232040405273438e-01,9.585875511169433816e-01,9.583519935607910378e-01,9.581165313720703125e-01,9.578811645507812056e-01,9.372971534729004350e-01,9.076101303100585493e-01,8.797458648681640847e-01,8.535415649414062056e-01,8.288531303405761719e-01,8.055528640747070535e-01,7.835266590118408203e-01,7.626730442047119363e-01,7.429006099700927734e-01
6.196209907531737837e-01,6.353363513946532759e-01,6.518697261810302290e-01,6.692864418029784712e-01,6.876595020294189453e-01,7.070696830749512163e-01,7.276075839996337669e-01,7.493741512298583984e-01,7.542423248291015847e-01,7.540965557098389116e-01,7.539507389068603738e-01,7.538050174713134544e-01,7.536592960357666460e-01,7.535136699676513450e-01,7.533680915832519087e-01,7.532226562499999556e-01,7.530772209167480025e-01,7.529317855834960493e-01,7.527864456176758257e-01,4.359690189361572488e-01,4.334620475769043191e-01,7.523508071899414062e-01,7.522056579589844194e-01,7.520606040954589400e-01,7.519155502319335715e-01,7.517705917358398215e-01,7.516257762908935547e-01,7.514809608459472878e-01,3.433241367340088002e-01,3.420155286788940652e-01,7.510467052459717241e-01,7.509021759033203125e-01,7.507575988769531472e-01,7.506130695343017356e-01,7.504686355590820535e-01,7.503242015838622603e-01,7.501798629760741965e-01,7.500356674194336160e-01,7.498914241790771706e-01,7.497472286224364790e-01,7.496031284332275169e-01,7.494590282440185547e-01,7.493151187896728294e-01,7.491711616516113503e-01,7.490272521972656250e-01,7.488833904266357644e-01,7.487395763397216575e-01,7.485958576202392800e-01,7.484522342681885210e-01,7.483086109161376509e-01,7.481650352478027566e-01,7.480215549468993697e-01,7.478780746459960938e-01,7.477347373962401900e-01,7.475914001464843972e-01,7.474481105804443581e-01,7.473048210144043191e-01,7.471616744995117632e-01,7.470185279846190962e-01,7.468755245208740234e-01,7.467325210571289507e-01,7.465895175933837669e-01,7.464466094970703125e-01,7.463037490844726118e-01,7.461610317230225053e-01,7.460182666778564231e-01,7.458755493164062056e-01,7.457329273223877175e-01,7.455903530120849831e-01,7.454477787017822488e-01,7.453053951263427512e-01,7.451629638671875000e-01,7.450206279754638672e-01,7.448782920837402344e-01,7.447360038757324663e-01,7.445939064025879350e-01,7.444517612457275391e-01,7.443096637725830078e-01,7.441676139831543413e-01,7.429172992706298828e-01
6.166964054107666460e-01,6.165988922119141069e-01,6.165014743804931863e-01,6.164040088653564009e-01,6.163065910339355913e-01,6.162091732025146706e-01,6.161118030548096147e-01,6.160144805908203125e-01,6.159172058105468750e-01,6.158199310302734375e-01,6.157227516174316184e-01,6.156255245208740456e-01,6.155283451080322266e-01,6.154312133789062722e-01,6.153340816497803178e-01,6.152369976043701172e-01,6.151400089263916460e-01,6.150429725646973100e-01,6.149459838867187278e-01,4.318610191345214622e-01,4.308872222900390625e-01,4.339882850646972767e-01,6.145583629608154519e-01,6.144615173339843528e-01,6.143647193908691184e-01,6.142679214477538840e-01,6.141711711883545144e-01,6.140745162963867632e-01,3.461453914642333984e-01,3.447237730026245228e-01,6.137845516204833984e-01,6.136879444122314009e-01,6.135913848876952681e-01,6.134949207305908647e-01,6.133984088897704856e-01,6.133018970489502175e-01,6.132054805755615678e-01,6.131090641021728072e-01,6.130127429962157759e-01,6.129163742065429910e-01,6.128200531005859597e-01,6.127237796783446822e-01,6.126275062561035156e-01,6.125312805175781028e-01,6.124351501464844194e-01,6.123389720916747603e-01,6.122427940368652122e-01,6.121467113494872825e-01,6.120506286621093528e-01,6.119546413421630415e-01,6.118586063385009766e-01,6.117626190185546653e-01,6.116666316986083540e-01,6.115706920623779075e-01,6.114748001098633257e-01,6.113790035247802512e-01,6.112831592559814231e-01,6.111873149871825950e-01,6.110915660858153853e-01,6.109958171844482866e-01,6.109001159667968306e-01,6.108044624328613503e-01,6.107087612152100053e-01,6.106131553649902788e-01,6.105175495147705522e-01,6.104219913482665794e-01,6.103264808654784712e-01,6.102309703826904741e-01,6.101355075836181197e-01,6.100400447845458762e-01,6.099446296691894975e-01,6.098492622375488725e-01,6.097538948059082475e-01,6.096585750579833762e-01,6.095633029937743697e-01,6.094680309295654741e-01,6.093727588653564675e-01,6.092776298522949441e-01,6.091824531555175559e-01,6.090872764587402788e-01
5.210220336914062056e-01,5.209524631500244141e-01,5.208828926086426225e-01,5.208133220672607200e-01,5.207437515258789285e-01,5.206742286682128906e-01,5.206047058105468528e-01,5.205352306365966797e-01,5.204657554626465066e-01,5.203962802886963335e-01,5.203268527984619141e-01,5.202574253082274947e-01,5.201880455017089400e-01,5.201186656951903853e-01,5.200493335723876953e-01,5.199799537658691406e-01,5.199106216430664507e-01,5.198413848876952681e-01,5.197720527648925781e-01,4.278251171112060769e-01,4.279281616210937611e-01,4.296143054962158203e-01,5.194951057434081809e-01,5.194259166717529741e-01,5.193567276000976562e-01,5.192875862121582031e-01,5.192184448242187500e-01,5.191493034362792969e-01,3.439727783203124778e-01,3.411022901535034069e-01,5.189420700073241743e-01,5.188730239868164507e-01,5.188039779663086160e-01,5.187349796295166460e-01,5.186660289764404297e-01,5.185970306396484597e-01,5.185280799865722434e-01,5.184591293334961382e-01,5.183902263641357866e-01,5.183213233947754350e-01,5.182524681091308372e-01,5.181835651397704856e-01,5.181147575378417525e-01,5.180459022521972656e-01,5.179770946502685325e-01,5.179083347320556641e-01,5.178395748138427956e-01,5.177708148956299272e-01,5.177020549774169478e-01,5.176333427429199441e-01,5.175646781921386941e-01,5.174959659576415794e-01,5.174273014068603294e-01,5.173586845397949441e-01,5.172900199890136941e-01,5.172214031219481978e-01,5.171528816223144309e-01,5.170843124389647993e-01,5.170157432556152788e-01,5.169471740722656472e-01,5.168786525726318803e-01,5.168101787567138672e-01,5.167417049407958540e-01,5.166732311248779519e-01,5.166048049926758035e-01,5.165363788604736550e-01,5.164679527282715066e-01,5.163996219635009766e-01,5.163312435150146928e-01,5.162628650665282981e-01,5.161945343017577681e-01,5.161262035369873491e-01,5.160578727722168191e-01,5.159896373748779075e-01,5.159213542938232422e-01,5.158531188964843306e-01,5.157848834991455300e-01,5.157166957855224831e-01,5.156485080718994363e-01,5.155803203582763894e-01
4.510466098785400613e-01,4.509944438934326283e-01,4.509423255920410045e-01,4.508902072906494363e-01,4.508380413055420033e-01,4.507859706878661887e-01,4.507338523864746205e-01,4.506817340850829967e-01,4.506296634674072377e-01,4.505776405334472878e-01,4.505255699157714733e-01,4.504735469818115234e-01,4.504214763641357644e-01,4.503694534301757590e-01,4.503174781799316184e-01,4.502654552459716686e-01,4.502134799957275280e-01,4.501615047454833873e-01,4.501095294952392467e-01,4.500576019287109153e-01,4.500056743621826394e-01,4.499537467956543080e-01,4.499018192291259766e-01,4.498499393463134544e-01,4.497980594635009877e-01,4.497461795806884655e-01,4.496943473815918080e-01,4.496424674987792858e-01,3.396005392074584739e-01,3.316075325012207142e-01,3.383470296859741322e-01,4.494352340698242188e-01,4.493834018707275613e-01,4.493316173553466575e-01,4.492798805236816184e-01,4.492281436920165794e-01,4.491764068603515403e-01,4.491246700286865012e-01,4.490729331970214622e-01,4.490211963653564231e-01,4.489695072174072488e-01,4.489178657531738281e-01,4.488661766052245983e-01,4.488145351409912331e-01,4.487628459930420033e-01,4.487112045288085826e-01,4.486596107482910267e-01,4.486080169677734153e-01,4.485564231872558594e-01,4.485048294067383035e-01,4.484532356262206920e-01,4.484016895294189453e-01,4.483501434326171986e-01,4.482985973358154519e-01,4.482470512390136497e-01,4.481955528259277122e-01,4.481440544128417747e-01,4.480925559997558372e-01,4.480410575866698997e-01,4.479896068572998269e-01,4.479381561279296986e-01,4.478867053985595703e-01,4.478352546691894420e-01,4.477838516235351785e-01,4.477324485778808594e-01,4.476810455322265403e-01,4.476296424865722767e-01,4.475782871246337669e-01,4.475269317626953125e-01,4.474755764007568581e-01,4.474242210388183483e-01,4.473729133605957031e-01,4.473215579986572488e-01,4.472702503204345481e-01,4.472189903259277122e-01,4.471677303314208762e-01,4.471164226531982311e-01,4.470651626586913951e-01,4.470139026641845592e-01,4.469627380371093972e-01
3.976417064666747936e-01,3.976011514663696511e-01,3.975606203079223855e-01,3.975201368331909291e-01,3.974795818328857311e-01,3.974390983581542747e-01,3.973985671997070090e-01,3.973581075668334850e-01,3.973175764083862194e-01,3.972771406173706277e-01,3.972366809844970481e-01,3.971961975097656472e-01,3.971557617187500000e-01,3.971153020858764759e-01,3.970748901367187611e-01,3.970344781875610463e-01,3.969940423965453991e-01,3.969536066055298074e-01,3.969132184982299694e-01,3.968728065490722545e-01,3.968324422836303489e-01,3.967920780181884988e-01,3.967516899108886608e-01,3.967113494873046875e-01,3.966709613800049050e-01,3.966306447982788086e-01,3.965903282165527122e-01,3.965499639511108620e-01,3.437686204910278542e-01,3.176722764968872292e-01,3.200437545776367299e-01,3.264399290084838978e-01,3.963484525680541770e-01,3.963082075119018777e-01,3.962679147720337136e-01,3.962276697158813588e-01,3.961873769760131947e-01,3.961471557617187722e-01,3.961069345474242942e-01,3.960666894912719949e-01,3.960264682769775169e-01,3.959862470626830944e-01,3.959460496902466042e-01,3.959058761596679910e-01,3.958656549453735130e-01,3.958255052566528320e-01,3.957853078842162864e-01,3.957451581954956055e-01,3.957050085067749245e-01,3.956648349761963113e-01,3.956247329711913840e-01,3.955845594406127708e-01,3.955444574356078991e-01,3.955043554306030273e-01,3.954642295837402233e-01,3.954241514205932839e-01,3.953840255737304799e-01,3.953439712524414174e-01,3.953038692474365456e-01,3.952638149261474831e-01,3.952237844467162975e-01,3.951837062835693581e-01,3.951436758041381725e-01,3.951036214828491100e-01,3.950636148452758567e-01,3.950236082077026589e-01,3.949835777282714733e-01,3.949435949325561523e-01,3.949035644531250222e-01,3.948636054992675781e-01,3.948236465454101340e-01,3.947836637496948131e-01,3.947437047958374245e-01,3.947037220001220481e-01,3.946638107299804688e-01,3.946238994598388894e-01,3.945839405059814453e-01,3.945440292358398660e-01,3.945040941238403542e-01,3.944642066955566517e-01
3.555444478988647461e-01,3.555120468139648660e-01,3.554796457290649303e-01,3.554472208023071178e-01,3.554148435592651145e-01,3.553824424743652344e-01,3.553500890731811634e-01,3.553176879882812278e-01,3.552853345870971569e-01,3.552529811859130859e-01,3.552206039428710826e-01,3.551882505416870117e-01,3.551558971405029408e-01,3.551235675811767467e-01,3.550912141799926758e-01,3.550588846206664817e-01,3.550265789031982200e-01,3.549942493438720814e-01,3.549619436264038197e-01,3.549296140670776256e-01,3.548973083496093639e-01,3.548650264739990345e-01,3.548327445983886497e-01,3.548004388809203880e-01,3.547681808471679910e-01,3.547358989715576061e-01,3.547036409378051536e-01,3.546714067459106334e-01,3.546391248703003041e-01,3.239879369735717551e-01,3.545746326446533314e-01,3.545423984527588113e-01,3.545101642608642356e-01,3.544779539108276478e-01,3.544457435607910045e-01,3.544135093688964844e-01,3.543813228607177734e-01,3.543490886688232533e-01,3.543169260025024192e-01,3.542847394943237083e-01,3.542525291442871205e-01,3.542203664779662864e-01,3.541881799697875755e-01,3.541560411453247292e-01,3.541238784790038951e-01,3.540917158126831166e-01,3.540595769882202148e-01,3.540274143218994363e-01,3.539952993392944114e-01,3.539631843566894420e-01,3.539310216903686634e-01,3.538989305496215709e-01,3.538667917251586692e-01,3.538347005844116322e-01,3.538025856018066628e-01,3.537704944610595703e-01,3.537384271621704102e-01,3.537063121795654408e-01,3.536742448806762806e-01,3.536421537399291881e-01,3.536101102828979603e-01,3.535780668258666770e-01,3.535459995269775169e-01,3.535139560699462891e-01,3.534818887710571289e-01,3.534498691558837780e-01,3.534178495407104270e-01,3.533858060836791992e-01,3.533538103103637806e-01,3.533217668533324973e-01,3.532897710800170787e-01,3.532577991485595925e-01,3.532257795333862416e-01,3.531937837600708230e-01,3.531617879867553489e-01,3.531298160552978627e-01,3.530978441238403209e-01,3.530658960342407116e-01,3.530339479446411022e-01,3.530019760131836160e-01
3.215073347091674805e-01,3.214808225631713978e-01,3.214543342590331920e-01,3.214278459548950417e-01,3.214013576507568359e-01,3.213748693466186301e-01,3.213483810424804799e-01,3.213219165802002064e-01,3.212954282760620006e-01,3.212689638137817272e-01,3.212425231933593861e-01,3.212160348892211803e-01,3.211895942687988392e-01,3.211631298065185658e-01,3.211366891860961692e-01,3.211102485656738281e-01,3.210838079452514870e-01,3.210573911666870228e-01,3.210309267044067494e-01,3.210045099258422852e-01,3.209780931472778209e-01,3.209516763687133567e-01,3.209252834320068248e-01,3.208988428115844838e-01,3.208724260330200195e-01,3.208460569381713645e-01,3.208196401596069558e-01,3.207932472229003684e-01,3.207668781280517689e-01,3.207404851913452370e-01,3.207141160964965820e-01,3.206877231597900502e-01,3.206613779067993275e-01,3.206349849700927956e-01,3.206086397171020730e-01,3.205822944641113503e-01,3.205559253692626953e-01,3.205296039581299050e-01,3.205032348632812500e-01,3.204769134521484597e-01,3.204505920410156139e-01,3.204242467880248912e-01,3.203979253768921009e-01,3.203715801239013783e-01,3.203452825546264648e-01,3.203189849853515514e-01,3.202926635742187611e-01,3.202663660049438477e-01,3.202400445938110574e-01,3.202137708663940208e-01,3.201874971389770397e-01,3.201611995697021262e-01,3.201349258422851451e-01,3.201086282730102317e-01,3.200823783874511830e-01,3.200560808181762695e-01,3.200298309326171653e-01,3.200035810470581166e-01,3.199773073196411355e-01,3.199510574340820312e-01,3.199247837066650502e-01,3.198985576629638783e-01,3.198723316192627064e-01,3.198460817337036022e-01,3.198198795318603627e-01,3.197936296463012584e-01,3.197674036026000866e-01,3.197412014007568470e-01,3.197149753570556752e-01,3.196887731552123801e-01,3.196625709533691406e-01,3.196363687515259011e-01,3.196101665496826061e-01,3.195839881896972434e-01,3.195578098297119363e-01,3.195316076278686412e-01,3.195054292678832786e-01,3.194792509078979714e-01,3.194530963897704856e-01,3.194269418716430553e-01
2.934177637100219838e-01,2.933956861495971569e-01,2.933736324310302623e-01,2.933515548706054910e-01,2.933295011520385964e-01,2.933074235916137695e-01,2.932853698730468750e-01,2.932632923126220481e-01,2.932412624359130859e-01,2.932192087173461914e-01,2.931971549987792969e-01,2.931751251220703347e-01,2.931530714035034402e-01,2.931310415267944225e-01,2.931089878082275280e-01,2.930869817733764426e-01,2.930649757385254128e-01,2.930429220199585183e-01,2.930209159851074330e-01,2.929988861083984153e-01,2.929768800735473855e-01,2.929548740386963002e-01,2.929328680038452148e-01,2.929108858108520619e-01,2.928888559341430442e-01,2.928668737411498912e-01,2.928448677062988059e-01,2.928228616714477761e-01,2.928009033203125000e-01,2.927788972854614147e-01,2.927569389343261941e-01,2.927349567413329856e-01,2.927129745483398326e-01,2.926910161972046120e-01,2.926690340042114036e-01,2.926470756530761830e-01,2.926251411437988392e-01,2.926031589508056863e-01,2.925812244415283425e-01,2.925592660903930664e-01,2.925373315811157227e-01,2.925153970718383789e-01,2.924934387207031028e-01,2.924715042114257590e-01,2.924495697021484153e-01,2.924276590347290039e-01,2.924057245254516602e-01,2.923837900161743164e-01,2.923618793487549050e-01,2.923399448394775613e-01,2.923180580139160267e-01,2.922961235046386830e-01,2.922742366790771484e-01,2.922523498535156139e-01,2.922304391860962025e-01,2.922085523605346680e-01,2.921866416931152566e-01,2.921647548675537220e-01,2.921428680419921875e-01,2.921209812164306530e-01,2.920991182327270508e-01,2.920772075653076394e-01,2.920553445816039817e-01,2.920335054397583119e-01,2.920116186141967773e-01,2.919897556304931752e-01,2.919678926467895730e-01,2.919460296630859153e-01,2.919241905212402455e-01,2.919023275375366433e-01,2.918804883956909180e-01,2.918586254119873158e-01,2.918368101119995228e-01,2.918149471282959206e-01,2.917931318283081277e-01,2.917713165283203347e-01,2.917494535446166770e-01,2.917276620864868164e-01,2.917058229446410911e-01,2.916840076446532981e-01
2.698420763015746959e-01,2.698234081268310325e-01,2.698047399520874245e-01,2.697860956192016380e-01,2.697674036026000977e-01,2.697487592697143666e-01,2.697300910949707031e-01,2.697114467620849720e-01,2.696927785873413086e-01,2.696741342544555775e-01,2.696555137634277233e-01,2.696368455886840598e-01,2.696182250976562611e-01,2.695995569229125977e-01,2.695809364318847434e-01,2.695623159408569447e-01,2.695436716079712136e-01,2.695250511169433594e-01,2.695064067840576283e-01,2.694877862930297741e-01,2.694691658020019753e-01,2.694505691528320535e-01,2.694319486618041992e-01,2.694133281707763450e-01,2.693947315216064231e-01,2.693761110305786244e-01,2.693575143814087025e-01,2.693388938903808483e-01,2.693202972412109264e-01,2.693017005920410045e-01,2.692831039428710826e-01,2.692645072937011608e-01,2.692459106445312389e-01,2.692273139953613170e-01,2.692087411880493275e-01,2.691901445388794056e-01,2.691715717315673606e-01,2.691529989242553711e-01,2.691344261169433816e-01,2.691158533096313366e-01,2.690972805023193470e-01,2.690787076950073020e-01,2.690601587295532449e-01,2.690415859222411998e-01,2.690230369567870872e-01,2.690044641494750977e-01,2.689859151840209850e-01,2.689673423767089955e-01,2.689488172531128152e-01,2.689302682876587025e-01,2.689117193222045898e-01,2.688931941986084095e-01,2.688746213912963645e-01,2.688560962677001842e-01,2.688375711441040039e-01,2.688190460205078236e-01,2.688005208969116433e-01,2.687819719314575306e-01,2.687634706497192272e-01,2.687449455261230469e-01,2.687264204025268666e-01,2.687079191207885631e-01,2.686893939971923828e-01,2.686708927154540794e-01,2.686523914337158314e-01,2.686338663101196511e-01,2.686153650283813477e-01,2.685968637466430442e-01,2.685783624649047963e-01,2.685598611831664928e-01,2.685413599014282449e-01,2.685228824615478738e-01,2.685043811798095703e-01,2.684859037399291992e-01,2.684674263000488281e-01,2.684489488601684570e-01,2.684304714202880859e-01,2.684119939804077148e-01,2.683935165405273438e-01,2.683750391006469727e-01
2.497731685638427679e-01,2.497571945190429632e-01,2.497412204742431585e-01,2.497251987457275446e-01,2.497092247009277399e-01,2.496932268142700306e-01,2.496772527694702259e-01,2.496612548828124889e-01,2.496452808380126842e-01,2.496293067932128795e-01,2.496133089065551702e-01,2.495973587036132701e-01,2.495813608169555609e-01,2.495653867721557562e-01,2.495494127273559515e-01,2.495334625244140514e-01,2.495174884796142467e-01,2.495015144348144420e-01,2.494855642318725697e-01,2.494695901870727650e-01,2.494536399841308649e-01,2.494376897811889648e-01,2.494217395782470648e-01,2.494057893753051647e-01,2.493898391723632924e-01,2.493738889694213923e-01,2.493579387664794922e-01,2.493420124053954967e-01,2.493260622024536244e-01,2.493101119995117243e-01,2.492941856384277288e-01,2.492782354354858287e-01,2.492623090744018610e-01,2.492463827133178655e-01,2.492304325103759655e-01,2.492145061492919977e-01,2.491985797882080023e-01,2.491826772689819391e-01,2.491667509078979437e-01,2.491508245468139759e-01,2.491349220275878851e-01,2.491189956665039174e-01,2.491030931472778265e-01,2.490871667861938588e-01,2.490712642669677679e-01,2.490553617477417048e-01,2.490394353866577093e-01,2.490235567092895508e-01,2.490076303482055553e-01,2.489917516708373968e-01,2.489758491516113337e-01,2.489599466323852428e-01,2.489440679550170843e-01,2.489281654357910212e-01,2.489122867584228627e-01,2.488964080810546764e-01,2.488805055618286133e-01,2.488646507263183594e-01,2.488487482070922963e-01,2.488328695297241100e-01,2.488170146942138561e-01,2.488011360168456976e-01,2.487852573394775391e-01,2.487693786621093806e-01,2.487535238265991266e-01,2.487376451492309681e-01,2.487217903137207142e-01,2.487059354782104603e-01,2.486900568008422741e-01,2.486742019653320201e-01,2.486583471298217662e-01,2.486424922943115123e-01,2.486266613006591908e-01,2.486108064651489369e-01,2.485949516296386830e-01,2.485790967941284291e-01,2.485632658004760798e-01,2.485474348068237305e-01,2.485315799713134766e-01,2.485157489776611273e-01
2.324828147888183538e-01,2.324689388275146540e-01,2.324550867080688588e-01,2.324412584304809681e-01,2.324273824691772405e-01,2.324135303497314453e-01,2.323996782302856501e-01,2.323858261108398549e-01,2.323719739913940319e-01,2.323581457138061412e-01,2.323443174362182506e-01,2.323304653167724554e-01,2.323166131973266602e-01,2.323027610778808649e-01,2.322889328002929743e-01,2.322751045227050837e-01,2.322612762451171931e-01,2.322474479675293024e-01,2.322335958480835072e-01,2.322197914123535212e-01,2.322059392929077259e-01,2.321921348571777399e-01,2.321783065795898493e-01,2.321644783020019587e-01,2.321506738662719727e-01,2.321368455886840820e-01,2.321230173110961914e-01,2.321091890335083008e-01,2.320953845977783148e-01,2.320815801620483287e-01,2.320677757263183705e-01,2.320539712905883845e-01,2.320401430130004938e-01,2.320263385772705078e-01,2.320125341415405218e-01,2.319987297058105358e-01,2.319849491119384821e-01,2.319711446762084961e-01,2.319573163986206055e-01,2.319435358047485241e-01,2.319297313690185658e-01,2.319159507751464844e-01,2.319021463394164984e-01,2.318883657455444447e-01,2.318745613098144587e-01,2.318607807159423773e-01,2.318470001220703236e-01,2.318332195281982422e-01,2.318194389343261608e-01,2.318056583404541071e-01,2.317918777465820257e-01,2.317781209945678766e-01,2.317643165588378906e-01,2.317505598068237416e-01,2.317367792129516602e-01,2.317230224609375111e-01,2.317092657089233343e-01,2.316954851150512806e-01,2.316817283630371038e-01,2.316679477691650502e-01,2.316541910171508734e-01,2.316404342651367243e-01,2.316266775131225475e-01,2.316129207611083984e-01,2.315991640090942494e-01,2.315854072570800726e-01,2.315716505050659235e-01,2.315579175949096791e-01,2.315441608428955023e-01,2.315304279327392578e-01,2.315166711807251088e-01,2.315029144287109319e-01,2.314891815185546875e-01,2.314754486083984431e-01,2.314617156982421986e-01,2.314479827880859264e-01,2.314342260360717773e-01,2.314205169677734375e-01,2.314067840576171931e-01,2.313930511474609486e-01
2.174312591552734486e-01,2.174191474914550781e-01,2.174070358276367076e-01,2.173949003219604603e-01,2.173827886581420898e-01,2.173706769943237194e-01,2.173585653305053766e-01,2.173464298248291016e-01,2.173343420028686634e-01,2.173222303390502930e-01,2.173101186752319225e-01,2.172980070114135798e-01,2.172858953475952093e-01,2.172737836837768666e-01,2.172616720199584961e-01,2.172495841979980580e-01,2.172374725341796875e-01,2.172253847122192494e-01,2.172132730484008789e-01,2.172011852264404408e-01,2.171890974044799749e-01,2.171769857406616322e-01,2.171648979187011663e-01,2.171528100967407282e-01,2.171406984329223577e-01,2.171286344528198242e-01,2.171165227890014537e-01,2.171044588088989202e-01,2.170923471450805775e-01,2.170802831649780162e-01,2.170681953430175781e-01,2.170561075210571400e-01,2.170440435409545787e-01,2.170319557189941406e-01,2.170198678970337025e-01,2.170078039169311412e-01,2.169957160949707031e-01,2.169836521148681696e-01,2.169715881347656361e-01,2.169595003128051702e-01,2.169474363327026367e-01,2.169353723526001032e-01,2.169232845306396373e-01,2.169112205505371038e-01,2.168991565704345703e-01,2.168870925903320368e-01,2.168750286102295033e-01,2.168629884719848744e-01,2.168509244918823131e-01,2.168388605117797796e-01,2.168267965316772461e-01,2.168147563934326172e-01,2.168026924133300837e-01,2.167906522750854548e-01,2.167785882949829213e-01,2.167665481567382924e-01,2.167545080184936634e-01,2.167424678802490345e-01,2.167304039001464733e-01,2.167183637619018444e-01,2.167063236236572155e-01,2.166942834854125866e-01,2.166822195053100530e-01,2.166702032089233287e-01,2.166581630706786998e-01,2.166461229324340709e-01,2.166340827941894420e-01,2.166220426559448131e-01,2.166100263595581166e-01,2.165980100631713923e-01,2.165859699249267634e-01,2.165739297866821345e-01,2.165619134902954102e-01,2.165498733520507812e-01,2.165378570556640569e-01,2.165258407592773326e-01,2.165138244628906361e-01,2.165017843246460072e-01,2.164897680282592829e-01,2.164777755737304632e-01
2.042101860046386663e-01,2.041994810104370006e-01,2.041887998580932673e-01,2.041780948638916016e-01,2.041674137115478405e-01,2.041567325592041071e-01,2.041460275650024414e-01,2.041353464126586803e-01,2.041246652603149470e-01,2.041139841079711859e-01,2.041033029556274525e-01,2.040926218032836914e-01,2.040819406509399303e-01,2.040712594985961970e-01,2.040605783462524359e-01,2.040498971939087025e-01,2.040392160415649414e-01,2.040285587310791127e-01,2.040178775787353516e-01,2.040071964263915905e-01,2.039965391159057617e-01,2.039858579635620006e-01,2.039752006530761719e-01,2.039645195007324108e-01,2.039538621902465820e-01,2.039431810379028209e-01,2.039325237274169922e-01,2.039218664169311634e-01,2.039112091064453069e-01,2.039005517959594782e-01,2.038898706436157171e-01,2.038792133331298884e-01,2.038685560226440319e-01,2.038578987121582031e-01,2.038472414016723744e-01,2.038365840911865179e-01,2.038259506225585938e-01,2.038152933120727650e-01,2.038046360015869085e-01,2.037939786911010798e-01,2.037833452224731556e-01,2.037726879119872991e-01,2.037620306015014704e-01,2.037513971328735463e-01,2.037407398223876898e-01,2.037301063537597656e-01,2.037194490432739369e-01,2.037088155746459850e-01,2.036981821060180609e-01,2.036875247955322321e-01,2.036768913269043080e-01,2.036662578582763561e-01,2.036556243896484319e-01,2.036449909210205078e-01,2.036343574523925837e-01,2.036237239837646595e-01,2.036130905151367076e-01,2.036024570465087835e-01,2.035918235778808594e-01,2.035811901092529352e-01,2.035705804824829157e-01,2.035599470138549916e-01,2.035493373870849720e-01,2.035387039184570201e-01,2.035280704498290960e-01,2.035174608230590765e-01,2.035068273544311523e-01,2.034962177276611328e-01,2.034855842590332087e-01,2.034749746322631891e-01,2.034643650054931696e-01,2.034537553787231501e-01,2.034431457519531306e-01,2.034325122833252064e-01,2.034219264984130915e-01,2.034113168716430720e-01,2.034006834030151478e-01,2.033900976181030329e-01,2.033794879913330134e-01,2.033688783645629938e-01
1.925047755241394154e-01,1.924952745437621959e-01,1.924857735633850042e-01,1.924762606620788463e-01,1.924667596817016546e-01,1.924572706222534291e-01,1.924477696418762096e-01,1.924382567405700795e-01,1.924287676811218262e-01,1.924192786216735729e-01,1.924097895622253473e-01,1.924003005027770941e-01,1.923907995223999023e-01,1.923813104629516491e-01,1.923718214035034235e-01,1.923623442649841364e-01,1.923528552055358831e-01,1.923433542251586914e-01,1.923338770866394043e-01,1.923243880271911510e-01,1.923149108886718639e-01,1.923054099082946722e-01,1.922959327697753851e-01,1.922864556312560980e-01,1.922769784927368109e-01,1.922675013542175237e-01,1.922580122947692982e-01,1.922485351562500111e-01,1.922390580177307240e-01,1.922295928001403753e-01,1.922201275825500544e-01,1.922106266021728627e-01,1.922011613845825140e-01,1.921916961669921931e-01,1.921822309494018444e-01,1.921727418899536188e-01,1.921632766723632701e-01,1.921538114547729492e-01,1.921443462371826283e-01,1.921348810195922796e-01,1.921254038810729925e-01,1.921159386634826716e-01,1.921064853668212891e-01,1.920970320701599066e-01,1.920875668525695856e-01,1.920780897140502985e-01,1.920686364173889160e-01,1.920591831207275335e-01,1.920497298240661510e-01,1.920402526855468639e-01,1.920307993888855091e-01,1.920213460922241266e-01,1.920118808746337780e-01,1.920024275779724232e-01,1.919929862022399791e-01,1.919835329055786244e-01,1.919740915298461803e-01,1.919646143913268932e-01,1.919551730155944769e-01,1.919457316398620605e-01,1.919362902641296442e-01,1.919268488883972279e-01,1.919173836708068792e-01,1.919079422950744629e-01,1.918985009193420466e-01,1.918890714645385687e-01,1.918796300888061523e-01,1.918701767921447698e-01,1.918607354164123535e-01,1.918513059616088756e-01,1.918418765068054255e-01,1.918324351310730091e-01,1.918229818344116266e-01,1.918135523796081487e-01,1.918041229248046986e-01,1.917946934700012207e-01,1.917852520942688044e-01,1.917758226394653265e-01,1.917663931846618763e-01,1.917569756507873646e-01
1.820685267448425293e-01,1.820600152015686146e-01,1.820515155792236384e-01,1.820430278778076283e-01,1.820345282554626520e-01,1.820260405540466420e-01,1.820175290107726995e-01,1.820090293884277233e-01,1.820005416870117132e-01,1.819920539855957031e-01,1.819835662841796931e-01,1.819750547409057506e-01,1.819665670394897405e-01,1.819580912590026966e-01,1.819496035575866588e-01,1.819411158561706487e-01,1.819326162338256725e-01,1.819241285324096624e-01,1.819156408309936523e-01,1.819071650505065807e-01,1.818986654281616322e-01,1.818901896476745605e-01,1.818817019462585505e-01,1.818732261657714788e-01,1.818647503852844349e-01,1.818562507629394587e-01,1.818477749824523870e-01,1.818392992019653431e-01,1.818308234214782715e-01,1.818223595619201660e-01,1.818138599395751898e-01,1.818053960800170843e-01,1.817969202995300404e-01,1.817884445190429688e-01,1.817799568176269587e-01,1.817714929580688532e-01,1.817630171775817816e-01,1.817545533180236761e-01,1.817460894584655706e-01,1.817376017570495605e-01,1.817291378974914551e-01,1.817206740379333496e-01,1.817122101783752441e-01,1.817037463188171387e-01,1.816952705383300670e-01,1.816868066787719616e-01,1.816783428192138561e-01,1.816698908805847168e-01,1.816614151000976451e-01,1.816529512405395397e-01,1.816444993019104004e-01,1.816360354423522949e-01,1.816275835037231556e-01,1.816191077232360840e-01,1.816106557846069447e-01,1.816021800041198730e-01,1.815937280654907338e-01,1.815852880477905329e-01,1.815768361091613659e-01,1.815683841705322266e-01,1.815599083900451549e-01,1.815514683723449818e-01,1.815430164337158148e-01,1.815345644950866755e-01,1.815261244773864746e-01,1.815176606178283691e-01,1.815092206001281683e-01,1.815007686614990290e-01,1.814923286437988281e-01,1.814838886260986273e-01,1.814754247665405218e-01,1.814669847488403209e-01,1.814585447311401478e-01,1.814501047134399470e-01,1.814416646957397461e-01,1.814332127571106068e-01,1.814247727394104059e-01,1.814163446426391713e-01,1.814079046249389704e-01,1.813994765281677357e-01
1.727056384086608776e-01,1.726979851722717230e-01,1.726903438568115345e-01,1.726827025413513184e-01,1.726750612258911022e-01,1.726673960685730091e-01,1.726597547531127930e-01,1.726521253585815430e-01,1.726444840431213268e-01,1.726368427276611384e-01,1.726291894912719838e-01,1.726215481758117676e-01,1.726139068603515514e-01,1.726062774658203014e-01,1.725986242294311468e-01,1.725909829139709584e-01,1.725833535194397084e-01,1.725757241249084584e-01,1.725680828094482422e-01,1.725604414939880260e-01,1.725528001785278376e-01,1.725451707839965876e-01,1.725375413894653376e-01,1.725299119949340876e-01,1.725222706794738714e-01,1.725146412849426214e-01,1.725070118904113714e-01,1.724993824958801214e-01,1.724917411804199330e-01,1.724841117858886830e-01,1.724764943122863714e-01,1.724688649177551214e-01,1.724612474441528376e-01,1.724536061286926214e-01,1.724459767341613714e-01,1.724383592605590876e-01,1.724307417869567760e-01,1.724231123924255260e-01,1.724154829978942760e-01,1.724078655242919922e-01,1.724002480506897084e-01,1.723926305770873968e-01,1.723849892616272084e-01,1.723773717880248968e-01,1.723697662353515514e-01,1.723621487617492676e-01,1.723545312881469838e-01,1.723469018936157338e-01,1.723392844200134222e-01,1.723316788673400768e-01,1.723240613937377930e-01,1.723164558410644476e-01,1.723088264465331976e-01,1.723012208938598522e-01,1.722936034202575684e-01,1.722859978675842230e-01,1.722783803939819391e-01,1.722707629203796276e-01,1.722631573677063099e-01,1.722555398941039984e-01,1.722479343414306530e-01,1.722403287887573353e-01,1.722327232360839899e-01,1.722251296043396107e-01,1.722175002098083607e-01,1.722099065780639537e-01,1.722023010253906361e-01,1.721947073936462291e-01,1.721871018409729115e-01,1.721794843673705999e-01,1.721718907356262207e-01,1.721642971038818415e-01,1.721566915512084961e-01,1.721490859985351507e-01,1.721414923667907715e-01,1.721338987350463923e-01,1.721263051033020131e-01,1.721187114715576061e-01,1.721110939979553223e-01,1.721035003662109431e-01
1.642586350440979059e-01,1.642517209053039606e-01,1.642448067665100153e-01,1.642378926277160700e-01,1.642309665679931585e-01,1.642240524291992132e-01,1.642171382904052679e-01,1.642102241516113226e-01,1.642032980918884388e-01,1.641963839530944935e-01,1.641894817352294866e-01,1.641825675964355413e-01,1.641756653785705622e-01,1.641687393188476507e-01,1.641618371009826716e-01,1.641549229621887263e-01,1.641480207443237194e-01,1.641411185264587402e-01,1.641341924667358287e-01,1.641272902488708496e-01,1.641203880310058705e-01,1.641134858131408636e-01,1.641065835952758845e-01,1.640996575355529730e-01,1.640927553176879938e-01,1.640858650207519531e-01,1.640789628028869740e-01,1.640720486640930287e-01,1.640651464462280218e-01,1.640582442283630427e-01,1.640513420104980358e-01,1.640444517135620228e-01,1.640375375747680775e-01,1.640306353569030706e-01,1.640237450599670299e-01,1.640168547630310170e-01,1.640099525451660101e-01,1.640030503273010309e-01,1.639961481094360241e-01,1.639892578125000111e-01,1.639823675155639704e-01,1.639754533767700251e-01,1.639685630798339844e-01,1.639616727828979437e-01,1.639547824859619030e-01,1.639479041099548284e-01,1.639409899711608831e-01,1.639340996742248424e-01,1.639272212982177679e-01,1.639203310012817272e-01,1.639134407043457142e-01,1.639065384864807073e-01,1.638996601104736328e-01,1.638927698135375921e-01,1.638858914375305176e-01,1.638789892196655384e-01,1.638721108436584362e-01,1.638652205467224232e-01,1.638583421707153209e-01,1.638514637947082464e-01,1.638445615768432673e-01,1.638376832008361927e-01,1.638307929039001520e-01,1.638239026069641113e-01,1.638170242309570368e-01,1.638101577758789007e-01,1.638032793998718262e-01,1.637963771820068470e-01,1.637895107269287109e-01,1.637826323509216364e-01,1.637757539749145619e-01,1.637688755989074596e-01,1.637619972229003851e-01,1.637551188468933105e-01,1.637482404708862360e-01,1.637413740158080999e-01,1.637345075607299916e-01,1.637276172637939509e-01,1.637207388877868763e-01,1.637138724327087402e-01
1.565993905067443737e-01,1.565931081771850530e-01,1.565868258476257324e-01,1.565805196762085072e-01,1.565742373466491588e-01,1.565679550170898382e-01,1.565616726875305176e-01,1.565553784370422308e-01,1.565490961074829102e-01,1.565428137779235895e-01,1.565365314483642689e-01,1.565302491188049205e-01,1.565239548683166615e-01,1.565176844596862793e-01,1.565114021301269587e-01,1.565051198005676381e-01,1.564988493919372559e-01,1.564925551414489691e-01,1.564862728118896484e-01,1.564800024032592662e-01,1.564737200736999456e-01,1.564674377441406250e-01,1.564611554145813044e-01,1.564548850059509222e-01,1.564486145973205677e-01,1.564423441886901855e-01,1.564360499382018987e-01,1.564297795295715443e-01,1.564235091209411621e-01,1.564172387123107799e-01,1.564109683036804255e-01,1.564046859741211049e-01,1.563984155654907227e-01,1.563921451568603405e-01,1.563858747482299860e-01,1.563795924186706654e-01,1.563733220100402832e-01,1.563670635223388672e-01,1.563607931137084850e-01,1.563545227050781306e-01,1.563482403755188099e-01,1.563419818878173939e-01,1.563357114791870117e-01,1.563294529914855957e-01,1.563231945037841797e-01,1.563169121742248591e-01,1.563106536865234431e-01,1.563043832778930609e-01,1.562981247901916448e-01,1.562918543815612904e-01,1.562855839729309082e-01,1.562793254852294922e-01,1.562730669975280762e-01,1.562668085098266602e-01,1.562605381011962780e-01,1.562542796134948619e-01,1.562480211257934459e-01,1.562417626380920299e-01,1.562355041503906139e-01,1.562292337417602595e-01,1.562229871749877819e-01,1.562167286872863659e-01,1.562104701995849498e-01,1.562041997909545954e-01,1.561979532241821178e-01,1.561916828155517634e-01,1.561854362487792858e-01,1.561791777610778698e-01,1.561729311943054199e-01,1.561666727066040039e-01,1.561604142189025879e-01,1.561541676521301381e-01,1.561479091644287220e-01,1.561416625976562444e-01,1.561354160308837946e-01,1.561291575431823786e-01,1.561229109764099010e-01,1.561166644096374512e-01,1.561104178428650013e-01,1.561041712760925237e-01
1.496226072311401256e-01,1.496168613433837835e-01,1.496111273765564076e-01,1.496053814888000377e-01,1.495996475219726618e-01,1.495939135551452581e-01,1.495881676673889160e-01,1.495824337005615123e-01,1.495766997337341364e-01,1.495709657669067327e-01,1.495652318000793568e-01,1.495594859123229869e-01,1.495537519454956110e-01,1.495480179786682073e-01,1.495422840118408314e-01,1.495365500450134277e-01,1.495308041572570856e-01,1.495250821113586481e-01,1.495193481445312444e-01,1.495136141777038685e-01,1.495078802108764648e-01,1.495021462440490612e-01,1.494964241981506237e-01,1.494906902313232477e-01,1.494849681854248102e-01,1.494792222976684681e-01,1.494735002517700306e-01,1.494677662849426270e-01,1.494620442390441895e-01,1.494563221931457520e-01,1.494505763053894098e-01,1.494448542594909723e-01,1.494391322135925348e-01,1.494334101676940973e-01,1.494276762008666937e-01,1.494219541549682562e-01,1.494162321090698187e-01,1.494105100631713812e-01,1.494047880172729437e-01,1.493990540504455677e-01,1.493933320045471302e-01,1.493876099586486927e-01,1.493818879127502552e-01,1.493761777877807562e-01,1.493704438209533802e-01,1.493647217750549427e-01,1.493589997291565052e-01,1.493532896041870062e-01,1.493475556373596302e-01,1.493418335914611927e-01,1.493361234664916937e-01,1.493304133415222223e-01,1.493246912956237848e-01,1.493189692497253473e-01,1.493132472038269098e-01,1.493075370788574108e-01,1.493018269538879395e-01,1.492961049079895020e-01,1.492903828620910645e-01,1.492846727371215931e-01,1.492789626121520941e-01,1.492732524871826227e-01,1.492675304412841852e-01,1.492618083953857477e-01,1.492561101913452148e-01,1.492504000663757435e-01,1.492446899414062444e-01,1.492389678955078069e-01,1.492332577705383356e-01,1.492275357246398981e-01,1.492218255996703991e-01,1.492161154747009277e-01,1.492104172706603948e-01,1.492047071456909235e-01,1.491989850997924860e-01,1.491932868957519531e-01,1.491875767707824818e-01,1.491818785667419489e-01,1.491761684417724498e-01,1.491704583168029785e-01
1.432409524917602484e-01,1.432356953620910756e-01,1.432304382324218750e-01,1.432251811027526744e-01,1.432199239730835016e-01,1.432146549224853627e-01,1.432093977928161621e-01,1.432041406631469616e-01,1.431988835334777888e-01,1.431936383247375544e-01,1.431883692741394154e-01,1.431831121444702148e-01,1.431778550148010143e-01,1.431725978851318415e-01,1.431673407554626409e-01,1.431620836257934681e-01,1.431568264961242676e-01,1.431515812873840332e-01,1.431463241577148326e-01,1.431410670280456598e-01,1.431358098983764593e-01,1.431305646896362249e-01,1.431253075599670521e-01,1.431200623512268177e-01,1.431147933006286510e-01,1.431095480918884166e-01,1.431043028831481823e-01,1.430990457534790095e-01,1.430937886238098089e-01,1.430885434150695745e-01,1.430832982063293402e-01,1.430780529975891058e-01,1.430728077888488714e-01,1.430675387382507324e-01,1.430622935295104980e-01,1.430570483207702637e-01,1.430518031120300293e-01,1.430465579032897949e-01,1.430413126945495605e-01,1.430360674858093262e-01,1.430308222770690918e-01,1.430255770683288574e-01,1.430203199386596569e-01,1.430150747299194225e-01,1.430098414421081543e-01,1.430045962333679199e-01,1.429993510246276855e-01,1.429941058158874512e-01,1.429888606071472168e-01,1.429836273193359486e-01,1.429783821105957142e-01,1.429731369018554799e-01,1.429678916931152455e-01,1.429626584053039495e-01,1.429574131965637152e-01,1.429521799087524470e-01,1.429469227790832464e-01,1.429416894912719782e-01,1.429364562034606823e-01,1.429312229156494141e-01,1.429259777069091797e-01,1.429207324981689453e-01,1.429154992103576771e-01,1.429102659225463812e-01,1.429050326347351130e-01,1.428997993469238170e-01,1.428945541381835826e-01,1.428893208503723145e-01,1.428840875625610463e-01,1.428788542747497503e-01,1.428736209869384821e-01,1.428683757781982477e-01,1.428631305694580134e-01,1.428578972816467174e-01,1.428526759147644154e-01,1.428474426269531194e-01,1.428422093391418513e-01,1.428369760513305553e-01,1.428317427635192871e-01,1.428265094757080189e-01
1.373814225196838268e-01,1.373765945434570201e-01,1.373717546463012751e-01,1.373669147491455023e-01,1.373620629310607910e-01,1.373572349548339844e-01,1.373523950576782116e-01,1.373475670814514049e-01,1.373427152633666937e-01,1.373378872871398870e-01,1.373330473899841420e-01,1.373282194137573353e-01,1.373233795166015625e-01,1.373185396194457897e-01,1.373136997222900446e-01,1.373088717460632380e-01,1.373040437698364313e-01,1.372992038726806585e-01,1.372943639755249134e-01,1.372895359992981068e-01,1.372847080230713002e-01,1.372798681259155273e-01,1.372750401496887207e-01,1.372702002525329479e-01,1.372653722763061412e-01,1.372605443000793346e-01,1.372557163238525280e-01,1.372508764266967829e-01,1.372460484504699763e-01,1.372412204742431696e-01,1.372363924980163630e-01,1.372315645217895563e-01,1.372267246246337835e-01,1.372218966484069769e-01,1.372170805931091364e-01,1.372122526168823298e-01,1.372074246406555231e-01,1.372025847434997503e-01,1.371977686882019098e-01,1.371929407119751032e-01,1.371881127357482966e-01,1.371832847595214899e-01,1.371784567832946833e-01,1.371736288070678766e-01,1.371688127517700084e-01,1.371639847755432018e-01,1.371591567993163951e-01,1.371543407440185547e-01,1.371495127677917480e-01,1.371446967124939076e-01,1.371398687362671009e-01,1.371350407600402943e-01,1.371302247047424261e-01,1.371253967285156194e-01,1.371205806732177790e-01,1.371157526969909723e-01,1.371109366416931041e-01,1.371061205863952637e-01,1.371013045310974232e-01,1.370964765548706166e-01,1.370916485786438099e-01,1.370868325233459417e-01,1.370820164680481013e-01,1.370772004127502330e-01,1.370723843574523926e-01,1.370675563812255859e-01,1.370627522468566839e-01,1.370579361915588434e-01,1.370531201362609752e-01,1.370482921600341686e-01,1.370434761047363281e-01,1.370386600494384877e-01,1.370338559150695856e-01,1.370290398597717174e-01,1.370242118835449108e-01,1.370194077491760365e-01,1.370145797729492299e-01,1.370097756385803278e-01,1.370049595832824596e-01,1.370001435279846191e-01
1.319824457168579102e-01,1.319779753684997559e-01,1.319735169410705677e-01,1.319690465927124134e-01,1.319645762443542591e-01,1.319601178169250433e-01,1.319556474685668890e-01,1.319511771202087347e-01,1.319467186927795466e-01,1.319422602653503307e-01,1.319377899169921764e-01,1.319333314895629883e-01,1.319288611412048340e-01,1.319244027137756459e-01,1.319199442863464300e-01,1.319154739379882757e-01,1.319110155105590876e-01,1.319065451622009333e-01,1.319020867347717174e-01,1.318976283073425293e-01,1.318931698799133412e-01,1.318886995315551869e-01,1.318842411041259710e-01,1.318797826766967829e-01,1.318753361701965332e-01,1.318708777427673451e-01,1.318664073944091908e-01,1.318619489669799749e-01,1.318574905395507868e-01,1.318530321121215709e-01,1.318485856056213490e-01,1.318441152572631947e-01,1.318396568298339788e-01,1.318352103233337291e-01,1.318307518959045410e-01,1.318262815475463867e-01,1.318218350410461370e-01,1.318173766136169489e-01,1.318129301071166992e-01,1.318084716796875111e-01,1.318040132522582952e-01,1.317995548248291071e-01,1.317951083183288574e-01,1.317906498908996693e-01,1.317862033843994196e-01,1.317817449569702037e-01,1.317772865295410156e-01,1.317728400230407659e-01,1.317683935165405162e-01,1.317639350891113281e-01,1.317594766616821400e-01,1.317550301551818903e-01,1.317505836486816406e-01,1.317461371421813909e-01,1.317416787147522028e-01,1.317372202873229869e-01,1.317327737808227650e-01,1.317283272743225153e-01,1.317238807678222656e-01,1.317194223403930775e-01,1.317149758338928278e-01,1.317105293273925781e-01,1.317060828208923284e-01,1.317016243934631403e-01,1.316971898078918568e-01,1.316927433013916071e-01,1.316882967948913574e-01,1.316838502883911077e-01,1.316793918609619196e-01,1.316749572753906361e-01,1.316705107688903864e-01,1.316660642623901367e-01,1.316616177558898870e-01,1.316571712493896373e-01,1.316527247428894154e-01,1.316482782363891657e-01,1.316438436508178822e-01,1.316393971443176325e-01,1.316349506378173828e-01,1.316304922103881947e-01
1.269917607307434193e-01,1.269876241683959850e-01,1.269834876060485784e-01,1.269793510437011719e-01,1.269752264022827037e-01,1.269710898399352972e-01,1.269669532775878906e-01,1.269628167152404841e-01,1.269586920738220159e-01,1.269545555114746094e-01,1.269504189491272028e-01,1.269462823867797963e-01,1.269421577453613281e-01,1.269380211830139216e-01,1.269338965415954534e-01,1.269297599792480469e-01,1.269256234169006403e-01,1.269214987754821722e-01,1.269173741340637318e-01,1.269132375717162975e-01,1.269091010093688909e-01,1.269049763679504506e-01,1.269008517265319824e-01,1.268967151641845759e-01,1.268925905227661077e-01,1.268884539604187012e-01,1.268843293190002330e-01,1.268802046775817927e-01,1.268760800361633245e-01,1.268719553947448841e-01,1.268678188323974498e-01,1.268636941909790095e-01,1.268595695495605413e-01,1.268554449081421009e-01,1.268513083457946666e-01,1.268471837043762263e-01,1.268430590629577581e-01,1.268389344215393177e-01,1.268348097801208496e-01,1.268306851387023815e-01,1.268265604972839411e-01,1.268224358558654730e-01,1.268183112144470326e-01,1.268141984939575306e-01,1.268100619316100963e-01,1.268059372901916559e-01,1.268018245697021540e-01,1.267976999282836859e-01,1.267935633659362793e-01,1.267894506454467773e-01,1.267853260040283092e-01,1.267812132835388073e-01,1.267770886421203669e-01,1.267729640007018987e-01,1.267688393592834584e-01,1.267647266387939564e-01,1.267606019973754883e-01,1.267564892768859863e-01,1.267523646354675182e-01,1.267482399940490778e-01,1.267441272735595759e-01,1.267400026321411077e-01,1.267358779907226674e-01,1.267317652702331654e-01,1.267276406288146973e-01,1.267235279083251953e-01,1.267194151878356934e-01,1.267152905464172252e-01,1.267111778259277233e-01,1.267070651054382213e-01,1.267029404640197809e-01,1.266988277435302790e-01,1.266947031021118109e-01,1.266905903816223089e-01,1.266864776611328069e-01,1.266823649406433050e-01,1.266782402992248646e-01,1.266741275787353627e-01,1.266700148582458607e-01,1.266659021377563588e-01
1.223647594451904297e-01,1.223609209060669001e-01,1.223570823669433566e-01,1.223532438278198270e-01,1.223494052886962835e-01,1.223455667495727539e-01,1.223417282104492243e-01,1.223378896713256808e-01,1.223340511322021512e-01,1.223302245140075739e-01,1.223263740539550781e-01,1.223225355148315485e-01,1.223187088966369573e-01,1.223148703575134277e-01,1.223110318183898981e-01,1.223071932792663546e-01,1.223033547401428250e-01,1.222995281219482477e-01,1.222956895828247043e-01,1.222918510437011747e-01,1.222880125045776312e-01,1.222841858863830539e-01,1.222803473472595243e-01,1.222765207290649470e-01,1.222726821899414035e-01,1.222688436508178739e-01,1.222650170326232966e-01,1.222611784934997531e-01,1.222573399543762235e-01,1.222535133361816462e-01,1.222496867179870550e-01,1.222458481788635254e-01,1.222420215606689481e-01,1.222381830215454046e-01,1.222343564033508273e-01,1.222305297851562500e-01,1.222266912460327204e-01,1.222228646278381292e-01,1.222190260887145996e-01,1.222151994705200223e-01,1.222113728523254450e-01,1.222075462341308538e-01,1.222037076950073242e-01,1.221998810768127469e-01,1.221960544586181696e-01,1.221922278404235784e-01,1.221884012222290011e-01,1.221845626831054715e-01,1.221807360649108942e-01,1.221769094467163030e-01,1.221730828285217257e-01,1.221692562103271484e-01,1.221654295921325711e-01,1.221616029739379938e-01,1.221577763557434027e-01,1.221539497375488253e-01,1.221501231193542480e-01,1.221462965011596707e-01,1.221424698829650934e-01,1.221386432647705023e-01,1.221348285675048773e-01,1.221309900283813477e-01,1.221271634101867704e-01,1.221233487129211454e-01,1.221195220947265681e-01,1.221157073974609431e-01,1.221118688583373996e-01,1.221080541610717746e-01,1.221042275428771973e-01,1.221004009246826200e-01,1.220965862274169950e-01,1.220927596092224177e-01,1.220889329910278265e-01,1.220851182937622015e-01,1.220812916755676242e-01,1.220774650573730469e-01,1.220736503601074219e-01,1.220698237419128446e-01,1.220660090446472196e-01,1.220621943473815946e-01
1.180630683898925837e-01,1.180595040321350125e-01,1.180559277534484891e-01,1.180523514747619657e-01,1.180487751960754422e-01,1.180451989173889188e-01,1.180416345596313477e-01,1.180380582809448242e-01,1.180344820022583008e-01,1.180309176445007296e-01,1.180273413658142062e-01,1.180237650871276828e-01,1.180202007293701116e-01,1.180166244506835882e-01,1.180130481719970648e-01,1.180094838142395075e-01,1.180059194564819364e-01,1.180023431777954129e-01,1.179987668991088895e-01,1.179952025413513184e-01,1.179916262626647949e-01,1.179880619049072238e-01,1.179844975471496527e-01,1.179809212684631292e-01,1.179773569107055720e-01,1.179737806320190485e-01,1.179702162742614774e-01,1.179666519165039062e-01,1.179630756378173828e-01,1.179595112800598117e-01,1.179559469223022405e-01,1.179523825645446833e-01,1.179488062858581598e-01,1.179452419281005887e-01,1.179416775703430176e-01,1.179381132125854464e-01,1.179345488548278753e-01,1.179309725761413519e-01,1.179274082183837946e-01,1.179238438606262235e-01,1.179202795028686523e-01,1.179167151451110812e-01,1.179131507873535101e-01,1.179095864295959528e-01,1.179060220718383817e-01,1.179024577140808105e-01,1.178988814353942871e-01,1.178953289985656683e-01,1.178917646408081110e-01,1.178882002830505399e-01,1.178846359252929688e-01,1.178810715675353976e-01,1.178775072097778265e-01,1.178739428520202692e-01,1.178703784942626981e-01,1.178668141365051270e-01,1.178632497787475558e-01,1.178596973419189509e-01,1.178561329841613797e-01,1.178525686264038086e-01,1.178490042686462375e-01,1.178454518318176325e-01,1.178418874740600614e-01,1.178383231163024902e-01,1.178347706794738714e-01,1.178312063217163141e-01,1.178276419639587430e-01,1.178240895271301242e-01,1.178205251693725530e-01,1.178169608116149958e-01,1.178134083747863770e-01,1.178098440170288058e-01,1.178062915802002009e-01,1.178027272224426297e-01,1.177991628646850586e-01,1.177956104278564398e-01,1.177920579910278348e-01,1.177884936332702637e-01,1.177849411964416448e-01,1.177813768386840876e-01
