6.199244976043700728e-01,6.356554985046386497e-01,6.522056579589843306e-01,6.696405887603760210e-01,6.880333900451660600e-01,7.074650764465332253e-01,7.280262470245361106e-01,7.498183727264404741e-01,7.729553222656250222e-01,7.975655555725097434e-01,8.237918853759765847e-01,8.518015861511230025e-01,8.817830085754394531e-01,9.139519691467284934e-01,9.485570907592772993e-01,9.858857154846191184e-01,1.000000000000000000e+00,1.000000000000000000e+00,1.000000000000000000e+00,1.000000000000000000e+00,1.000000000000000000e+00,1.000000000000000000e+00,1.000000000000000000e+00,1.000000000000000000e+00,1.000000000000000000e+00,1.000000000000000000e+00,1.000000000000000000e+00,1.000000000000000000e+00,1.000000000000000000e+00,1.000000000000000000e+00,1.000000000000000000e+00,1.000000000000000000e+00,1.000000000000000000e+00,1.000000000000000000e+00,1.000000000000000000e+00,1.725337505340576172e-01,1.690567851066589466e-01,1.656786561012268122e-01,1.625955343246459905e-01,1.606770396232604925e-01,1.603131413459777943e-01,1.599509000778198131e-01,1.601024746894836315e-01,1.647971749305724987e-01,1.000000000000000000e+00,1.000000000000000000e+00,1.000000000000000000e+00,1.000000000000000000e+00,1.000000000000000000e+00,1.000000000000000000e+00,1.000000000000000000e+00,1.639443278312683050e-01,1.579509019851684515e-01,1.542770743370056041e-01,1.532115459442138783e-01,1.521606206893920954e-01,1.511698484420776478e-01,1.502211689949035645e-01,1.504762291908264271e-01,1.519762754440307506e-01,1.535075426101684681e-01,1.000000000000000000e+00,1.000000000000000000e+00,1.000000000000000000e+00,1.000000000000000000e+00,1.000000000000000000e+00,1.000000000000000000e+00,1.000000000000000000e+00,1.000000000000000000e+00,1.000000000000000000e+00,9.683512687683105691e-01,9.366994857788085715e-01,9.070513725280762163e-01,8.792223930358886719e-01,8.530503273010253684e-01,8.283912658691405806e-01,8.051177978515624556e-01,7.831163883209228960e-01,7.622855186462402788e-01,7.425340175628661887e-01
6.199111461639403853e-01,6.356414794921875222e-01,6.521908760070800337e-01,6.696250915527344194e-01,6.880170345306396706e-01,7.074477672576904297e-01,7.280079364776611550e-01,7.497989177703857644e-01,7.729346752166748047e-01,7.975436687469482644e-01,8.237709999084472656e-01,8.517792701721191850e-01,8.817590713500976785e-01,9.139263153076171431e-01,9.485294342041015181e-01,9.858558654785156694e-01,1.000000000000000000e+00,1.000000000000000000e+00,1.000000000000000000e+00,1.000000000000000000e+00,1.000000000000000000e+00,1.000000000000000000e+00,1.000000000000000000e+00,1.000000000000000000e+00,1.000000000000000000e+00,1.000000000000000000e+00,1.000000000000000000e+00,1.000000000000000000e+00,1.000000000000000000e+00,1.000000000000000000e+00,1.000000000000000000e+00,1.000000000000000000e+00,1.000000000000000000e+00,1.000000000000000000e+00,1.000000000000000000e+00,1.734886169433593750e-01,1.699734568595886175e-01,1.666101455688476507e-01,1.635255813598632812e-01,1.612302064895629883e-01,1.606347560882568359e-01,1.602693796157836914e-01,1.604880809783935658e-01,1.649290442466735951e-01,1.695615053176879883e-01,1.000000000000000000e+00,1.000000000000000000e+00,1.000000000000000000e+00,1.000000000000000000e+00,1.000000000000000000e+00,1.000000000000000000e+00,1.624784111976623480e-01,1.565883040428161510e-01,1.554907321929931696e-01,1.544084191322326605e-01,1.533410787582397405e-01,1.522884130477905329e-01,1.512489080429077204e-01,1.521510839462280329e-01,1.534047961235046331e-01,1.546793222427368109e-01,1.000000000000000000e+00,1.000000000000000000e+00,1.000000000000000000e+00,1.000000000000000000e+00,1.000000000000000000e+00,1.000000000000000000e+00,1.000000000000000000e+00,1.000000000000000000e+00,1.000000000000000000e+00,9.683847427368164062e-01,9.367307662963867410e-01,9.070805549621582253e-01,8.792499542236328347e-01,8.530761718749999556e-01,8.284156799316406694e-01,8.051409721374511719e-01,7.831382274627685103e-01,7.623062133789062500e-01,7.425536155700683816e-01
6.198978424072265625e-01,6.356275081634521484e-01,6.521761894226074663e-01,6.696095943450928178e-01,6.880006790161132812e-01,7.074304580688476340e-01,7.279896259307860884e-01,7.497795104980469194e-01,7.729139328002929688e-01,7.975215435028075728e-01,8.237476348876953125e-01,8.517569541931152566e-01,8.817352294921875222e-01,9.139007568359375222e-01,9.485017776489257368e-01,9.858260154724121094e-01,1.000000000000000000e+00,1.000000000000000000e+00,1.000000000000000000e+00,1.000000000000000000e+00,1.000000000000000000e+00,1.000000000000000000e+00,1.000000000000000000e+00,1.000000000000000000e+00,1.000000000000000000e+00,1.000000000000000000e+00,1.000000000000000000e+00,1.000000000000000000e+00,1.000000000000000000e+00,1.000000000000000000e+00,1.000000000000000000e+00,1.000000000000000000e+00,1.000000000000000000e+00,1.000000000000000000e+00,1.000000000000000000e+00,1.745617747306823786e-01,1.710034847259521429e-01,1.676274180412292425e-01,1.645369529724121094e-01,1.620492339134216309e-01,1.612428307533264049e-01,1.605498909950256459e-01,1.611060380935668834e-01,1.654612898826599010e-01,1.000000000000000000e+00,1.000000000000000000e+00,1.000000000000000000e+00,1.000000000000000000e+00,1.000000000000000000e+00,1.000000000000000000e+00,1.672584652900695745e-01,1.607967257499694769e-01,1.578387498855590709e-01,1.567236423492431585e-01,1.556241631507873646e-01,1.545398354530334584e-01,1.530337572097778265e-01,1.530262947082519642e-01,1.542373418807983509e-01,1.555258154869079701e-01,1.000000000000000000e+00,1.000000000000000000e+00,1.000000000000000000e+00,1.000000000000000000e+00,1.000000000000000000e+00,1.000000000000000000e+00,1.000000000000000000e+00,1.000000000000000000e+00,1.000000000000000000e+00,1.000000000000000000e+00,9.684180259704590066e-01,9.367619514465331809e-01,9.071098327636718528e-01,8.792774200439452681e-01,8.531021118164062722e-01,8.284400939941406472e-01,8.051639556884765403e-01,7.831601142883301003e-01,7.623268127441406028e-01,7.425732612609863281e-01
6.198845863342284934e-01,6.356135368347167747e-01,6.521615028381347878e-01,6.695940971374512163e-01,6.879842758178711382e-01,7.074131011962890847e-01,7.279712200164795144e-01,7.497599601745605913e-01,7.728932857513427512e-01,7.974995613098144753e-01,8.237241744995117410e-01,8.517320632934570757e-01,8.817113876342773660e-01,9.138751029968261719e-01,9.484742164611816850e-01,9.857962608337402788e-01,1.000000000000000000e+00,1.000000000000000000e+00,1.000000000000000000e+00,1.000000000000000000e+00,1.000000000000000000e+00,1.000000000000000000e+00,1.000000000000000000e+00,1.000000000000000000e+00,1.000000000000000000e+00,1.000000000000000000e+00,1.000000000000000000e+00,1.000000000000000000e+00,1.000000000000000000e+00,1.000000000000000000e+00,1.000000000000000000e+00,1.000000000000000000e+00,1.000000000000000000e+00,1.000000000000000000e+00,1.000000000000000000e+00,1.758347868919372670e-01,1.721612572669982966e-01,1.686806440353393610e-01,1.655668377876281794e-01,1.628810286521911732e-01,1.620703458786010853e-01,1.612676978111267090e-01,1.618918299674987904e-01,1.658207297325134388e-01,1.000000000000000000e+00,1.000000000000000000e+00,1.000000000000000000e+00,1.000000000000000000e+00,1.000000000000000000e+00,1.711575388908386230e-01,1.654769182205200195e-01,1.602587699890136719e-01,1.591093301773071345e-01,1.579762458801269587e-01,1.566939830780029186e-01,1.551458358764648549e-01,1.548221111297607422e-01,1.550789952278137096e-01,1.563816189765930287e-01,1.577063202857971191e-01,1.000000000000000000e+00,1.000000000000000000e+00,1.000000000000000000e+00,1.000000000000000000e+00,1.000000000000000000e+00,1.000000000000000000e+00,1.000000000000000000e+00,1.000000000000000000e+00,1.000000000000000000e+00,1.000000000000000000e+00,9.684514045715332253e-01,9.367931365966797319e-01,9.071391105651855913e-01,8.793048858642578125e-01,8.531279563903808594e-01,8.284645080566406250e-01,8.051870346069336382e-01,7.831819534301758257e-01,7.623475074768066850e-01,7.425928115844726562e-01
6.198712825775146706e-01,6.355995655059814009e-01,6.521467208862304910e-01,6.695785522460937500e-01,6.879678726196288840e-01,7.073957920074462891e-01,7.279529094696044478e-01,7.497405529022216353e-01,7.728726387023925337e-01,7.974775791168212669e-01,8.237006187438964400e-01,8.517069816589355469e-01,8.816846847534179910e-01,9.138494491577148215e-01,9.484465599060059038e-01,9.857664108276367188e-01,1.000000000000000000e+00,1.000000000000000000e+00,1.000000000000000000e+00,1.000000000000000000e+00,1.000000000000000000e+00,1.000000000000000000e+00,1.000000000000000000e+00,1.000000000000000000e+00,1.000000000000000000e+00,1.000000000000000000e+00,1.000000000000000000e+00,1.000000000000000000e+00,1.000000000000000000e+00,1.000000000000000000e+00,1.000000000000000000e+00,1.000000000000000000e+00,1.000000000000000000e+00,1.000000000000000000e+00,1.000000000000000000e+00,1.758411169052123968e-01,1.719858884811401312e-01,1.685762524604797474e-01,1.658184766769409124e-01,1.640380978584289606e-01,1.629884481430053655e-01,1.621674895286560059e-01,1.641468286514282116e-01,1.683086156845092773e-01,1.000000000000000000e+00,1.000000000000000000e+00,1.000000000000000000e+00,1.000000000000000000e+00,1.000000000000000000e+00,1.697856426239013616e-01,1.637329101562499944e-01,1.615687727928161732e-01,1.604005336761474554e-01,1.589090347290039174e-01,1.573170304298400768e-01,1.566605806350707952e-01,1.566849946975708008e-01,1.572468996047973744e-01,1.585863590240478571e-01,1.000000000000000000e+00,1.000000000000000000e+00,1.000000000000000000e+00,1.000000000000000000e+00,1.000000000000000000e+00,1.000000000000000000e+00,1.000000000000000000e+00,1.000000000000000000e+00,1.000000000000000000e+00,1.000000000000000000e+00,1.000000000000000000e+00,9.684847831726074441e-01,9.368243217468261719e-01,9.071683883666992188e-01,8.793324470520019753e-01,8.531538963317870650e-01,8.284889221191406028e-01,8.052101135253906250e-01,7.832036972045898215e-01,7.623682022094726562e-01,7.426124572753906028e-01
6.198579311370849831e-01,6.355855464935302734e-01,6.521320343017578125e-01,6.695630550384521484e-01,6.879515171051024947e-01,7.073784828186034934e-01,7.279345989227294922e-01,7.497210979461670366e-01,7.728519916534424272e-01,7.974555969238281694e-01,8.236771583557128684e-01,8.516818046569823997e-01,8.816577911376952681e-01,9.138208389282226340e-01,9.484189987182617410e-01,9.857366561889648882e-01,1.000000000000000000e+00,1.000000000000000000e+00,1.000000000000000000e+00,1.000000000000000000e+00,1.000000000000000000e+00,1.000000000000000000e+00,1.000000000000000000e+00,1.000000000000000000e+00,1.000000000000000000e+00,1.000000000000000000e+00,1.000000000000000000e+00,1.000000000000000000e+00,1.000000000000000000e+00,1.000000000000000000e+00,1.000000000000000000e+00,1.000000000000000000e+00,1.000000000000000000e+00,1.000000000000000000e+00,1.000000000000000000e+00,1.756868362426757812e-01,1.717199683189392090e-01,1.689248323440551702e-01,1.665768742561340443e-01,1.653396487236022949e-01,1.642319440841674694e-01,1.631389617919921931e-01,1.667517781257629450e-01,1.712294220924377441e-01,1.000000000000000000e+00,1.000000000000000000e+00,1.000000000000000000e+00,1.000000000000000000e+00,1.737437009811401423e-01,1.684355974197387640e-01,1.641054511070251520e-01,1.628593206405639648e-01,1.611876249313354548e-01,1.595498800277709850e-01,1.585432171821594127e-01,1.585682511329650768e-01,1.585932612419128362e-01,1.594762921333313099e-01,1.000000000000000000e+00,1.000000000000000000e+00,1.000000000000000000e+00,1.000000000000000000e+00,1.000000000000000000e+00,1.000000000000000000e+00,1.000000000000000000e+00,1.000000000000000000e+00,1.000000000000000000e+00,1.000000000000000000e+00,1.000000000000000000e+00,1.000000000000000000e+00,9.685180664062500444e-01,9.368555068969726118e-01,9.071976661682128462e-01,8.793599128723144087e-01,8.531797409057617632e-01,8.285133361816405806e-01,8.052331924438476118e-01,7.832255363464355469e-01,7.623888492584228738e-01,7.426321029663085493e-01
6.198371887207031472e-01,6.355680942535399947e-01,6.521173000335693803e-01,6.695475578308105469e-01,6.879351615905762163e-01,7.073611736297606978e-01,7.279162406921386719e-01,7.497015953063964622e-01,7.728312492370605913e-01,7.974335193634033425e-01,8.236536979675292969e-01,8.516567230224609819e-01,8.816308975219726562e-01,9.137919425964355913e-01,9.483881950378417747e-01,9.857068061828613281e-01,1.000000000000000000e+00,1.000000000000000000e+00,1.000000000000000000e+00,1.000000000000000000e+00,1.000000000000000000e+00,1.000000000000000000e+00,1.000000000000000000e+00,1.000000000000000000e+00,1.000000000000000000e+00,1.000000000000000000e+00,1.000000000000000000e+00,1.000000000000000000e+00,1.000000000000000000e+00,1.000000000000000000e+00,1.000000000000000000e+00,1.000000000000000000e+00,1.000000000000000000e+00,1.000000000000000000e+00,1.798617720603942760e-01,1.752995014190673884e-01,1.716542959213256947e-01,1.692303895950317272e-01,1.673895835876464955e-01,1.669793963432311956e-01,1.658496856689453125e-01,1.656383872032165527e-01,1.700556516647338812e-01,1.000000000000000000e+00,1.000000000000000000e+00,1.000000000000000000e+00,1.000000000000000000e+00,1.000000000000000000e+00,1.723302245140075628e-01,1.667783379554748646e-01,1.652534723281860463e-01,1.635325074195861927e-01,1.618470072746276966e-01,1.604716897010803334e-01,1.604973077774047852e-01,1.605229377746582031e-01,1.605485796928405873e-01,1.617697834968566950e-01,1.000000000000000000e+00,1.000000000000000000e+00,1.000000000000000000e+00,1.000000000000000000e+00,1.000000000000000000e+00,1.000000000000000000e+00,1.000000000000000000e+00,1.000000000000000000e+00,1.000000000000000000e+00,1.000000000000000000e+00,1.000000000000000000e+00,1.000000000000000000e+00,9.685515403747558816e-01,9.368867874145507812e-01,9.072269439697265847e-01,8.793874740600585715e-01,8.532056808471679688e-01,8.285377502441406694e-01,8.052562713623047097e-01,7.832473754882812722e-01,7.624095439910888450e-01,7.426517486572266069e-01
6.198142528533935325e-01,6.355440139770507368e-01,6.520929336547851562e-01,6.695266723632812278e-01,6.879182815551757590e-01,7.073438167572021484e-01,7.278978824615478516e-01,7.496821403503417525e-01,7.728106021881103738e-01,7.974115371704101340e-01,8.236301422119141069e-01,8.516316413879394531e-01,8.816040039062500444e-01,9.137630462646484375e-01,9.483571052551269531e-01,9.856736183166503462e-01,1.000000000000000000e+00,1.000000000000000000e+00,1.000000000000000000e+00,1.000000000000000000e+00,1.000000000000000000e+00,1.000000000000000000e+00,1.000000000000000000e+00,1.000000000000000000e+00,1.000000000000000000e+00,1.000000000000000000e+00,1.000000000000000000e+00,1.000000000000000000e+00,1.000000000000000000e+00,1.000000000000000000e+00,1.000000000000000000e+00,1.000000000000000000e+00,1.000000000000000000e+00,1.000000000000000000e+00,1.790314435958862416e-01,1.749138832092285156e-01,1.719698190689086803e-01,1.698995590209960993e-01,1.688829064369201660e-01,1.686519861221313366e-01,1.674996018409729004e-01,1.688978791236877552e-01,1.734931111335754339e-01,1.000000000000000000e+00,1.000000000000000000e+00,1.000000000000000000e+00,1.000000000000000000e+00,1.775921702384948841e-01,1.715435981750488281e-01,1.676460385322570690e-01,1.659212827682495228e-01,1.642112612724304088e-01,1.625118255615234375e-01,1.624738931655883845e-01,1.625001668930053655e-01,1.625264406204223744e-01,1.626958966255188099e-01,1.000000000000000000e+00,1.000000000000000000e+00,1.000000000000000000e+00,1.000000000000000000e+00,1.000000000000000000e+00,1.000000000000000000e+00,1.000000000000000000e+00,1.000000000000000000e+00,1.000000000000000000e+00,1.000000000000000000e+00,1.000000000000000000e+00,1.000000000000000000e+00,1.000000000000000000e+00,9.685848236083984819e-01,9.369179725646972212e-01,9.072562217712402122e-01,8.794149398803711160e-01,8.532315254211425559e-01,8.285621643066406472e-01,8.052793502807616965e-01,7.832691192626952681e-01,7.624302387237549272e-01,7.426712989807129350e-01
6.197937011718750444e-01,6.355199813842773438e-01,6.520676136016845259e-01,6.695000648498534712e-01,6.878901481628417747e-01,7.073189735412597212e-01,7.278773307800292525e-01,7.496627330780029075e-01,7.727899551391601562e-01,7.973895549774170366e-01,8.236066818237304243e-01,8.516065597534179243e-01,8.815771102905273215e-01,9.137341499328612837e-01,9.483259201049805132e-01,9.856399536132812722e-01,1.000000000000000000e+00,1.000000000000000000e+00,1.000000000000000000e+00,1.000000000000000000e+00,1.000000000000000000e+00,1.000000000000000000e+00,1.000000000000000000e+00,1.000000000000000000e+00,1.000000000000000000e+00,1.000000000000000000e+00,1.000000000000000000e+00,1.000000000000000000e+00,1.000000000000000000e+00,1.000000000000000000e+00,1.000000000000000000e+00,1.000000000000000000e+00,1.000000000000000000e+00,1.000000000000000000e+00,1.786292433738708441e-01,1.747993946075439564e-01,1.724859476089477539e-01,1.709228992462158148e-01,1.704406023025512584e-01,1.703584194183349609e-01,1.691826939582824763e-01,1.722882151603698786e-01,1.000000000000000000e+00,1.000000000000000000e+00,1.000000000000000000e+00,1.000000000000000000e+00,1.000000000000000000e+00,1.772346854209899958e-01,1.712103724479675237e-01,1.680429816246032659e-01,1.663100719451904297e-01,1.646125555038452093e-01,1.637252449989318737e-01,1.641266822814941295e-01,1.645300745964050348e-01,1.645805716514587291e-01,1.000000000000000000e+00,1.000000000000000000e+00,1.000000000000000000e+00,1.000000000000000000e+00,1.000000000000000000e+00,1.000000000000000000e+00,1.000000000000000000e+00,1.000000000000000000e+00,1.000000000000000000e+00,1.000000000000000000e+00,1.000000000000000000e+00,1.000000000000000000e+00,1.000000000000000000e+00,1.000000000000000000e+00,9.686182975769043191e-01,9.369492530822753906e-01,9.072855949401855691e-01,8.794424057006835493e-01,8.532574653625488725e-01,8.285865783691406250e-01,8.053023338317870650e-01,7.832910060882568581e-01,7.624509334564208984e-01,7.426909446716308816e-01
6.197804927825927290e-01,6.355040550231934038e-01,6.520461559295653853e-01,6.694733142852783425e-01,6.878619670867920366e-01,7.072892665863037553e-01,7.278458595275878462e-01,7.496330738067626953e-01,7.727649688720703569e-01,7.973674774169922097e-01,8.235832214355468528e-01,8.515813827514648882e-01,8.815502166748047097e-01,9.137052536010742410e-01,9.482948303222655806e-01,9.856063842773437056e-01,1.000000000000000000e+00,1.000000000000000000e+00,1.000000000000000000e+00,1.000000000000000000e+00,1.000000000000000000e+00,1.000000000000000000e+00,1.000000000000000000e+00,1.000000000000000000e+00,1.000000000000000000e+00,1.000000000000000000e+00,1.000000000000000000e+00,1.000000000000000000e+00,1.000000000000000000e+00,1.000000000000000000e+00,1.000000000000000000e+00,1.000000000000000000e+00,1.000000000000000000e+00,1.000000000000000000e+00,1.782288432121276744e-01,1.751523256301879827e-01,1.735407948493957464e-01,1.719586133956909069e-01,1.720273137092590277e-01,1.720997452735900934e-01,1.710999488830566295e-01,1.779122710227966364e-01,1.000000000000000000e+00,1.000000000000000000e+00,1.000000000000000000e+00,1.000000000000000000e+00,1.000000000000000000e+00,1.768786430358886830e-01,1.708784222602844349e-01,1.684417843818664662e-01,1.667006850242614691e-01,1.650343656539917103e-01,1.647490978240966908e-01,1.651777982711792048e-01,1.655863881111145075e-01,1.659970045089721735e-01,1.000000000000000000e+00,1.000000000000000000e+00,1.000000000000000000e+00,1.000000000000000000e+00,1.000000000000000000e+00,1.000000000000000000e+00,1.000000000000000000e+00,1.000000000000000000e+00,1.000000000000000000e+00,1.000000000000000000e+00,1.000000000000000000e+00,1.000000000000000000e+00,1.000000000000000000e+00,1.000000000000000000e+00,9.686515808105469194e-01,9.369804382324218306e-01,9.073147773742675781e-01,8.794699668884277122e-01,8.532834053039550781e-01,8.286110877990722212e-01,8.053255081176757812e-01,7.833128452301025835e-01,7.624715805053711160e-01,7.427105903625488281e-01
6.197672367095947710e-01,6.354901313781737837e-01,6.520315170288085715e-01,6.694570541381835715e-01,6.878395080566406250e-01,7.072600364685058816e-01,7.278143405914306863e-01,7.495996952056884766e-01,7.727293491363524947e-01,7.973319530487060769e-01,8.235527038574218528e-01,8.515563011169433594e-01,8.815233230590819868e-01,9.136763572692870872e-01,9.482637405395507590e-01,9.855727195739746316e-01,1.000000000000000000e+00,1.000000000000000000e+00,1.000000000000000000e+00,1.000000000000000000e+00,1.000000000000000000e+00,1.000000000000000000e+00,1.000000000000000000e+00,1.000000000000000000e+00,1.000000000000000000e+00,1.000000000000000000e+00,1.000000000000000000e+00,1.000000000000000000e+00,1.000000000000000000e+00,1.000000000000000000e+00,1.000000000000000000e+00,1.000000000000000000e+00,1.000000000000000000e+00,1.854499578475952148e-01,1.780618667602539007e-01,1.762401103973388616e-01,1.746085762977599987e-01,1.734978437423705944e-01,1.736438274383544922e-01,1.737900853157043346e-01,1.745801687240600697e-01,1.000000000000000000e+00,1.000000000000000000e+00,1.000000000000000000e+00,1.000000000000000000e+00,1.000000000000000000e+00,1.000000000000000000e+00,1.765240311622619518e-01,1.706288576126098744e-01,1.688425064086914174e-01,1.670931577682495117e-01,1.655179738998412975e-01,1.657812118530273549e-01,1.662424802780151367e-01,1.666563630104064830e-01,1.670723199844360296e-01,1.000000000000000000e+00,1.000000000000000000e+00,1.000000000000000000e+00,1.000000000000000000e+00,1.000000000000000000e+00,1.000000000000000000e+00,1.000000000000000000e+00,1.000000000000000000e+00,1.000000000000000000e+00,1.000000000000000000e+00,1.000000000000000000e+00,1.000000000000000000e+00,1.000000000000000000e+00,1.000000000000000000e+00,9.686850547790527566e-01,9.370117187500000000e-01,9.073440551757812056e-01,8.794975280761718750e-01,8.533092498779296653e-01,8.286355018615723100e-01,8.053484916687011497e-01,7.833346843719481978e-01,7.624922752380370872e-01,7.427302360534667747e-01
6.197539806365967019e-01,6.354761600494385210e-01,6.520168304443358931e-01,6.694415569305419700e-01,6.878232479095458540e-01,7.072428226470947044e-01,7.277908325195312500e-01,7.495685100555420366e-01,7.726938724517822266e-01,7.972941398620605469e-01,8.235123634338379350e-01,8.515134811401366965e-01,8.814858436584472878e-01,9.136451721191406472e-01,9.482325553894043191e-01,9.855391502380370650e-01,1.000000000000000000e+00,1.000000000000000000e+00,1.000000000000000000e+00,1.000000000000000000e+00,1.000000000000000000e+00,1.000000000000000000e+00,1.000000000000000000e+00,1.000000000000000000e+00,1.000000000000000000e+00,1.000000000000000000e+00,1.000000000000000000e+00,1.000000000000000000e+00,1.000000000000000000e+00,1.000000000000000000e+00,1.000000000000000000e+00,1.000000000000000000e+00,1.000000000000000000e+00,1.856590867042541559e-01,1.790247321128845270e-01,1.773414731025695912e-01,1.756895899772644154e-01,1.751422405242920033e-01,1.752910256385803167e-01,1.754400491714477595e-01,1.825782537460327037e-01,1.000000000000000000e+00,1.000000000000000000e+00,1.000000000000000000e+00,1.000000000000000000e+00,1.000000000000000000e+00,1.000000000000000000e+00,1.761708259582519531e-01,1.710400462150573619e-01,1.692451238632202148e-01,1.675687670707702581e-01,1.661931753158569225e-01,1.668263196945190541e-01,1.673209786415100209e-01,1.677402496337890569e-01,1.000000000000000000e+00,1.000000000000000000e+00,1.000000000000000000e+00,1.000000000000000000e+00,1.000000000000000000e+00,1.000000000000000000e+00,1.000000000000000000e+00,1.000000000000000000e+00,1.000000000000000000e+00,1.000000000000000000e+00,1.000000000000000000e+00,1.000000000000000000e+00,1.000000000000000000e+00,1.000000000000000000e+00,1.000000000000000000e+00,9.687183380126953569e-01,9.370429039001464400e-01,9.073734283447265625e-01,8.795249938964844194e-01,8.533351898193359819e-01,8.286599159240722878e-01,8.053715705871582475e-01,7.833564758300781694e-01,7.625124454498291016e-01,7.427481651306152566e-01
6.197407245635986328e-01,6.354622840881347656e-01,6.520021915435790794e-01,6.694261074066162331e-01,6.878068923950195757e-01,7.072255134582519087e-01,7.277725696563720481e-01,7.495491981506348100e-01,7.726692199707031472e-01,7.972609043121338113e-01,8.234719276428222878e-01,8.514703750610351785e-01,8.814395904541015847e-01,9.135955810546875222e-01,9.481863975524902344e-01,9.854998588562011719e-01,1.000000000000000000e+00,1.000000000000000000e+00,1.000000000000000000e+00,1.000000000000000000e+00,1.000000000000000000e+00,1.000000000000000000e+00,1.000000000000000000e+00,1.000000000000000000e+00,1.000000000000000000e+00,1.000000000000000000e+00,1.000000000000000000e+00,1.000000000000000000e+00,1.000000000000000000e+00,1.000000000000000000e+00,1.000000000000000000e+00,1.000000000000000000e+00,1.000000000000000000e+00,1.865401148796081432e-01,1.800731301307678112e-01,1.783796906471252497e-01,1.767177820205688421e-01,1.762956142425537165e-01,1.765075683593750056e-01,1.767200589179992731e-01,1.847726821899414174e-01,1.000000000000000000e+00,1.000000000000000000e+00,1.000000000000000000e+00,1.000000000000000000e+00,1.000000000000000000e+00,1.000000000000000000e+00,1.758190512657165638e-01,1.714532494544983021e-01,1.696710109710693470e-01,1.680673360824584961e-01,1.672435283660888561e-01,1.678846955299377330e-01,1.684135437011718694e-01,1.688383221626281738e-01,1.000000000000000000e+00,1.000000000000000000e+00,1.000000000000000000e+00,1.000000000000000000e+00,1.000000000000000000e+00,1.000000000000000000e+00,1.000000000000000000e+00,1.000000000000000000e+00,1.000000000000000000e+00,1.000000000000000000e+00,1.000000000000000000e+00,1.000000000000000000e+00,1.000000000000000000e+00,1.000000000000000000e+00,1.000000000000000000e+00,9.687518119812011941e-01,9.370741844177246094e-01,9.074026107788085715e-01,8.795525550842284712e-01,8.533610343933105691e-01,8.286843299865722656e-01,8.053934097290038618e-01,7.833758354187011497e-01,7.625300407409667525e-01,7.427648544311523660e-01
6.197275161743164285e-01,6.354483127593993919e-01,6.519875049591064009e-01,6.694106101989746316e-01,6.877905845642089400e-01,7.072082996368408425e-01,7.277542591094970925e-01,7.495297431945801003e-01,7.726485729217529297e-01,7.972390174865722212e-01,8.234460830688477007e-01,8.514346122741699441e-01,8.813933372497558816e-01,9.135458946228027788e-01,9.481329917907714844e-01,9.854419708251953569e-01,1.000000000000000000e+00,1.000000000000000000e+00,1.000000000000000000e+00,1.000000000000000000e+00,1.000000000000000000e+00,1.000000000000000000e+00,1.000000000000000000e+00,1.000000000000000000e+00,1.000000000000000000e+00,1.000000000000000000e+00,1.000000000000000000e+00,1.000000000000000000e+00,1.000000000000000000e+00,1.000000000000000000e+00,1.000000000000000000e+00,1.000000000000000000e+00,1.000000000000000000e+00,1.874295115470886175e-01,1.811291813850402777e-01,1.794159173965454157e-01,1.777618169784545843e-01,1.771888136863708496e-01,1.774029374122619573e-01,1.776175975799560436e-01,1.868248343467712458e-01,1.000000000000000000e+00,1.000000000000000000e+00,1.000000000000000000e+00,1.000000000000000000e+00,1.000000000000000000e+00,1.818310022354125977e-01,1.754686474800109808e-01,1.718684196472168024e-01,1.701822042465210016e-01,1.685688853263855036e-01,1.683072090148925726e-01,1.689566016197204534e-01,1.695204973220825195e-01,1.699508786201477106e-01,1.000000000000000000e+00,1.000000000000000000e+00,1.000000000000000000e+00,1.000000000000000000e+00,1.000000000000000000e+00,1.000000000000000000e+00,1.000000000000000000e+00,1.000000000000000000e+00,1.000000000000000000e+00,1.000000000000000000e+00,1.000000000000000000e+00,1.000000000000000000e+00,1.000000000000000000e+00,1.000000000000000000e+00,1.000000000000000000e+00,9.687851905822754128e-01,9.371053695678710493e-01,9.074319839477539285e-01,8.795792579650878462e-01,8.533846855163573775e-01,8.287051200866699663e-01,8.054129600524901900e-01,7.833943843841553178e-01,7.625476360321045144e-01,7.427816390991210938e-01
6.197142124176024947e-01,6.354344367980957475e-01,6.519728660583495872e-01,6.693952083587646484e-01,6.877742290496826616e-01,7.071909904479980469e-01,7.277359485626220259e-01,7.495104312896728738e-01,7.726280212402343306e-01,7.972170829772948775e-01,8.234226226806640181e-01,8.514096260070800337e-01,8.813660621643066850e-01,9.135072708129883257e-01,9.480814933776855469e-01,9.853842735290527788e-01,1.000000000000000000e+00,1.000000000000000000e+00,1.000000000000000000e+00,1.000000000000000000e+00,1.000000000000000000e+00,1.000000000000000000e+00,1.000000000000000000e+00,1.000000000000000000e+00,1.000000000000000000e+00,1.000000000000000000e+00,1.000000000000000000e+00,1.000000000000000000e+00,1.000000000000000000e+00,1.000000000000000000e+00,1.000000000000000000e+00,1.000000000000000000e+00,1.000000000000000000e+00,1.883274435997009388e-01,1.821976900100708008e-01,1.804642558097839244e-01,1.788198828697204479e-01,1.780911326408386175e-01,1.783074259757995716e-01,1.791985154151916615e-01,1.886944890022277943e-01,1.000000000000000000e+00,1.000000000000000000e+00,1.000000000000000000e+00,1.000000000000000000e+00,1.000000000000000000e+00,1.814562916755676214e-01,1.751196622848510687e-01,1.723509788513183649e-01,1.706964850425720104e-01,1.690734505653381237e-01,1.693845152854919489e-01,1.700422525405883845e-01,1.706420779228210449e-01,1.000000000000000000e+00,1.000000000000000000e+00,1.000000000000000000e+00,1.000000000000000000e+00,1.000000000000000000e+00,1.000000000000000000e+00,1.000000000000000000e+00,1.000000000000000000e+00,1.000000000000000000e+00,1.000000000000000000e+00,1.000000000000000000e+00,1.000000000000000000e+00,1.000000000000000000e+00,1.000000000000000000e+00,1.000000000000000000e+00,1.000000000000000000e+00,9.688184738159180132e-01,9.371348381042480247e-01,9.074577331542968972e-01,8.796027183532715288e-01,8.534067153930664507e-01,8.287260055541991743e-01,8.054327011108398660e-01,7.834129810333252397e-01,7.625653266906737837e-01,7.427983283996582031e-01
6.197010040283202903e-01,6.354204654693603738e-01,6.519581794738769087e-01,6.693797111511230469e-01,6.877579689025878906e-01,7.071737766265868697e-01,7.277177333831786887e-01,7.494910240173340288e-01,7.726073741912842241e-01,7.971951961517333984e-01,8.233992576599120650e-01,8.513846397399902344e-01,8.813392639160155806e-01,9.134785652160644087e-01,9.480504989624023438e-01,9.853424072265625222e-01,1.000000000000000000e+00,1.000000000000000000e+00,1.000000000000000000e+00,1.000000000000000000e+00,1.000000000000000000e+00,1.000000000000000000e+00,1.000000000000000000e+00,1.000000000000000000e+00,1.000000000000000000e+00,1.000000000000000000e+00,1.000000000000000000e+00,1.000000000000000000e+00,1.000000000000000000e+00,1.000000000000000000e+00,1.000000000000000000e+00,1.000000000000000000e+00,1.000000000000000000e+00,1.890841126441955566e-01,1.832788944244384821e-01,1.815356135368347279e-01,1.798906326293945312e-01,1.790945887565612848e-01,1.792212128639221191e-01,1.813120007514953669e-01,1.000000000000000000e+00,1.000000000000000000e+00,1.000000000000000000e+00,1.000000000000000000e+00,1.000000000000000000e+00,1.000000000000000000e+00,1.811248302459716741e-01,1.747850418090820257e-01,1.728784561157226674e-01,1.712138652801513672e-01,1.698146224021911677e-01,1.704757094383239635e-01,1.711419582366943415e-01,1.717786192893981934e-01,1.000000000000000000e+00,1.000000000000000000e+00,1.000000000000000000e+00,1.000000000000000000e+00,1.000000000000000000e+00,1.000000000000000000e+00,1.000000000000000000e+00,1.000000000000000000e+00,1.000000000000000000e+00,1.000000000000000000e+00,1.000000000000000000e+00,1.000000000000000000e+00,1.000000000000000000e+00,1.000000000000000000e+00,1.000000000000000000e+00,1.000000000000000000e+00,9.688468933105468528e-01,9.371613502502441628e-01,9.074827194213866965e-01,8.796261787414551003e-01,8.534288406372070312e-01,8.287467956542968750e-01,8.054523468017578125e-01,7.834315299987792969e-01,7.625828742980956809e-01,7.428150177001953125e-01
6.196877002716064675e-01,6.354065418243408647e-01,6.519435405731200950e-01,6.693643093109130637e-01,6.877416133880615012e-01,7.071565151214599387e-01,7.276994228363037331e-01,7.494716644287109375e-01,7.725868701934814897e-01,7.971732139587401900e-01,8.233758926391601118e-01,8.513596534729004350e-01,8.813124656677245872e-01,9.134497642517089844e-01,9.480195045471191406e-01,9.853089332580566850e-01,1.000000000000000000e+00,1.000000000000000000e+00,1.000000000000000000e+00,1.000000000000000000e+00,1.000000000000000000e+00,1.000000000000000000e+00,1.000000000000000000e+00,1.000000000000000000e+00,1.000000000000000000e+00,1.000000000000000000e+00,1.000000000000000000e+00,1.000000000000000000e+00,1.000000000000000000e+00,1.000000000000000000e+00,1.000000000000000000e+00,1.000000000000000000e+00,1.000000000000000000e+00,1.897093772888183705e-01,1.843729853630065862e-01,1.826392412185668945e-01,1.809742927551269420e-01,1.801533579826354869e-01,1.801443934440612737e-01,1.834758996963500866e-01,1.000000000000000000e+00,1.000000000000000000e+00,1.000000000000000000e+00,1.000000000000000000e+00,1.000000000000000000e+00,1.000000000000000000e+00,1.808487176895141602e-01,1.753737092018127497e-01,1.735688447952270508e-01,1.718007326126098633e-01,1.709113717079162598e-01,1.715810537338256780e-01,1.722560048103332631e-01,1.729303717613220326e-01,1.000000000000000000e+00,1.000000000000000000e+00,1.000000000000000000e+00,1.000000000000000000e+00,1.000000000000000000e+00,1.000000000000000000e+00,1.000000000000000000e+00,1.000000000000000000e+00,1.000000000000000000e+00,1.000000000000000000e+00,1.000000000000000000e+00,1.000000000000000000e+00,1.000000000000000000e+00,1.000000000000000000e+00,1.000000000000000000e+00,1.000000000000000000e+00,9.688754081726074219e-01,9.371879577636719194e-01,9.075077056884766069e-01,8.796496391296386719e-01,8.534508705139159934e-01,8.287675857543945757e-01,8.054719924926757590e-01,7.834501743316650835e-01,7.626004695892334428e-01,7.428317546844482866e-01
6.196744918823242632e-01,6.353926181793212447e-01,6.519288539886474165e-01,6.693488121032714622e-01,6.877253532409668413e-01,7.071393013000488725e-01,7.276812076568603960e-01,7.494522571563720925e-01,7.725662231445312722e-01,7.971512317657470925e-01,8.233525276184081587e-01,8.513345718383789062e-01,8.812856674194335938e-01,9.134209632873535600e-01,9.479885101318359375e-01,9.852753639221191184e-01,1.000000000000000000e+00,1.000000000000000000e+00,1.000000000000000000e+00,1.000000000000000000e+00,1.000000000000000000e+00,1.000000000000000000e+00,1.000000000000000000e+00,1.000000000000000000e+00,1.000000000000000000e+00,1.000000000000000000e+00,1.000000000000000000e+00,1.000000000000000000e+00,1.000000000000000000e+00,1.000000000000000000e+00,1.000000000000000000e+00,1.000000000000000000e+00,1.000000000000000000e+00,1.903388023376464955e-01,1.854802370071411133e-01,1.837563633918762318e-01,1.820710539817810003e-01,1.812247037887573242e-01,1.810771346092224232e-01,1.854949593544006348e-01,1.000000000000000000e+00,1.000000000000000000e+00,1.000000000000000000e+00,1.000000000000000000e+00,1.000000000000000000e+00,1.880861997604370006e-01,1.805734395980835016e-01,1.761442661285400335e-01,1.743235707283020131e-01,1.725401520729064886e-01,1.721133947372436579e-01,1.727595686912536677e-01,1.734106063842773549e-01,1.740738630294799694e-01,1.000000000000000000e+00,1.000000000000000000e+00,1.000000000000000000e+00,1.000000000000000000e+00,1.000000000000000000e+00,1.000000000000000000e+00,1.000000000000000000e+00,1.000000000000000000e+00,1.000000000000000000e+00,1.000000000000000000e+00,1.000000000000000000e+00,1.000000000000000000e+00,1.000000000000000000e+00,1.000000000000000000e+00,1.000000000000000000e+00,1.000000000000000000e+00,9.689038276672363725e-01,9.372145652770995650e-01,9.075325965881347878e-01,8.796730041503906250e-01,8.534729003906249556e-01,8.287883758544921653e-01,8.054916381835937056e-01,7.834687709808350053e-01,7.626181602478027122e-01,7.428484439849853960e-01
6.196612358093261941e-01,6.353786468505859819e-01,6.519142150878906028e-01,6.693333625793457253e-01,6.877089977264404519e-01,7.071219921112060769e-01,7.276628971099853294e-01,7.494329452514648660e-01,7.725456714630126731e-01,7.971293926239013672e-01,8.233290672302245872e-01,8.513095855712891069e-01,8.812588691711426003e-01,9.133921623229980247e-01,9.479575157165527344e-01,9.852418899536132812e-01,1.000000000000000000e+00,1.000000000000000000e+00,1.000000000000000000e+00,1.000000000000000000e+00,1.000000000000000000e+00,1.000000000000000000e+00,1.000000000000000000e+00,1.000000000000000000e+00,1.000000000000000000e+00,1.000000000000000000e+00,1.000000000000000000e+00,1.000000000000000000e+00,1.000000000000000000e+00,1.000000000000000000e+00,1.000000000000000000e+00,1.000000000000000000e+00,1.000000000000000000e+00,1.909724116325378362e-01,1.866253137588501088e-01,1.848872184753417858e-01,1.831812143325805553e-01,1.823088884353637751e-01,1.820195913314819336e-01,1.873379588127136175e-01,1.000000000000000000e+00,1.000000000000000000e+00,1.000000000000000000e+00,1.000000000000000000e+00,1.000000000000000000e+00,1.876718044281005804e-01,1.802990078926086370e-01,1.769216060638427734e-01,1.750849127769470159e-01,1.732574582099914440e-01,1.733404636383056585e-01,1.739959120750427246e-01,1.746563076972961481e-01,1.000000000000000000e+00,1.000000000000000000e+00,1.000000000000000000e+00,1.000000000000000000e+00,1.000000000000000000e+00,1.000000000000000000e+00,1.000000000000000000e+00,1.000000000000000000e+00,1.000000000000000000e+00,1.000000000000000000e+00,1.000000000000000000e+00,1.000000000000000000e+00,1.000000000000000000e+00,1.000000000000000000e+00,1.000000000000000000e+00,1.000000000000000000e+00,1.000000000000000000e+00,9.689322471618652122e-01,9.372411727905273215e-01,9.075575828552245872e-01,8.796964645385741965e-01,8.534950256347656472e-01,8.288092613220214844e-01,8.055112838745117632e-01,7.834873199462890625e-01,7.626357555389404741e-01,7.428651332855225053e-01
6.196480274200439897e-01,6.353647708892822266e-01,6.518995285034179243e-01,6.693178653717041238e-01,6.876926898956299272e-01,7.071047782897948997e-01,7.276446819305419922e-01,7.494134902954101562e-01,7.725250244140624556e-01,7.971074104309081587e-01,8.233057022094726340e-01,8.512845993041991965e-01,8.812320709228516069e-01,9.133633613586426003e-01,9.479265213012695312e-01,9.852084159851074441e-01,1.000000000000000000e+00,1.000000000000000000e+00,1.000000000000000000e+00,1.000000000000000000e+00,1.000000000000000000e+00,1.000000000000000000e+00,1.000000000000000000e+00,1.000000000000000000e+00,1.000000000000000000e+00,1.000000000000000000e+00,1.000000000000000000e+00,1.000000000000000000e+00,1.000000000000000000e+00,1.000000000000000000e+00,1.000000000000000000e+00,1.000000000000000000e+00,1.000000000000000000e+00,1.917670488357544056e-01,1.877918601036071833e-01,1.860320925712585505e-01,1.843049764633178655e-01,1.834061145782470703e-01,1.830238580703735241e-01,1.892917990684509222e-01,1.000000000000000000e+00,1.000000000000000000e+00,1.000000000000000000e+00,1.000000000000000000e+00,1.000000000000000000e+00,1.872592329978942927e-01,1.800254344940185602e-01,1.777058601379394587e-01,1.758438467979431263e-01,1.741933465003967230e-01,1.745851516723632701e-01,1.752500653266906849e-01,1.759200453758239802e-01,1.000000000000000000e+00,1.000000000000000000e+00,1.000000000000000000e+00,1.000000000000000000e+00,1.000000000000000000e+00,1.000000000000000000e+00,1.000000000000000000e+00,1.000000000000000000e+00,1.000000000000000000e+00,1.000000000000000000e+00,1.000000000000000000e+00,1.000000000000000000e+00,1.000000000000000000e+00,1.000000000000000000e+00,1.000000000000000000e+00,1.000000000000000000e+00,1.000000000000000000e+00,9.689606666564941628e-01,9.372678756713866965e-01,9.075825691223144975e-01,8.797199249267577681e-01,8.535170555114746094e-01,8.288300514221191850e-01,8.055309295654297097e-01,7.835060119628906028e-01,7.626533508300781250e-01,7.428819179534912331e-01
6.196347236633300559e-01,6.353507995605468528e-01,6.518848896026611106e-01,6.693024635314941406e-01,6.876763820648192915e-01,7.070875167846679688e-01,7.276263713836670366e-01,7.493941783905029297e-01,7.725044727325439675e-01,7.970855236053466797e-01,8.232823371887206809e-01,8.512596130371093972e-01,8.812052726745605025e-01,9.133346557617187944e-01,9.478955268859863281e-01,9.710132598876952681e-01,9.707723617553710715e-01,9.705315589904784934e-01,9.702909469604492632e-01,9.700503349304199219e-01,9.698099136352539285e-01,9.695695877075195535e-01,9.693294525146484153e-01,9.690893173217773882e-01,9.688493728637694868e-01,9.686096191406250444e-01,9.683698654174804910e-01,9.681303024291991743e-01,9.678908348083495872e-01,9.676513671875000000e-01,9.674121856689452681e-01,9.671730995178222656e-01,9.669341087341308816e-01,1.932267069816589466e-01,1.890730381011963002e-01,1.872830629348754827e-01,1.855266451835632380e-01,1.848507523536682129e-01,1.843846082687377874e-01,1.916434645652770885e-01,9.650262832641601785e-01,9.647883415222168191e-01,9.645505905151366965e-01,9.643128395080566850e-01,9.640752792358397993e-01,1.868484735488891713e-01,1.804064750671386663e-01,1.784970879554748646e-01,1.765874862670898382e-01,1.753874063491821234e-01,1.758478641510009821e-01,1.765224337577819824e-01,9.621787071228027344e-01,9.619421958923339844e-01,9.617057800292968528e-01,9.614694595336914507e-01,9.612333297729491743e-01,9.609972000122070090e-01,9.607612609863280806e-01,9.605254173278808816e-01,9.602896690368651900e-01,9.600540161132812278e-01,9.598185539245605025e-01,9.595831871032715066e-01,9.593479156494140181e-01,9.591128349304198775e-01,9.588777542114257368e-01,9.586428642272949441e-01,9.584080696105956587e-01,9.581733703613281028e-01,9.579387664794921653e-01,9.372943878173828347e-01,9.076074600219726785e-01,8.797433853149414507e-01,8.535391807556151900e-01,8.288508415222167747e-01,8.055505752563476562e-01,7.835245609283447710e-01,7.626709461212157759e-01,7.428986072540283425e-01
6.196215152740478516e-01,6.353369235992432085e-01,6.518702030181884322e-01,6.692869663238525391e-01,6.876600265502930132e-01,7.070703029632567915e-01,7.276081562042235884e-01,7.493747711181640847e-01,7.542459964752197266e-01,7.541006088256836382e-01,7.539553165435790572e-01,7.538100242614745872e-01,7.536648273468017356e-01,7.535196781158447488e-01,7.533746242523193803e-01,7.532296180725097656e-01,7.530846595764160156e-01,7.529397010803222656e-01,7.527948856353759988e-01,7.526500701904297319e-01,7.525053501129150835e-01,7.523606777191161887e-01,7.522160530090331587e-01,7.520714759826659934e-01,7.519269466400146928e-01,7.517824649810791460e-01,7.516380786895752175e-01,7.514937400817871538e-01,7.513494491577148438e-01,7.512052059173583984e-01,7.510610103607178178e-01,7.509168624877929910e-01,7.507727146148681641e-01,1.947087287902831976e-01,1.904079914093017578e-01,1.885927557945251409e-01,1.868371725082397516e-01,1.865998029708862416e-01,1.861248016357421875e-01,1.940543174743652455e-01,7.496221065521240234e-01,7.494785308837890181e-01,7.493350028991698775e-01,7.491915702819824663e-01,7.490481376647949441e-01,1.864395141601562500e-01,1.812219858169555609e-01,1.792750120162963923e-01,1.773374795913696400e-01,1.765979528427124023e-01,1.771289587020873912e-01,1.778134107589721680e-01,7.479027271270751731e-01,7.477598190307617188e-01,7.476169586181640181e-01,7.474741458892821822e-01,7.473313808441162109e-01,7.471887111663818581e-01,7.470460414886475053e-01,7.469034671783447710e-01,7.467608928680420366e-01,7.466184139251709206e-01,7.464759826660156694e-01,7.463336467742920366e-01,7.461913108825684038e-01,7.460490226745605247e-01,7.459068298339843750e-01,7.457646846771239790e-01,7.456225395202636941e-01,7.454804897308349165e-01,7.453385353088378684e-01,7.451965808868408203e-01,7.450546264648437722e-01,7.449127674102783425e-01,7.447710037231445312e-01,7.446292400360107200e-01,7.444875717163086382e-01,7.443459510803223100e-01,7.442044258117676003e-01,7.429152965545654519e-01
6.166950225830077903e-01,6.165977954864502175e-01,6.165006637573242632e-01,6.164035320281981978e-01,6.163064002990722434e-01,6.162093639373779075e-01,6.161123275756835715e-01,6.160153388977051003e-01,6.159183979034423828e-01,6.158214569091796653e-01,6.157245635986328125e-01,6.156276702880859597e-01,6.155308246612548606e-01,6.154340267181396262e-01,6.153372287750243919e-01,6.152404785156250222e-01,6.151437759399414062e-01,6.150470733642577903e-01,6.149504184722900391e-01,6.148538112640380415e-01,6.147572040557861550e-01,6.146606445312500222e-01,6.145640850067138894e-01,6.144676208496093750e-01,6.143710613250732422e-01,6.142746448516845925e-01,6.141782283782959428e-01,6.140818119049071822e-01,6.139854907989501509e-01,6.138891696929931197e-01,6.137928485870360884e-01,6.136965751647949219e-01,6.136003494262695090e-01,1.962136864662170355e-01,1.917619466781616266e-01,1.899209141731262318e-01,1.881739377975463756e-01,1.883822441101074274e-01,1.878981471061706432e-01,6.129275798797607644e-01,6.128315925598144531e-01,6.127356529235840066e-01,6.126397132873535600e-01,6.125438213348388672e-01,6.124478816986084206e-01,1.860323548316955566e-01,1.820448994636535700e-01,1.800480604171753041e-01,1.780938386917114147e-01,1.778253436088562123e-01,1.784288525581359808e-01,6.117775917053223100e-01,6.116819858551025835e-01,6.115863800048828569e-01,6.114908218383788840e-01,6.113952636718750222e-01,6.112997531890869141e-01,6.112042427062988059e-01,6.111088275909424272e-01,6.110133647918700728e-01,6.109179973602294478e-01,6.108226299285888228e-01,6.107273101806640625e-01,6.106319904327393022e-01,6.105366706848144309e-01,6.104413986206054243e-01,6.103461742401122825e-01,6.102509975433350053e-01,6.101558685302734819e-01,6.100607395172119585e-01,6.099656105041504350e-01,6.098705768585205300e-01,6.097755432128906250e-01,6.096805095672607200e-01,6.095855236053466797e-01,6.094905853271483931e-01,6.093956947326659712e-01,6.093008041381835493e-01,6.092059135437011275e-01,6.091111183166504350e-01
5.210202217102051225e-01,5.209508419036865678e-01,5.208815097808837669e-01,5.208121299743652122e-01,5.207428455352782759e-01,5.206735610961914507e-01,5.206042289733886497e-01,5.205349922180175781e-01,5.204657554626465066e-01,5.203965187072754350e-01,5.203273296356201172e-01,5.202581405639647993e-01,5.201889991760253462e-01,5.201198577880858931e-01,5.200507164001464400e-01,5.199816226959228516e-01,5.199124813079833984e-01,5.198434352874755637e-01,5.197743415832519753e-01,5.197053432464600053e-01,5.196362972259521706e-01,5.195672988891602007e-01,5.194983482360839844e-01,5.194293975830077681e-01,5.193604469299316628e-01,5.192914962768554465e-01,5.192225933074950950e-01,5.191537380218506081e-01,5.190848350524902566e-01,5.190160274505615234e-01,5.189471721649170366e-01,5.188783645629883035e-01,5.188095569610595703e-01,1.977420568466186634e-01,1.931352853775024359e-01,1.912889719009399359e-01,1.895299434661865123e-01,1.899803638458252009e-01,1.897056102752685547e-01,5.183284759521484819e-01,5.182598114013672319e-01,5.181911945343017356e-01,5.181225776672363503e-01,5.180539608001708540e-01,5.179853916168213335e-01,1.856269478797912542e-01,1.828427791595458873e-01,1.808277606964111273e-01,1.791131973266601451e-01,1.790699005126953069e-01,1.829587340354919545e-01,5.175058841705322266e-01,5.174374580383300781e-01,5.173690319061279297e-01,5.173006534576416460e-01,5.172322750091552512e-01,5.171638488769531028e-01,5.170955181121825728e-01,5.170271873474121538e-01,5.169589042663573775e-01,5.168906211853027122e-01,5.168223381042480469e-01,5.167541027069091353e-01,5.166858673095703347e-01,5.166176319122314231e-01,5.165494441986083762e-01,5.164812564849853294e-01,5.164131164550781472e-01,5.163449764251708540e-01,5.162768363952636719e-01,5.162087440490722434e-01,5.161406517028808150e-01,5.160725593566894975e-01,5.160045146942138228e-01,5.159364700317382590e-01,5.158684730529785600e-01,5.158004283905028853e-01,5.157324314117431863e-01,5.156644821166992410e-01,5.155965328216552956e-01
4.510446548461913840e-01,4.509926319122314342e-01,4.509406566619872936e-01,4.508887290954589622e-01,4.508367538452148215e-01,4.507847785949706809e-01,4.507328510284424050e-01,4.506809711456298828e-01,4.506290435791015514e-01,4.505771636962890847e-01,4.505252838134765625e-01,4.504734039306640403e-01,4.504215240478515736e-01,4.503696918487548606e-01,4.503178596496582031e-01,4.502660274505615456e-01,4.502142429351806419e-01,4.501624584197997936e-01,4.501106739044189453e-01,4.500588893890380970e-01,4.500071525573730580e-01,4.499553680419922097e-01,4.499036312103271706e-01,4.498519420623779408e-01,4.498002052307129017e-01,4.497485160827636719e-01,4.496968269348144420e-01,4.496451854705810769e-01,4.495934963226318470e-01,4.495418071746826172e-01,4.494901657104491965e-01,4.494385719299316406e-01,4.493869304656982200e-01,1.990659832954406738e-01,1.945284366607666071e-01,1.926904201507568248e-01,1.909056544303893987e-01,1.914009213447570856e-01,1.915481567382812389e-01,4.490259647369384544e-01,4.489744186401367076e-01,4.489229202270507701e-01,4.488714218139648326e-01,4.488199710845947044e-01,1.958412408828735241e-01,1.892674803733825628e-01,1.858483433723449596e-01,1.816142797470092773e-01,1.803759098052978571e-01,1.803769230842590388e-01,4.484598636627197266e-01,4.484084606170654075e-01,4.483571052551269531e-01,4.483057022094726340e-01,4.482543468475341797e-01,4.482030391693115345e-01,4.481516838073730247e-01,4.481003761291503795e-01,4.480490684509277344e-01,4.479977607727050892e-01,4.479465007781982533e-01,4.478951930999756081e-01,4.478439331054687722e-01,4.477927207946777455e-01,4.477414608001709095e-01,4.476902484893798828e-01,4.476390361785888561e-01,4.475878238677978294e-01,4.475366115570068581e-01,4.474853992462158314e-01,4.474342346191406139e-01,4.473831176757812611e-01,4.473319530487060436e-01,4.472808361053466908e-01,4.472297191619872825e-01,4.471786022186279297e-01,4.471274852752685769e-01,4.470764160156249778e-01,4.470253467559814342e-01,4.469742774963378906e-01
3.976396799087524303e-01,3.975992679595947155e-01,3.975588798522949330e-01,3.975184679031372181e-01,3.974780797958373801e-01,3.974377393722534069e-01,3.973973512649536244e-01,3.973569631576537864e-01,3.973166465759277455e-01,3.972762823104858398e-01,3.972359418869018666e-01,3.971956253051757701e-01,3.971553087234497292e-01,3.971150159835815652e-01,3.970746994018554688e-01,3.970343828201293723e-01,3.969941377639770730e-01,3.969538450241089089e-01,3.969135999679565541e-01,3.968733072280883900e-01,3.968330860137939675e-01,3.967928171157836803e-01,3.967525720596313255e-01,3.967123746871948353e-01,3.966721296310424805e-01,3.966319561004638672e-01,3.965917348861694447e-01,3.965515613555908314e-01,3.965113639831542858e-01,3.964712142944336049e-01,3.964310169219970592e-01,3.963908910751342551e-01,3.963507175445556419e-01,2.003032922744751032e-01,1.959581017494201605e-01,1.941125750541687067e-01,1.923014640808105580e-01,1.928428888320922741e-01,1.939351081848144642e-01,3.960699081420898660e-01,3.960298061370849387e-01,3.959897518157958762e-01,3.959496498107910045e-01,3.959095716476440652e-01,1.923537850379943848e-01,1.880409598350524791e-01,1.858629584312438965e-01,1.849344015121459905e-01,1.842668652534484863e-01,3.956693649291992410e-01,3.956293821334838645e-01,3.955893754959106667e-01,3.955493927001952903e-01,3.955094099044799694e-01,3.954694509506225808e-01,3.954294681549072044e-01,3.953895330429076926e-01,3.953495502471923717e-01,3.953096389770507924e-01,3.952696800231933483e-01,3.952297925949096458e-01,3.951898574829101340e-01,3.951499223709106223e-01,3.951100349426269753e-01,3.950701236724853405e-01,3.950302600860595703e-01,3.949903726577758678e-01,3.949505090713500977e-01,3.949106454849243275e-01,3.948708057403564342e-01,3.948309421539306641e-01,3.947911262512207031e-01,3.947512865066528098e-01,3.947114944458007812e-01,3.946716547012328880e-01,3.946318626403808594e-01,3.945920467376708984e-01,3.945523023605346791e-01,3.945124864578247181e-01,3.944727420806884988e-01
3.555424451828003152e-01,3.555101156234741211e-01,3.554778575897216686e-01,3.554455280303955300e-01,3.554132461547851451e-01,3.553809881210326926e-01,3.553486824035644309e-01,3.553164482116699108e-01,3.552841663360595814e-01,3.552518844604491965e-01,3.552196502685546764e-01,3.551873922348022239e-01,3.551551342010498269e-01,3.551229238510131836e-01,3.550906896591186634e-01,3.550584316253662109e-01,3.550262451171875000e-01,3.549940109252929799e-01,3.549618482589721458e-01,3.549296140670776256e-01,3.548974037170410378e-01,3.548652410507202037e-01,3.548330545425414928e-01,3.548008918762207142e-01,3.547687053680420033e-01,3.547365665435791016e-01,3.547043800354003906e-01,3.546722650527954213e-01,3.546401023864745872e-01,3.546079874038696178e-01,3.545758247375488392e-01,3.545437097549438699e-01,3.545115709304809681e-01,3.544794797897338756e-01,1.974290728569030873e-01,1.955558657646179199e-01,1.937178611755371038e-01,1.943067550659179632e-01,1.964043140411377009e-01,3.542868852615356223e-01,3.542548179626464622e-01,3.542227268218994252e-01,3.541906833648681419e-01,1.968878984451293834e-01,1.924702882766723688e-01,1.877324104309082142e-01,1.856958389282226674e-01,1.846780419349670355e-01,1.844465851783752552e-01,3.539663791656494363e-01,3.539343833923339622e-01,3.539023637771606667e-01,3.538703680038451926e-01,3.538383483886718972e-01,3.538063526153564231e-01,3.537743806838989369e-01,3.537423849105835183e-01,3.537104129791259766e-01,3.536784410476684348e-01,3.536464929580688255e-01,3.536144971847534069e-01,3.535825729370117299e-01,3.535506010055541881e-01,3.535186767578125111e-01,3.534867286682129017e-01,3.534548282623291016e-01,3.534228801727294922e-01,3.533909797668456920e-01,3.533590555191040150e-01,3.533271551132202148e-01,3.532952308654785378e-01,3.532633543014526145e-01,3.532314538955688699e-01,3.531996011734008789e-01,3.531677007675170787e-01,3.531358003616332786e-01,3.531039714813232200e-01,3.530720949172973522e-01,3.530402660369872936e-01,3.530083894729614258e-01
3.215053796768188588e-01,3.214789867401123269e-01,3.214525461196899303e-01,3.214261293411254661e-01,3.213997364044189342e-01,3.213733434677124023e-01,3.213469266891479381e-01,3.213205575942993386e-01,3.212941646575927512e-01,3.212677955627441517e-01,3.212414026260376199e-01,3.212150096893310325e-01,3.211886644363403098e-01,3.211622953414917103e-01,3.211359262466430553e-01,3.211095809936523326e-01,3.210832118988037331e-01,3.210568666458130105e-01,3.210305452346801647e-01,3.210041761398315652e-01,3.209778785705566517e-01,3.209515333175659291e-01,3.209251880645752064e-01,3.208988904953002930e-01,3.208725452423095703e-01,3.208462715148925892e-01,3.208199501037597434e-01,3.207936286926269531e-01,3.207673549652099720e-01,3.207410335540771262e-01,3.207147598266601451e-01,3.206884622573852317e-01,3.206621885299682506e-01,3.206359148025512695e-01,2.017009735107421764e-01,1.991510272026061901e-01,1.983659982681274525e-01,1.989419698715209905e-01,3.205046176910400502e-01,3.204783439636230691e-01,3.204521179199218972e-01,3.204258680343627930e-01,3.203996419906616211e-01,1.955232024192810059e-01,1.919289112091064342e-01,1.878826260566711370e-01,1.852305293083190973e-01,1.841837167739868164e-01,1.837647438049316295e-01,1.863045811653137318e-01,3.201898813247680553e-01,3.201637029647826926e-01,3.201374769210815208e-01,3.201113224029540905e-01,3.200851202011108509e-01,3.200589418411254883e-01,3.200327634811401256e-01,3.200066089630126953e-01,3.199804067611694558e-01,3.199542522430419700e-01,3.199280977249145397e-01,3.199019432067871094e-01,3.198757886886596791e-01,3.198496580123901256e-01,3.198235034942626953e-01,3.197973728179931419e-01,3.197712182998657116e-01,3.197450876235962136e-01,3.197189807891845925e-01,3.196928262710571067e-01,3.196667432785034180e-01,3.196406126022338645e-01,3.196145057678222434e-01,3.195883989334106223e-01,3.195623159408569336e-01,3.195362091064453125e-01,3.195101261138916238e-01,3.194840192794800027e-01,3.194579601287841908e-01,3.194318532943725697e-01
2.934158802032470481e-01,2.933938741683960183e-01,2.933718681335449330e-01,2.933498859405517800e-01,2.933278799057006947e-01,2.933058738708496094e-01,2.932838916778564564e-01,2.932619094848633035e-01,2.932399272918700950e-01,2.932179689407348744e-01,2.931959867477417214e-01,2.931740283966064453e-01,2.931520462036132924e-01,2.931300640106201394e-01,2.931081295013427956e-01,2.930861711502075195e-01,2.930641889572143666e-01,2.930422544479370228e-01,2.930202960968017467e-01,2.929983615875244030e-01,2.929764270782470592e-01,2.929544925689697155e-01,2.929325342178344949e-01,2.929106235504150280e-01,2.928886890411376842e-01,2.928667783737182728e-01,2.928448438644409291e-01,2.928229093551635853e-01,2.928010225296020508e-01,2.927791118621826394e-01,2.927572011947631725e-01,2.927352905273437611e-01,2.927134037017822266e-01,2.926914930343628152e-01,2.025469064712524525e-01,2.001016378402709905e-01,1.993442535400390681e-01,1.995601415634155329e-01,2.925820827484130748e-01,2.925601959228515403e-01,2.925383090972900613e-01,2.925164699554443359e-01,2.924945831298828014e-01,1.955420732498169001e-01,1.918227195739746205e-01,1.885856270790099987e-01,1.847675561904907338e-01,1.831276059150695745e-01,1.817195534706115834e-01,1.817460060119628906e-01,2.923197746276855469e-01,2.922979593276977539e-01,2.922761201858520286e-01,2.922543048858642356e-01,2.922324657440185658e-01,2.922106504440307728e-01,2.921888113021850475e-01,2.921670198440551869e-01,2.921452045440673939e-01,2.921233654022216686e-01,2.921015739440918080e-01,2.920797586441040150e-01,2.920579671859740989e-01,2.920361757278442383e-01,2.920143842697143777e-01,2.919925928115844616e-01,2.919708013534546009e-01,2.919490098953246848e-01,2.919272422790527566e-01,2.919054508209228405e-01,2.918836832046508567e-01,2.918619155883789285e-01,2.918401479721069447e-01,2.918183803558349609e-01,2.917966365814209095e-01,2.917748689651489258e-01,2.917531251907348744e-01,2.917313575744628906e-01,2.917096138000488392e-01,2.916878700256347878e-01
2.698402643203735574e-01,2.698216438293457031e-01,2.698030471801757812e-01,2.697844505310058594e-01,2.697658300399780051e-01,2.697472572326660156e-01,2.697286367416381614e-01,2.697100400924682395e-01,2.696914672851562500e-01,2.696728706359863281e-01,2.696542739868164062e-01,2.696357011795044167e-01,2.696171045303344949e-01,2.695985555648803822e-01,2.695799589157104603e-01,2.695613861083984153e-01,2.695428133010864258e-01,2.695242404937744363e-01,2.695056676864623912e-01,2.694871187210082786e-01,2.694685697555542214e-01,2.694499969482421764e-01,2.694314479827880637e-01,2.694128990173340066e-01,2.693943262100219616e-01,2.693758010864257812e-01,2.693572521209716686e-01,2.693387269973754883e-01,2.693201780319213756e-01,2.693016290664672630e-01,2.692831039428710826e-01,2.692645549774169700e-01,2.692460298538207897e-01,2.692275047302246094e-01,2.027360439300537054e-01,1.997951030731201227e-01,1.980601191520690862e-01,1.970533370971679632e-01,1.976277232170104980e-01,2.691164255142212136e-01,2.690979003906249778e-01,2.690793991088867299e-01,2.690608978271484264e-01,2.690423965454101785e-01,1.922507047653198298e-01,1.895634293556213434e-01,1.861104130744934138e-01,1.826740384101867565e-01,1.803799629211425837e-01,1.794588088989257924e-01,1.804824352264404186e-01,2.688945055007934681e-01,2.688760042190551647e-01,2.688575267791747936e-01,2.688390731811523549e-01,2.688205957412719838e-01,2.688021183013916127e-01,2.687836647033691184e-01,2.687652111053466797e-01,2.687467336654663086e-01,2.687282800674438699e-01,2.687098264694213756e-01,2.686913728713989369e-01,2.686729192733764426e-01,2.686544895172119363e-01,2.686360359191894420e-01,2.686176061630248801e-01,2.685991525650024414e-01,2.685807228088378795e-01,2.685622930526733176e-01,2.685438632965088113e-01,2.685254335403442494e-01,2.685069799423217551e-01,2.684885740280151256e-01,2.684701442718505637e-01,2.684517383575439342e-01,2.684333086013793723e-01,2.684149026870727428e-01,2.683964967727661133e-01,2.683780908584594838e-01
2.497714281082153431e-01,2.497554779052734431e-01,2.497395515441894476e-01,2.497236013412475475e-01,2.497076511383056752e-01,2.496917486190795843e-01,2.496757984161376842e-01,2.496598720550537165e-01,2.496439456939697210e-01,2.496279954910278209e-01,2.496120929718017578e-01,2.495961666107177623e-01,2.495802402496337946e-01,2.495643138885497991e-01,2.495483875274658314e-01,2.495324850082397405e-01,2.495165824890136774e-01,2.495006561279296819e-01,2.494847536087036188e-01,2.494688510894775280e-01,2.494529247283935602e-01,2.494370460510254017e-01,2.494211196899414062e-01,2.494052171707153431e-01,2.493893384933471569e-01,2.493734359741210938e-01,2.493575334548950306e-01,2.493416547775268444e-01,2.493257522583007812e-01,2.493098735809326227e-01,2.492939949035644642e-01,2.492780923843383734e-01,2.492622137069702148e-01,2.492463350296020563e-01,2.034492731094360296e-01,1.986804723739624134e-01,1.962504267692565807e-01,1.949056029319763128e-01,1.947372555732727051e-01,1.958294510841369629e-01,2.491352558135986328e-01,2.491194009780883789e-01,2.491035223007202204e-01,2.490876674652099665e-01,2.490718126296997126e-01,2.490559577941894587e-01,2.490401029586792048e-01,1.839450716972351185e-01,1.797098398208618053e-01,1.778154015541076605e-01,1.772418498992919811e-01,1.796080589294433705e-01,2.489450454711913951e-01,2.489292144775390736e-01,2.489133834838867243e-01,2.488975286483764704e-01,2.488817214965820257e-01,2.488658666610717718e-01,2.488500595092773549e-01,2.488342285156250056e-01,2.488184213638305609e-01,2.488025903701782116e-01,2.487867832183837946e-01,2.487709522247314453e-01,2.487551212310790960e-01,2.487393140792846791e-01,2.487235069274902344e-01,2.487076997756957897e-01,2.486918926239013727e-01,2.486760854721069280e-01,2.486602783203125111e-01,2.486444950103759710e-01,2.486286878585815541e-01,2.486129045486450140e-01,2.485970973968505970e-01,2.485813140869140569e-01,2.485655069351196400e-01,2.485497236251830999e-01,2.485339403152465876e-01,2.485181570053100475e-01
2.324811220169067383e-01,2.324673175811767523e-01,2.324534893035888616e-01,2.324396848678588756e-01,2.324258804321289174e-01,2.324120759963989313e-01,2.323982715606689453e-01,2.323844671249389593e-01,2.323706626892089733e-01,2.323568820953369196e-01,2.323430776596069336e-01,2.323292732238769476e-01,2.323154687881469616e-01,2.323016881942749079e-01,2.322878837585449219e-01,2.322741031646728405e-01,2.322602987289428822e-01,2.322465181350708008e-01,2.322327375411987194e-01,2.322189569473266657e-01,2.322051763534545843e-01,2.321913957595825306e-01,2.321776151657104492e-01,2.321638345718383678e-01,2.321500539779663141e-01,2.321362733840942327e-01,2.321225166320800837e-01,2.321087360382080023e-01,2.320949554443359486e-01,2.320811986923217718e-01,2.320674180984497181e-01,2.320536851882934459e-01,2.320399045944213923e-01,2.320261478424072155e-01,2.033242702484130970e-01,1.969212412834167591e-01,1.945723176002502330e-01,1.931681394577026423e-01,1.923840165138244740e-01,1.923700571060180664e-01,1.930814981460571289e-01,2.319161176681518444e-01,2.319023609161376953e-01,2.318886280059814509e-01,2.318748950958252064e-01,2.318611383438110296e-01,2.318474054336547852e-01,2.318336725234985407e-01,1.807167530059814453e-01,1.761741876602172796e-01,1.749541521072387751e-01,1.748738288879394531e-01,1.789776086807250977e-01,2.317512750625610463e-01,2.317375659942627064e-01,2.317238330841064342e-01,2.317101001739501898e-01,2.316963911056518499e-01,2.316826581954956055e-01,2.316689729690551702e-01,2.316552400588989258e-01,2.316415309906005859e-01,2.316278219223022461e-01,2.316141128540039062e-01,2.316004037857055664e-01,2.315866947174072266e-01,2.315729856491088867e-01,2.315593004226684515e-01,2.315455675125122070e-01,2.315318822860717718e-01,2.315181732177734319e-01,2.315044879913329967e-01,2.314907789230346569e-01,2.314770936965942494e-01,2.314634084701538141e-01,2.314497232437133789e-01,2.314360141754150391e-01,2.314223289489746038e-01,2.314086437225341686e-01,2.313949584960937611e-01
2.174296617507934515e-01,2.174175739288330134e-01,2.174054861068725475e-01,2.173934221267700140e-01,2.173813343048095759e-01,2.173692464828491100e-01,2.173571825027465765e-01,2.173450946807861384e-01,2.173330307006836049e-01,2.173209667205810436e-01,2.173088788986206055e-01,2.172968149185180720e-01,2.172847509384155384e-01,2.172726869583129772e-01,2.172606229782104437e-01,2.172485589981079102e-01,2.172364950180053766e-01,2.172244310379028431e-01,2.172123670578002819e-01,2.172003030776977484e-01,2.171882629394531194e-01,2.171761989593505859e-01,2.171641349792480524e-01,2.171520948410034235e-01,2.171400308609008900e-01,2.171279907226562611e-01,2.171159505844116322e-01,2.171038866043090709e-01,2.170918464660644420e-01,2.170798063278198131e-01,2.170677423477172796e-01,2.170557260513305553e-01,2.170436620712280218e-01,2.170316219329833929e-01,2.170196056365966686e-01,1.963316917419433705e-01,1.923358321189880260e-01,1.906626224517822266e-01,1.900245666503906361e-01,1.895802378654480036e-01,1.899973869323730580e-01,1.904190301895141713e-01,2.169233322143554743e-01,2.169112920761108454e-01,2.168992757797241211e-01,2.168872594833373968e-01,2.168752431869506725e-01,2.168632268905639759e-01,2.168512105941772516e-01,1.756569981575012152e-01,1.736711144447326549e-01,1.726042270660400335e-01,1.723253726959228516e-01,1.741409897804260254e-01,1.797082424163818359e-01,2.167671203613281139e-01,2.167551040649414174e-01,2.167431116104125977e-01,2.167310953140258734e-01,2.167191028594970814e-01,2.167070865631103571e-01,2.166950941085815374e-01,2.166830778121948131e-01,2.166710853576660212e-01,2.166590929031372015e-01,2.166471004486084095e-01,2.166351079940795898e-01,2.166231155395507701e-01,2.166111230850219782e-01,2.165991067886352539e-01,2.165871381759643666e-01,2.165751457214355469e-01,2.165631532669067272e-01,2.165511608123779352e-01,2.165391921997070201e-01,2.165271997451782282e-01,2.165152311325073131e-01,2.165032386779785212e-01,2.164912700653076061e-01,2.164792776107788141e-01
2.042086362838745062e-01,2.041979551315307728e-01,2.041873216629028209e-01,2.041766643524169922e-01,2.041659832000732311e-01,2.041553497314453069e-01,2.041446924209594782e-01,2.041340351104736217e-01,2.041234016418456976e-01,2.041127443313598688e-01,2.041020870208740123e-01,2.040914535522460882e-01,2.040807962417602595e-01,2.040701627731323353e-01,2.040595054626464788e-01,2.040488719940185547e-01,2.040382385253906306e-01,2.040275812149047741e-01,2.040169477462768499e-01,2.040063142776489258e-01,2.039956808090210016e-01,2.039850234985351451e-01,2.039744138717651256e-01,2.039637565612792969e-01,2.039531230926513727e-01,2.039425134658813532e-01,2.039318799972534291e-01,2.039212465286254772e-01,2.039106130599975530e-01,2.038999795913696289e-01,2.038893699645996094e-01,2.038787364959716852e-01,2.038681030273437611e-01,2.038574934005737416e-01,2.038468837738037220e-01,2.038362503051757701e-01,1.896274209022522084e-01,1.875200510025024359e-01,1.868603825569152832e-01,1.866668105125427191e-01,1.863533973693847767e-01,1.851198077201843262e-01,1.867446303367614746e-01,1.873422503471374456e-01,2.037407159805297852e-01,2.037301063537597656e-01,2.037194967269897461e-01,2.037088871002197266e-01,2.036982774734497070e-01,2.036876916885375921e-01,1.731474757194519098e-01,1.713873863220214955e-01,1.695286631584167480e-01,1.686350822448730580e-01,1.716660499572753851e-01,2.036241054534912165e-01,2.036134958267211970e-01,2.036029100418090820e-01,2.035923004150390625e-01,2.035817146301269476e-01,2.035711288452148326e-01,2.035605430603027455e-01,2.035499334335327259e-01,2.035393476486206110e-01,2.035287618637084961e-01,2.035181760787963812e-01,2.035075902938842662e-01,2.034970045089721791e-01,2.034864425659179688e-01,2.034758567810058538e-01,2.034652709960937389e-01,2.034546852111816517e-01,2.034441232681274414e-01,2.034335374832153265e-01,2.034229755401611439e-01,2.034123897552490290e-01,2.034018278121948187e-01,2.033912420272827037e-01,2.033806800842285212e-01,2.033700942993164062e-01
1.925032734870910645e-01,1.924937963485717773e-01,1.924843430519103948e-01,1.924748659133911077e-01,1.924653887748718206e-01,1.924559235572814997e-01,1.924464464187622126e-01,1.924370050430297963e-01,1.924275398254394476e-01,1.924180626869201605e-01,1.924085974693298395e-01,1.923991322517394909e-01,1.923896670341491699e-01,1.923802256584167536e-01,1.923707604408264049e-01,1.923613071441650502e-01,1.923518419265747015e-01,1.923423767089843806e-01,1.923329472541809027e-01,1.923234820365905817e-01,1.923140287399291992e-01,1.923045754432678167e-01,1.922951221466064342e-01,1.922856569290161133e-01,1.922762274742126354e-01,1.922667741775512806e-01,1.922573208808898981e-01,1.922478795051574818e-01,1.922384262084960993e-01,1.922289967536926214e-01,1.922195553779602051e-01,1.922101020812988226e-01,1.922006607055664062e-01,1.921912074089050237e-01,1.921817660331726074e-01,1.921723484992980957e-01,1.921629071235656794e-01,1.859515666961669977e-01,1.833688497543334850e-01,1.831366539001464955e-01,1.835727810859680287e-01,1.827207326889038197e-01,1.833181262016296276e-01,1.830544233322143610e-01,1.920874118804931641e-01,1.920779824256896862e-01,1.920685648918151744e-01,1.920591354370117243e-01,1.920497059822082464e-01,1.920402765274047963e-01,1.920308470726013184e-01,1.733420491218566895e-01,1.688394308090210016e-01,1.668766736984252930e-01,1.657692074775695690e-01,1.672083139419555664e-01,1.919743299484252819e-01,1.919649004936218317e-01,1.919554829597473200e-01,1.919460654258728083e-01,1.919366598129272350e-01,1.919272422790527233e-01,1.919178247451782116e-01,1.919084072113036998e-01,1.918990135192871205e-01,1.918895959854126088e-01,1.918801784515380970e-01,1.918707609176635853e-01,1.918613791465759166e-01,1.918519616127014049e-01,1.918425559997558594e-01,1.918331384658813477e-01,1.918237566947937067e-01,1.918143391609191950e-01,1.918049335479736217e-01,1.917955279350280762e-01,1.917861223220825306e-01,1.917767405509948619e-01,1.917673349380493164e-01,1.917579293251037709e-01
1.820670843124389537e-01,1.820586085319519098e-01,1.820501327514648382e-01,1.820416569709777943e-01,1.820332050323486273e-01,1.820247292518615834e-01,1.820162653923034779e-01,1.820077896118164062e-01,1.819993257522583008e-01,1.819908738136291615e-01,1.819823980331420898e-01,1.819739341735839844e-01,1.819654703140258789e-01,1.819569945335388073e-01,1.819485306739807018e-01,1.819400906562805287e-01,1.819316267967224232e-01,1.819231629371643177e-01,1.819146990776062123e-01,1.819062352180481068e-01,1.818977952003479059e-01,1.818893313407898005e-01,1.818808794021606334e-01,1.818724155426025280e-01,1.818639636039733887e-01,1.818554997444152832e-01,1.818470716476440485e-01,1.818386077880859431e-01,1.818301558494567760e-01,1.818217039108276367e-01,1.818132519721984974e-01,1.818048238754272350e-01,1.817963719367980957e-01,1.817879199981689564e-01,1.817794680595397894e-01,1.817710161209106501e-01,1.817625761032104492e-01,1.817541480064392145e-01,1.817456960678100475e-01,1.817372560501098744e-01,1.816945075988769531e-01,1.810137033462524414e-01,1.815352082252502386e-01,1.817034959793090709e-01,1.816950559616088978e-01,1.816866159439086970e-01,1.816781759262084961e-01,1.816697359085082952e-01,1.816613078117370605e-01,1.816528797149658259e-01,1.816444396972656250e-01,1.816359996795654241e-01,1.816275715827941895e-01,1.816191315650939886e-01,1.816107153892517201e-01,1.816022872924804576e-01,1.815938472747802845e-01,1.815854191780090221e-01,1.815770030021667536e-01,1.815685749053955189e-01,1.815601468086242565e-01,1.815517187118530218e-01,1.815433144569396917e-01,1.815348863601684570e-01,1.815264582633972223e-01,1.815180301666259877e-01,1.815096020698547252e-01,1.815011978149413951e-01,1.814927816390991266e-01,1.814843535423278920e-01,1.814759373664855957e-01,1.814675331115722656e-01,1.814591169357299694e-01,1.814507007598877009e-01,1.814422726631164662e-01,1.814338803291320745e-01,1.814254641532898060e-01,1.814170479774475098e-01,1.814086318016052135e-01,1.814002394676208496e-01
1.727042675018310436e-01,1.726966381072997936e-01,1.726890087127685436e-01,1.726813912391662598e-01,1.726737618446350098e-01,1.726661443710327259e-01,1.726585388183593806e-01,1.726509094238281306e-01,1.726432919502258190e-01,1.726356744766235352e-01,1.726280450820922852e-01,1.726204514503479059e-01,1.726128220558166559e-01,1.726052045822143444e-01,1.725975871086120605e-01,1.725899696350097767e-01,1.725823521614074652e-01,1.725747585296630859e-01,1.725671410560608021e-01,1.725595355033874567e-01,1.725519180297851451e-01,1.725443005561828613e-01,1.725366950035095159e-01,1.725291013717651367e-01,1.725214838981628529e-01,1.725138783454895075e-01,1.725062608718871959e-01,1.724986553192138783e-01,1.724910616874694713e-01,1.724834561347961537e-01,1.724758505821228083e-01,1.724682450294494629e-01,1.724606394767761175e-01,1.724530339241027721e-01,1.724454522132873591e-01,1.724378466606140137e-01,1.724302411079406683e-01,1.724226355552673229e-01,1.724150419235229437e-01,1.724074482917785645e-01,1.723998546600341852e-01,1.723922491073608398e-01,1.723846554756164606e-01,1.723770618438720814e-01,1.723694562911987360e-01,1.723618745803832952e-01,1.723542809486389160e-01,1.723466873168945368e-01,1.723390936851501576e-01,1.723315000534057506e-01,1.723239183425903376e-01,1.723163247108459584e-01,1.723087430000305176e-01,1.723011493682861384e-01,1.722935557365417591e-01,1.722859621047973522e-01,1.722783923149108776e-01,1.722707986831664984e-01,1.722632169723510853e-01,1.722556233406066784e-01,1.722480416297912653e-01,1.722404718399047907e-01,1.722328901290893499e-01,1.722252964973449707e-01,1.722177147865295299e-01,1.722101569175720215e-01,1.722025632858276423e-01,1.721949815750122015e-01,1.721873998641967884e-01,1.721798419952392523e-01,1.721722602844238392e-01,1.721646785736083984e-01,1.721571087837219238e-01,1.721495389938354492e-01,1.721419692039489746e-01,1.721343874931335338e-01,1.721268177032470592e-01,1.721192479133605846e-01,1.721116781234741100e-01,1.721041083335876354e-01
1.642572999000549427e-01,1.642503976821899359e-01,1.642435193061828613e-01,1.642366170883178822e-01,1.642297267913818415e-01,1.642228245735168346e-01,1.642159342765808216e-01,1.642090320587158148e-01,1.642021536827087402e-01,1.641952633857726995e-01,1.641883730888366588e-01,1.641814827919006459e-01,1.641745805740356390e-01,1.641677141189575306e-01,1.641608238220214899e-01,1.641539335250854492e-01,1.641470432281494085e-01,1.641401529312133678e-01,1.641332626342773549e-01,1.641263842582702526e-01,1.641195058822631780e-01,1.641126155853271373e-01,1.641057252883911244e-01,1.640988469123840221e-01,1.640919566154480091e-01,1.640850901603698730e-01,1.640781998634338323e-01,1.640713214874267578e-01,1.640644431114196833e-01,1.640575528144836426e-01,1.640506863594055065e-01,1.640438079833984319e-01,1.640369296073913574e-01,1.640300512313842829e-01,1.640231728553772084e-01,1.640162944793701061e-01,1.640094280242919977e-01,1.640025496482849232e-01,1.639956712722778209e-01,1.639887928962707464e-01,1.639819145202636719e-01,1.639750599861145020e-01,1.639681816101074274e-01,1.639613151550292913e-01,1.639544367790222168e-01,1.639475584030151423e-01,1.639406919479370062e-01,1.639338374137878362e-01,1.639269590377807617e-01,1.639200925827026256e-01,1.639132142066955511e-01,1.639063477516174427e-01,1.638994932174682728e-01,1.638926267623901367e-01,1.638857603073120006e-01,1.638788938522338923e-01,1.638720273971557562e-01,1.638651609420776478e-01,1.638583064079284779e-01,1.638514399528503418e-01,1.638445734977722057e-01,1.638377189636230358e-01,1.638308525085449274e-01,1.638240098953246959e-01,1.638171434402465876e-01,1.638102769851684515e-01,1.638034224510192816e-01,1.637965798377990778e-01,1.637897133827209417e-01,1.637828588485717718e-01,1.637759923934936634e-01,1.637691497802734319e-01,1.637622952461242620e-01,1.637554407119750921e-01,1.637485861778259222e-01,1.637417197227478138e-01,1.637348890304565485e-01,1.637280344963073786e-01,1.637211799621582087e-01,1.637143254280090388e-01
1.565981030464172474e-01,1.565918326377868652e-01,1.565855622291564830e-01,1.565792918205261286e-01,1.565730214118957464e-01,1.565667748451232966e-01,1.565605044364929144e-01,1.565542340278625599e-01,1.565479755401611439e-01,1.565417051315307617e-01,1.565354585647583119e-01,1.565291881561279297e-01,1.565229177474975475e-01,1.565166592597961315e-01,1.565103888511657770e-01,1.565041303634643610e-01,1.564978837966918834e-01,1.564916253089904674e-01,1.564853549003601130e-01,1.564790964126586970e-01,1.564728379249572809e-01,1.564665913581848034e-01,1.564603328704833873e-01,1.564540743827819713e-01,1.564478158950805553e-01,1.564415574073791393e-01,1.564352989196777233e-01,1.564290523529052734e-01,1.564227938652038574e-01,1.564165353775024414e-01,1.564102888107299916e-01,1.564040303230285756e-01,1.563977837562560980e-01,1.563915371894836481e-01,1.563852787017822321e-01,1.563790202140808161e-01,1.563727736473083385e-01,1.563665151596069225e-01,1.563602805137634388e-01,1.563540339469909612e-01,1.563477754592895452e-01,1.563415288925170954e-01,1.563352823257446178e-01,1.563290476799011341e-01,1.563228011131286566e-01,1.563165426254272405e-01,1.563102960586547907e-01,1.563040494918823131e-01,1.562978029251098633e-01,1.562915682792663519e-01,1.562853217124939020e-01,1.562790870666503906e-01,1.562728404998779408e-01,1.562665939331054632e-01,1.562603592872619518e-01,1.562541246414184681e-01,1.562478780746459905e-01,1.562416315078735407e-01,1.562353968620300293e-01,1.562291502952575795e-01,1.562229275703430065e-01,1.562166810035705566e-01,1.562104463577270452e-01,1.562041997909545954e-01,1.561979651451110840e-01,1.561917304992675726e-01,1.561855077743530273e-01,1.561792731285095159e-01,1.561730265617370661e-01,1.561667919158935547e-01,1.561605691909790095e-01,1.561543345451354980e-01,1.561480998992919866e-01,1.561418652534484752e-01,1.561356544494628962e-01,1.561294198036193848e-01,1.561231851577758734e-01,1.561169505119323619e-01,1.561107277870178167e-01,1.561045050621032715e-01
1.496213555335998424e-01,1.496156454086303711e-01,1.496099233627319336e-01,1.496042013168334961e-01,1.495984792709350586e-01,1.495927572250366211e-01,1.495870351791381836e-01,1.495813250541687123e-01,1.495756030082702748e-01,1.495698809623718373e-01,1.495641589164733998e-01,1.495584368705749623e-01,1.495527386665344294e-01,1.495470166206359919e-01,1.495412945747375544e-01,1.495355844497680553e-01,1.495298624038696178e-01,1.495241403579711803e-01,1.495184421539306752e-01,1.495127320289611761e-01,1.495070099830627386e-01,1.495012998580932673e-01,1.494955778121948298e-01,1.494898796081542969e-01,1.494841694831848256e-01,1.494784474372863881e-01,1.494727373123168890e-01,1.494670271873474177e-01,1.494613170623779186e-01,1.494556188583374134e-01,1.494498968124389759e-01,1.494441866874694769e-01,1.494384765625000056e-01,1.494327664375305065e-01,1.494270801544189398e-01,1.494213700294494684e-01,1.494156599044799694e-01,1.494099497795104980e-01,1.494042396545410267e-01,1.493985295295715277e-01,1.493928432464599609e-01,1.493871331214904896e-01,1.493814229965209905e-01,1.493757247924804576e-01,1.493700146675109863e-01,1.493643283843994196e-01,1.493586182594299205e-01,1.493529081344604492e-01,1.493472099304199163e-01,1.493415117263793834e-01,1.493358016014099121e-01,1.493301153182983454e-01,1.493244171142578125e-01,1.493187069892883412e-01,1.493130087852478083e-01,1.493073105812072754e-01,1.493016242980957087e-01,1.492959260940551758e-01,1.492902278900146429e-01,1.492845296859741100e-01,1.492788314819336049e-01,1.492731332778930720e-01,1.492674469947815052e-01,1.492617487907409723e-01,1.492560505867004395e-01,1.492503523826599066e-01,1.492446541786193737e-01,1.492389678955078069e-01,1.492332816123962402e-01,1.492275834083557073e-01,1.492218971252441406e-01,1.492161989212036077e-01,1.492105245590210072e-01,1.492048263549804743e-01,1.491991400718689076e-01,1.491934418678283747e-01,1.491877555847168080e-01,1.491820693016052135e-01,1.491763830184936468e-01,1.491706967353820801e-01
1.432397603988647405e-01,1.432345151901245062e-01,1.432292699813842718e-01,1.432240366935730036e-01,1.432187914848327692e-01,1.432135462760925348e-01,1.432083010673523005e-01,1.432030558586120661e-01,1.431978106498718317e-01,1.431925773620605358e-01,1.431873440742492676e-01,1.431820988655090332e-01,1.431768536567687988e-01,1.431716084480285645e-01,1.431663870811462347e-01,1.431611418724060003e-01,1.431558966636657659e-01,1.431506633758544977e-01,1.431454181671142634e-01,1.431401848793029674e-01,1.431349515914916992e-01,1.431297183036804310e-01,1.431244850158691351e-01,1.431192398071289007e-01,1.431140065193176325e-01,1.431087851524353027e-01,1.431035399436950684e-01,1.430983066558838002e-01,1.430930733680725042e-01,1.430878400802612360e-01,1.430825948715210016e-01,1.430773735046386719e-01,1.430721402168274037e-01,1.430669069290161077e-01,1.430616736412048395e-01,1.430564403533935436e-01,1.430512189865112416e-01,1.430459856986999456e-01,1.430407643318176159e-01,1.430355310440063477e-01,1.430302977561950795e-01,1.430250644683837835e-01,1.430198431015014537e-01,1.430146217346191517e-01,1.430093884468078558e-01,1.430041551589965876e-01,1.429989337921142578e-01,1.429937124252319280e-01,1.429884791374206598e-01,1.429832577705383301e-01,1.429780244827270619e-01,1.429728031158447321e-01,1.429675698280334362e-01,1.429623603820800726e-01,1.429571390151977428e-01,1.429519057273864746e-01,1.429466843605041448e-01,1.429414629936218151e-01,1.429362297058105469e-01,1.429310202598571833e-01,1.429257988929748535e-01,1.429205775260925237e-01,1.429153561592101940e-01,1.429101347923278920e-01,1.429049253463745006e-01,1.428997039794921986e-01,1.428944826126098688e-01,1.428892612457275391e-01,1.428840398788452093e-01,1.428788185119628795e-01,1.428736090660095159e-01,1.428683876991271862e-01,1.428631663322448841e-01,1.428579568862914928e-01,1.428527355194091908e-01,1.428475260734557994e-01,1.428423047065734974e-01,1.428370952606201061e-01,1.428318738937378041e-01,1.428266763687133789e-01
1.373802661895751898e-01,1.373754382133483831e-01,1.373706221580505427e-01,1.373657941818237360e-01,1.373609662055969294e-01,1.373561501502990612e-01,1.373513340950012207e-01,1.373465061187744141e-01,1.373416781425476074e-01,1.373368620872497670e-01,1.373320341110229603e-01,1.373272299766540583e-01,1.373224020004272516e-01,1.373175859451293834e-01,1.373127579689025768e-01,1.373079419136047363e-01,1.373031258583068959e-01,1.372983098030090277e-01,1.372934937477111872e-01,1.372886657714843806e-01,1.372838497161865123e-01,1.372790336608886719e-01,1.372742176055908314e-01,1.372694015502929632e-01,1.372645854949951227e-01,1.372597694396972545e-01,1.372549533843994141e-01,1.372501492500305120e-01,1.372453331947326716e-01,1.372405171394348034e-01,1.372357010841369629e-01,1.372308850288391224e-01,1.372260689735412542e-01,1.372212648391723522e-01,1.372164487838745117e-01,1.372116327285766713e-01,1.372068166732788030e-01,1.372020006179809626e-01,1.371972084045410267e-01,1.371923923492431585e-01,1.371875762939453181e-01,1.371827602386474498e-01,1.371779561042785756e-01,1.371731400489807073e-01,1.371683359146118053e-01,1.371635317802429310e-01,1.371587157249450628e-01,1.371539115905761608e-01,1.371490955352783203e-01,1.371442914009094183e-01,1.371394872665405162e-01,1.371346831321716420e-01,1.371298789978027399e-01,1.371250629425048717e-01,1.371202588081359974e-01,1.371154665946960338e-01,1.371106505393981934e-01,1.371058464050292913e-01,1.371010422706603893e-01,1.370962381362915150e-01,1.370914340019226130e-01,1.370866298675537109e-01,1.370818257331848089e-01,1.370770215988159069e-01,1.370722174644470326e-01,1.370674133300781306e-01,1.370626211166381947e-01,1.370578169822692927e-01,1.370530128479003906e-01,1.370482087135314886e-01,1.370434165000915527e-01,1.370386123657226507e-01,1.370338201522827148e-01,1.370290160179138128e-01,1.370242118835449108e-01,1.370194196701049749e-01,1.370146155357360729e-01,1.370098233222961370e-01,1.370050311088562012e-01,1.370002269744872991e-01
1.319813132286071777e-01,1.319768548011779896e-01,1.319724202156066784e-01,1.319679617881774902e-01,1.319635033607483021e-01,1.319590568542480524e-01,1.319545984268188366e-01,1.319501638412475530e-01,1.319457054138183649e-01,1.319412589073181152e-01,1.319368124008178655e-01,1.319323539733886774e-01,1.319279074668884277e-01,1.319234609603881780e-01,1.319190144538879284e-01,1.319145679473877064e-01,1.319101214408874567e-01,1.319056630134582409e-01,1.319012284278869573e-01,1.318967819213867076e-01,1.318923354148864857e-01,1.318878889083862360e-01,1.318834424018859863e-01,1.318789839744567982e-01,1.318745493888854869e-01,1.318701028823852650e-01,1.318656563758850153e-01,1.318612098693847656e-01,1.318567633628845159e-01,1.318523287773132324e-01,1.318478822708129827e-01,1.318434476852416992e-01,1.318390011787414495e-01,1.318345546722411998e-01,1.318301081657409779e-01,1.318256735801696666e-01,1.318212270736694447e-01,1.318167924880981334e-01,1.318123459815979115e-01,1.318078994750976618e-01,1.318034648895263783e-01,1.317990303039550670e-01,1.317945837974548451e-01,1.317901492118835338e-01,1.317857027053833119e-01,1.317812681198120006e-01,1.317768335342407171e-01,1.317723989486694336e-01,1.317679524421691839e-01,1.317635178565979004e-01,1.317590713500976507e-01,1.317546367645263672e-01,1.317502140998840221e-01,1.317457675933838002e-01,1.317413330078124889e-01,1.317368984222412054e-01,1.317324519157409557e-01,1.317280292510986384e-01,1.317235946655273549e-01,1.317191600799560436e-01,1.317147254943847601e-01,1.317102789878845104e-01,1.317058444023132269e-01,1.317014217376709095e-01,1.316969871520995983e-01,1.316925525665283148e-01,1.316881179809570312e-01,1.316836833953857477e-01,1.316792607307434027e-01,1.316748261451721191e-01,1.316703915596008356e-01,1.316659569740295521e-01,1.316615223884582409e-01,1.316570997238159235e-01,1.316526770591735784e-01,1.316482424736022949e-01,1.316438078880310114e-01,1.316393733024597279e-01,1.316349506378173828e-01,1.316305160522460993e-01
1.269906640052795299e-01,1.269865393638610895e-01,1.269824266433715876e-01,1.269783020019531194e-01,1.269741892814636175e-01,1.269700646400451771e-01,1.269659399986267090e-01,1.269618153572082409e-01,1.269577026367187389e-01,1.269535899162292369e-01,1.269494652748107966e-01,1.269453406333923284e-01,1.269412279129028265e-01,1.269371032714843861e-01,1.269329786300659180e-01,1.269288778305053822e-01,1.269247531890869141e-01,1.269206285476684459e-01,1.269165158271789440e-01,1.269123911857605036e-01,1.269082903861999401e-01,1.269041657447814997e-01,1.269000530242919977e-01,1.268959283828735296e-01,1.268918156623840277e-01,1.268877029418945257e-01,1.268835902214050237e-01,1.268794775009155218e-01,1.268753647804260198e-01,1.268712401390075795e-01,1.268671274185180775e-01,1.268630266189575140e-01,1.268589019775390736e-01,1.268547892570495716e-01,1.268506765365600697e-01,1.268465638160705677e-01,1.268424510955810658e-01,1.268383383750915638e-01,1.268342256546020619e-01,1.268301129341125599e-01,1.268260002136230580e-01,1.268218874931335560e-01,1.268177747726440541e-01,1.268136739730834905e-01,1.268095612525939886e-01,1.268054485321044866e-01,1.268013358116149847e-01,1.267972350120544489e-01,1.267931342124938854e-01,1.267890214920043834e-01,1.267849087715148815e-01,1.267807960510253795e-01,1.267766833305358776e-01,1.267725825309753418e-01,1.267684817314148060e-01,1.267643690109253041e-01,1.267602562904358021e-01,1.267561554908752386e-01,1.267520427703857366e-01,1.267479419708252009e-01,1.267438411712646373e-01,1.267397284507751354e-01,1.267356276512145996e-01,1.267315149307250977e-01,1.267274022102355957e-01,1.267233133316039984e-01,1.267192006111144964e-01,1.267150998115539606e-01,1.267109870910644587e-01,1.267068862915038951e-01,1.267027974128723256e-01,1.266986846923828236e-01,1.266945838928222601e-01,1.266904830932617243e-01,1.266863703727722223e-01,1.266822695732116588e-01,1.266781806945800892e-01,1.266740679740905873e-01,1.266699671745300237e-01,1.266658663749694880e-01
1.223636984825134250e-01,1.223598718643188477e-01,1.223560452461242704e-01,1.223522186279296931e-01,1.223483920097351019e-01,1.223445653915405246e-01,1.223407506942748996e-01,1.223369240760803223e-01,1.223330855369567927e-01,1.223292589187622015e-01,1.223254442214965765e-01,1.223216176033019992e-01,1.223177909851074219e-01,1.223139643669128446e-01,1.223101496696472196e-01,1.223063230514526423e-01,1.223024964332580511e-01,1.222986817359924261e-01,1.222948551177978488e-01,1.222910284996032715e-01,1.222872018814086942e-01,1.222833871841430692e-01,1.222795605659484919e-01,1.222757458686828669e-01,1.222719192504882757e-01,1.222680926322936984e-01,1.222642779350280734e-01,1.222604513168334961e-01,1.222566366195678711e-01,1.222528219223022461e-01,1.222489953041076688e-01,1.222451806068420438e-01,1.222413539886474665e-01,1.222375273704528753e-01,1.222337245941162165e-01,1.222298979759216253e-01,1.222260832786560003e-01,1.222222566604614230e-01,1.222184419631957980e-01,1.222146272659301730e-01,1.222108125686645480e-01,1.222069978713989230e-01,1.222031712532043457e-01,1.221993565559387207e-01,1.221955418586730957e-01,1.221917271614074707e-01,1.221879124641418457e-01,1.221840977668762207e-01,1.221802711486816434e-01,1.221764564514160184e-01,1.221726536750793457e-01,1.221688389778137207e-01,1.221650123596191434e-01,1.221611976623535184e-01,1.221573829650878934e-01,1.221535682678222684e-01,1.221497654914855957e-01,1.221459507942199707e-01,1.221421360969543457e-01,1.221383213996887207e-01,1.221345067024230957e-01,1.221307039260864230e-01,1.221268892288207980e-01,1.221230745315551730e-01,1.221192598342895480e-01,1.221154451370239230e-01,1.221116304397582980e-01,1.221078276634216253e-01,1.221040129661560003e-01,1.221001982688903753e-01,1.220963954925537165e-01,1.220925807952880915e-01,1.220887780189514188e-01,1.220849633216857938e-01,1.220811486244201688e-01,1.220773458480834961e-01,1.220735311508178711e-01,1.220697164535522461e-01,1.220659255981445257e-01,1.220621109008789007e-01
1.180620431900024359e-01,1.180584788322448786e-01,1.180549263954162598e-01,1.180513620376586886e-01,1.180477976799011175e-01,1.180442333221435602e-01,1.180406689643859891e-01,1.180371046066284180e-01,1.180335521697997991e-01,1.180299878120422419e-01,1.180264234542846707e-01,1.180228710174560519e-01,1.180193066596984808e-01,1.180157542228698758e-01,1.180121898651123047e-01,1.180086255073547336e-01,1.180050730705261286e-01,1.180015087127685575e-01,1.179979443550109863e-01,1.179943919181823675e-01,1.179908394813537625e-01,1.179872751235961914e-01,1.179837107658386203e-01,1.179801583290100153e-01,1.179765939712524442e-01,1.179730415344238253e-01,1.179694890975952204e-01,1.179659366607666016e-01,1.179623723030090304e-01,1.179588198661804255e-01,1.179552674293518066e-01,1.179517149925231878e-01,1.179481506347656306e-01,1.179445981979370117e-01,1.179410338401794406e-01,1.179374814033508356e-01,1.179339289665222168e-01,1.179303765296935980e-01,1.179268240928649930e-01,1.179232597351074219e-01,1.179197072982788030e-01,1.179161667823791504e-01,1.179126024246215793e-01,1.179090499877929743e-01,1.179054975509643555e-01,1.179019451141357366e-01,1.178983926773071317e-01,1.178948402404785128e-01,1.178912878036499079e-01,1.178877353668212891e-01,1.178841829299926702e-01,1.178806304931640653e-01,1.178770780563354464e-01,1.178735256195068415e-01,1.178699731826782227e-01,1.178664207458496038e-01,1.178628683090209989e-01,1.178593158721923800e-01,1.178557753562927274e-01,1.178522229194641086e-01,1.178486704826355036e-01,1.178451180458068848e-01,1.178415775299072321e-01,1.178380250930786133e-01,1.178344845771789606e-01,1.178309321403503418e-01,1.178273797035217230e-01,1.178238272666931180e-01,1.178202748298644992e-01,1.178167343139648465e-01,1.178131937980651800e-01,1.178096413612365750e-01,1.178060889244079562e-01,1.178025364875793513e-01,1.177990078926086370e-01,1.177954554557800321e-01,1.177919030189514132e-01,1.177883625030517606e-01,1.177848100662231418e-01,1.177812576293945368e-01
1.140525698661804255e-01,1.140492439270019559e-01,1.140459179878234863e-01,1.140425920486450168e-01,1.140392661094665472e-01,1.140359520912170438e-01,1.140326261520385742e-01,1.140293002128601046e-01,1.140259742736816351e-01,1.140226483345031794e-01,1.140193343162536621e-01,1.140160083770751925e-01,1.140126824378967230e-01,1.140093564987182673e-01,1.140060305595397977e-01,1.140027165412902804e-01,1.139994025230407770e-01,1.139960765838623075e-01,1.139927506446838379e-01,1.139894247055053683e-01,1.139861106872558649e-01,1.139827966690063477e-01,1.139794707298278781e-01,1.139761447906494085e-01,1.139728307723999051e-01,1.139695048332214355e-01,1.139661788940429660e-01,1.139628648757934626e-01,1.139595508575439453e-01,1.139562249183654757e-01,1.139529109001159723e-01,1.139495849609375028e-01,1.139462709426879855e-01,1.139429569244384821e-01,1.139396309852600125e-01,1.139363169670104953e-01,1.139329910278320257e-01,1.139296770095825223e-01,1.139263629913330050e-01,1.139230489730835016e-01,1.139197230339050321e-01,1.139164090156555148e-01,1.139130949974060114e-01,1.139097809791564941e-01,1.139064669609069769e-01,1.139031410217285212e-01,1.138998270034790039e-01,1.138965129852294866e-01,1.138931989669799832e-01,1.138898849487304660e-01,1.138865709304809626e-01,1.138832569122314453e-01,1.138799309730529757e-01,1.138766169548034723e-01,1.138733148574829074e-01,1.138700008392334040e-01,1.138666749000549344e-01,1.138633608818054171e-01,1.138600468635559138e-01,1.138567328453063965e-01,1.138534307479858454e-01,1.138501167297363281e-01,1.138468027114868109e-01,1.138434886932373075e-01,1.138401746749877902e-01,1.138368606567382868e-01,1.138335466384887695e-01,1.138302326202392523e-01,1.138269305229187012e-01,1.138236165046691839e-01,1.138203024864196805e-01,1.138169884681701632e-01,1.138136863708496122e-01,1.138103723526000949e-01,1.138070583343505915e-01,1.138037443161010742e-01,1.138004302978515569e-01,1.137971282005310059e-01,1.137938141822814886e-01,1.137905120849609375e-01
