6.195599079132080300e-01,6.352745532989502175e-01,6.518075942993164507e-01,6.692241191864013450e-01,6.875970363616943359e-01,7.070072174072266069e-01,7.275450229644775391e-01,7.493118286132812722e-01,7.724212646484375222e-01,7.970013618469238281e-01,8.231973648071289062e-01,8.511739730834960715e-01,8.811189651489257368e-01,9.132477760314940962e-01,9.478083610534667747e-01,9.850875854492187056e-01,1.000000000000000000e+00,1.000000000000000000e+00,1.000000000000000000e+00,1.000000000000000000e+00,1.000000000000000000e+00,1.000000000000000000e+00,1.000000000000000000e+00,1.000000000000000000e+00,1.000000000000000000e+00,1.000000000000000000e+00,1.000000000000000000e+00,1.000000000000000000e+00,1.000000000000000000e+00,1.000000000000000000e+00,1.000000000000000000e+00,1.000000000000000000e+00,1.000000000000000000e+00,1.000000000000000000e+00,1.000000000000000000e+00,1.000000000000000000e+00,1.000000000000000000e+00,1.000000000000000000e+00,1.000000000000000000e+00,1.000000000000000000e+00,1.000000000000000000e+00,1.000000000000000000e+00,1.000000000000000000e+00,1.000000000000000000e+00,1.000000000000000000e+00,1.000000000000000000e+00,1.000000000000000000e+00,1.000000000000000000e+00,1.000000000000000000e+00,1.000000000000000000e+00,1.000000000000000000e+00,1.000000000000000000e+00,1.000000000000000000e+00,1.000000000000000000e+00,1.000000000000000000e+00,1.000000000000000000e+00,1.000000000000000000e+00,3.250198364257812500e-01,3.222303867340087780e-01,3.238011598587036133e-01,3.204866647720336914e-01,3.125788211822509988e-01,3.094798326492309570e-01,3.065121889114379994e-01,3.046467065811157005e-01,3.037661790847778209e-01,3.028166532516479714e-01,3.033016443252563588e-01,3.045244932174682728e-01,3.060657024383545144e-01,3.140376567840575950e-01,3.320657253265381081e-01,3.314734935760498269e-01,8.798573493957519975e-01,8.536472320556640625e-01,8.289534568786620650e-01,8.056481361389160600e-01,7.836174964904785156e-01,7.627596378326415572e-01,7.429832458496093972e-01
6.195466041564940962e-01,6.352584362030029297e-01,6.517901897430420366e-01,6.692058563232421431e-01,6.875776290893554910e-01,7.069867134094238725e-01,7.275234222412109153e-01,7.492888450622559038e-01,7.723968029022216797e-01,7.969754219055176225e-01,8.231696128845215066e-01,8.511443138122558594e-01,8.810872077941894753e-01,9.132136344909668191e-01,9.477716445922851340e-01,9.850479125976562278e-01,1.000000000000000000e+00,1.000000000000000000e+00,1.000000000000000000e+00,1.000000000000000000e+00,1.000000000000000000e+00,1.000000000000000000e+00,1.000000000000000000e+00,1.000000000000000000e+00,1.000000000000000000e+00,1.000000000000000000e+00,1.000000000000000000e+00,1.000000000000000000e+00,1.000000000000000000e+00,1.000000000000000000e+00,1.000000000000000000e+00,1.000000000000000000e+00,1.000000000000000000e+00,1.000000000000000000e+00,1.000000000000000000e+00,1.000000000000000000e+00,1.000000000000000000e+00,1.000000000000000000e+00,1.000000000000000000e+00,1.000000000000000000e+00,1.000000000000000000e+00,1.000000000000000000e+00,1.000000000000000000e+00,1.000000000000000000e+00,1.000000000000000000e+00,1.000000000000000000e+00,1.000000000000000000e+00,1.000000000000000000e+00,1.000000000000000000e+00,1.000000000000000000e+00,1.000000000000000000e+00,1.000000000000000000e+00,1.000000000000000000e+00,1.000000000000000000e+00,1.000000000000000000e+00,1.000000000000000000e+00,1.000000000000000000e+00,3.218315839767456055e-01,3.181921958923339955e-01,3.182890176773071067e-01,3.177956581115722878e-01,3.117269992828369252e-01,3.090622425079345703e-01,3.064821958541870117e-01,3.051768779754638894e-01,3.039423942565918080e-01,3.032891273498535267e-01,3.039001941680908314e-01,3.060305833816528431e-01,3.076573610305786133e-01,3.149539709091186412e-01,3.302938938140869141e-01,3.291216135025024636e-01,8.798807144165039507e-01,8.536691665649414062e-01,8.289741516113281472e-01,8.056676864624023882e-01,7.836359977722168191e-01,7.627771377563477007e-01,7.429998874664306419e-01
6.195333003997802734e-01,6.352444648742675559e-01,6.517732143402099609e-01,6.691874980926513228e-01,6.875583648681640181e-01,7.069663047790527566e-01,7.275017261505126731e-01,7.492659091949462891e-01,7.723724842071533203e-01,7.969494342803955522e-01,8.231419563293457253e-01,8.511146545410156472e-01,8.810554504394531028e-01,9.131794929504394309e-01,9.477348327636718750e-01,9.850082397460937500e-01,1.000000000000000000e+00,1.000000000000000000e+00,1.000000000000000000e+00,1.000000000000000000e+00,1.000000000000000000e+00,1.000000000000000000e+00,1.000000000000000000e+00,1.000000000000000000e+00,1.000000000000000000e+00,1.000000000000000000e+00,1.000000000000000000e+00,1.000000000000000000e+00,1.000000000000000000e+00,1.000000000000000000e+00,1.000000000000000000e+00,1.000000000000000000e+00,1.000000000000000000e+00,1.000000000000000000e+00,1.000000000000000000e+00,1.000000000000000000e+00,1.000000000000000000e+00,1.000000000000000000e+00,1.000000000000000000e+00,1.000000000000000000e+00,1.000000000000000000e+00,1.000000000000000000e+00,1.000000000000000000e+00,1.000000000000000000e+00,1.000000000000000000e+00,1.000000000000000000e+00,1.000000000000000000e+00,1.000000000000000000e+00,1.000000000000000000e+00,1.000000000000000000e+00,1.000000000000000000e+00,1.000000000000000000e+00,1.000000000000000000e+00,1.000000000000000000e+00,1.000000000000000000e+00,1.000000000000000000e+00,1.000000000000000000e+00,3.192573308944702259e-01,3.154389619827270286e-01,3.152622461318969616e-01,3.162789344787597656e-01,3.112632036209106445e-01,3.088082790374755970e-01,3.066779851913452037e-01,3.066300153732299805e-01,3.063851833343506081e-01,3.046724319458007924e-01,3.067151784896850475e-01,3.080892086029052845e-01,3.079187870025634766e-01,3.146495103836059459e-01,3.296670913696289062e-01,3.275500297546386497e-01,3.278200626373291016e-01,8.536911010742187500e-01,8.289948463439941184e-01,8.056872367858887163e-01,7.836544990539551225e-01,7.627946376800537331e-01,7.430164813995361328e-01
6.195200443267822044e-01,6.352304458618164285e-01,6.517584800720215288e-01,6.691695213317870872e-01,6.875389575958251731e-01,7.069458484649657759e-01,7.274801254272460493e-01,7.492429256439209206e-01,7.723480224609374778e-01,7.969234943389892356e-01,8.231142044067383257e-01,8.510850906372070535e-01,8.810236930847168413e-01,9.131454467773437722e-01,9.476981163024902344e-01,9.849685668945312722e-01,1.000000000000000000e+00,1.000000000000000000e+00,1.000000000000000000e+00,1.000000000000000000e+00,1.000000000000000000e+00,1.000000000000000000e+00,1.000000000000000000e+00,1.000000000000000000e+00,1.000000000000000000e+00,1.000000000000000000e+00,1.000000000000000000e+00,1.000000000000000000e+00,1.000000000000000000e+00,1.000000000000000000e+00,1.000000000000000000e+00,1.000000000000000000e+00,1.000000000000000000e+00,1.000000000000000000e+00,1.000000000000000000e+00,1.000000000000000000e+00,1.000000000000000000e+00,1.000000000000000000e+00,1.000000000000000000e+00,1.000000000000000000e+00,1.000000000000000000e+00,1.000000000000000000e+00,1.000000000000000000e+00,1.000000000000000000e+00,1.000000000000000000e+00,1.000000000000000000e+00,1.000000000000000000e+00,1.000000000000000000e+00,1.000000000000000000e+00,1.000000000000000000e+00,1.000000000000000000e+00,1.000000000000000000e+00,1.000000000000000000e+00,1.000000000000000000e+00,1.000000000000000000e+00,1.000000000000000000e+00,1.000000000000000000e+00,3.175197362899780384e-01,3.129607677459717019e-01,3.125841379165649192e-01,3.153359413146972767e-01,3.106373310089111106e-01,3.083662986755371094e-01,3.061282396316528098e-01,3.095451354980468528e-01,3.092956066131591908e-01,3.064709424972534291e-01,3.095828056335448997e-01,3.071974754333496316e-01,3.041435003280639759e-01,2.994387865066528431e-01,3.088557243347168080e-01,3.257098436355591042e-01,3.257609128952026478e-01,8.537130355834960938e-01,8.290155410766602007e-01,8.057067871093750444e-01,7.836729526519775613e-01,7.628121852874756303e-01,7.430331230163573775e-01
6.195067405700683816e-01,6.352165222167969194e-01,6.517437934875488503e-01,6.691540718078613503e-01,6.875199794769286665e-01,7.069254398345947710e-01,7.274584293365478072e-01,7.492199897766113059e-01,7.723236560821533647e-01,7.968974590301514116e-01,8.230864524841308150e-01,8.510553359985351118e-01,8.809919357299804688e-01,9.131113052368163840e-01,9.476613044738769753e-01,9.849288940429687944e-01,1.000000000000000000e+00,1.000000000000000000e+00,1.000000000000000000e+00,1.000000000000000000e+00,1.000000000000000000e+00,1.000000000000000000e+00,1.000000000000000000e+00,1.000000000000000000e+00,1.000000000000000000e+00,1.000000000000000000e+00,1.000000000000000000e+00,1.000000000000000000e+00,1.000000000000000000e+00,1.000000000000000000e+00,1.000000000000000000e+00,1.000000000000000000e+00,1.000000000000000000e+00,1.000000000000000000e+00,1.000000000000000000e+00,1.000000000000000000e+00,1.000000000000000000e+00,1.000000000000000000e+00,1.000000000000000000e+00,1.000000000000000000e+00,1.000000000000000000e+00,1.000000000000000000e+00,1.000000000000000000e+00,1.000000000000000000e+00,1.000000000000000000e+00,1.000000000000000000e+00,1.000000000000000000e+00,1.000000000000000000e+00,1.000000000000000000e+00,1.000000000000000000e+00,1.000000000000000000e+00,1.000000000000000000e+00,1.000000000000000000e+00,1.000000000000000000e+00,1.000000000000000000e+00,1.000000000000000000e+00,1.000000000000000000e+00,3.158901214599609264e-01,3.096387147903442161e-01,3.089859485626220703e-01,3.146714687347412220e-01,3.094083070755004883e-01,3.074629068374633567e-01,3.054642438888549583e-01,3.079844236373901478e-01,3.119272708892822377e-01,3.120905637741088756e-01,3.058204174041748158e-01,3.015661954879760853e-01,2.975521564483642467e-01,2.951557397842407005e-01,2.927976131439208873e-01,3.025487661361694336e-01,3.231114149093627930e-01,8.537350654602050559e-01,8.290362358093261719e-01,8.057263374328613725e-01,7.836914539337158647e-01,7.628296852111816628e-01,7.430498123168944868e-01
6.194934368133544478e-01,6.352025508880615456e-01,6.517290592193603072e-01,6.691385269165038840e-01,6.875036239624023882e-01,7.069052696228027566e-01,7.274368286132812944e-01,7.491969585418700728e-01,7.722992420196532759e-01,7.968715190887450950e-01,8.230587959289550337e-01,8.510257720947265181e-01,8.809601783752440962e-01,9.130771636962891069e-01,9.476245880126953347e-01,9.848892211914062056e-01,1.000000000000000000e+00,1.000000000000000000e+00,1.000000000000000000e+00,1.000000000000000000e+00,1.000000000000000000e+00,1.000000000000000000e+00,1.000000000000000000e+00,1.000000000000000000e+00,1.000000000000000000e+00,1.000000000000000000e+00,1.000000000000000000e+00,1.000000000000000000e+00,1.000000000000000000e+00,1.000000000000000000e+00,1.000000000000000000e+00,1.000000000000000000e+00,1.000000000000000000e+00,1.000000000000000000e+00,1.000000000000000000e+00,1.000000000000000000e+00,1.000000000000000000e+00,1.000000000000000000e+00,1.000000000000000000e+00,1.000000000000000000e+00,1.000000000000000000e+00,1.000000000000000000e+00,1.000000000000000000e+00,1.000000000000000000e+00,1.000000000000000000e+00,1.000000000000000000e+00,1.000000000000000000e+00,1.000000000000000000e+00,1.000000000000000000e+00,1.000000000000000000e+00,1.000000000000000000e+00,1.000000000000000000e+00,1.000000000000000000e+00,1.000000000000000000e+00,1.000000000000000000e+00,1.000000000000000000e+00,1.000000000000000000e+00,3.131539344787597767e-01,3.075737237930297741e-01,3.058958053588867188e-01,3.138921499252319558e-01,3.080089807510376088e-01,3.060974836349487083e-01,3.042095422744751088e-01,3.043907403945922963e-01,3.101560592651367299e-01,3.106583118438720481e-01,3.039443731307983620e-01,2.976479768753051980e-01,2.952655792236328347e-01,2.929416418075561634e-01,2.908375024795532005e-01,2.947182893753051980e-01,3.205809116363525502e-01,8.537569999694823997e-01,8.290569305419921431e-01,8.057458877563477007e-01,7.837099552154540572e-01,7.628467559814453569e-01,7.430652618408203347e-01
6.194801330566406250e-01,6.351885318756103072e-01,6.517143726348877397e-01,6.691230297088622825e-01,6.874872684478759988e-01,7.068879127502440962e-01,7.274153709411621538e-01,7.491740703582763228e-01,7.722747802734375444e-01,7.968455314636230247e-01,8.230310440063476340e-01,8.509961128234863059e-01,8.809284210205078347e-01,9.130431175231933372e-01,9.475878715515136941e-01,9.848495483398437278e-01,1.000000000000000000e+00,1.000000000000000000e+00,1.000000000000000000e+00,1.000000000000000000e+00,1.000000000000000000e+00,1.000000000000000000e+00,1.000000000000000000e+00,1.000000000000000000e+00,1.000000000000000000e+00,1.000000000000000000e+00,1.000000000000000000e+00,1.000000000000000000e+00,1.000000000000000000e+00,1.000000000000000000e+00,1.000000000000000000e+00,1.000000000000000000e+00,1.000000000000000000e+00,1.000000000000000000e+00,1.000000000000000000e+00,1.000000000000000000e+00,1.000000000000000000e+00,1.000000000000000000e+00,1.000000000000000000e+00,1.000000000000000000e+00,1.000000000000000000e+00,1.000000000000000000e+00,1.000000000000000000e+00,1.000000000000000000e+00,1.000000000000000000e+00,1.000000000000000000e+00,1.000000000000000000e+00,1.000000000000000000e+00,1.000000000000000000e+00,1.000000000000000000e+00,1.000000000000000000e+00,1.000000000000000000e+00,1.000000000000000000e+00,1.000000000000000000e+00,1.000000000000000000e+00,1.000000000000000000e+00,1.000000000000000000e+00,3.117328882217407227e-01,3.078130483627319336e-01,3.222568035125732422e-01,3.135449647903442161e-01,3.077242851257324108e-01,3.056539773941039928e-01,3.036551952362060436e-01,3.020001888275146706e-01,3.066733837127685325e-01,3.099094629287719727e-01,3.034019947052001842e-01,2.975448846817016491e-01,2.934638977050781361e-01,2.913764476776122825e-01,2.893184423446655273e-01,2.887063264846801980e-01,2.978440046310424916e-01,8.537789344787597434e-01,8.290774345397948775e-01,8.057644844055176225e-01,7.837266921997070312e-01,7.628623485565185769e-01,7.430799961090087669e-01
6.194668769836425559e-01,6.351746082305907981e-01,6.516996860504150613e-01,6.691074848175049272e-01,6.874708652496337447e-01,7.068706035614014116e-01,7.273971080780029519e-01,7.491513252258300559e-01,7.722504138946533203e-01,7.968195915222168191e-01,8.230033874511718528e-01,8.509664535522460938e-01,8.808966636657714622e-01,9.130089759826660600e-01,9.475511550903320535e-01,9.848097801208496316e-01,1.000000000000000000e+00,1.000000000000000000e+00,1.000000000000000000e+00,1.000000000000000000e+00,1.000000000000000000e+00,1.000000000000000000e+00,1.000000000000000000e+00,1.000000000000000000e+00,1.000000000000000000e+00,1.000000000000000000e+00,1.000000000000000000e+00,1.000000000000000000e+00,1.000000000000000000e+00,1.000000000000000000e+00,1.000000000000000000e+00,1.000000000000000000e+00,1.000000000000000000e+00,1.000000000000000000e+00,1.000000000000000000e+00,1.000000000000000000e+00,1.000000000000000000e+00,1.000000000000000000e+00,1.000000000000000000e+00,1.000000000000000000e+00,1.000000000000000000e+00,1.000000000000000000e+00,1.000000000000000000e+00,1.000000000000000000e+00,1.000000000000000000e+00,1.000000000000000000e+00,1.000000000000000000e+00,1.000000000000000000e+00,1.000000000000000000e+00,1.000000000000000000e+00,1.000000000000000000e+00,1.000000000000000000e+00,1.000000000000000000e+00,1.000000000000000000e+00,1.000000000000000000e+00,1.000000000000000000e+00,1.000000000000000000e+00,3.117719888687133789e-01,3.051919937133789062e-01,3.034003019332885964e-01,3.131576538085937278e-01,3.077791452407837025e-01,3.057066679000854381e-01,3.036619186401366965e-01,3.016621589660644642e-01,3.056486845016479492e-01,3.101024389266967551e-01,3.033571004867553489e-01,2.973492383956909402e-01,2.914984703063964733e-01,2.897179841995239369e-01,2.878151893615722434e-01,2.858070373535156472e-01,2.918345212936401256e-01,3.202924489974975364e-01,8.290958404541015625e-01,8.057818412780761719e-01,7.837431907653809038e-01,7.628778934478759322e-01,7.430948257446289285e-01
6.194536209106444868e-01,6.351605892181396706e-01,6.516849517822265181e-01,6.690920352935790794e-01,6.874545574188232200e-01,7.068533420562743697e-01,7.273787498474121316e-01,7.491318225860595925e-01,7.722261905670165794e-01,7.967935562133788840e-01,8.229756355285644531e-01,8.509368896484375000e-01,8.808649063110352007e-01,9.129749298095702903e-01,9.475144386291504128e-01,9.847701072692871538e-01,1.000000000000000000e+00,1.000000000000000000e+00,1.000000000000000000e+00,1.000000000000000000e+00,1.000000000000000000e+00,1.000000000000000000e+00,1.000000000000000000e+00,1.000000000000000000e+00,1.000000000000000000e+00,1.000000000000000000e+00,1.000000000000000000e+00,1.000000000000000000e+00,1.000000000000000000e+00,1.000000000000000000e+00,1.000000000000000000e+00,1.000000000000000000e+00,1.000000000000000000e+00,1.000000000000000000e+00,1.000000000000000000e+00,1.000000000000000000e+00,1.000000000000000000e+00,1.000000000000000000e+00,1.000000000000000000e+00,1.000000000000000000e+00,1.000000000000000000e+00,1.000000000000000000e+00,1.000000000000000000e+00,1.000000000000000000e+00,1.000000000000000000e+00,1.000000000000000000e+00,1.000000000000000000e+00,1.000000000000000000e+00,1.000000000000000000e+00,1.000000000000000000e+00,1.000000000000000000e+00,1.000000000000000000e+00,1.000000000000000000e+00,1.000000000000000000e+00,1.000000000000000000e+00,1.000000000000000000e+00,1.000000000000000000e+00,3.100631237030029297e-01,3.016983270645141602e-01,2.986150979995727539e-01,2.976222753524780384e-01,3.080571174621581920e-01,3.059858560562133678e-01,3.039422750473022572e-01,3.019258260726928600e-01,3.055637121200561745e-01,3.124610424041748269e-01,3.031543970108032116e-01,2.970959901809692161e-01,2.912171602249145619e-01,2.877189397811889537e-01,2.859841823577881081e-01,2.842702150344848522e-01,2.860627412796020730e-01,3.153047561645507812e-01,8.291142463684082475e-01,8.057991981506347212e-01,7.837595462799071822e-01,7.628934860229492632e-01,7.431095600128173606e-01
6.194402694702147993e-01,6.351466655731201616e-01,6.516702651977539507e-01,6.690765380859374778e-01,6.874381065368652122e-01,7.068359851837158203e-01,7.273604393005370650e-01,7.491124153137207475e-01,7.722055435180663618e-01,7.967677593231201616e-01,8.229479789733886719e-01,8.509072303771972878e-01,8.808331489562988281e-01,9.129407882690430132e-01,9.474777221679687722e-01,9.847304344177245650e-01,1.000000000000000000e+00,1.000000000000000000e+00,1.000000000000000000e+00,1.000000000000000000e+00,1.000000000000000000e+00,1.000000000000000000e+00,1.000000000000000000e+00,1.000000000000000000e+00,1.000000000000000000e+00,1.000000000000000000e+00,1.000000000000000000e+00,1.000000000000000000e+00,1.000000000000000000e+00,1.000000000000000000e+00,1.000000000000000000e+00,1.000000000000000000e+00,1.000000000000000000e+00,1.000000000000000000e+00,1.000000000000000000e+00,1.000000000000000000e+00,1.000000000000000000e+00,1.000000000000000000e+00,1.000000000000000000e+00,1.000000000000000000e+00,1.000000000000000000e+00,1.000000000000000000e+00,1.000000000000000000e+00,1.000000000000000000e+00,1.000000000000000000e+00,1.000000000000000000e+00,1.000000000000000000e+00,1.000000000000000000e+00,1.000000000000000000e+00,1.000000000000000000e+00,1.000000000000000000e+00,1.000000000000000000e+00,1.000000000000000000e+00,1.000000000000000000e+00,1.000000000000000000e+00,1.000000000000000000e+00,1.000000000000000000e+00,3.076884031295776256e-01,2.996108770370483620e-01,2.952401638031005859e-01,2.958747625350952037e-01,3.086047649383544811e-01,3.063854455947875866e-01,3.043365478515625000e-01,3.023148775100708008e-01,3.059298515319824330e-01,3.139158248901366965e-01,3.033469200134277233e-01,2.968432188034057506e-01,2.909647703170776256e-01,2.857473134994507058e-01,2.840580701828002708e-01,2.824664592742919811e-01,2.808925867080688255e-01,2.912525177001953347e-01,8.291326522827148215e-01,8.058165550231933816e-01,7.837760448455810547e-01,7.629090309143066184e-01,7.431243419647216575e-01
6.194270133972168413e-01,6.351326942443847878e-01,6.516554832458496538e-01,6.690609931945801225e-01,6.874217987060546875e-01,7.068187236785888894e-01,7.273421764373779741e-01,7.490930557250976562e-01,7.721848487854003906e-01,7.967456817626953347e-01,8.229202270507812722e-01,8.508776664733886941e-01,8.808013916015624556e-01,9.129067420959472434e-01,9.474410057067871316e-01,9.846907615661620872e-01,1.000000000000000000e+00,1.000000000000000000e+00,1.000000000000000000e+00,1.000000000000000000e+00,1.000000000000000000e+00,1.000000000000000000e+00,1.000000000000000000e+00,1.000000000000000000e+00,1.000000000000000000e+00,1.000000000000000000e+00,1.000000000000000000e+00,1.000000000000000000e+00,1.000000000000000000e+00,1.000000000000000000e+00,1.000000000000000000e+00,1.000000000000000000e+00,1.000000000000000000e+00,1.000000000000000000e+00,1.000000000000000000e+00,1.000000000000000000e+00,1.000000000000000000e+00,1.000000000000000000e+00,1.000000000000000000e+00,1.000000000000000000e+00,1.000000000000000000e+00,1.000000000000000000e+00,1.000000000000000000e+00,1.000000000000000000e+00,1.000000000000000000e+00,1.000000000000000000e+00,1.000000000000000000e+00,1.000000000000000000e+00,1.000000000000000000e+00,1.000000000000000000e+00,1.000000000000000000e+00,1.000000000000000000e+00,1.000000000000000000e+00,1.000000000000000000e+00,1.000000000000000000e+00,1.000000000000000000e+00,1.000000000000000000e+00,3.052859783172607311e-01,2.980888843536376731e-01,2.917502164840698464e-01,3.172653198242187389e-01,3.091892480850219616e-01,3.068872451782226340e-01,3.047318220138549583e-01,3.027049303054809570e-01,3.062743663787841908e-01,3.152918100357055553e-01,3.044889450073242076e-01,2.965886592864990234e-01,2.907127857208252064e-01,2.848502874374389537e-01,2.824272155761718972e-01,2.808537960052490123e-01,2.792978048324584739e-01,2.829218626022338978e-01,3.099577426910400391e-01,8.058339118957519309e-01,7.837924957275390625e-01,7.629246234893798384e-01,7.431391716003418191e-01
6.194137096405029075e-01,6.351186752319335493e-01,6.516408443450927290e-01,6.690455436706542747e-01,6.874054431915282981e-01,7.068014621734619585e-01,7.273237705230712891e-01,7.490735530853271928e-01,7.721642494201660378e-01,7.967237472534179910e-01,8.228968620300293191e-01,8.508480072021484819e-01,8.807697296142578125e-01,9.128726005554199663e-01,9.474042892456054910e-01,9.846510887145996094e-01,1.000000000000000000e+00,1.000000000000000000e+00,1.000000000000000000e+00,1.000000000000000000e+00,1.000000000000000000e+00,1.000000000000000000e+00,1.000000000000000000e+00,1.000000000000000000e+00,1.000000000000000000e+00,1.000000000000000000e+00,1.000000000000000000e+00,1.000000000000000000e+00,1.000000000000000000e+00,1.000000000000000000e+00,1.000000000000000000e+00,1.000000000000000000e+00,1.000000000000000000e+00,1.000000000000000000e+00,1.000000000000000000e+00,1.000000000000000000e+00,1.000000000000000000e+00,1.000000000000000000e+00,1.000000000000000000e+00,1.000000000000000000e+00,1.000000000000000000e+00,1.000000000000000000e+00,1.000000000000000000e+00,1.000000000000000000e+00,1.000000000000000000e+00,1.000000000000000000e+00,1.000000000000000000e+00,1.000000000000000000e+00,1.000000000000000000e+00,1.000000000000000000e+00,1.000000000000000000e+00,1.000000000000000000e+00,1.000000000000000000e+00,1.000000000000000000e+00,1.000000000000000000e+00,1.000000000000000000e+00,1.000000000000000000e+00,3.082605600357055664e-01,2.957850694656372070e-01,2.897008180618286244e-01,3.193520784378051647e-01,3.102488040924072377e-01,3.074652433395385631e-01,3.051887512207031028e-01,3.030959844589233287e-01,3.062801837921142467e-01,1.000000000000000000e+00,3.061951875686645397e-01,2.962991237640381081e-01,2.901002407073974831e-01,2.843226909637451283e-01,2.800649404525756836e-01,2.790699243545532449e-01,2.777210235595702903e-01,2.761994600296020508e-01,3.076388120651245006e-01,8.058513641357422097e-01,7.838088989257812056e-01,7.629402637481689231e-01,7.431539058685302512e-01
6.194004058837890847e-01,6.351047515869140403e-01,6.516261577606201616e-01,6.690300464630126731e-01,6.873890399932861550e-01,7.067841053009032981e-01,7.273055076599120872e-01,7.490541458129882368e-01,7.721436500549316850e-01,7.967017173767090288e-01,8.228734016418457475e-01,8.508229255676269531e-01,8.807379722595214400e-01,9.128384590148925781e-01,9.473675727844238503e-01,9.846114158630371316e-01,1.000000000000000000e+00,1.000000000000000000e+00,1.000000000000000000e+00,1.000000000000000000e+00,1.000000000000000000e+00,1.000000000000000000e+00,1.000000000000000000e+00,1.000000000000000000e+00,1.000000000000000000e+00,1.000000000000000000e+00,1.000000000000000000e+00,1.000000000000000000e+00,1.000000000000000000e+00,1.000000000000000000e+00,1.000000000000000000e+00,1.000000000000000000e+00,1.000000000000000000e+00,1.000000000000000000e+00,1.000000000000000000e+00,1.000000000000000000e+00,1.000000000000000000e+00,1.000000000000000000e+00,1.000000000000000000e+00,1.000000000000000000e+00,1.000000000000000000e+00,1.000000000000000000e+00,1.000000000000000000e+00,1.000000000000000000e+00,1.000000000000000000e+00,1.000000000000000000e+00,1.000000000000000000e+00,1.000000000000000000e+00,1.000000000000000000e+00,1.000000000000000000e+00,1.000000000000000000e+00,1.000000000000000000e+00,1.000000000000000000e+00,1.000000000000000000e+00,1.000000000000000000e+00,1.000000000000000000e+00,1.000000000000000000e+00,3.063441753387451394e-01,2.935793638229370339e-01,1.000000000000000000e+00,3.219537496566772239e-01,3.122256755828857200e-01,3.080454349517822155e-01,3.057603597640990989e-01,3.035089492797851674e-01,3.062860012054443581e-01,1.000000000000000000e+00,3.085424900054931641e-01,2.972809314727783425e-01,2.894498109817504883e-01,2.837970018386840598e-01,2.794005870819091797e-01,2.767599821090698242e-01,2.757882833480834739e-01,2.746573686599731445e-01,3.139248609542846791e-01,8.058687210083007590e-01,7.838253974914550781e-01,7.629557609558105247e-01,7.431686878204345481e-01
6.193871498107910156e-01,6.350907325744629128e-01,6.516114234924316184e-01,6.690145015716553178e-01,6.873727321624756303e-01,7.067668437957763672e-01,7.272871971130371316e-01,7.490346908569336382e-01,7.721229076385498491e-01,7.966797828674316850e-01,8.228499412536620650e-01,8.507978439331054243e-01,8.807109832763672097e-01,9.128044128417969194e-01,9.473308563232422097e-01,9.845717430114746538e-01,1.000000000000000000e+00,1.000000000000000000e+00,1.000000000000000000e+00,1.000000000000000000e+00,1.000000000000000000e+00,1.000000000000000000e+00,1.000000000000000000e+00,1.000000000000000000e+00,1.000000000000000000e+00,1.000000000000000000e+00,1.000000000000000000e+00,1.000000000000000000e+00,1.000000000000000000e+00,1.000000000000000000e+00,1.000000000000000000e+00,1.000000000000000000e+00,1.000000000000000000e+00,1.000000000000000000e+00,1.000000000000000000e+00,1.000000000000000000e+00,1.000000000000000000e+00,1.000000000000000000e+00,1.000000000000000000e+00,1.000000000000000000e+00,1.000000000000000000e+00,1.000000000000000000e+00,1.000000000000000000e+00,1.000000000000000000e+00,1.000000000000000000e+00,1.000000000000000000e+00,1.000000000000000000e+00,1.000000000000000000e+00,1.000000000000000000e+00,1.000000000000000000e+00,1.000000000000000000e+00,1.000000000000000000e+00,1.000000000000000000e+00,1.000000000000000000e+00,1.000000000000000000e+00,1.000000000000000000e+00,1.000000000000000000e+00,1.000000000000000000e+00,1.000000000000000000e+00,1.000000000000000000e+00,3.254103660583496094e-01,3.143845081329345592e-01,3.081595182418823131e-01,3.058514118194580189e-01,3.035776615142822266e-01,3.063297986984253041e-01,1.000000000000000000e+00,1.000000000000000000e+00,2.992589950561523326e-01,2.888023138046264537e-01,2.832732439041137917e-01,2.788929224014282116e-01,2.746460199356078880e-01,2.735321283340453880e-01,2.725829362869262584e-01,2.716402769088744895e-01,8.058860778808594194e-01,7.838417530059814675e-01,7.629714012145996094e-01,7.431834220886230913e-01
6.193738460540771928e-01,6.350768089294434038e-01,6.515967369079589400e-01,6.689990520477294700e-01,6.873563766479492410e-01,7.067494869232178178e-01,7.272688388824463113e-01,7.490152835845946822e-01,7.721023082733153853e-01,7.966578483581543413e-01,8.228264808654784934e-01,8.507727622985840066e-01,8.806841850280762163e-01,9.127753257751465288e-01,9.472941398620605691e-01,9.845320701599120650e-01,1.000000000000000000e+00,1.000000000000000000e+00,1.000000000000000000e+00,1.000000000000000000e+00,1.000000000000000000e+00,1.000000000000000000e+00,1.000000000000000000e+00,1.000000000000000000e+00,1.000000000000000000e+00,1.000000000000000000e+00,1.000000000000000000e+00,1.000000000000000000e+00,1.000000000000000000e+00,1.000000000000000000e+00,1.000000000000000000e+00,1.000000000000000000e+00,1.000000000000000000e+00,1.000000000000000000e+00,1.000000000000000000e+00,1.000000000000000000e+00,1.000000000000000000e+00,1.000000000000000000e+00,1.000000000000000000e+00,1.000000000000000000e+00,1.000000000000000000e+00,1.000000000000000000e+00,1.000000000000000000e+00,1.000000000000000000e+00,1.000000000000000000e+00,1.000000000000000000e+00,1.000000000000000000e+00,1.000000000000000000e+00,1.000000000000000000e+00,1.000000000000000000e+00,1.000000000000000000e+00,1.000000000000000000e+00,1.000000000000000000e+00,1.000000000000000000e+00,1.000000000000000000e+00,1.000000000000000000e+00,1.000000000000000000e+00,1.000000000000000000e+00,1.000000000000000000e+00,1.000000000000000000e+00,3.293374300003051869e-01,3.166435480117797963e-01,3.087277650833130105e-01,3.058910608291626199e-01,3.036167144775390736e-01,3.063839673995971680e-01,1.000000000000000000e+00,1.000000000000000000e+00,1.000000000000000000e+00,2.905795574188232422e-01,2.827514648437500222e-01,2.783821105957031139e-01,2.742818832397461160e-01,2.723162174224853516e-01,2.716712713241576926e-01,2.709758281707763672e-01,8.059034347534179688e-01,7.838582515716552290e-01,7.629868984222412109e-01,7.431982517242431419e-01
6.193712711334228294e-01,6.350678920745849165e-01,6.515820503234863725e-01,6.689835071563721147e-01,6.873399734497069868e-01,7.067322254180907759e-01,7.272505760192871094e-01,7.489958763122558372e-01,7.720816135406494141e-01,7.966358184814452681e-01,8.228031158447265403e-01,8.507476806640624778e-01,8.806572914123534934e-01,9.127465248107909934e-01,9.472626686096191628e-01,9.844924926757812056e-01,1.000000000000000000e+00,1.000000000000000000e+00,1.000000000000000000e+00,1.000000000000000000e+00,1.000000000000000000e+00,1.000000000000000000e+00,1.000000000000000000e+00,1.000000000000000000e+00,1.000000000000000000e+00,1.000000000000000000e+00,1.000000000000000000e+00,1.000000000000000000e+00,1.000000000000000000e+00,1.000000000000000000e+00,1.000000000000000000e+00,1.000000000000000000e+00,1.000000000000000000e+00,1.000000000000000000e+00,1.000000000000000000e+00,1.000000000000000000e+00,1.000000000000000000e+00,1.000000000000000000e+00,1.000000000000000000e+00,1.000000000000000000e+00,1.000000000000000000e+00,1.000000000000000000e+00,1.000000000000000000e+00,1.000000000000000000e+00,1.000000000000000000e+00,1.000000000000000000e+00,1.000000000000000000e+00,1.000000000000000000e+00,1.000000000000000000e+00,1.000000000000000000e+00,1.000000000000000000e+00,1.000000000000000000e+00,1.000000000000000000e+00,1.000000000000000000e+00,1.000000000000000000e+00,1.000000000000000000e+00,1.000000000000000000e+00,1.000000000000000000e+00,1.000000000000000000e+00,1.000000000000000000e+00,1.000000000000000000e+00,3.189352512359618919e-01,3.095404148101806863e-01,3.059494495391845703e-01,3.036557912826537975e-01,3.062370061874389870e-01,1.000000000000000000e+00,1.000000000000000000e+00,1.000000000000000000e+00,2.963970184326171764e-01,2.821975231170654186e-01,2.780707120895385964e-01,2.742119312286376842e-01,2.714531898498535045e-01,2.708780765533447266e-01,2.703444242477416881e-01,8.059207916259765181e-01,7.838747501373291016e-01,7.630025386810302956e-01,7.432130813598633035e-01
6.193713665008544478e-01,6.350680351257323997e-01,6.515810489654541016e-01,6.689756393432617632e-01,6.873244762420653853e-01,7.067149639129638450e-01,7.272322177886962891e-01,7.489764213562011275e-01,7.720610141754150613e-01,7.966138839721679243e-01,8.227796554565429688e-01,8.507225990295410600e-01,8.806303977966308816e-01,9.127177238464355691e-01,9.472315788269043413e-01,9.844584465026855469e-01,1.000000000000000000e+00,1.000000000000000000e+00,1.000000000000000000e+00,1.000000000000000000e+00,1.000000000000000000e+00,1.000000000000000000e+00,1.000000000000000000e+00,1.000000000000000000e+00,1.000000000000000000e+00,1.000000000000000000e+00,1.000000000000000000e+00,1.000000000000000000e+00,1.000000000000000000e+00,1.000000000000000000e+00,1.000000000000000000e+00,1.000000000000000000e+00,1.000000000000000000e+00,1.000000000000000000e+00,1.000000000000000000e+00,1.000000000000000000e+00,1.000000000000000000e+00,1.000000000000000000e+00,1.000000000000000000e+00,1.000000000000000000e+00,1.000000000000000000e+00,1.000000000000000000e+00,1.000000000000000000e+00,1.000000000000000000e+00,1.000000000000000000e+00,1.000000000000000000e+00,1.000000000000000000e+00,1.000000000000000000e+00,1.000000000000000000e+00,1.000000000000000000e+00,1.000000000000000000e+00,1.000000000000000000e+00,1.000000000000000000e+00,1.000000000000000000e+00,1.000000000000000000e+00,1.000000000000000000e+00,1.000000000000000000e+00,1.000000000000000000e+00,1.000000000000000000e+00,1.000000000000000000e+00,1.000000000000000000e+00,3.222451448440551980e-01,3.113570928573608509e-01,3.067475080490112416e-01,3.036948680877685769e-01,3.058350086212158203e-01,1.000000000000000000e+00,1.000000000000000000e+00,1.000000000000000000e+00,1.000000000000000000e+00,2.828931093215942272e-01,2.789477348327636941e-01,2.749147176742553489e-01,2.724314928054809570e-01,2.718281030654907116e-01,2.713847160339355469e-01,8.059382438659667969e-01,7.838911056518554910e-01,7.630181312561035156e-01,7.432278156280517356e-01
6.193681716918945090e-01,6.350681304931640181e-01,6.515811443328857200e-01,6.689757823944091353e-01,6.873246192932128684e-01,7.067083358764648660e-01,7.272172451019287553e-01,7.489570140838622825e-01,7.720404148101807085e-01,7.965918540954589622e-01,8.227561950683593972e-01,8.506976127624511497e-01,8.806035995483398882e-01,9.126888275146484153e-01,9.472005844116211382e-01,9.844248771667480913e-01,1.000000000000000000e+00,1.000000000000000000e+00,1.000000000000000000e+00,1.000000000000000000e+00,1.000000000000000000e+00,1.000000000000000000e+00,1.000000000000000000e+00,1.000000000000000000e+00,1.000000000000000000e+00,1.000000000000000000e+00,1.000000000000000000e+00,1.000000000000000000e+00,1.000000000000000000e+00,1.000000000000000000e+00,1.000000000000000000e+00,1.000000000000000000e+00,1.000000000000000000e+00,1.000000000000000000e+00,1.000000000000000000e+00,1.000000000000000000e+00,1.000000000000000000e+00,1.000000000000000000e+00,1.000000000000000000e+00,1.000000000000000000e+00,1.000000000000000000e+00,1.000000000000000000e+00,1.000000000000000000e+00,1.000000000000000000e+00,1.000000000000000000e+00,1.000000000000000000e+00,1.000000000000000000e+00,1.000000000000000000e+00,1.000000000000000000e+00,1.000000000000000000e+00,1.000000000000000000e+00,1.000000000000000000e+00,1.000000000000000000e+00,1.000000000000000000e+00,1.000000000000000000e+00,1.000000000000000000e+00,1.000000000000000000e+00,1.000000000000000000e+00,1.000000000000000000e+00,1.000000000000000000e+00,1.000000000000000000e+00,3.247880458831787220e-01,3.136539459228515625e-01,3.075336456298828347e-01,3.039638280868530162e-01,3.056343317031860463e-01,1.000000000000000000e+00,1.000000000000000000e+00,1.000000000000000000e+00,1.000000000000000000e+00,2.849281072616577370e-01,2.805427312850952148e-01,2.762903213500976785e-01,2.743133783340453991e-01,2.736507177352905384e-01,8.292798042297363503e-01,8.059556007385253462e-01,7.839076042175292525e-01,7.630336761474609819e-01,7.432426452636718972e-01
6.193549633026123047e-01,6.350569725036621094e-01,6.515758037567138672e-01,6.689758777618408647e-01,6.873247146606444868e-01,7.067084789276123491e-01,7.272172927856445090e-01,7.489521026611327681e-01,7.720260143280028853e-01,7.965698719024658647e-01,8.227327346801758257e-01,8.506725311279297319e-01,8.805767059326171653e-01,9.126599311828613725e-01,9.471694946289062056e-01,9.843913078308105247e-01,1.000000000000000000e+00,1.000000000000000000e+00,1.000000000000000000e+00,1.000000000000000000e+00,1.000000000000000000e+00,1.000000000000000000e+00,1.000000000000000000e+00,1.000000000000000000e+00,1.000000000000000000e+00,1.000000000000000000e+00,1.000000000000000000e+00,1.000000000000000000e+00,1.000000000000000000e+00,1.000000000000000000e+00,1.000000000000000000e+00,1.000000000000000000e+00,1.000000000000000000e+00,1.000000000000000000e+00,1.000000000000000000e+00,1.000000000000000000e+00,1.000000000000000000e+00,1.000000000000000000e+00,1.000000000000000000e+00,1.000000000000000000e+00,1.000000000000000000e+00,1.000000000000000000e+00,1.000000000000000000e+00,1.000000000000000000e+00,1.000000000000000000e+00,1.000000000000000000e+00,1.000000000000000000e+00,1.000000000000000000e+00,1.000000000000000000e+00,1.000000000000000000e+00,1.000000000000000000e+00,1.000000000000000000e+00,1.000000000000000000e+00,1.000000000000000000e+00,1.000000000000000000e+00,1.000000000000000000e+00,1.000000000000000000e+00,1.000000000000000000e+00,1.000000000000000000e+00,1.000000000000000000e+00,1.000000000000000000e+00,3.275218009948730469e-01,3.161719799041747825e-01,3.086601257324218528e-01,3.044542789459228627e-01,3.060889244079589844e-01,1.000000000000000000e+00,1.000000000000000000e+00,1.000000000000000000e+00,2.976804971694946289e-01,2.876107215881347767e-01,2.829122066497802845e-01,2.789654016494750866e-01,2.775076150894165150e-01,2.768294334411621205e-01,8.292982101440429243e-01,8.059729576110840066e-01,7.839240074157715066e-01,7.630493164062499556e-01,7.432573795318603294e-01
6.193417549133301003e-01,6.350430965423583540e-01,6.515611648559570535e-01,6.689615726470947710e-01,6.873167991638183816e-01,7.067076683044433150e-01,7.272174835205078569e-01,7.489522457122802512e-01,7.720262050628662331e-01,7.965671539306640181e-01,8.227194786071777566e-01,8.506474494934082031e-01,8.805499076843261719e-01,9.126311302185058372e-01,9.471384048461913840e-01,9.843578338623046875e-01,1.000000000000000000e+00,1.000000000000000000e+00,1.000000000000000000e+00,1.000000000000000000e+00,1.000000000000000000e+00,1.000000000000000000e+00,1.000000000000000000e+00,1.000000000000000000e+00,1.000000000000000000e+00,1.000000000000000000e+00,1.000000000000000000e+00,1.000000000000000000e+00,1.000000000000000000e+00,1.000000000000000000e+00,1.000000000000000000e+00,1.000000000000000000e+00,1.000000000000000000e+00,1.000000000000000000e+00,1.000000000000000000e+00,1.000000000000000000e+00,1.000000000000000000e+00,1.000000000000000000e+00,1.000000000000000000e+00,1.000000000000000000e+00,1.000000000000000000e+00,1.000000000000000000e+00,1.000000000000000000e+00,1.000000000000000000e+00,1.000000000000000000e+00,1.000000000000000000e+00,1.000000000000000000e+00,1.000000000000000000e+00,1.000000000000000000e+00,1.000000000000000000e+00,1.000000000000000000e+00,1.000000000000000000e+00,1.000000000000000000e+00,1.000000000000000000e+00,1.000000000000000000e+00,1.000000000000000000e+00,1.000000000000000000e+00,1.000000000000000000e+00,1.000000000000000000e+00,1.000000000000000000e+00,1.000000000000000000e+00,3.282963275909424050e-01,3.171004772186279408e-01,3.106303453445434792e-01,3.065803527832031139e-01,3.091522693634033425e-01,1.000000000000000000e+00,1.000000000000000000e+00,1.000000000000000000e+00,2.950440883636474831e-01,2.898334264755249023e-01,2.846896648406982422e-01,2.823237895965576283e-01,2.807770967483520508e-01,8.540333747863769753e-01,8.293166160583496094e-01,8.059904098510741743e-01,7.839404582977295144e-01,7.630648136138915572e-01,7.432721614837646262e-01
6.193286418914795144e-01,6.350292205810547097e-01,6.515466213226318581e-01,6.689461708068847878e-01,6.873005390167236106e-01,7.066905021667480025e-01,7.272063732147217019e-01,7.489490032196044478e-01,7.720263957977294700e-01,7.965673446655273660e-01,8.227196693420409934e-01,8.506475448608398215e-01,8.805380821228027122e-01,9.126057624816894531e-01,9.471074104309081809e-01,9.843242645263672319e-01,1.000000000000000000e+00,1.000000000000000000e+00,1.000000000000000000e+00,1.000000000000000000e+00,1.000000000000000000e+00,1.000000000000000000e+00,1.000000000000000000e+00,1.000000000000000000e+00,1.000000000000000000e+00,1.000000000000000000e+00,1.000000000000000000e+00,1.000000000000000000e+00,1.000000000000000000e+00,1.000000000000000000e+00,1.000000000000000000e+00,1.000000000000000000e+00,1.000000000000000000e+00,1.000000000000000000e+00,1.000000000000000000e+00,1.000000000000000000e+00,1.000000000000000000e+00,1.000000000000000000e+00,1.000000000000000000e+00,1.000000000000000000e+00,1.000000000000000000e+00,1.000000000000000000e+00,1.000000000000000000e+00,1.000000000000000000e+00,1.000000000000000000e+00,1.000000000000000000e+00,1.000000000000000000e+00,1.000000000000000000e+00,1.000000000000000000e+00,1.000000000000000000e+00,1.000000000000000000e+00,1.000000000000000000e+00,1.000000000000000000e+00,1.000000000000000000e+00,1.000000000000000000e+00,1.000000000000000000e+00,1.000000000000000000e+00,1.000000000000000000e+00,1.000000000000000000e+00,1.000000000000000000e+00,1.000000000000000000e+00,3.274283409118652344e-01,3.182408571243285911e-01,3.137849330902099387e-01,3.106057405471801536e-01,3.134946823120117188e-01,1.000000000000000000e+00,1.000000000000000000e+00,3.089935064315795787e-01,2.971017360687255859e-01,2.912718534469604381e-01,2.881881237030029519e-01,2.857639789581298828e-01,2.841245412826537975e-01,8.540528297424316850e-01,8.293350219726562944e-01,8.060077667236328347e-01,7.839569568634032759e-01,7.630807876586913618e-01,7.432879924774169478e-01
6.193154335021973100e-01,6.350153446197509544e-01,6.515320301055907981e-01,6.689308166503906694e-01,6.872843265533447044e-01,7.066733837127685547e-01,7.271881580352783647e-01,7.489296913146972212e-01,7.720112800598144531e-01,7.965609073638916238e-01,8.227198600769043413e-01,8.506477355957031694e-01,8.805383682250976785e-01,9.126060485839844194e-01,9.470977783203125000e-01,9.842990875244140847e-01,1.000000000000000000e+00,1.000000000000000000e+00,1.000000000000000000e+00,1.000000000000000000e+00,1.000000000000000000e+00,1.000000000000000000e+00,1.000000000000000000e+00,1.000000000000000000e+00,1.000000000000000000e+00,1.000000000000000000e+00,1.000000000000000000e+00,1.000000000000000000e+00,1.000000000000000000e+00,1.000000000000000000e+00,1.000000000000000000e+00,1.000000000000000000e+00,1.000000000000000000e+00,1.000000000000000000e+00,1.000000000000000000e+00,1.000000000000000000e+00,1.000000000000000000e+00,1.000000000000000000e+00,1.000000000000000000e+00,1.000000000000000000e+00,1.000000000000000000e+00,1.000000000000000000e+00,1.000000000000000000e+00,1.000000000000000000e+00,1.000000000000000000e+00,1.000000000000000000e+00,1.000000000000000000e+00,1.000000000000000000e+00,1.000000000000000000e+00,1.000000000000000000e+00,1.000000000000000000e+00,1.000000000000000000e+00,1.000000000000000000e+00,1.000000000000000000e+00,1.000000000000000000e+00,1.000000000000000000e+00,1.000000000000000000e+00,1.000000000000000000e+00,1.000000000000000000e+00,1.000000000000000000e+00,1.000000000000000000e+00,3.271754503250122181e-01,3.203376770019531472e-01,3.172360420227050559e-01,3.150508403778076172e-01,1.000000000000000000e+00,1.000000000000000000e+00,1.000000000000000000e+00,3.073442935943603294e-01,2.980098009109496959e-01,2.929027795791626088e-01,2.909093141555786355e-01,2.888904571533202903e-01,2.921739339828491322e-01,8.540723800659180132e-01,8.293535232543944868e-01,8.060259819030761719e-01,7.839749813079833762e-01,7.630983352661132590e-01,7.433046817779540572e-01
6.193022251129149947e-01,6.350015163421630637e-01,6.515173912048339844e-01,6.689154148101806863e-01,6.872680664062500444e-01,7.066561698913573775e-01,7.271700382232666460e-01,7.489103794097899947e-01,7.719908714294433372e-01,7.965390682220458984e-01,8.226998329162598100e-01,8.506373405456543191e-01,8.805385589599609153e-01,9.126063346862792747e-01,9.470979690551757368e-01,9.842993736267089400e-01,1.000000000000000000e+00,1.000000000000000000e+00,1.000000000000000000e+00,1.000000000000000000e+00,1.000000000000000000e+00,1.000000000000000000e+00,1.000000000000000000e+00,1.000000000000000000e+00,1.000000000000000000e+00,1.000000000000000000e+00,1.000000000000000000e+00,1.000000000000000000e+00,1.000000000000000000e+00,1.000000000000000000e+00,1.000000000000000000e+00,1.000000000000000000e+00,1.000000000000000000e+00,1.000000000000000000e+00,1.000000000000000000e+00,1.000000000000000000e+00,1.000000000000000000e+00,1.000000000000000000e+00,1.000000000000000000e+00,1.000000000000000000e+00,1.000000000000000000e+00,1.000000000000000000e+00,1.000000000000000000e+00,1.000000000000000000e+00,1.000000000000000000e+00,1.000000000000000000e+00,1.000000000000000000e+00,1.000000000000000000e+00,1.000000000000000000e+00,1.000000000000000000e+00,1.000000000000000000e+00,1.000000000000000000e+00,1.000000000000000000e+00,1.000000000000000000e+00,1.000000000000000000e+00,1.000000000000000000e+00,1.000000000000000000e+00,1.000000000000000000e+00,1.000000000000000000e+00,1.000000000000000000e+00,1.000000000000000000e+00,3.288163900375365989e-01,3.229895830154418945e-01,3.202046632766723522e-01,3.207285404205322266e-01,1.000000000000000000e+00,1.000000000000000000e+00,1.000000000000000000e+00,3.057126045227051003e-01,2.988778591156006081e-01,2.946239948272705300e-01,2.926822900772094727e-01,2.906388282775879128e-01,8.803313255310059038e-01,8.540933609008789507e-01,8.293742179870605691e-01,8.060456275939941184e-01,7.839934825897216797e-01,7.631159305572510210e-01,7.433213233947754128e-01
6.192890167236327903e-01,6.349876403808594194e-01,6.515028476715087891e-01,6.689000129699707031e-01,6.872518539428711382e-01,7.066390037536620650e-01,7.271518230438231978e-01,7.488910675048827681e-01,7.719703197479248491e-01,7.965173244476317915e-01,8.226765632629394753e-01,8.506124496459961382e-01,8.805123329162597434e-01,9.125907897949219194e-01,9.470949172973632812e-01,9.842996597290039062e-01,1.000000000000000000e+00,1.000000000000000000e+00,1.000000000000000000e+00,1.000000000000000000e+00,1.000000000000000000e+00,1.000000000000000000e+00,1.000000000000000000e+00,1.000000000000000000e+00,1.000000000000000000e+00,1.000000000000000000e+00,1.000000000000000000e+00,1.000000000000000000e+00,1.000000000000000000e+00,1.000000000000000000e+00,1.000000000000000000e+00,1.000000000000000000e+00,1.000000000000000000e+00,1.000000000000000000e+00,1.000000000000000000e+00,1.000000000000000000e+00,1.000000000000000000e+00,1.000000000000000000e+00,1.000000000000000000e+00,1.000000000000000000e+00,1.000000000000000000e+00,1.000000000000000000e+00,1.000000000000000000e+00,1.000000000000000000e+00,1.000000000000000000e+00,1.000000000000000000e+00,1.000000000000000000e+00,1.000000000000000000e+00,1.000000000000000000e+00,1.000000000000000000e+00,1.000000000000000000e+00,1.000000000000000000e+00,1.000000000000000000e+00,1.000000000000000000e+00,1.000000000000000000e+00,1.000000000000000000e+00,1.000000000000000000e+00,1.000000000000000000e+00,1.000000000000000000e+00,1.000000000000000000e+00,1.000000000000000000e+00,3.309782266616821400e-01,3.254541635513305553e-01,3.226785182952880970e-01,3.253667354583740234e-01,1.000000000000000000e+00,1.000000000000000000e+00,1.000000000000000000e+00,3.057821035385132058e-01,2.999269247055053600e-01,2.963655471801757701e-01,2.944770097732544167e-01,2.924084901809692605e-01,8.803546905517578569e-01,8.541153907775879128e-01,8.293949127197265403e-01,8.060651779174804465e-01,7.840119838714599831e-01,7.631334781646728072e-01,7.433379650115966575e-01
6.192758560180664507e-01,6.349737644195556641e-01,6.514882564544677290e-01,6.688846111297607200e-01,6.872355937957763672e-01,7.066218852996826172e-01,7.271336078643798606e-01,7.488718509674072710e-01,7.719498157501221147e-01,7.964954853057861772e-01,8.226532936096191406e-01,8.505875587463378462e-01,8.804857254028319868e-01,9.125621795654297319e-01,9.470641136169433150e-01,9.842774391174315962e-01,1.000000000000000000e+00,1.000000000000000000e+00,1.000000000000000000e+00,1.000000000000000000e+00,1.000000000000000000e+00,1.000000000000000000e+00,1.000000000000000000e+00,1.000000000000000000e+00,1.000000000000000000e+00,1.000000000000000000e+00,1.000000000000000000e+00,1.000000000000000000e+00,1.000000000000000000e+00,1.000000000000000000e+00,1.000000000000000000e+00,1.000000000000000000e+00,1.000000000000000000e+00,1.000000000000000000e+00,1.000000000000000000e+00,1.000000000000000000e+00,1.000000000000000000e+00,1.000000000000000000e+00,1.000000000000000000e+00,1.000000000000000000e+00,1.000000000000000000e+00,1.000000000000000000e+00,1.000000000000000000e+00,1.000000000000000000e+00,1.000000000000000000e+00,1.000000000000000000e+00,1.000000000000000000e+00,1.000000000000000000e+00,1.000000000000000000e+00,1.000000000000000000e+00,1.000000000000000000e+00,1.000000000000000000e+00,1.000000000000000000e+00,1.000000000000000000e+00,1.000000000000000000e+00,1.000000000000000000e+00,1.000000000000000000e+00,1.000000000000000000e+00,1.000000000000000000e+00,1.000000000000000000e+00,1.000000000000000000e+00,3.330609321594238392e-01,3.271210193634033203e-01,3.241949081420898438e-01,3.274718523025512695e-01,1.000000000000000000e+00,1.000000000000000000e+00,1.000000000000000000e+00,3.067185163497924694e-01,3.010002136230468528e-01,2.981278419494629017e-01,2.962826728820801003e-01,2.951350927352905384e-01,8.803780555725098100e-01,8.541373252868652566e-01,8.294156074523926225e-01,8.060847282409667747e-01,7.840305805206299050e-01,7.631509780883789507e-01,7.433546543121337669e-01
6.192626953125000000e-01,6.349599361419677734e-01,6.514736175537109153e-01,6.688692569732666016e-01,6.872193336486815962e-01,7.066046714782714400e-01,7.271154403686523882e-01,7.488525390625000444e-01,7.719294071197509988e-01,7.964736461639404519e-01,8.226300239562988059e-01,8.505627632141112837e-01,8.804590225219726118e-01,9.125334739685058150e-01,9.470332145690918413e-01,9.842441558837891069e-01,1.000000000000000000e+00,1.000000000000000000e+00,1.000000000000000000e+00,1.000000000000000000e+00,1.000000000000000000e+00,1.000000000000000000e+00,1.000000000000000000e+00,1.000000000000000000e+00,1.000000000000000000e+00,1.000000000000000000e+00,1.000000000000000000e+00,1.000000000000000000e+00,1.000000000000000000e+00,1.000000000000000000e+00,1.000000000000000000e+00,1.000000000000000000e+00,1.000000000000000000e+00,1.000000000000000000e+00,1.000000000000000000e+00,1.000000000000000000e+00,1.000000000000000000e+00,1.000000000000000000e+00,1.000000000000000000e+00,1.000000000000000000e+00,1.000000000000000000e+00,1.000000000000000000e+00,1.000000000000000000e+00,1.000000000000000000e+00,1.000000000000000000e+00,1.000000000000000000e+00,1.000000000000000000e+00,1.000000000000000000e+00,1.000000000000000000e+00,1.000000000000000000e+00,1.000000000000000000e+00,1.000000000000000000e+00,1.000000000000000000e+00,1.000000000000000000e+00,1.000000000000000000e+00,1.000000000000000000e+00,1.000000000000000000e+00,1.000000000000000000e+00,1.000000000000000000e+00,1.000000000000000000e+00,1.000000000000000000e+00,3.351700305938720703e-01,3.289972782135009988e-01,3.257256507873534934e-01,3.293708801269531472e-01,1.000000000000000000e+00,1.000000000000000000e+00,1.000000000000000000e+00,3.080280065536499245e-01,3.020812273025512695e-01,2.999112129211425892e-01,2.980439662933349609e-01,9.083070755004882812e-01,8.804014205932617632e-01,8.541593551635742188e-01,8.294363975524902122e-01,8.061043739318847212e-01,7.840490818023682085e-01,7.631686210632324663e-01,7.433712959289551225e-01
6.192494869232177956e-01,6.349460601806640181e-01,6.514590263366699663e-01,6.688539028167724831e-01,6.872031211853026900e-01,7.065875053405761275e-01,7.270973205566406694e-01,7.488332271575928178e-01,7.719089031219482644e-01,7.964518070220947266e-01,8.226067543029784712e-01,8.505378723144531028e-01,8.804324150085449663e-01,9.125049591064453569e-01,9.470024108886718750e-01,9.842108726501465066e-01,1.000000000000000000e+00,1.000000000000000000e+00,1.000000000000000000e+00,1.000000000000000000e+00,1.000000000000000000e+00,1.000000000000000000e+00,1.000000000000000000e+00,1.000000000000000000e+00,1.000000000000000000e+00,1.000000000000000000e+00,1.000000000000000000e+00,1.000000000000000000e+00,1.000000000000000000e+00,1.000000000000000000e+00,1.000000000000000000e+00,1.000000000000000000e+00,1.000000000000000000e+00,1.000000000000000000e+00,1.000000000000000000e+00,1.000000000000000000e+00,1.000000000000000000e+00,1.000000000000000000e+00,1.000000000000000000e+00,1.000000000000000000e+00,1.000000000000000000e+00,1.000000000000000000e+00,1.000000000000000000e+00,1.000000000000000000e+00,1.000000000000000000e+00,1.000000000000000000e+00,1.000000000000000000e+00,1.000000000000000000e+00,1.000000000000000000e+00,1.000000000000000000e+00,1.000000000000000000e+00,1.000000000000000000e+00,1.000000000000000000e+00,1.000000000000000000e+00,1.000000000000000000e+00,1.000000000000000000e+00,1.000000000000000000e+00,1.000000000000000000e+00,1.000000000000000000e+00,1.000000000000000000e+00,1.000000000000000000e+00,3.373572111129760631e-01,3.308951616287231223e-01,3.272709131240844616e-01,3.312504529953003152e-01,1.000000000000000000e+00,1.000000000000000000e+00,1.000000000000000000e+00,3.096163034439086692e-01,3.038377046585082897e-01,3.018146276473999134e-01,2.998811006546020508e-01,9.083318710327148438e-01,8.804247856140137163e-01,8.541813850402831809e-01,8.294570922851562944e-01,8.061239242553710493e-01,7.840675830841064009e-01,7.631861686706542525e-01,7.433879375457763672e-01
6.192363262176513450e-01,6.349321842193603738e-01,6.514444828033447710e-01,6.688385009765625000e-01,6.871868610382080300e-01,7.065703392028808150e-01,7.270791053771972212e-01,7.488140106201172097e-01,7.718883991241455300e-01,7.964300632476806197e-01,8.225834846496582475e-01,8.505129814147949219e-01,8.804057121276855913e-01,9.124762535095214400e-01,9.469716072082519087e-01,9.841775894165039062e-01,1.000000000000000000e+00,1.000000000000000000e+00,1.000000000000000000e+00,1.000000000000000000e+00,1.000000000000000000e+00,1.000000000000000000e+00,1.000000000000000000e+00,1.000000000000000000e+00,1.000000000000000000e+00,1.000000000000000000e+00,1.000000000000000000e+00,1.000000000000000000e+00,1.000000000000000000e+00,1.000000000000000000e+00,1.000000000000000000e+00,1.000000000000000000e+00,1.000000000000000000e+00,1.000000000000000000e+00,1.000000000000000000e+00,1.000000000000000000e+00,1.000000000000000000e+00,1.000000000000000000e+00,1.000000000000000000e+00,1.000000000000000000e+00,1.000000000000000000e+00,1.000000000000000000e+00,1.000000000000000000e+00,1.000000000000000000e+00,1.000000000000000000e+00,1.000000000000000000e+00,1.000000000000000000e+00,1.000000000000000000e+00,1.000000000000000000e+00,1.000000000000000000e+00,1.000000000000000000e+00,1.000000000000000000e+00,1.000000000000000000e+00,1.000000000000000000e+00,1.000000000000000000e+00,1.000000000000000000e+00,1.000000000000000000e+00,1.000000000000000000e+00,1.000000000000000000e+00,1.000000000000000000e+00,1.000000000000000000e+00,3.395766258239746316e-01,3.330063343048095814e-01,3.288990974426269642e-01,3.332836627960205078e-01,1.000000000000000000e+00,1.000000000000000000e+00,3.258259534835815652e-01,3.112210512161254772e-01,3.058655977249145619e-01,3.037996053695678489e-01,3.059631347656249778e-01,9.083568572998046431e-01,8.804481506347656694e-01,8.542033195495605247e-01,8.294778823852538840e-01,8.061435699462891069e-01,7.840861797332763228e-01,7.632036685943603960e-01,7.434046745300293413e-01
6.192231178283691406e-01,6.349183082580566184e-01,6.514298915863037109e-01,6.688231468200683816e-01,6.871706485748291238e-01,7.065532207489013672e-01,7.270609378814697488e-01,7.487947463989257368e-01,7.718678951263427956e-01,7.964082241058350053e-01,8.225603103637695312e-01,8.504881858825683594e-01,8.803791046142578347e-01,9.124476432800292525e-01,9.469408035278320535e-01,9.841442108154296875e-01,1.000000000000000000e+00,1.000000000000000000e+00,1.000000000000000000e+00,1.000000000000000000e+00,1.000000000000000000e+00,1.000000000000000000e+00,1.000000000000000000e+00,1.000000000000000000e+00,1.000000000000000000e+00,1.000000000000000000e+00,1.000000000000000000e+00,1.000000000000000000e+00,1.000000000000000000e+00,1.000000000000000000e+00,1.000000000000000000e+00,1.000000000000000000e+00,1.000000000000000000e+00,1.000000000000000000e+00,1.000000000000000000e+00,1.000000000000000000e+00,1.000000000000000000e+00,1.000000000000000000e+00,1.000000000000000000e+00,1.000000000000000000e+00,1.000000000000000000e+00,1.000000000000000000e+00,1.000000000000000000e+00,1.000000000000000000e+00,1.000000000000000000e+00,1.000000000000000000e+00,1.000000000000000000e+00,1.000000000000000000e+00,1.000000000000000000e+00,1.000000000000000000e+00,1.000000000000000000e+00,1.000000000000000000e+00,1.000000000000000000e+00,1.000000000000000000e+00,1.000000000000000000e+00,1.000000000000000000e+00,1.000000000000000000e+00,1.000000000000000000e+00,1.000000000000000000e+00,1.000000000000000000e+00,1.000000000000000000e+00,3.420765876770019420e-01,3.354302406311034934e-01,3.316593647003173717e-01,3.356050729751586803e-01,1.000000000000000000e+00,1.000000000000000000e+00,3.225052595138550027e-01,3.127959251403808483e-01,3.079207658767700306e-01,3.058108806610107533e-01,9.381192207336426225e-01,9.083817481994629350e-01,8.804715156555176225e-01,8.542253494262694868e-01,8.294986724853515847e-01,8.061631202697754350e-01,7.841047286987304910e-01,7.632213115692139116e-01,7.434212684631347212e-01
6.192099571228026900e-01,6.349044799804687278e-01,6.514152526855468972e-01,6.688077449798583984e-01,6.871543884277343528e-01,7.065360069274901900e-01,7.270428180694580300e-01,7.487754344940185103e-01,7.718474388122558150e-01,7.963864326477050337e-01,8.225369453430175781e-01,8.504632949829101785e-01,8.803524017333984597e-01,9.124190330505370650e-01,9.469099998474120872e-01,9.710210800170898660e-01,9.707798957824707031e-01,9.705389022827148882e-01,9.702980995178223100e-01,9.700572013854980025e-01,9.698165893554687722e-01,9.695760726928710493e-01,9.693356513977050559e-01,9.690954208374022993e-01,9.688551902770996538e-01,9.686151504516601340e-01,9.683752059936523438e-01,9.681353569030761719e-01,9.678956985473632368e-01,9.676560401916504128e-01,9.674166679382324441e-01,9.671772956848144753e-01,9.669380187988281250e-01,9.666989326477051225e-01,9.664599418640136275e-01,9.662211418151855913e-01,9.659823417663574441e-01,9.657437324523925337e-01,9.655052185058593528e-01,9.652667999267577903e-01,9.650284767150878462e-01,9.647903442382812500e-01,9.645523071289062722e-01,9.643143653869629128e-01,9.640766143798827903e-01,9.638389587402343972e-01,9.636013031005858931e-01,9.633638381958007368e-01,9.631265640258789285e-01,9.628892898559570090e-01,9.626521110534668191e-01,9.624152183532714844e-01,9.621782302856445312e-01,9.619415283203125444e-01,9.617049217224120650e-01,9.614683151245116965e-01,9.612318992614745650e-01,9.609956741333007812e-01,9.607594490051269975e-01,9.605234146118164507e-01,9.602874755859375222e-01,3.446150779724120872e-01,3.379155158996581809e-01,3.346570968627929910e-01,3.386642694473266380e-01,9.591094017028808372e-01,9.588742256164550781e-01,3.209679603576660045e-01,3.143725156784057395e-01,3.100037097930908314e-01,3.101737737655639870e-01,9.381457328796386497e-01,9.084065437316894975e-01,8.804948806762695757e-01,8.542473793029785600e-01,8.295193672180175559e-01,8.061826705932617632e-01,7.841232299804687944e-01,7.632388114929199441e-01,7.434379100799560769e-01
6.191967487335204856e-01,6.348906040191650835e-01,6.514007091522217019e-01,6.687923431396484153e-01,6.871381759643554465e-01,7.065188407897948775e-01,7.270246028900146928e-01,7.487561225891112837e-01,7.542525768280029519e-01,7.541071414947509988e-01,7.539617061614990456e-01,7.538162708282470925e-01,7.536709785461426225e-01,7.535256862640380415e-01,7.533804416656494363e-01,7.532353401184082031e-01,7.530902385711669700e-01,7.529451370239257368e-01,7.528001785278319868e-01,7.526552200317382368e-01,7.525104045867919700e-01,7.523655414581298384e-01,7.522207736968994363e-01,7.520761013031005415e-01,7.519314289093017578e-01,7.517868041992187278e-01,7.516422748565674272e-01,7.514977931976318803e-01,7.513533115386963335e-01,7.512089729309081587e-01,7.510646343231200950e-01,7.509203433990478960e-01,7.507761478424072044e-01,7.506319999694823775e-01,7.504878520965576616e-01,7.503438472747803178e-01,7.501998424530029741e-01,7.500558853149413840e-01,7.499120235443115234e-01,7.497681617736816628e-01,7.496243953704834206e-01,7.494807243347167969e-01,7.493370056152344194e-01,7.491934776306152788e-01,7.490499019622802734e-01,7.489063739776611328e-01,7.487629890441894753e-01,7.486195564270019531e-01,7.484762191772460493e-01,7.483329772949218750e-01,7.481897354125977007e-01,7.480465412139892800e-01,7.479034900665283425e-01,7.477603912353515403e-01,7.476173877716064675e-01,7.474744796752930132e-01,7.473315715789794478e-01,7.471887111663818581e-01,7.470459461212157759e-01,7.469031810760498047e-01,7.467605113983154519e-01,3.471915245056152455e-01,3.404378414154052845e-01,3.377095222473144309e-01,7.461904048919677512e-01,7.460479736328125000e-01,7.459056854248047319e-01,3.252032518386840931e-01,3.184754371643066517e-01,3.121150255203247181e-01,7.453367710113525391e-01,7.451946735382080078e-01,7.450527191162109597e-01,7.449107170104980469e-01,7.447687625885009988e-01,7.446269512176513228e-01,7.444850921630858931e-01,7.443433284759521928e-01,7.442016601562500000e-01,7.434546470642089400e-01
6.167007446289062278e-01,6.166035175323486550e-01,6.165062904357909712e-01,6.164091110229492632e-01,6.163118839263915794e-01,6.162147998809814897e-01,6.161176681518554243e-01,6.160205364227294700e-01,6.159235000610351340e-01,6.158264636993407981e-01,6.157294750213623269e-01,6.156325340270996094e-01,6.155355930328368919e-01,6.154386520385741743e-01,6.153418064117431863e-01,6.152449607849120872e-01,6.151481151580810991e-01,6.150513648986816184e-01,6.149546146392822488e-01,6.148578643798827681e-01,6.147612094879150169e-01,6.146645069122314009e-01,6.145678997039795144e-01,6.144712924957275169e-01,6.143747329711913840e-01,6.142782211303711160e-01,6.141817092895507368e-01,6.140851974487304688e-01,6.139887809753418191e-01,6.138923645019531694e-01,6.137959480285644087e-01,6.136996269226073775e-01,6.136032581329345925e-01,6.135069370269775613e-01,6.134107112884521484e-01,6.133144855499267356e-01,6.132182598114013228e-01,6.131221294403076394e-01,6.130259513854980913e-01,6.129298210144042969e-01,6.128337860107422319e-01,6.127377033233643022e-01,6.126416683197021262e-01,6.125456809997558150e-01,6.124497413635253684e-01,6.123538017272949219e-01,6.122579097747802290e-01,6.121620178222656472e-01,6.120661735534668191e-01,6.119703769683837447e-01,6.118745326995849165e-01,6.117788314819335715e-01,6.116830825805663618e-01,6.115873813629150169e-01,6.114917278289795366e-01,6.113960742950439453e-01,6.113004684448242188e-01,6.112049102783203569e-01,6.111093521118163840e-01,6.110138416290282759e-01,6.109183788299560325e-01,6.108229160308837891e-01,3.429981470108032227e-01,3.398818969726562500e-01,6.105367183685302956e-01,6.104413509368896706e-01,3.377573013305664174e-01,3.243991374969482644e-01,3.185274362564086692e-01,3.166704893112182728e-01,6.099651336669922319e-01,6.098700046539307085e-01,6.097748756408691850e-01,6.096797466278076616e-01,6.095847129821777566e-01,6.094896793365478516e-01,6.093946456909179465e-01,6.092997074127197710e-01,6.092047214508056197e-01,6.091097831726074441e-01
5.210247516632080522e-01,5.209553718566894975e-01,5.208859443664550781e-01,5.208165645599365234e-01,5.207471847534179688e-01,5.206778526306152788e-01,5.206084728240967241e-01,5.205391407012939231e-01,5.204698562622069868e-01,5.204005718231201616e-01,5.203313350677489790e-01,5.202620506286621538e-01,5.201928138732909712e-01,5.201236248016357644e-01,5.200544357299804465e-01,5.199852466583252397e-01,5.199161052703857866e-01,5.198469638824463335e-01,5.197778224945068803e-01,5.197087287902831809e-01,5.196396350860595925e-01,5.195705890655517578e-01,5.195015430450439231e-01,5.194324970245360884e-01,5.193634986877441184e-01,5.192945480346680132e-01,5.192255496978759322e-01,5.191565990447998269e-01,5.190876483917236106e-01,5.190187454223632590e-01,5.189498424530029075e-01,5.188809871673584206e-01,5.188120841979980691e-01,5.187432765960693359e-01,5.186744213104248491e-01,5.186056137084961160e-01,5.185368537902832475e-01,5.184680461883545144e-01,5.183992862701416460e-01,5.183305740356445312e-01,5.182618618011474165e-01,5.181931495666504128e-01,5.181244850158691628e-01,5.180558204650879128e-01,5.179871559143066628e-01,5.179185867309570312e-01,5.178499221801757812e-01,5.177813529968261497e-01,5.177127838134765181e-01,5.176442146301269975e-01,5.175756931304931197e-01,5.175072193145752175e-01,5.174386978149414507e-01,5.173702239990234375e-01,5.173017501831054243e-01,5.172333240509032759e-01,5.171648979187011275e-01,5.170964717864989790e-01,5.170280933380126953e-01,5.169597148895264116e-01,5.168913841247558816e-01,5.168230056762694868e-01,3.476901769638061634e-01,3.440755367279052512e-01,5.166181087493896262e-01,5.165498733520508257e-01,3.358267784118652566e-01,3.255219221115112083e-01,3.171200990676880105e-01,3.129078388214111550e-01,5.162088394165038618e-01,5.161406993865966797e-01,5.160725116729736328e-01,5.160044193267822044e-01,5.159363269805907759e-01,5.158682346343994585e-01,5.158001899719237837e-01,5.157321453094482200e-01,5.156641006469726562e-01,5.155961036682128462e-01
4.510483741760253906e-01,4.509963512420654408e-01,4.509443283081054910e-01,4.508923053741454856e-01,4.508402824401855358e-01,4.507883548736572044e-01,4.507363319396972545e-01,4.506844043731689231e-01,4.506324291229247825e-01,4.505805015563965066e-01,4.505285739898681752e-01,4.504766464233398438e-01,4.504247665405273215e-01,4.503728866577148549e-01,4.503210067749023326e-01,4.502691268920898660e-01,4.502172946929931530e-01,4.501654148101806863e-01,4.501136302947997825e-01,4.500617980957031250e-01,4.500099658966064675e-01,4.499581813812255637e-01,4.499063968658447155e-01,4.498546123504638672e-01,4.498028755187988281e-01,4.497510910034179799e-01,4.496993541717529408e-01,4.496476650238037109e-01,4.495959281921386719e-01,4.495442390441894420e-01,4.494925498962402122e-01,4.494408607482910378e-01,4.493892192840576172e-01,4.493375778198241965e-01,4.492859363555908314e-01,4.492342948913574108e-01,4.491826534271240456e-01,4.491310596466064342e-01,4.490794658660888783e-01,4.490278720855712669e-01,4.489763259887695201e-01,4.489247798919677734e-01,4.488731861114502175e-01,4.488216400146484153e-01,4.487701416015624778e-01,4.487186431884765403e-01,4.486671447753906028e-01,4.486156463623046653e-01,4.485641956329345925e-01,4.485126972198486550e-01,4.484612464904785267e-01,4.484097957611083984e-01,4.483583927154540794e-01,4.483069896697998158e-01,4.482555866241454967e-01,4.482041835784912331e-01,4.481527805328369141e-01,4.481014251708984597e-01,4.480500698089599498e-01,4.479987144470214955e-01,4.479473590850829856e-01,4.478960990905761497e-01,3.461705684661865456e-01,3.403586149215698242e-01,3.393891096115112527e-01,4.476909160614013783e-01,4.476396083831787331e-01,4.475883960723877064e-01,3.177629232406616322e-01,3.096405506134033425e-01,3.083290815353393333e-01,4.473834991455077903e-01,4.473322868347168191e-01,4.472811222076416016e-01,4.472299575805663840e-01,4.471787929534912220e-01,4.471276283264160045e-01,4.470765113830566517e-01,4.470253467559814342e-01,4.469742774963378906e-01
3.976428031921386830e-01,3.976023674011230358e-01,3.975619554519653209e-01,3.975215435028076061e-01,3.974810838699340820e-01,3.974406957626342995e-01,3.974003076553344616e-01,3.973598957061767467e-01,3.973195075988769642e-01,3.972791433334350586e-01,3.972388029098510853e-01,3.971984148025512473e-01,3.971580743789672741e-01,3.971177339553833008e-01,3.970773696899413951e-01,3.970370769500732311e-01,3.969967603683471902e-01,3.969564199447631614e-01,3.969161272048949973e-01,3.968758344650268333e-01,3.968355655670166016e-01,3.967952728271484375e-01,3.967550039291382058e-01,3.967147588729858509e-01,3.966744899749755637e-01,3.966342449188232644e-01,3.965940237045287864e-01,3.965537548065185547e-01,3.965135574340820090e-01,3.964733600616455189e-01,3.964331150054931641e-01,3.963929414749145508e-01,3.963527679443359375e-01,3.963125467300415150e-01,3.962723970413207786e-01,3.962322473526000977e-01,3.961920499801635520e-01,3.961519241333008035e-01,3.961117982864379994e-01,3.960716485977172630e-01,3.960315227508545144e-01,3.959914207458495872e-01,3.959512948989868386e-01,3.959111928939819114e-01,3.958711147308349720e-01,3.958310127258301003e-01,3.957909584045410378e-01,3.957509040832519753e-01,3.957108020782470481e-01,3.956707715988159180e-01,3.956307411193847878e-01,3.955906629562377930e-01,3.955506563186645397e-01,3.955106496810912864e-01,3.954706192016601562e-01,3.954306364059448353e-01,3.953906536102295144e-01,3.953506231307983287e-01,3.953106641769409402e-01,3.952707052230834961e-01,3.952307224273681752e-01,3.951907873153686634e-01,3.427201509475708008e-01,3.368137121200561745e-01,3.331984519958496316e-01,3.318830251693725697e-01,3.949911594390869141e-01,3.949512243270874023e-01,3.949113368988036998e-01,3.068716526031494141e-01,3.030096530914306863e-01,3.048376560211181752e-01,3.947518348693847545e-01,3.947119474411010520e-01,3.946721076965332142e-01,3.946322917938232533e-01,3.945924282073974831e-01,3.945526123046875222e-01,3.945128202438354381e-01,3.944729804992676003e-01
3.555451631546020508e-01,3.555128335952758567e-01,3.554804801940917858e-01,3.554481744766235241e-01,3.554158687591552623e-01,3.553835630416870006e-01,3.553512334823608620e-01,3.553189516067504772e-01,3.552866697311401478e-01,3.552543640136718861e-01,3.552221059799194336e-01,3.551898479461669811e-01,3.551575899124145286e-01,3.551252841949462669e-01,3.550930500030517467e-01,3.550608158111572266e-01,3.550285339355468972e-01,3.549963235855102539e-01,3.549640893936157338e-01,3.549318790435790905e-01,3.548996210098266380e-01,3.548674345016479270e-01,3.548351764678955300e-01,3.548029899597168191e-01,3.547708034515381081e-01,3.547386169433593972e-01,3.547064065933227539e-01,3.546742439270019753e-01,3.546420812606811412e-01,3.546098947525024303e-01,3.545777320861816517e-01,3.545455932617187500e-01,3.545134067535400391e-01,3.544812679290771373e-01,3.544491529464721680e-01,3.544169902801513894e-01,3.543848752975463645e-01,3.543527603149413951e-01,3.543206214904784934e-01,3.542885303497314564e-01,3.542564153671264870e-01,3.542243003845214622e-01,3.541922092437744252e-01,3.541601419448852650e-01,3.541280269622802956e-01,3.540959596633911355e-01,3.540639162063598522e-01,3.540318250656128152e-01,3.539997816085815319e-01,3.539677381515503041e-01,3.539356708526611439e-01,3.539036273956298606e-01,3.538716077804565652e-01,3.538395404815674050e-01,3.538075447082519309e-01,3.537755250930786355e-01,3.537435054779052845e-01,3.537115097045898660e-01,3.536795139312743919e-01,3.536474943161010964e-01,3.536155223846435547e-01,3.535835504531860130e-01,3.387530565261840931e-01,3.298777103424072044e-01,3.281249046325683816e-01,3.235718488693237194e-01,3.226463079452514537e-01,3.533917665481567383e-01,3.533598423004150613e-01,3.064779043197631836e-01,2.996244430541992188e-01,2.955022811889648215e-01,2.967591047286987083e-01,3.532001972198486328e-01,3.531682968139648326e-01,3.531363725662231556e-01,3.531044721603393555e-01,3.530726194381713645e-01,3.530406951904296875e-01,3.530088424682616965e-01
3.215077400207519420e-01,3.214813232421874778e-01,3.214548826217651367e-01,3.214284658432006725e-01,3.214020252227783314e-01,3.213756084442138672e-01,3.213492155075073353e-01,3.213227748870849387e-01,3.212963819503784069e-01,3.212699890136718750e-01,3.212435960769653431e-01,3.212171792984008789e-01,3.211907863616943470e-01,3.211644172668456920e-01,3.211380004882812278e-01,3.211116313934326283e-01,3.210852861404419056e-01,3.210589170455932506e-01,3.210325241088867188e-01,3.210061788558959961e-01,3.209798336029052734e-01,3.209534645080566184e-01,3.209271192550658958e-01,3.209007978439331055e-01,3.208744287490844505e-01,3.208481073379516602e-01,3.208217859268188699e-01,3.207954406738281472e-01,3.207691192626953014e-01,3.207428216934203880e-01,3.207164764404296653e-01,3.206901788711548074e-01,3.206638813018798939e-01,3.206375837326049805e-01,3.206112861633300670e-01,3.205849885940551536e-01,3.205587148666381725e-01,3.205324172973632590e-01,3.205061435699462780e-01,3.204798698425292969e-01,3.204535961151123158e-01,3.204273223876953347e-01,3.204010725021362305e-01,3.203747987747192494e-01,3.203485488891601451e-01,3.203223228454589733e-01,3.202960491180419922e-01,3.202698230743408203e-01,3.202435970306396484e-01,3.202173471450805442e-01,3.201911211013793723e-01,3.201649188995361328e-01,3.201386690139770286e-01,3.201124668121337891e-01,3.200862646102905495e-01,3.200600385665893777e-01,3.200338602066040150e-01,3.200076818466186523e-01,3.199814558029174805e-01,3.199552774429321178e-01,3.199290990829467551e-01,3.199028968811035156e-01,3.198767185211181530e-01,3.198505640029907227e-01,3.198243856430053600e-01,3.197982311248779297e-01,3.197720766067504994e-01,3.197458982467651367e-01,3.197197675704955833e-01,3.196936368942260853e-01,3.196674585342407227e-01,3.196413278579711692e-01,3.196152210235595481e-01,3.195890903472900502e-01,3.195629596710204967e-01,3.195368289947509988e-01,3.195107221603393777e-01,3.194845914840698242e-01,3.194585084915161355e-01,3.194324016571045144e-01
2.934179782867431530e-01,2.933959722518920676e-01,2.933739423751831055e-01,2.933519363403320201e-01,2.933299303054809348e-01,2.933079242706299050e-01,2.932858943939208873e-01,2.932639122009277344e-01,2.932419300079345814e-01,2.932199001312255637e-01,2.931979179382324108e-01,2.931759357452392578e-01,2.931539773941039817e-01,2.931319713592529519e-01,2.931099891662597434e-01,2.930880308151245228e-01,2.930660486221313699e-01,2.930440902709960938e-01,2.930221319198608176e-01,2.930001735687255970e-01,2.929781913757324441e-01,2.929562568664551003e-01,2.929342985153198242e-01,2.929123401641845481e-01,2.928904056549072044e-01,2.928684711456298606e-01,2.928465127944946400e-01,2.928245782852172963e-01,2.928026437759399525e-01,2.927807092666626088e-01,2.927587985992431419e-01,2.927368879318237305e-01,2.927149295806884544e-01,2.926930427551269753e-01,2.926711320877075084e-01,2.926492214202880970e-01,2.926273107528686301e-01,2.926054000854492188e-01,2.925835132598876842e-01,2.925616025924682728e-01,2.925397157669067383e-01,2.925178527832031361e-01,2.924959421157836692e-01,2.924740552902221902e-01,2.924521923065185325e-01,2.924303054809570535e-01,2.924084424972533958e-01,2.923865795135497936e-01,2.923646926879882590e-01,2.923428297042846569e-01,2.923209905624389870e-01,2.922991037368774525e-01,2.922772645950317272e-01,2.922554254531860574e-01,2.922335624694823997e-01,2.922117233276367299e-01,2.921898841857910045e-01,2.921680450439453347e-01,2.921462059020996094e-01,2.921243906021118164e-01,2.921025514602660911e-01,2.920807361602782981e-01,2.920589208602905051e-01,2.920370817184448353e-01,2.920152664184570424e-01,2.919934749603271262e-01,2.919716358184814564e-01,2.919498443603515403e-01,2.919280529022216797e-01,2.919062376022338867e-01,2.918844461441040261e-01,2.918626785278320424e-01,2.918408632278442494e-01,2.918190956115722656e-01,2.917973041534424050e-01,2.917755126953124889e-01,2.917537450790405051e-01,2.917319774627685769e-01,2.917102098464965931e-01,2.916884422302246094e-01
2.698421478271484375e-01,2.698235273361205833e-01,2.698049306869506614e-01,2.697863101959228627e-01,2.697676658630371316e-01,2.697490692138672097e-01,2.697304725646972878e-01,2.697118282318115012e-01,2.696932315826415794e-01,2.696746349334716575e-01,2.696560382843017356e-01,2.696374416351318137e-01,2.696188449859618919e-01,2.696002483367919700e-01,2.695816516876220481e-01,2.695630788803100586e-01,2.695444822311401367e-01,2.695259094238281472e-01,2.695073127746582253e-01,2.694887399673461803e-01,2.694701910018920676e-01,2.694515943527221458e-01,2.694330453872680886e-01,2.694144725799560436e-01,2.693959236145019309e-01,2.693773269653320090e-01,2.693587779998779519e-01,2.693402290344238392e-01,2.693216562271117942e-01,2.693031072616577370e-01,2.692845821380615012e-01,2.692660093307495117e-01,2.692474603652953991e-01,2.692289352416992188e-01,2.692103862762451061e-01,2.691918611526489258e-01,2.691733121871948131e-01,2.691547870635986328e-01,2.691362619400024525e-01,2.691177368164062722e-01,2.690991878509521595e-01,2.690806865692138561e-01,2.690621614456176758e-01,2.690436601638793723e-01,2.690251350402831920e-01,2.690066099166870117e-01,2.689881086349487083e-01,2.689695835113525280e-01,2.689511060714721569e-01,2.689326047897339089e-01,2.689140796661376731e-01,2.688956022262573020e-01,2.688771009445190541e-01,2.688585996627807506e-01,2.688401222229003795e-01,2.688216447830200084e-01,2.688031435012817605e-01,2.687846660614013894e-01,2.687661886215210183e-01,2.687477111816406472e-01,2.687292337417602761e-01,2.687107801437377819e-01,2.686922788619995339e-01,2.686738252639770397e-01,2.686553716659546009e-01,2.686368942260742299e-01,2.686184406280517356e-01,2.685999870300292969e-01,2.685815334320068581e-01,2.685630798339843639e-01,2.685446500778198020e-01,2.685261726379394309e-01,2.685077428817749245e-01,2.684893131256103627e-01,2.684708595275878684e-01,2.684524297714233620e-01,2.684340000152588002e-01,2.684155464172363059e-01,2.683971405029296764e-01,2.683787107467651145e-01
2.497731685638427679e-01,2.497572183609008678e-01,2.497412443161010631e-01,2.497252941131591908e-01,2.497093439102172907e-01,2.496934175491332952e-01,2.496774435043334905e-01,2.496615171432495228e-01,2.496455669403076227e-01,2.496296167373657227e-01,2.496136903762817272e-01,2.495977640151977595e-01,2.495818376541137640e-01,2.495658874511718639e-01,2.495499610900878962e-01,2.495340347290039007e-01,2.495180845260620006e-01,2.495021820068359375e-01,2.494862556457519420e-01,2.494703531265258789e-01,2.494544029235839788e-01,2.494385004043579157e-01,2.494225978851318248e-01,2.494066715240478571e-01,2.493907690048217662e-01,2.493748664855957031e-01,2.493589401245117076e-01,2.493430376052856445e-01,2.493271350860595814e-01,2.493112564086913951e-01,2.492953300476074274e-01,2.492794513702392689e-01,2.492635488510131780e-01,2.492476463317871149e-01,2.492317676544189564e-01,2.492158889770507701e-01,2.491999864578247070e-01,2.491841077804565485e-01,2.491682291030883900e-01,2.491523504257202037e-01,2.491364717483520452e-01,2.491205930709838867e-01,2.491047143936157282e-01,2.490888357162475697e-01,2.490729808807373158e-01,2.490571260452270619e-01,2.490412473678588756e-01,2.490253686904907171e-01,2.490095138549804632e-01,2.489936590194702093e-01,2.489778041839599554e-01,2.489619493484497015e-01,2.489460945129394476e-01,2.489302396774291937e-01,2.489143848419189398e-01,2.488985300064086859e-01,2.488826990127563366e-01,2.488668441772460826e-01,2.488509893417358287e-01,2.488351583480835072e-01,2.488193273544311579e-01,2.488034963607788086e-01,2.487876653671264593e-01,2.487718343734741100e-01,2.487559795379638561e-01,2.487401723861694391e-01,2.487243413925170898e-01,2.487085103988647405e-01,2.486927032470703236e-01,2.486768960952758789e-01,2.486610651016235296e-01,2.486452341079711803e-01,2.486294269561767634e-01,2.486136198043823187e-01,2.485978126525879017e-01,2.485820055007934570e-01,2.485661983489990123e-01,2.485503911972045954e-01,2.485346078872680553e-01,2.485187768936157338e-01
2.324826955795288030e-01,2.324688911437988170e-01,2.324550628662109264e-01,2.324412584304809681e-01,2.324274063110351451e-01,2.324136018753051869e-01,2.323997974395752009e-01,2.323859691619873102e-01,2.323721647262573242e-01,2.323583602905273382e-01,2.323445558547973522e-01,2.323307275772094616e-01,2.323169231414795033e-01,2.323031187057495173e-01,2.322893142700195312e-01,2.322755098342895452e-01,2.322617292404174916e-01,2.322479248046875056e-01,2.322341203689575195e-01,2.322203397750854381e-01,2.322065353393554799e-01,2.321927309036254938e-01,2.321789503097534124e-01,2.321651697158813588e-01,2.321513891220092773e-01,2.321375846862792913e-01,2.321238040924072377e-01,2.321100234985351562e-01,2.320962429046630748e-01,2.320824623107910212e-01,2.320687055587768444e-01,2.320549249649047907e-01,2.320411443710327093e-01,2.320273637771606556e-01,2.320136070251464788e-01,2.319998264312744252e-01,2.319860696792602484e-01,2.319723129272460993e-01,2.319585323333740179e-01,2.319447755813598688e-01,2.319310188293456920e-01,2.319172382354736384e-01,2.319035053253173939e-01,2.318897485733032171e-01,2.318759679794311634e-01,2.318622350692748912e-01,2.318484783172607422e-01,2.318347215652465931e-01,2.318209886550903209e-01,2.318072319030761719e-01,2.317934751510620228e-01,2.317797422409057506e-01,2.317660093307495062e-01,2.317522764205932617e-01,2.317385196685791127e-01,2.317247867584228405e-01,2.317110538482665960e-01,2.316973209381103516e-01,2.316835880279541071e-01,2.316698789596557673e-01,2.316561460494995228e-01,2.316424131393432506e-01,2.316287040710449108e-01,2.316149473190307617e-01,2.316012382507324219e-01,2.315875291824340820e-01,2.315737962722778376e-01,2.315600872039794977e-01,2.315463781356811579e-01,2.315326452255249134e-01,2.315189361572265736e-01,2.315052509307861384e-01,2.314915180206298939e-01,2.314778089523315541e-01,2.314641237258911188e-01,2.314504146575927790e-01,2.314367055892944391e-01,2.314230203628540039e-01,2.314093112945556641e-01,2.313956022262573242e-01
2.174311161041259655e-01,2.174190282821655273e-01,2.174069166183471569e-01,2.173948287963867188e-01,2.173827409744262806e-01,2.173706769943237194e-01,2.173585653305053766e-01,2.173465013504028431e-01,2.173344135284423773e-01,2.173223257064819391e-01,2.173102378845214733e-01,2.172981739044189398e-01,2.172861099243164062e-01,2.172740221023559681e-01,2.172619342803955023e-01,2.172498703002929688e-01,2.172377824783325306e-01,2.172257184982299694e-01,2.172136545181274359e-01,2.172015905380249023e-01,2.171895265579223688e-01,2.171774625778198353e-01,2.171653985977172741e-01,2.171533346176147405e-01,2.171412706375122070e-01,2.171292066574096735e-01,2.171171426773071400e-01,2.171051025390625111e-01,2.170930385589599498e-01,2.170809984207153209e-01,2.170689344406127874e-01,2.170568943023681585e-01,2.170448303222656250e-01,2.170327663421630915e-01,2.170207262039184626e-01,2.170086860656738337e-01,2.169966459274292048e-01,2.169846057891845759e-01,2.169725656509399470e-01,2.169605255126953181e-01,2.169484615325927845e-01,2.169364213943481556e-01,2.169244050979614313e-01,2.169123649597168024e-01,2.169003248214721735e-01,2.168882846832275446e-01,2.168762445449829157e-01,2.168642282485961914e-01,2.168522119522094671e-01,2.168401718139648382e-01,2.168281316757202093e-01,2.168161153793334850e-01,2.168040990829467884e-01,2.167920589447021595e-01,2.167800426483154352e-01,2.167680263519287109e-01,2.167560100555419866e-01,2.167439937591552623e-01,2.167319774627685658e-01,2.167199611663818415e-01,2.167079448699951172e-01,2.166959524154662975e-01,2.166839122772216686e-01,2.166719198226928766e-01,2.166599035263061523e-01,2.166478872299194280e-01,2.166358947753906361e-01,2.166239023208618164e-01,2.166118860244750921e-01,2.165998935699463002e-01,2.165879011154174805e-01,2.165758848190307562e-01,2.165638923645019642e-01,2.165518999099731445e-01,2.165398836135864202e-01,2.165279150009155329e-01,2.165159225463867132e-01,2.165039062499999889e-01,2.164919376373291016e-01,2.164799451828002819e-01
2.042099714279174694e-01,2.041993141174316406e-01,2.041886329650878795e-01,2.041779756546020508e-01,2.041673183441162220e-01,2.041566610336303655e-01,2.041460037231445368e-01,2.041353225708007757e-01,2.041246652603149470e-01,2.041140079498290905e-01,2.041033744812011663e-01,2.040926933288574330e-01,2.040820598602294811e-01,2.040714025497436523e-01,2.040607452392578236e-01,2.040500879287719671e-01,2.040394544601440430e-01,2.040287971496582142e-01,2.040181398391723577e-01,2.040075063705444336e-01,2.039968729019165095e-01,2.039862155914306530e-01,2.039755821228027288e-01,2.039649248123169001e-01,2.039542913436889759e-01,2.039436578750610241e-01,2.039330244064330999e-01,2.039223909378051758e-01,2.039117336273193470e-01,2.039011001586913951e-01,2.038904666900634710e-01,2.038798332214355469e-01,2.038691997528076227e-01,2.038585662841796986e-01,2.038479566574096791e-01,2.038373231887817272e-01,2.038266897201538030e-01,2.038160562515258789e-01,2.038054466247558594e-01,2.037948131561279352e-01,2.037842035293579157e-01,2.037735700607299916e-01,2.037629365921020397e-01,2.037523269653320201e-01,2.037417173385620006e-01,2.037311077117919811e-01,2.037204742431640569e-01,2.037098646163940374e-01,2.036992311477661133e-01,2.036886215209960938e-01,2.036780118942260742e-01,2.036674022674560547e-01,2.036567926406860352e-01,2.036461830139160156e-01,2.036355733871459961e-01,2.036249637603759766e-01,2.036143779754638616e-01,2.036037683486938421e-01,2.035931587219238226e-01,2.035825490951538030e-01,2.035719394683837835e-01,2.035613536834716686e-01,2.035507678985595814e-01,2.035401582717895619e-01,2.035295486450195424e-01,2.035189628601074274e-01,2.035083770751953125e-01,2.034977674484252930e-01,2.034871816635131780e-01,2.034765958786010631e-01,2.034660100936889759e-01,2.034554243087768610e-01,2.034448385238647461e-01,2.034342288970947266e-01,2.034236431121826116e-01,2.034130811691284291e-01,2.034024715423584095e-01,2.033919095993041992e-01,2.033813238143920843e-01,2.033707380294799694e-01
1.925045251846313477e-01,1.924950480461120605e-01,1.924855828285217396e-01,1.924761056900024525e-01,1.924666285514831654e-01,1.924571633338928167e-01,1.924476623535156250e-01,1.924381971359253041e-01,1.924287319183349554e-01,1.924192547798156683e-01,1.924097895622253473e-01,1.924003243446349987e-01,1.923908591270446777e-01,1.923813700675964244e-01,1.923719167709350697e-01,1.923624515533447210e-01,1.923529863357544001e-01,1.923435330390930176e-01,1.923340678215026966e-01,1.923246145248413141e-01,1.923151254653930609e-01,1.923056721687316784e-01,1.922962188720703236e-01,1.922867655754089411e-01,1.922773122787475586e-01,1.922678589820861761e-01,1.922583818435668890e-01,1.922489285469055065e-01,1.922394871711730902e-01,1.922300338745117076e-01,1.922205805778503529e-01,1.922111392021179088e-01,1.922016859054565541e-01,1.921922206878662054e-01,1.921827793121337891e-01,1.921733379364013727e-01,1.921638965606689564e-01,1.921544551849365123e-01,1.921450138092040960e-01,1.921355724334716797e-01,1.921261072158813588e-01,1.921166658401489147e-01,1.921072363853454645e-01,1.920977950096130482e-01,1.920883655548095703e-01,1.920789241790771540e-01,1.920694947242736761e-01,1.920600414276122936e-01,1.920506119728088434e-01,1.920411705970764271e-01,1.920317411422729492e-01,1.920223116874694713e-01,1.920128941535949596e-01,1.920034408569336049e-01,1.919940114021301270e-01,1.919845938682556152e-01,1.919751644134521373e-01,1.919657349586486872e-01,1.919563174247741755e-01,1.919468760490417591e-01,1.919374585151672474e-01,1.919280290603637695e-01,1.919186115264892578e-01,1.919091939926147461e-01,1.918997764587402344e-01,1.918903470039367565e-01,1.918809294700622448e-01,1.918715119361877330e-01,1.918620944023132213e-01,1.918526887893676758e-01,1.918432712554931641e-01,1.918338656425476185e-01,1.918244361877441406e-01,1.918150305747985951e-01,1.918056130409240834e-01,1.917962074279785101e-01,1.917868018150329645e-01,1.917773962020873912e-01,1.917679786682128795e-01,1.917585730552673340e-01
1.820682525634765569e-01,1.820597767829895131e-01,1.820513010025024414e-01,1.820428252220153698e-01,1.820343494415283259e-01,1.820258736610412542e-01,1.820174098014831487e-01,1.820089101791381725e-01,1.820004463195800670e-01,1.819919705390930231e-01,1.819835066795349177e-01,1.819750428199768122e-01,1.819665670394897405e-01,1.819581031799316351e-01,1.819496154785156250e-01,1.819411516189575195e-01,1.819326877593994141e-01,1.819242238998413086e-01,1.819157600402832031e-01,1.819073081016540638e-01,1.818988442420959584e-01,1.818903565406799205e-01,1.818819046020507812e-01,1.818734407424926758e-01,1.818649888038635365e-01,1.818565249443054310e-01,1.818480730056762640e-01,1.818396210670471247e-01,1.818311452865600530e-01,1.818226933479309138e-01,1.818142414093017467e-01,1.818057894706726074e-01,1.817973375320434681e-01,1.817888855934143011e-01,1.817804336547851618e-01,1.817719578742980902e-01,1.817635178565978893e-01,1.817550659179687500e-01,1.817466259002685491e-01,1.817381739616394098e-01,1.817297339439392090e-01,1.817212820053100697e-01,1.817128181457519642e-01,1.817043781280517634e-01,1.816959381103515625e-01,1.816874980926513616e-01,1.816790580749511608e-01,1.816706180572509877e-01,1.816621780395507868e-01,1.816537141799926813e-01,1.816452860832214466e-01,1.816368460655212458e-01,1.816284060478210449e-01,1.816199779510498102e-01,1.816115379333496094e-01,1.816030859947204701e-01,1.815946578979492076e-01,1.815862298011779730e-01,1.815777897834777721e-01,1.815693616867065374e-01,1.815609335899353027e-01,1.815524816513061634e-01,1.815440535545349010e-01,1.815356254577636663e-01,1.815272092819213978e-01,1.815187811851501354e-01,1.815103530883789007e-01,1.815019130706786998e-01,1.814934849739074652e-01,1.814850687980651966e-01,1.814766407012939342e-01,1.814682245254516657e-01,1.814597964286804310e-01,1.814513802528381348e-01,1.814429402351379339e-01,1.814345240592956654e-01,1.814261078834533691e-01,1.814176917076110729e-01,1.814092755317688044e-01,1.814008593559265081e-01
1.727053642272949330e-01,1.726977467536926214e-01,1.726900935173034668e-01,1.726824760437011830e-01,1.726748466491699330e-01,1.726672291755676214e-01,1.726595997810363714e-01,1.726519823074340876e-01,1.726443529129028376e-01,1.726367115974426214e-01,1.726290941238403376e-01,1.726214766502380260e-01,1.726138591766357422e-01,1.726062417030334584e-01,1.725986242294311468e-01,1.725910067558288630e-01,1.725833654403686468e-01,1.725757479667663630e-01,1.725681424140930176e-01,1.725605249404907338e-01,1.725529074668884222e-01,1.725453019142150768e-01,1.725376844406127930e-01,1.725300550460815430e-01,1.725224494934081976e-01,1.725148320198059138e-01,1.725072264671325684e-01,1.724996089935302845e-01,1.724920034408569391e-01,1.724843978881835938e-01,1.724767684936523438e-01,1.724691629409789984e-01,1.724615573883056530e-01,1.724539518356323353e-01,1.724463462829589899e-01,1.724387526512146107e-01,1.724311470985412653e-01,1.724235296249389537e-01,1.724159240722656361e-01,1.724083185195922907e-01,1.724007248878479115e-01,1.723931193351745661e-01,1.723855257034301869e-01,1.723779201507568415e-01,1.723703145980834961e-01,1.723627090454101507e-01,1.723551154136657715e-01,1.723475217819213923e-01,1.723399281501770131e-01,1.723323345184326061e-01,1.723247408866882269e-01,1.723171234130859431e-01,1.723095297813415638e-01,1.723019480705261230e-01,1.722943544387817438e-01,1.722867608070373646e-01,1.722791671752929576e-01,1.722715616226196400e-01,1.722639799118041992e-01,1.722563862800598200e-01,1.722488045692443792e-01,1.722412109375000000e-01,1.722336292266845592e-01,1.722260236740112416e-01,1.722184419631958008e-01,1.722108602523803600e-01,1.722032785415649470e-01,1.721956968307495062e-01,1.721881151199340931e-01,1.721805095672607477e-01,1.721729278564453069e-01,1.721653580665588323e-01,1.721577763557434193e-01,1.721501946449279785e-01,1.721426248550415039e-01,1.721350193023681585e-01,1.721274495124816839e-01,1.721198678016662709e-01,1.721122980117797963e-01,1.721047282218933216e-01
1.642583489418029674e-01,1.642514467239379883e-01,1.642445445060730091e-01,1.642376542091369684e-01,1.642307400703430231e-01,1.642238378524780162e-01,1.642169475555420033e-01,1.642100453376769964e-01,1.642031550407409557e-01,1.641962647438049427e-01,1.641893625259399359e-01,1.641824603080749567e-01,1.641755700111389160e-01,1.641686797142028753e-01,1.641617774963378962e-01,1.641548871994018555e-01,1.641480088233947809e-01,1.641411185264587402e-01,1.641342043876647949e-01,1.641273260116577204e-01,1.641204357147216797e-01,1.641135454177856390e-01,1.641066551208495983e-01,1.640997767448425237e-01,1.640928864479064830e-01,1.640859842300415039e-01,1.640791058540344294e-01,1.640722155570983887e-01,1.640653371810913141e-01,1.640584588050842396e-01,1.640515685081481989e-01,1.640446901321411244e-01,1.640377879142761175e-01,1.640309095382690430e-01,1.640240311622619684e-01,1.640171527862548939e-01,1.640102744102477916e-01,1.640033960342407171e-01,1.639965176582336426e-01,1.639896273612976019e-01,1.639827489852905273e-01,1.639758706092834528e-01,1.639690041542053167e-01,1.639621257781982422e-01,1.639552474021911677e-01,1.639483809471130316e-01,1.639414906501769909e-01,1.639346122741699163e-01,1.639277458190918080e-01,1.639208793640136719e-01,1.639140009880065973e-01,1.639071345329284612e-01,1.639002442359924205e-01,1.638933777809143122e-01,1.638865113258361761e-01,1.638796448707580677e-01,1.638727784156799316e-01,1.638659119606017955e-01,1.638590455055236872e-01,1.638521671295166127e-01,1.638453006744384766e-01,1.638384342193603405e-01,1.638315677642822321e-01,1.638247132301330622e-01,1.638178467750549261e-01,1.638109683990478516e-01,1.638041019439697155e-01,1.637972474098205455e-01,1.637903809547424372e-01,1.637835264205932673e-01,1.637766718864440973e-01,1.637697935104370228e-01,1.637629389762878529e-01,1.637560725212097168e-01,1.637492179870605469e-01,1.637423634529113770e-01,1.637355089187622070e-01,1.637286424636840709e-01,1.637217879295349010e-01,1.637149333953857311e-01
