6.199246406555175559e-01,6.356556892395019975e-01,6.522058486938476785e-01,6.696408748626708762e-01,6.880336761474609153e-01,7.074652671813964622e-01,7.280264854431152122e-01,7.498186111450195757e-01,7.729556083679198775e-01,7.975659370422363281e-01,8.237921714782714400e-01,8.518017768859863503e-01,8.817831993103026900e-01,9.139520645141601118e-01,9.485570907592772993e-01,9.858856201171875000e-01,1.000000000000000000e+00,1.000000000000000000e+00,1.000000000000000000e+00,1.000000000000000000e+00,1.000000000000000000e+00,1.000000000000000000e+00,2.929529905319213645e-01,2.893078327178955078e-01,3.040695190429687500e-01,2.955759763717651367e-01,2.982146501541137473e-01,2.981416225433349831e-01,3.015473365783691295e-01,3.082867860794067383e-01,3.263520479202270397e-01,3.234966993331909180e-01,3.249162673950195535e-01,3.261543512344360352e-01,3.372791290283203014e-01,3.766324281692504661e-01,1.000000000000000000e+00,1.000000000000000000e+00,1.000000000000000000e+00,1.000000000000000000e+00,1.000000000000000000e+00,1.000000000000000000e+00,1.000000000000000000e+00,1.000000000000000000e+00,1.000000000000000000e+00,1.000000000000000000e+00,1.000000000000000000e+00,1.000000000000000000e+00,1.000000000000000000e+00,1.000000000000000000e+00,1.000000000000000000e+00,1.000000000000000000e+00,1.000000000000000000e+00,1.000000000000000000e+00,1.000000000000000000e+00,1.000000000000000000e+00,1.000000000000000000e+00,1.000000000000000000e+00,1.000000000000000000e+00,1.000000000000000000e+00,1.000000000000000000e+00,1.000000000000000000e+00,1.000000000000000000e+00,1.000000000000000000e+00,1.000000000000000000e+00,1.000000000000000000e+00,1.000000000000000000e+00,1.000000000000000000e+00,1.000000000000000000e+00,1.000000000000000000e+00,9.684698104858397993e-01,9.368072509765624778e-01,9.071495056152343306e-01,8.793120384216308594e-01,8.531321525573730691e-01,8.284660339355468528e-01,8.051862716674804688e-01,7.831789970397948775e-01,7.623427391052246538e-01,7.425865173339843972e-01
6.199113368988037331e-01,6.356416225433350053e-01,6.521910667419433816e-01,6.696252822875976562e-01,6.880172252655029075e-01,7.074479103088379128e-01,7.280080795288086382e-01,7.497991085052490012e-01,7.729348659515380415e-01,7.975438117980957475e-01,8.237712860107422319e-01,8.517794609069824219e-01,8.817592620849609153e-01,9.139264106750488725e-01,9.485294342041015181e-01,9.858557701110839400e-01,1.000000000000000000e+00,1.000000000000000000e+00,1.000000000000000000e+00,1.000000000000000000e+00,1.000000000000000000e+00,1.000000000000000000e+00,2.916515111923217995e-01,1.000000000000000000e+00,3.051598310470581277e-01,2.973802328109741433e-01,2.972140312194824219e-01,2.970479965209961160e-01,2.998255252838134544e-01,3.063373804092407449e-01,3.260702133178711160e-01,3.226322174072265847e-01,3.243851423263549583e-01,3.256613016128540039e-01,3.362189769744873269e-01,3.668540954589843972e-01,1.000000000000000000e+00,1.000000000000000000e+00,1.000000000000000000e+00,1.000000000000000000e+00,1.000000000000000000e+00,1.000000000000000000e+00,1.000000000000000000e+00,1.000000000000000000e+00,1.000000000000000000e+00,1.000000000000000000e+00,1.000000000000000000e+00,1.000000000000000000e+00,1.000000000000000000e+00,1.000000000000000000e+00,1.000000000000000000e+00,1.000000000000000000e+00,1.000000000000000000e+00,1.000000000000000000e+00,1.000000000000000000e+00,1.000000000000000000e+00,1.000000000000000000e+00,1.000000000000000000e+00,1.000000000000000000e+00,1.000000000000000000e+00,1.000000000000000000e+00,1.000000000000000000e+00,1.000000000000000000e+00,1.000000000000000000e+00,1.000000000000000000e+00,1.000000000000000000e+00,1.000000000000000000e+00,1.000000000000000000e+00,1.000000000000000000e+00,1.000000000000000000e+00,9.684947967529297097e-01,9.368307113647460493e-01,9.071715354919434038e-01,8.793327331542968306e-01,8.531516075134277788e-01,8.284843444824219194e-01,8.052035331726073997e-01,7.831953525543212669e-01,7.623582363128662553e-01,7.426012039184570757e-01
6.198979854583740456e-01,6.356276035308837669e-01,6.521763324737548384e-01,6.696097373962401900e-01,6.880007266998291460e-01,7.074305534362792525e-01,7.279897212982178178e-01,7.497795581817626731e-01,7.729141235351562056e-01,7.975217342376709206e-01,8.237477302551269309e-01,8.517572402954101118e-01,8.817354202270507590e-01,9.139007568359375222e-01,9.485017776489257368e-01,9.858260154724121094e-01,1.000000000000000000e+00,1.000000000000000000e+00,1.000000000000000000e+00,1.000000000000000000e+00,1.000000000000000000e+00,1.000000000000000000e+00,2.929061174392700306e-01,1.000000000000000000e+00,3.062237739562988503e-01,2.968073368072509655e-01,2.959321022033691295e-01,2.957600831985473522e-01,2.983043432235717995e-01,3.044760942459106556e-01,3.257569074630737305e-01,3.217722892761230580e-01,3.235158920288085938e-01,3.251697301864623912e-01,3.356102943420410378e-01,3.657599687576293945e-01,1.000000000000000000e+00,1.000000000000000000e+00,1.000000000000000000e+00,1.000000000000000000e+00,1.000000000000000000e+00,1.000000000000000000e+00,1.000000000000000000e+00,1.000000000000000000e+00,1.000000000000000000e+00,1.000000000000000000e+00,1.000000000000000000e+00,1.000000000000000000e+00,1.000000000000000000e+00,1.000000000000000000e+00,1.000000000000000000e+00,1.000000000000000000e+00,1.000000000000000000e+00,1.000000000000000000e+00,1.000000000000000000e+00,1.000000000000000000e+00,1.000000000000000000e+00,1.000000000000000000e+00,1.000000000000000000e+00,1.000000000000000000e+00,1.000000000000000000e+00,1.000000000000000000e+00,1.000000000000000000e+00,1.000000000000000000e+00,1.000000000000000000e+00,1.000000000000000000e+00,1.000000000000000000e+00,1.000000000000000000e+00,1.000000000000000000e+00,1.000000000000000000e+00,9.685198783874511275e-01,9.368540763854980025e-01,9.071934700012207475e-01,8.793533325195312944e-01,8.531709671020507590e-01,8.285027503967284934e-01,8.052208900451660600e-01,7.832117557525635210e-01,7.623738288879394753e-01,7.426159381866455078e-01
6.198846340179443581e-01,6.356135845184326394e-01,6.521615505218505415e-01,6.695941448211669700e-01,6.879842758178711382e-01,7.074131488800048384e-01,7.279713153839111328e-01,7.497600555419922097e-01,7.728933811187743697e-01,7.974995613098144753e-01,8.237241744995117410e-01,8.517320632934570757e-01,8.817115783691406028e-01,9.138751983642577903e-01,9.484742164611816850e-01,9.857960700988769309e-01,1.000000000000000000e+00,1.000000000000000000e+00,1.000000000000000000e+00,1.000000000000000000e+00,1.000000000000000000e+00,1.000000000000000000e+00,1.000000000000000000e+00,1.000000000000000000e+00,3.096916437149047630e-01,2.981694698333740012e-01,2.946272850036620872e-01,2.944567918777465931e-01,2.969471216201782227e-01,3.030622720718383900e-01,3.254431247711181419e-01,3.211019515991210826e-01,3.226936817169189231e-01,3.244572401046753041e-01,3.350038051605224720e-01,3.714723348617553489e-01,1.000000000000000000e+00,1.000000000000000000e+00,1.000000000000000000e+00,1.000000000000000000e+00,1.000000000000000000e+00,1.000000000000000000e+00,1.000000000000000000e+00,1.000000000000000000e+00,1.000000000000000000e+00,1.000000000000000000e+00,1.000000000000000000e+00,1.000000000000000000e+00,1.000000000000000000e+00,1.000000000000000000e+00,1.000000000000000000e+00,1.000000000000000000e+00,1.000000000000000000e+00,1.000000000000000000e+00,1.000000000000000000e+00,1.000000000000000000e+00,1.000000000000000000e+00,1.000000000000000000e+00,1.000000000000000000e+00,1.000000000000000000e+00,1.000000000000000000e+00,1.000000000000000000e+00,1.000000000000000000e+00,1.000000000000000000e+00,1.000000000000000000e+00,1.000000000000000000e+00,1.000000000000000000e+00,1.000000000000000000e+00,1.000000000000000000e+00,1.000000000000000000e+00,9.685448646545410378e-01,9.368775367736816850e-01,9.072154998779297097e-01,8.793739318847656472e-01,8.531904220581054688e-01,8.285210609436035600e-01,8.052381515502929910e-01,7.832281112670897993e-01,7.623893737792968306e-01,7.426306247711181863e-01
6.198712825775146706e-01,6.355995655059814009e-01,6.521467685699462447e-01,6.695785999298096147e-01,6.879678726196288840e-01,7.073957920074462891e-01,7.279529094696044478e-01,7.497405529022216353e-01,7.728726387023925337e-01,7.974774837493896484e-01,8.237006187438964400e-01,8.517068862915039285e-01,8.816845893859863725e-01,9.138495445251464400e-01,9.484465599060059038e-01,9.857662200927734819e-01,1.000000000000000000e+00,1.000000000000000000e+00,1.000000000000000000e+00,1.000000000000000000e+00,1.000000000000000000e+00,1.000000000000000000e+00,1.000000000000000000e+00,1.000000000000000000e+00,3.130920410156249889e-01,2.993951797485351340e-01,2.936794519424438255e-01,2.931649208068847767e-01,2.956022262573242410e-01,3.012244701385498047e-01,3.247378587722778431e-01,3.208379268646240345e-01,3.220322132110595703e-01,3.237885475158691628e-01,3.326606273651123158e-01,3.801160812377929465e-01,1.000000000000000000e+00,1.000000000000000000e+00,1.000000000000000000e+00,1.000000000000000000e+00,1.000000000000000000e+00,1.000000000000000000e+00,1.000000000000000000e+00,1.000000000000000000e+00,1.000000000000000000e+00,1.000000000000000000e+00,1.000000000000000000e+00,1.000000000000000000e+00,1.000000000000000000e+00,1.000000000000000000e+00,1.000000000000000000e+00,1.000000000000000000e+00,1.000000000000000000e+00,1.000000000000000000e+00,1.000000000000000000e+00,1.000000000000000000e+00,1.000000000000000000e+00,1.000000000000000000e+00,1.000000000000000000e+00,1.000000000000000000e+00,1.000000000000000000e+00,1.000000000000000000e+00,1.000000000000000000e+00,1.000000000000000000e+00,1.000000000000000000e+00,1.000000000000000000e+00,1.000000000000000000e+00,1.000000000000000000e+00,1.000000000000000000e+00,1.000000000000000000e+00,9.685698509216308372e-01,9.369009017944336382e-01,9.072374343872070535e-01,8.793945312500000000e-01,8.532098770141601785e-01,8.285393714904785156e-01,8.052554130554199219e-01,7.832445621490478072e-01,7.624048709869384322e-01,7.426453590393066184e-01
6.198579311370849831e-01,6.355855464935302734e-01,6.521320343017578125e-01,6.695630550384521484e-01,6.879514217376708762e-01,7.073784351348877397e-01,7.279345035552978738e-01,7.497210025787353072e-01,7.728518962860106978e-01,7.974554061889648215e-01,8.236770629882812500e-01,8.516817092895507812e-01,8.816576004028320312e-01,9.138206481933593972e-01,9.484189033508301225e-01,9.857363700866699219e-01,1.000000000000000000e+00,1.000000000000000000e+00,1.000000000000000000e+00,1.000000000000000000e+00,1.000000000000000000e+00,1.000000000000000000e+00,1.000000000000000000e+00,1.000000000000000000e+00,1.000000000000000000e+00,3.006310224533080833e-01,2.929368495941161998e-01,2.918843507766723522e-01,2.942694425582885742e-01,2.993432283401489258e-01,3.239419937133788951e-01,3.205743551254272572e-01,3.209478378295898549e-01,3.231226205825805664e-01,3.301102399826049694e-01,1.000000000000000000e+00,3.692970752716064342e-01,1.000000000000000000e+00,1.000000000000000000e+00,1.000000000000000000e+00,1.000000000000000000e+00,1.000000000000000000e+00,1.000000000000000000e+00,1.000000000000000000e+00,1.000000000000000000e+00,1.000000000000000000e+00,1.000000000000000000e+00,1.000000000000000000e+00,1.000000000000000000e+00,1.000000000000000000e+00,1.000000000000000000e+00,1.000000000000000000e+00,1.000000000000000000e+00,1.000000000000000000e+00,1.000000000000000000e+00,1.000000000000000000e+00,1.000000000000000000e+00,1.000000000000000000e+00,1.000000000000000000e+00,1.000000000000000000e+00,1.000000000000000000e+00,1.000000000000000000e+00,1.000000000000000000e+00,1.000000000000000000e+00,1.000000000000000000e+00,1.000000000000000000e+00,1.000000000000000000e+00,1.000000000000000000e+00,1.000000000000000000e+00,1.000000000000000000e+00,9.685949325561523660e-01,9.369243621826172097e-01,9.072593688964843972e-01,8.794152259826659712e-01,8.532293319702148882e-01,8.285576820373534712e-01,8.052727699279784712e-01,7.832609176635741965e-01,7.624203681945800337e-01,7.426600456237792969e-01
6.198369503021240456e-01,6.355679035186767578e-01,6.521172523498535156e-01,6.695474147796630637e-01,6.879350185394287331e-01,7.073610305786133257e-01,7.279160976409911887e-01,7.497014999389648438e-01,7.728311538696288618e-01,7.974333286285399947e-01,8.236535072326660600e-01,8.516564369201660156e-01,8.816306114196776900e-01,9.137916564941406250e-01,9.483879089355469194e-01,9.857066154479980913e-01,1.000000000000000000e+00,1.000000000000000000e+00,1.000000000000000000e+00,1.000000000000000000e+00,1.000000000000000000e+00,1.000000000000000000e+00,1.000000000000000000e+00,1.000000000000000000e+00,1.000000000000000000e+00,3.033136606216430553e-01,2.921980381011962669e-01,2.909869670867920033e-01,2.926922082901001199e-01,2.974853277206420676e-01,3.231499910354614369e-01,3.203112125396728738e-01,3.197011470794677845e-01,3.223189115524291992e-01,3.275986909866333008e-01,1.000000000000000000e+00,1.000000000000000000e+00,1.000000000000000000e+00,1.000000000000000000e+00,1.000000000000000000e+00,1.000000000000000000e+00,1.000000000000000000e+00,1.000000000000000000e+00,1.000000000000000000e+00,1.000000000000000000e+00,1.000000000000000000e+00,1.000000000000000000e+00,1.000000000000000000e+00,1.000000000000000000e+00,1.000000000000000000e+00,1.000000000000000000e+00,1.000000000000000000e+00,1.000000000000000000e+00,1.000000000000000000e+00,1.000000000000000000e+00,1.000000000000000000e+00,1.000000000000000000e+00,1.000000000000000000e+00,1.000000000000000000e+00,1.000000000000000000e+00,1.000000000000000000e+00,1.000000000000000000e+00,1.000000000000000000e+00,1.000000000000000000e+00,1.000000000000000000e+00,1.000000000000000000e+00,1.000000000000000000e+00,1.000000000000000000e+00,1.000000000000000000e+00,1.000000000000000000e+00,9.686199188232421653e-01,9.369478225708007812e-01,9.072813034057617410e-01,8.794358253479004350e-01,8.532486915588378684e-01,8.285759925842285378e-01,8.052900314331055132e-01,7.832772731781005859e-01,7.624358654022216353e-01,7.426747798919677290e-01
6.198138236999511941e-01,6.355435848236083984e-01,6.520925998687744363e-01,6.695264339447021262e-01,6.879181385040282759e-01,7.073436737060546653e-01,7.278976917266846147e-01,7.496819972991943803e-01,7.728103637695312722e-01,7.974112510681152788e-01,8.236299514770507590e-01,8.516312599182128684e-01,8.816036224365234597e-01,9.137626647949218528e-01,9.483566284179687500e-01,9.856731414794921431e-01,1.000000000000000000e+00,1.000000000000000000e+00,1.000000000000000000e+00,1.000000000000000000e+00,1.000000000000000000e+00,1.000000000000000000e+00,1.000000000000000000e+00,1.000000000000000000e+00,1.000000000000000000e+00,3.050922870635986439e-01,2.928252935409546009e-01,2.907725095748901478e-01,2.921071052551269531e-01,2.963892936706543080e-01,3.228492259979248158e-01,3.200484991073608287e-01,3.184866666793823020e-01,3.210615158081054910e-01,3.285799741744995228e-01,1.000000000000000000e+00,1.000000000000000000e+00,1.000000000000000000e+00,1.000000000000000000e+00,1.000000000000000000e+00,1.000000000000000000e+00,1.000000000000000000e+00,1.000000000000000000e+00,1.000000000000000000e+00,1.000000000000000000e+00,1.000000000000000000e+00,1.000000000000000000e+00,1.000000000000000000e+00,1.000000000000000000e+00,1.000000000000000000e+00,1.000000000000000000e+00,1.000000000000000000e+00,1.000000000000000000e+00,1.000000000000000000e+00,1.000000000000000000e+00,1.000000000000000000e+00,1.000000000000000000e+00,1.000000000000000000e+00,1.000000000000000000e+00,1.000000000000000000e+00,1.000000000000000000e+00,1.000000000000000000e+00,1.000000000000000000e+00,1.000000000000000000e+00,1.000000000000000000e+00,1.000000000000000000e+00,1.000000000000000000e+00,1.000000000000000000e+00,1.000000000000000000e+00,1.000000000000000000e+00,9.686450004577636941e-01,9.369712829589843528e-01,9.073032379150390847e-01,8.794565200805664062e-01,8.532681465148925781e-01,8.285943031311034934e-01,8.053073883056640625e-01,7.832936286926269753e-01,7.624513626098632368e-01,7.426894664764404075e-01
6.197929859161377397e-01,6.355192661285400391e-01,6.520669937133789507e-01,6.694994449615478960e-01,6.878896713256835715e-01,7.073185920715332475e-01,7.278770923614501509e-01,7.496624946594238059e-01,7.727896213531494363e-01,7.973891735076904519e-01,8.236063957214355691e-01,8.516060829162597212e-01,8.815766334533691184e-01,9.137336730957030806e-01,9.483254432678223100e-01,9.856393814086914507e-01,1.000000000000000000e+00,1.000000000000000000e+00,1.000000000000000000e+00,1.000000000000000000e+00,1.000000000000000000e+00,1.000000000000000000e+00,1.000000000000000000e+00,1.000000000000000000e+00,1.000000000000000000e+00,3.066739320755004772e-01,2.945065021514892689e-01,2.910361051559448020e-01,2.927922248840332253e-01,2.968026876449584850e-01,3.223452329635619895e-01,3.197682857513427512e-01,3.179527044296264759e-01,3.207430124282836803e-01,1.000000000000000000e+00,1.000000000000000000e+00,1.000000000000000000e+00,1.000000000000000000e+00,1.000000000000000000e+00,1.000000000000000000e+00,1.000000000000000000e+00,1.000000000000000000e+00,1.000000000000000000e+00,1.000000000000000000e+00,1.000000000000000000e+00,1.000000000000000000e+00,1.000000000000000000e+00,1.000000000000000000e+00,1.000000000000000000e+00,1.000000000000000000e+00,1.000000000000000000e+00,1.000000000000000000e+00,1.000000000000000000e+00,1.000000000000000000e+00,1.000000000000000000e+00,1.000000000000000000e+00,1.000000000000000000e+00,1.000000000000000000e+00,1.000000000000000000e+00,1.000000000000000000e+00,1.000000000000000000e+00,1.000000000000000000e+00,1.000000000000000000e+00,1.000000000000000000e+00,1.000000000000000000e+00,1.000000000000000000e+00,1.000000000000000000e+00,1.000000000000000000e+00,1.000000000000000000e+00,1.000000000000000000e+00,9.686700820922851118e-01,9.369946479797363059e-01,9.073252677917480469e-01,8.794771194458007590e-01,8.532875061035156694e-01,8.286126136779785600e-01,8.053246498107909934e-01,7.833100318908691184e-01,7.624668598175048384e-01,7.427042007446289507e-01
6.197796344757080522e-01,6.355031967163086160e-01,6.520452499389648438e-01,6.694724559783935547e-01,6.878611564636230025e-01,7.072885036468505859e-01,7.278451919555664062e-01,7.496325016021728738e-01,7.727644920349121538e-01,7.973670959472656250e-01,8.235828399658202681e-01,8.515809059143066850e-01,8.815496444702148882e-01,9.137046813964844194e-01,9.482941627502441406e-01,9.856057167053222656e-01,1.000000000000000000e+00,1.000000000000000000e+00,1.000000000000000000e+00,1.000000000000000000e+00,1.000000000000000000e+00,1.000000000000000000e+00,1.000000000000000000e+00,1.000000000000000000e+00,1.000000000000000000e+00,3.037621021270752175e-01,2.953671455383301003e-01,2.923892498016357200e-01,2.944422483444213978e-01,2.984059095382690652e-01,3.234772682189941406e-01,3.205476284027099498e-01,3.194823503494262917e-01,3.217354059219360574e-01,1.000000000000000000e+00,1.000000000000000000e+00,1.000000000000000000e+00,1.000000000000000000e+00,1.000000000000000000e+00,1.000000000000000000e+00,1.000000000000000000e+00,1.000000000000000000e+00,1.000000000000000000e+00,1.000000000000000000e+00,1.000000000000000000e+00,1.000000000000000000e+00,1.000000000000000000e+00,1.000000000000000000e+00,1.000000000000000000e+00,1.000000000000000000e+00,1.000000000000000000e+00,1.000000000000000000e+00,1.000000000000000000e+00,1.000000000000000000e+00,1.000000000000000000e+00,1.000000000000000000e+00,1.000000000000000000e+00,1.000000000000000000e+00,1.000000000000000000e+00,1.000000000000000000e+00,1.000000000000000000e+00,1.000000000000000000e+00,1.000000000000000000e+00,1.000000000000000000e+00,1.000000000000000000e+00,1.000000000000000000e+00,1.000000000000000000e+00,1.000000000000000000e+00,1.000000000000000000e+00,1.000000000000000000e+00,9.686950683593750222e-01,9.370181083679198775e-01,9.073472976684570090e-01,8.794978141784668413e-01,8.533069610595702681e-01,8.286309242248535156e-01,8.053420066833496538e-01,7.833263874053955078e-01,7.624824047088623047e-01,7.427188873291015181e-01
6.197663784027099831e-01,6.354891777038573775e-01,6.520305156707764116e-01,6.694560527801514116e-01,6.878384590148926003e-01,7.072588920593261275e-01,7.278133392333984153e-01,7.495986461639404519e-01,7.727285861968994363e-01,7.973311901092529075e-01,8.235520362854004128e-01,8.515557289123535378e-01,8.815226554870605469e-01,9.136756896972656472e-01,9.482629776000977007e-01,9.855719566345214622e-01,1.000000000000000000e+00,1.000000000000000000e+00,1.000000000000000000e+00,1.000000000000000000e+00,1.000000000000000000e+00,1.000000000000000000e+00,1.000000000000000000e+00,1.000000000000000000e+00,3.123102664947509655e-01,3.045150279998779519e-01,2.994222640991210938e-01,2.941530466079712025e-01,2.977128744125366322e-01,3.021823644638061412e-01,3.253883600234985241e-01,3.221070051193237194e-01,3.221085786819458119e-01,3.242401123046875222e-01,1.000000000000000000e+00,1.000000000000000000e+00,1.000000000000000000e+00,1.000000000000000000e+00,1.000000000000000000e+00,1.000000000000000000e+00,1.000000000000000000e+00,1.000000000000000000e+00,1.000000000000000000e+00,1.000000000000000000e+00,1.000000000000000000e+00,1.000000000000000000e+00,1.000000000000000000e+00,1.000000000000000000e+00,1.000000000000000000e+00,1.000000000000000000e+00,1.000000000000000000e+00,1.000000000000000000e+00,1.000000000000000000e+00,1.000000000000000000e+00,1.000000000000000000e+00,1.000000000000000000e+00,1.000000000000000000e+00,1.000000000000000000e+00,1.000000000000000000e+00,1.000000000000000000e+00,1.000000000000000000e+00,1.000000000000000000e+00,1.000000000000000000e+00,1.000000000000000000e+00,1.000000000000000000e+00,1.000000000000000000e+00,1.000000000000000000e+00,1.000000000000000000e+00,1.000000000000000000e+00,1.000000000000000000e+00,9.687201499938964400e-01,9.370414733886718306e-01,9.073692321777343528e-01,8.795184135437011941e-01,8.533264160156249778e-01,8.286492347717284712e-01,8.053592681884765847e-01,7.833427429199218972e-01,7.624979019165039062e-01,7.427336215972900613e-01
6.197530746459960493e-01,6.354752063751221147e-01,6.520158290863037331e-01,6.694404602050780806e-01,6.878220558166503462e-01,7.072416305541991965e-01,7.277895450592041238e-01,7.495671749114990456e-01,7.726926326751708540e-01,7.972929477691650391e-01,8.235112190246581809e-01,8.515124320983886719e-01,8.814849853515625000e-01,9.136444091796874778e-01,9.482317924499511497e-01,9.855381965637206587e-01,1.000000000000000000e+00,1.000000000000000000e+00,1.000000000000000000e+00,1.000000000000000000e+00,1.000000000000000000e+00,1.000000000000000000e+00,1.000000000000000000e+00,1.000000000000000000e+00,3.149992704391479381e-01,3.079280376434326283e-01,3.053326845169067605e-01,3.029246807098388561e-01,3.098442316055297630e-01,3.323116302490234375e-01,3.272062063217163197e-01,3.243931531906127930e-01,3.249536037445068248e-01,3.331089973449706809e-01,1.000000000000000000e+00,1.000000000000000000e+00,1.000000000000000000e+00,1.000000000000000000e+00,1.000000000000000000e+00,1.000000000000000000e+00,1.000000000000000000e+00,1.000000000000000000e+00,1.000000000000000000e+00,1.000000000000000000e+00,1.000000000000000000e+00,1.000000000000000000e+00,1.000000000000000000e+00,1.000000000000000000e+00,1.000000000000000000e+00,1.000000000000000000e+00,1.000000000000000000e+00,1.000000000000000000e+00,1.000000000000000000e+00,1.000000000000000000e+00,1.000000000000000000e+00,1.000000000000000000e+00,1.000000000000000000e+00,1.000000000000000000e+00,1.000000000000000000e+00,1.000000000000000000e+00,1.000000000000000000e+00,1.000000000000000000e+00,1.000000000000000000e+00,1.000000000000000000e+00,1.000000000000000000e+00,1.000000000000000000e+00,1.000000000000000000e+00,1.000000000000000000e+00,1.000000000000000000e+00,1.000000000000000000e+00,9.687451362609863503e-01,9.370649337768555132e-01,9.073911666870116965e-01,8.795390129089355469e-01,8.533458709716796875e-01,8.286675453186035378e-01,8.053766250610351340e-01,7.833590984344482866e-01,7.625138282775878462e-01,7.427495479583740012e-01
6.197398185729980913e-01,6.354612350463867410e-01,6.520010948181151900e-01,6.694249629974364790e-01,6.878057003021240678e-01,7.072242259979247825e-01,7.277711868286133035e-01,7.495477676391602007e-01,7.726676940917969194e-01,7.972592830657958540e-01,8.234704017639160600e-01,8.514688491821289507e-01,8.814381599426269753e-01,9.135941505432129128e-01,9.481851577758788618e-01,9.854987144470215288e-01,1.000000000000000000e+00,1.000000000000000000e+00,1.000000000000000000e+00,1.000000000000000000e+00,1.000000000000000000e+00,1.000000000000000000e+00,1.000000000000000000e+00,1.000000000000000000e+00,3.187296628952026589e-01,3.139720201492309792e-01,3.114547014236450084e-01,3.186924695968628152e-01,1.000000000000000000e+00,3.324694633483886719e-01,3.280042886734008678e-01,3.274716615676879772e-01,3.278493881225585938e-01,1.000000000000000000e+00,1.000000000000000000e+00,1.000000000000000000e+00,1.000000000000000000e+00,1.000000000000000000e+00,1.000000000000000000e+00,1.000000000000000000e+00,1.000000000000000000e+00,1.000000000000000000e+00,1.000000000000000000e+00,1.000000000000000000e+00,1.000000000000000000e+00,1.000000000000000000e+00,1.000000000000000000e+00,1.000000000000000000e+00,1.000000000000000000e+00,1.000000000000000000e+00,1.000000000000000000e+00,1.000000000000000000e+00,1.000000000000000000e+00,1.000000000000000000e+00,1.000000000000000000e+00,1.000000000000000000e+00,1.000000000000000000e+00,1.000000000000000000e+00,1.000000000000000000e+00,1.000000000000000000e+00,1.000000000000000000e+00,1.000000000000000000e+00,1.000000000000000000e+00,1.000000000000000000e+00,1.000000000000000000e+00,1.000000000000000000e+00,1.000000000000000000e+00,1.000000000000000000e+00,1.000000000000000000e+00,1.000000000000000000e+00,9.687702178955077681e-01,9.370883941650390847e-01,9.074131965637206587e-01,8.795597076416015181e-01,8.533652305603027788e-01,8.286859512329101118e-01,8.053949356079102007e-01,7.833773136138916238e-01,7.625315189361572266e-01,7.427663326263427290e-01
6.197264671325684038e-01,6.354472160339355025e-01,6.519864082336426225e-01,6.694094657897948775e-01,6.877893447875976785e-01,7.072069644927978516e-01,7.277528762817382368e-01,7.495282649993896262e-01,7.726470947265624556e-01,7.972373485565185103e-01,8.234441757202148882e-01,8.514327049255371316e-01,8.813914299011230691e-01,9.135439872741699663e-01,9.481310844421386719e-01,9.854402542114257812e-01,1.000000000000000000e+00,1.000000000000000000e+00,1.000000000000000000e+00,1.000000000000000000e+00,1.000000000000000000e+00,1.000000000000000000e+00,1.000000000000000000e+00,3.304220676422119363e-01,3.226590633392333873e-01,3.185475349426269420e-01,3.184337854385376199e-01,3.282145261764526367e-01,1.000000000000000000e+00,3.326884269714355247e-01,3.292108058929443248e-01,3.300224781036377175e-01,3.312888860702514759e-01,1.000000000000000000e+00,1.000000000000000000e+00,1.000000000000000000e+00,1.000000000000000000e+00,1.000000000000000000e+00,1.000000000000000000e+00,1.000000000000000000e+00,1.000000000000000000e+00,1.000000000000000000e+00,1.000000000000000000e+00,1.000000000000000000e+00,1.000000000000000000e+00,1.000000000000000000e+00,1.000000000000000000e+00,1.000000000000000000e+00,1.000000000000000000e+00,1.000000000000000000e+00,1.000000000000000000e+00,1.000000000000000000e+00,1.000000000000000000e+00,1.000000000000000000e+00,1.000000000000000000e+00,1.000000000000000000e+00,1.000000000000000000e+00,1.000000000000000000e+00,1.000000000000000000e+00,1.000000000000000000e+00,1.000000000000000000e+00,1.000000000000000000e+00,1.000000000000000000e+00,1.000000000000000000e+00,1.000000000000000000e+00,1.000000000000000000e+00,1.000000000000000000e+00,1.000000000000000000e+00,1.000000000000000000e+00,1.000000000000000000e+00,9.687952041625976785e-01,9.371118545532226562e-01,9.074351310729980025e-01,8.795809745788574219e-01,8.533863067626953347e-01,8.287067413330078125e-01,8.054145812988281472e-01,7.833959579467772993e-01,7.625492095947266069e-01,7.427831172943115678e-01
6.197131633758544700e-01,6.354332923889159934e-01,6.519716739654540794e-01,6.693939208984375222e-01,6.877729892730712891e-01,7.071896553039550559e-01,7.277345657348632812e-01,7.495088577270507812e-01,7.726263523101806197e-01,7.972152709960937944e-01,8.234208106994629350e-01,8.514076232910156028e-01,8.813638687133789062e-01,9.135049819946289285e-01,9.480790138244629128e-01,9.853817939758300337e-01,1.000000000000000000e+00,1.000000000000000000e+00,1.000000000000000000e+00,1.000000000000000000e+00,1.000000000000000000e+00,1.000000000000000000e+00,1.000000000000000000e+00,3.346256971359252708e-01,3.267458438873290794e-01,3.232583999633789062e-01,3.282813072204590066e-01,1.000000000000000000e+00,1.000000000000000000e+00,3.324993848800659180e-01,3.298469781875610352e-01,3.307681798934936634e-01,3.339242935180664062e-01,1.000000000000000000e+00,1.000000000000000000e+00,1.000000000000000000e+00,1.000000000000000000e+00,1.000000000000000000e+00,1.000000000000000000e+00,1.000000000000000000e+00,1.000000000000000000e+00,1.000000000000000000e+00,1.000000000000000000e+00,1.000000000000000000e+00,1.000000000000000000e+00,1.000000000000000000e+00,1.000000000000000000e+00,1.000000000000000000e+00,1.000000000000000000e+00,1.000000000000000000e+00,1.000000000000000000e+00,1.000000000000000000e+00,1.000000000000000000e+00,1.000000000000000000e+00,1.000000000000000000e+00,1.000000000000000000e+00,1.000000000000000000e+00,1.000000000000000000e+00,1.000000000000000000e+00,1.000000000000000000e+00,1.000000000000000000e+00,1.000000000000000000e+00,1.000000000000000000e+00,1.000000000000000000e+00,1.000000000000000000e+00,1.000000000000000000e+00,1.000000000000000000e+00,1.000000000000000000e+00,1.000000000000000000e+00,1.000000000000000000e+00,9.688203811645508257e-01,9.371366500854492188e-01,9.074595451354980913e-01,8.796044349670409934e-01,8.534084320068359153e-01,8.287276268005371316e-01,8.054343223571777122e-01,7.834146022796630859e-01,7.625668525695801225e-01,7.427998542785644309e-01
6.196999073028564009e-01,6.354193210601806197e-01,6.519569873809814009e-01,6.693784236907959206e-01,6.877565383911132812e-01,7.071722984313965066e-01,7.277162551879883257e-01,7.494894027709960715e-01,7.726057052612305132e-01,7.971932888031005859e-01,8.233972549438476340e-01,8.513825416564941850e-01,8.813369750976562944e-01,9.134760856628417747e-01,9.480479240417480913e-01,9.853395462036133035e-01,1.000000000000000000e+00,1.000000000000000000e+00,1.000000000000000000e+00,1.000000000000000000e+00,1.000000000000000000e+00,1.000000000000000000e+00,1.000000000000000000e+00,3.394410848617553933e-01,3.313041925430297852e-01,3.281106472015380970e-01,3.378982543945312500e-01,1.000000000000000000e+00,1.000000000000000000e+00,3.323702335357666127e-01,3.304856300354003795e-01,3.315172910690307728e-01,3.364288806915283203e-01,1.000000000000000000e+00,1.000000000000000000e+00,1.000000000000000000e+00,1.000000000000000000e+00,1.000000000000000000e+00,1.000000000000000000e+00,1.000000000000000000e+00,1.000000000000000000e+00,1.000000000000000000e+00,1.000000000000000000e+00,1.000000000000000000e+00,1.000000000000000000e+00,1.000000000000000000e+00,1.000000000000000000e+00,1.000000000000000000e+00,1.000000000000000000e+00,1.000000000000000000e+00,1.000000000000000000e+00,1.000000000000000000e+00,1.000000000000000000e+00,1.000000000000000000e+00,1.000000000000000000e+00,1.000000000000000000e+00,1.000000000000000000e+00,1.000000000000000000e+00,1.000000000000000000e+00,1.000000000000000000e+00,1.000000000000000000e+00,1.000000000000000000e+00,1.000000000000000000e+00,1.000000000000000000e+00,1.000000000000000000e+00,1.000000000000000000e+00,1.000000000000000000e+00,1.000000000000000000e+00,1.000000000000000000e+00,1.000000000000000000e+00,9.688488960266112837e-01,9.371633529663085938e-01,9.074846267700195090e-01,8.796279907226562944e-01,8.534305572509766069e-01,8.287485122680664507e-01,8.054540634155273882e-01,7.834332942962646262e-01,7.625845432281493919e-01,7.428166389465331587e-01
6.196865558624267134e-01,6.354053497314453569e-01,6.519422531127929688e-01,6.693629264831543191e-01,6.877402305603027566e-01,7.071549892425537109e-01,7.276978492736816406e-01,7.494699001312256081e-01,7.725850582122802956e-01,7.971713066101073775e-01,8.233737945556640625e-01,8.513574600219726562e-01,8.813100814819335715e-01,9.134471893310547319e-01,9.480168342590331587e-01,9.853058815002441184e-01,1.000000000000000000e+00,1.000000000000000000e+00,1.000000000000000000e+00,1.000000000000000000e+00,1.000000000000000000e+00,1.000000000000000000e+00,1.000000000000000000e+00,3.444989442825317494e-01,3.385753393173217551e-01,3.384511232376098411e-01,1.000000000000000000e+00,1.000000000000000000e+00,1.000000000000000000e+00,3.323993206024170033e-01,3.311267375946044811e-01,3.322697877883911133e-01,1.000000000000000000e+00,1.000000000000000000e+00,1.000000000000000000e+00,1.000000000000000000e+00,1.000000000000000000e+00,1.000000000000000000e+00,1.000000000000000000e+00,1.000000000000000000e+00,1.000000000000000000e+00,1.000000000000000000e+00,1.000000000000000000e+00,1.000000000000000000e+00,1.000000000000000000e+00,1.000000000000000000e+00,1.000000000000000000e+00,1.000000000000000000e+00,1.000000000000000000e+00,1.000000000000000000e+00,1.000000000000000000e+00,1.000000000000000000e+00,1.000000000000000000e+00,1.000000000000000000e+00,1.000000000000000000e+00,1.000000000000000000e+00,1.000000000000000000e+00,1.000000000000000000e+00,1.000000000000000000e+00,1.000000000000000000e+00,1.000000000000000000e+00,1.000000000000000000e+00,1.000000000000000000e+00,1.000000000000000000e+00,1.000000000000000000e+00,1.000000000000000000e+00,1.000000000000000000e+00,1.000000000000000000e+00,1.000000000000000000e+00,1.000000000000000000e+00,9.688775062561034712e-01,9.371900558471679688e-01,9.075097084045410378e-01,8.796515464782714844e-01,8.534527778625488059e-01,8.287693977355956587e-01,8.054737091064453347e-01,7.834519386291504128e-01,7.626022338867187722e-01,7.428334236145019975e-01
6.196732997894287553e-01,6.353913307189941184e-01,6.519275188446045366e-01,6.693474769592284712e-01,6.877238750457763672e-01,7.071377277374267800e-01,7.276795387268066850e-01,7.494504928588867632e-01,7.725643634796142134e-01,7.971492767333984153e-01,8.233503341674804910e-01,8.513323783874511275e-01,8.812831878662109597e-01,9.134183883666991965e-01,9.479856491088867188e-01,9.852723121643066628e-01,1.000000000000000000e+00,1.000000000000000000e+00,1.000000000000000000e+00,1.000000000000000000e+00,1.000000000000000000e+00,1.000000000000000000e+00,1.000000000000000000e+00,3.498716115951537864e-01,3.457528352737426758e-01,3.503570795059204324e-01,1.000000000000000000e+00,1.000000000000000000e+00,3.442200183868407981e-01,3.324944019317627175e-01,3.317703485488891491e-01,3.329407215118408425e-01,1.000000000000000000e+00,1.000000000000000000e+00,1.000000000000000000e+00,1.000000000000000000e+00,1.000000000000000000e+00,1.000000000000000000e+00,1.000000000000000000e+00,1.000000000000000000e+00,1.000000000000000000e+00,1.000000000000000000e+00,1.000000000000000000e+00,1.000000000000000000e+00,1.000000000000000000e+00,1.000000000000000000e+00,1.000000000000000000e+00,1.000000000000000000e+00,1.000000000000000000e+00,1.000000000000000000e+00,1.000000000000000000e+00,1.000000000000000000e+00,1.000000000000000000e+00,1.000000000000000000e+00,1.000000000000000000e+00,1.000000000000000000e+00,1.000000000000000000e+00,1.000000000000000000e+00,1.000000000000000000e+00,1.000000000000000000e+00,1.000000000000000000e+00,1.000000000000000000e+00,1.000000000000000000e+00,1.000000000000000000e+00,1.000000000000000000e+00,1.000000000000000000e+00,1.000000000000000000e+00,1.000000000000000000e+00,1.000000000000000000e+00,1.000000000000000000e+00,9.689060211181640403e-01,9.372167587280273438e-01,9.075346946716308372e-01,8.796750068664550559e-01,8.534749031066894975e-01,8.287902832031249778e-01,8.054934501647948997e-01,7.834705829620360884e-01,7.626198768615722878e-01,7.428502082824707253e-01
6.196600437164306863e-01,6.353774070739746094e-01,6.519128322601318581e-01,6.693318843841552512e-01,6.877074241638183594e-01,7.071204185485839844e-01,7.276612281799316184e-01,7.494310855865478072e-01,7.725437164306641069e-01,7.971272945404053178e-01,8.233268737792969194e-01,8.513072967529297097e-01,8.812562942504882368e-01,9.133894920349121538e-01,9.479545593261718972e-01,9.852387428283690962e-01,1.000000000000000000e+00,1.000000000000000000e+00,1.000000000000000000e+00,1.000000000000000000e+00,1.000000000000000000e+00,1.000000000000000000e+00,3.707409381866454967e-01,3.583163976669311301e-01,3.532412767410278431e-01,1.000000000000000000e+00,1.000000000000000000e+00,1.000000000000000000e+00,3.415284872055053822e-01,3.330362319946288951e-01,3.325541973114013450e-01,3.336800098419189231e-01,1.000000000000000000e+00,1.000000000000000000e+00,1.000000000000000000e+00,1.000000000000000000e+00,1.000000000000000000e+00,1.000000000000000000e+00,1.000000000000000000e+00,1.000000000000000000e+00,1.000000000000000000e+00,1.000000000000000000e+00,1.000000000000000000e+00,1.000000000000000000e+00,1.000000000000000000e+00,1.000000000000000000e+00,1.000000000000000000e+00,1.000000000000000000e+00,1.000000000000000000e+00,1.000000000000000000e+00,1.000000000000000000e+00,1.000000000000000000e+00,1.000000000000000000e+00,1.000000000000000000e+00,1.000000000000000000e+00,1.000000000000000000e+00,1.000000000000000000e+00,1.000000000000000000e+00,1.000000000000000000e+00,1.000000000000000000e+00,1.000000000000000000e+00,1.000000000000000000e+00,1.000000000000000000e+00,1.000000000000000000e+00,1.000000000000000000e+00,1.000000000000000000e+00,1.000000000000000000e+00,1.000000000000000000e+00,1.000000000000000000e+00,1.000000000000000000e+00,9.689344406127929910e-01,9.372434616088867188e-01,9.075597763061523660e-01,8.796985626220703569e-01,8.534970283508300781e-01,8.288111686706542969e-01,8.055131912231445757e-01,7.834892749786377397e-01,7.626375675201415572e-01,7.428669452667235884e-01
6.196466922760009988e-01,6.353634357452392356e-01,6.518981456756591797e-01,6.693164348602295144e-01,6.876910686492919700e-01,7.071030616760254350e-01,7.276428699493407981e-01,7.494116783142089622e-01,7.725230693817138894e-01,7.971053123474121094e-01,8.233034133911132368e-01,8.512822151184081809e-01,8.812294006347656250e-01,9.133605957031250000e-01,9.479234695434570757e-01,9.852050781250000222e-01,1.000000000000000000e+00,1.000000000000000000e+00,1.000000000000000000e+00,1.000000000000000000e+00,1.000000000000000000e+00,1.000000000000000000e+00,3.635452508926391713e-01,3.589924573898315430e-01,3.603214263916015847e-01,1.000000000000000000e+00,1.000000000000000000e+00,1.000000000000000000e+00,3.388787269592284934e-01,3.335322141647338867e-01,3.333718061447143444e-01,3.384819507598876842e-01,1.000000000000000000e+00,1.000000000000000000e+00,1.000000000000000000e+00,1.000000000000000000e+00,1.000000000000000000e+00,1.000000000000000000e+00,1.000000000000000000e+00,1.000000000000000000e+00,1.000000000000000000e+00,1.000000000000000000e+00,1.000000000000000000e+00,1.000000000000000000e+00,1.000000000000000000e+00,1.000000000000000000e+00,1.000000000000000000e+00,1.000000000000000000e+00,1.000000000000000000e+00,1.000000000000000000e+00,1.000000000000000000e+00,1.000000000000000000e+00,1.000000000000000000e+00,1.000000000000000000e+00,1.000000000000000000e+00,1.000000000000000000e+00,1.000000000000000000e+00,1.000000000000000000e+00,1.000000000000000000e+00,1.000000000000000000e+00,1.000000000000000000e+00,1.000000000000000000e+00,1.000000000000000000e+00,1.000000000000000000e+00,1.000000000000000000e+00,1.000000000000000000e+00,1.000000000000000000e+00,1.000000000000000000e+00,1.000000000000000000e+00,1.000000000000000000e+00,9.689630508422851785e-01,9.372700691223144753e-01,9.075847625732421653e-01,8.797221183776855469e-01,8.535191535949706587e-01,8.288320541381836160e-01,8.055329322814941406e-01,7.835079193115234153e-01,7.626552581787109375e-01,7.428837299346924272e-01
6.196334362030029297e-01,6.353494167327881081e-01,6.518834590911865012e-01,6.693009376525879128e-01,6.876747608184814453e-01,7.070858001708983931e-01,7.276245594024658425e-01,7.493921756744384988e-01,7.725023746490478072e-01,7.970833301544189009e-01,8.232799530029296653e-01,8.512570381164550337e-01,8.812026023864746316e-01,9.133316993713378462e-01,9.478923797607421431e-01,9.709935188293457031e-01,9.707515716552734819e-01,9.705099105834961160e-01,9.702683448791503684e-01,9.700267791748047319e-01,9.697854042053222212e-01,9.695442199707031694e-01,3.608013153076171653e-01,3.588388919830322044e-01,3.603683233261108509e-01,9.685804367065429243e-01,9.683397293090820757e-01,9.680992126464843528e-01,3.383286952972411887e-01,3.340260744094848411e-01,3.341934919357300027e-01,9.671382904052734375e-01,9.668984413146972656e-01,9.666585922241210938e-01,9.664188385009765403e-01,9.661792755126953347e-01,9.659398078918457475e-01,9.657005310058593972e-01,9.654612541198730469e-01,9.652221679687500444e-01,9.649831771850585493e-01,9.647443771362305132e-01,9.645055770874023660e-01,9.642669677734374556e-01,9.640284538269042747e-01,9.637900352478027122e-01,9.635517120361327681e-01,9.633136749267577903e-01,9.630755424499511941e-01,9.628376007080078347e-01,9.625998497009277122e-01,9.623621940612793191e-01,9.621246337890625444e-01,9.618871688842773882e-01,9.616497993469238503e-01,9.614126205444335493e-01,9.611754417419433594e-01,9.609384536743164062e-01,9.607016563415526900e-01,9.604648590087890847e-01,9.602282524108887163e-01,9.599917411804199663e-01,9.597553253173828347e-01,9.595190048217773215e-01,9.592828750610351562e-01,9.590468406677246094e-01,9.588109016418456809e-01,9.585750579833984819e-01,9.583394050598144087e-01,9.581038475036620650e-01,9.578683853149414507e-01,9.372967720031738503e-01,9.076097488403320757e-01,8.797455787658691184e-01,8.535412788391113503e-01,8.288529396057129350e-01,8.055526733398437056e-01,7.835265636444092019e-01,7.626729488372803178e-01,7.429005146026611550e-01
6.196201324462891069e-01,6.353354454040527344e-01,6.518686771392822044e-01,6.692853927612304465e-01,6.876584053039550559e-01,7.070684909820557085e-01,7.276062488555907759e-01,7.493727684020996538e-01,7.542376518249511719e-01,7.540918350219726340e-01,7.539459228515624778e-01,7.538001060485839400e-01,7.536543369293212669e-01,7.535086154937744585e-01,7.533629417419434038e-01,7.532173633575439675e-01,7.530717849731445312e-01,7.529263973236084428e-01,7.527809619903564897e-01,7.526355743408202903e-01,7.524902343749999556e-01,7.523449897766113503e-01,3.582536697387695424e-01,3.585184335708618275e-01,3.599758148193359375e-01,7.517645359039306641e-01,7.516195774078369141e-01,7.514746189117431641e-01,3.388897180557250977e-01,3.345911741256714089e-01,3.350191831588745228e-01,7.508954524993896040e-01,7.507508754730224387e-01,7.506062984466552734e-01,7.504617214202881081e-01,7.503172397613525613e-01,7.501728057861327681e-01,7.500284671783447044e-01,7.498841285705566406e-01,7.497399330139160600e-01,7.495957374572753684e-01,7.494515895843505415e-01,7.493074893951415794e-01,7.491634368896484819e-01,7.490194797515868919e-01,7.488755226135254128e-01,7.487316608428955522e-01,7.485878944396973100e-01,7.484441757202148215e-01,7.483004570007324441e-01,7.481567859649658203e-01,7.480132102966308150e-01,7.478696346282959206e-01,7.477261543273925337e-01,7.475828170776367410e-01,7.474394321441650835e-01,7.472960948944091797e-01,7.471528530120850053e-01,7.470096111297607200e-01,7.468664646148681641e-01,7.467233657836913618e-01,7.465804100036621538e-01,7.464374065399169700e-01,7.462944507598876509e-01,7.461515426635741965e-01,7.460087299346923606e-01,7.458659648895263894e-01,7.457232475280761719e-01,7.455805778503418191e-01,7.454380512237548384e-01,7.452954769134521040e-01,7.451529502868652344e-01,7.450105190277099831e-01,7.448681354522704856e-01,7.447257995605468528e-01,7.445835113525390847e-01,7.444412708282470703e-01,7.442991733551025391e-01,7.441570281982421431e-01,7.429172992706298828e-01
6.166923522949219194e-01,6.165947914123535156e-01,6.164972782135009766e-01,6.163997173309325728e-01,6.163022041320800337e-01,6.162047863006592241e-01,6.161073684692383035e-01,6.160099506378173828e-01,6.159126281738280806e-01,6.158153533935546431e-01,6.157180309295654519e-01,6.156208038330077681e-01,6.155235767364501953e-01,6.154263496398926225e-01,6.153291702270508035e-01,6.152320384979248491e-01,6.151349067687987837e-01,6.150379180908203125e-01,6.149408340454101118e-01,6.148438453674316406e-01,6.147468566894531694e-01,6.146498680114745872e-01,3.557250976562499889e-01,3.572814226150512473e-01,3.594557285308838113e-01,6.142624378204345481e-01,6.141656398773193137e-01,6.140688419342040794e-01,3.437412738800048606e-01,3.388444900512695424e-01,3.375786304473876731e-01,6.136820316314697266e-01,6.135854721069335938e-01,6.134889125823974609e-01,6.133923530578613281e-01,6.132957935333251953e-01,6.131993293762206809e-01,6.131028652191161665e-01,6.130064010620117632e-01,6.129100799560547319e-01,6.128137111663818359e-01,6.127173423767089400e-01,6.126210212707519087e-01,6.125247478485107422e-01,6.124284744262695757e-01,6.123322486877441628e-01,6.122360706329346147e-01,6.121399402618408203e-01,6.120438098907470259e-01,6.119476795196533425e-01,6.118516445159911665e-01,6.117555618286132368e-01,6.116595745086670366e-01,6.115635871887207253e-01,6.114676952362060325e-01,6.113717555999755859e-01,6.112758636474608931e-01,6.111799716949463113e-01,6.110841751098632368e-01,6.109883308410644087e-01,6.108925819396973100e-01,6.107968807220458540e-01,6.107011795043945090e-01,6.106054782867431641e-01,6.105098247528075728e-01,6.104142189025878462e-01,6.103186130523681197e-01,6.102230548858642578e-01,6.101274967193603960e-01,6.100320339202880415e-01,6.099365711212157981e-01,6.098411083221435547e-01,6.097457408905029297e-01,6.096503257751464400e-01,6.095549583435058150e-01,6.094596385955810547e-01,6.093643665313720481e-01,6.092691421508789062e-01,6.091739177703857644e-01,6.090786933898926225e-01
5.210181713104248269e-01,5.209485054016113059e-01,5.208788871765136497e-01,5.208092689514159934e-01,5.207396507263183372e-01,5.206700801849365456e-01,5.206005096435546431e-01,5.205309867858887163e-01,5.204614639282226785e-01,5.203919887542725053e-01,5.203225135803222212e-01,5.202530384063720481e-01,5.201836109161377397e-01,5.201141834259033203e-01,5.200447559356689009e-01,5.199753761291503462e-01,5.199059963226317915e-01,5.198367118835449663e-01,5.197673797607421653e-01,5.196980476379394753e-01,5.196287631988525391e-01,5.195594787597656028e-01,5.194901943206786665e-01,3.559904813766479603e-01,3.586520195007324441e-01,5.192825794219970703e-01,5.192133903503417525e-01,5.191442489624022993e-01,3.401570796966552623e-01,3.371458768844604603e-01,5.189368724822998047e-01,5.188677787780762163e-01,5.187987327575683816e-01,5.187296867370605469e-01,5.186606407165527122e-01,5.185916423797607422e-01,5.185226440429687722e-01,5.184536457061768022e-01,5.183846950531005859e-01,5.183157920837402344e-01,5.182468414306640181e-01,5.181779384613036665e-01,5.181090354919433150e-01,5.180401802062988281e-01,5.179713249206543413e-01,5.179025173187256081e-01,5.178336620330810103e-01,5.177649021148681419e-01,5.176961421966552734e-01,5.176273822784424050e-01,5.175586223602295366e-01,5.174899101257324219e-01,5.174211978912353072e-01,5.173525333404540572e-01,5.172839164733886719e-01,5.172152519226074219e-01,5.171466350555420366e-01,5.170780181884765403e-01,5.170094013214111550e-01,5.169408321380615234e-01,5.168722629547118919e-01,5.168037414550781250e-01,5.167352199554443581e-01,5.166667461395263450e-01,5.165982246398925781e-01,5.165297508239745650e-01,5.164613246917724165e-01,5.163928985595702681e-01,5.163244724273681197e-01,5.162560939788818359e-01,5.161877155303955522e-01,5.161193847656250222e-01,5.160510063171386275e-01,5.159827232360839622e-01,5.159143924713134322e-01,5.158461093902587669e-01,5.157778263092041016e-01,5.157096385955810547e-01,5.156414031982421431e-01,5.155731678009033425e-01
4.510429382324218639e-01,4.509907722473144309e-01,4.509385585784911887e-01,4.508863925933838113e-01,4.508342266082763783e-01,4.507820606231689453e-01,4.507299423217773215e-01,4.506778240203857533e-01,4.506257057189941295e-01,4.505735874176025613e-01,4.505215167999267467e-01,4.504694461822509877e-01,4.504173278808593639e-01,4.503653049468994141e-01,4.503132343292236550e-01,4.502612113952636497e-01,4.502092361450195090e-01,4.501572608947753684e-01,4.501052379608154186e-01,4.500532627105712780e-01,4.500012874603271373e-01,4.499493598937988059e-01,4.498973846435546653e-01,4.498454570770263894e-01,4.497935771942138672e-01,4.497416973114013450e-01,4.496897697448730691e-01,4.496378898620605469e-01,3.372787952423095814e-01,3.311755418777465598e-01,3.347410440444946178e-01,4.494304656982421875e-01,4.493786811828613392e-01,4.493268966674804910e-01,4.492750644683837780e-01,4.492232799530029297e-01,4.491715431213378906e-01,4.491197586059570424e-01,4.490679740905761941e-01,4.490162849426269642e-01,4.489645481109619252e-01,4.489128589630126953e-01,4.488611221313476562e-01,4.488094329833984264e-01,4.487577438354491965e-01,4.487061023712158314e-01,4.486544609069824108e-01,4.486028194427490456e-01,4.485511779785156250e-01,4.484995841979980691e-01,4.484479427337646484e-01,4.483963489532470925e-01,4.483447551727294811e-01,4.482932090759277344e-01,4.482416629791259877e-01,4.481901168823242410e-01,4.481385707855224387e-01,4.480870723724365012e-01,4.480355262756347545e-01,4.479840278625488170e-01,4.479325294494628795e-01,4.478810787200927512e-01,4.478296279907226785e-01,4.477781772613525502e-01,4.477267265319824219e-01,4.476753234863281028e-01,4.476238727569580300e-01,4.475724697113037109e-01,4.475210666656493919e-01,4.474697113037109375e-01,4.474183559417724831e-01,4.473670005798339733e-01,4.473156452178955189e-01,4.472642898559570090e-01,4.472129821777343639e-01,4.471616744995117188e-01,4.471103668212890736e-01,4.470591068267822377e-01,4.470077991485595925e-01,4.469565391540527566e-01
3.976382732391357533e-01,3.975976943969726785e-01,3.975571393966674805e-01,3.975165843963622825e-01,3.974760532379150169e-01,3.974355220794677512e-01,3.973949432373046764e-01,3.973544359207153431e-01,3.973139286041259544e-01,3.972734212875366211e-01,3.972329139709472878e-01,3.971924304962158314e-01,3.971519708633423074e-01,3.971114873886108509e-01,3.970710277557373269e-01,3.970305919647216797e-01,3.969900846481323464e-01,3.969496965408325084e-01,3.969092845916747936e-01,3.968688488006592019e-01,3.968284368515014870e-01,3.967880487442016491e-01,3.967476367950439342e-01,3.967072486877441517e-01,3.966668844223022461e-01,3.966265201568603405e-01,3.965861558914184348e-01,3.965457916259765847e-01,3.400886774063110463e-01,3.238302230834960715e-01,3.259341239929199330e-01,3.963844776153564453e-01,3.963442087173462136e-01,3.963038921356201172e-01,3.962635993957519531e-01,3.962233066558837891e-01,3.961830377578735574e-01,3.961427688598632701e-01,3.961024999618530384e-01,3.960622310638427512e-01,3.960219860076904519e-01,3.959817647933959739e-01,3.959415197372436745e-01,3.959012985229491965e-01,3.958610773086547741e-01,3.958208799362182839e-01,3.957806825637817383e-01,3.957405328750610574e-01,3.957003593444824441e-01,3.956601858139038308e-01,3.956200122833252175e-01,3.955798625946044811e-01,3.955397129058838002e-01,3.954995632171630637e-01,3.954594373703003152e-01,3.954193115234375111e-01,3.953791856765747070e-01,3.953390836715698353e-01,3.952989816665649636e-01,3.952588796615600364e-01,3.952188014984130970e-01,3.951787710189819114e-01,3.951386928558349720e-01,3.950986385345459095e-01,3.950585842132568470e-01,3.950185537338256614e-01,3.949784994125365989e-01,3.949384689331054688e-01,3.948984622955322155e-01,3.948584556579589622e-01,3.948184490203857644e-01,3.947784423828125111e-01,3.947384595870971902e-01,3.946984767913818137e-01,3.946585178375244252e-01,3.946185588836669811e-01,3.945785999298095925e-01,3.945386886596679576e-01,3.944987535476684459e-01,3.944588184356689342e-01
3.555412292480468750e-01,3.555088043212890625e-01,3.554763793945312500e-01,3.554439544677734375e-01,3.554115295410156250e-01,3.553791284561157449e-01,3.553467273712158092e-01,3.553143024444579967e-01,3.552819013595581166e-01,3.552495241165161133e-01,3.552171468734741100e-01,3.551847696304321067e-01,3.551523923873901589e-01,3.551200389862060325e-01,3.550876855850219616e-01,3.550553321838378906e-01,3.550229787826538197e-01,3.549906492233276256e-01,3.549583196640014870e-01,3.549259901046752930e-01,3.548936128616332897e-01,3.548613071441650280e-01,3.548290014266967662e-01,3.547966957092285045e-01,3.547644376754760520e-01,3.547321319580077903e-01,3.546998500823974609e-01,3.546675682067871316e-01,3.546352863311767467e-01,3.186348438262939231e-01,3.135171651840210072e-01,3.199557065963745117e-01,3.545062541961669922e-01,3.544740200042724720e-01,3.544417619705200195e-01,3.544095516204833762e-01,3.543773174285888561e-01,3.543450832366943359e-01,3.543128728866576926e-01,3.542807102203369141e-01,3.542484998703002708e-01,3.542162895202636830e-01,3.541841030120849720e-01,3.541519165039062611e-01,3.541197299957275502e-01,3.540875673294067161e-01,3.540554046630859375e-01,3.540232419967651589e-01,3.539910793304443248e-01,3.539589166641235463e-01,3.539267778396606445e-01,3.538946390151977428e-01,3.538625001907348411e-01,3.538303613662719949e-01,3.537982940673828347e-01,3.537661790847778098e-01,3.537340641021728405e-01,3.537019491195678711e-01,3.536698579788207786e-01,3.536377668380737416e-01,3.536056756973266491e-01,3.535735845565796120e-01,3.535415172576904519e-01,3.535094499588012917e-01,3.534773826599121316e-01,3.534453392028808483e-01,3.534132719039916881e-01,3.533812284469604603e-01,3.533491849899291770e-01,3.533171892166137584e-01,3.532851696014404075e-01,3.532531499862671120e-01,3.532211303710937611e-01,3.531891107559204102e-01,3.531571149826049916e-01,3.531250953674316406e-01,3.530931234359740989e-01,3.530611276626586803e-01,3.530291557312011941e-01,3.529971837997436523e-01
3.215043306350707786e-01,3.214777946472168191e-01,3.214512825012206809e-01,3.214247703552245983e-01,3.213982582092285156e-01,3.213717699050903098e-01,3.213452577590942272e-01,3.213187694549560769e-01,3.212922573089599387e-01,3.212657690048217884e-01,3.212392807006835826e-01,3.212128162384033092e-01,3.211863279342651589e-01,3.211598634719848855e-01,3.211333990097046120e-01,3.211069345474243386e-01,3.210804939270019420e-01,3.210540294647216686e-01,3.210275888442993275e-01,3.210011482238769309e-01,3.209747076034545898e-01,3.209482669830322488e-01,3.209218502044677845e-01,3.208953857421875111e-01,3.208689689636230469e-01,3.208425521850585826e-01,3.208161354064941184e-01,3.207897186279297097e-01,3.207633256912231223e-01,3.207369327545165905e-01,3.207105398178100586e-01,3.206841468811035267e-01,3.206577777862548717e-01,3.206314086914062722e-01,3.206050395965576172e-01,3.205786466598510853e-01,3.205522775650024303e-01,3.205259323120117076e-01,3.204995632171631081e-01,3.204732179641723855e-01,3.204468488693237305e-01,3.204205036163330078e-01,3.203941583633422852e-01,3.203678369522094949e-01,3.203414916992187722e-01,3.203151702880859264e-01,3.202888488769531361e-01,3.202625513076782227e-01,3.202362298965454324e-01,3.202099323272705189e-01,3.201836109161376731e-01,3.201573133468628152e-01,3.201310157775879017e-01,3.201047182083129883e-01,3.200784206390380748e-01,3.200521469116210938e-01,3.200258493423461803e-01,3.199995756149291992e-01,3.199733018875122181e-01,3.199470281600952370e-01,3.199207782745361328e-01,3.198945283889770286e-01,3.198682785034179799e-01,3.198420286178588756e-01,3.198157787322998269e-01,3.197895288467407227e-01,3.197633028030395508e-01,3.197370767593383789e-01,3.197108268737792747e-01,3.196846008300781028e-01,3.196583986282348633e-01,3.196321725845336914e-01,3.196059703826904519e-01,3.195797443389892800e-01,3.195535421371459850e-01,3.195273399353027455e-01,3.195011377334594505e-01,3.194749832153320201e-01,3.194488048553466575e-01,3.194226264953613503e-01
2.934149265289306419e-01,2.933928489685058705e-01,2.933707475662231667e-01,2.933486700057983398e-01,2.933265924453735130e-01,2.933045148849487416e-01,2.932824373245239147e-01,2.932603836059570201e-01,2.932383060455322488e-01,2.932162284851074219e-01,2.931941509246825950e-01,2.931720972061157005e-01,2.931500434875488059e-01,2.931279897689819114e-01,2.931059598922729492e-01,2.930839061737060547e-01,2.930618762969970925e-01,2.930398225784301980e-01,2.930177927017211803e-01,2.929957628250122181e-01,2.929737329483032005e-01,2.929517269134521706e-01,2.929296970367431530e-01,2.929076910018920676e-01,2.928856611251831055e-01,2.928636312484741433e-01,2.928416252136230580e-01,2.928196191787719727e-01,2.927976131439208873e-01,2.927756309509277344e-01,2.927536249160766491e-01,2.927316427230834961e-01,2.927096605300903431e-01,2.926876783370971902e-01,2.926656961441039817e-01,2.926437139511108287e-01,2.926217317581176758e-01,2.925997734069823997e-01,2.925778150558471791e-01,2.925558567047119030e-01,2.925338983535766824e-01,2.925119400024414062e-01,2.924900054931640625e-01,2.924680471420287864e-01,2.924460887908935658e-01,2.924241542816162220e-01,2.924022197723388783e-01,2.923802852630615345e-01,2.923583507537841908e-01,2.923364162445068470e-01,2.923144817352295033e-01,2.922925710678100364e-01,2.922706365585326926e-01,2.922487258911132812e-01,2.922268390655517467e-01,2.922049283981323353e-01,2.921830177307128684e-01,2.921611070632934570e-01,2.921392202377319225e-01,2.921173095703125111e-01,2.920954227447509766e-01,2.920735359191894420e-01,2.920516490936279075e-01,2.920297622680664285e-01,2.920078754425048939e-01,2.919859886169433594e-01,2.919641256332397572e-01,2.919422626495361550e-01,2.919203758239746205e-01,2.918985366821288951e-01,2.918766736984252930e-01,2.918548345565795676e-01,2.918329715728759655e-01,2.918111085891723633e-01,2.917892694473266380e-01,2.917674303054809681e-01,2.917455911636352428e-01,2.917237520217895730e-01,2.917019128799438477e-01,2.916800737380981223e-01
2.698394060134887695e-01,2.698207378387451061e-01,2.698020458221435658e-01,2.697833776473999023e-01,2.697647094726562389e-01,2.697460412979125755e-01,2.697273731231689675e-01,2.697087049484253041e-01,2.696900367736816406e-01,2.696713685989379772e-01,2.696526765823364369e-01,2.696340322494507058e-01,2.696153879165649192e-01,2.695967197418213113e-01,2.695780754089355247e-01,2.695594310760497936e-01,2.695407867431640625e-01,2.695221424102783314e-01,2.695034980773926003e-01,2.694848775863647461e-01,2.694662570953368919e-01,2.694476127624511608e-01,2.694289922714233620e-01,2.694103717803955078e-01,2.693917512893676536e-01,2.693731307983398549e-01,2.693544864654541238e-01,2.693358659744262695e-01,2.693172454833984153e-01,2.692986488342284934e-01,2.692800283432006947e-01,2.692614078521728405e-01,2.692428350448608509e-01,2.692242383956909291e-01,2.692056417465210072e-01,2.691870450973510853e-01,2.691684484481811634e-01,2.691498517990112416e-01,2.691312551498413197e-01,2.691126823425292747e-01,2.690941095352172852e-01,2.690755128860473633e-01,2.690569400787353738e-01,2.690383672714233287e-01,2.690197944641113392e-01,2.690012216567992942e-01,2.689826726913452370e-01,2.689641237258911244e-01,2.689455509185790794e-01,2.689270019531250222e-01,2.689084529876709095e-01,2.688898801803588645e-01,2.688713312149048074e-01,2.688527822494506947e-01,2.688342332839965820e-01,2.688157081604004017e-01,2.687971591949462891e-01,2.687786102294921764e-01,2.687600851058959961e-01,2.687415361404418834e-01,2.687230110168457031e-01,2.687045097351073997e-01,2.686859846115112194e-01,2.686674594879150391e-01,2.686489343643188588e-01,2.686304330825805553e-01,2.686119079589843750e-01,2.685933828353881947e-01,2.685748815536498912e-01,2.685563802719116433e-01,2.685378789901733398e-01,2.685193538665771595e-01,2.685008764266967884e-01,2.684823751449584850e-01,2.684638738632202370e-01,2.684453725814819336e-01,2.684268951416015625e-01,2.684084177017211914e-01,2.683899402618408203e-01,2.683714628219604492e-01
2.497706651687622015e-01,2.497546672821044922e-01,2.497386693954467829e-01,2.497226715087890736e-01,2.497066497802734319e-01,2.496906518936157227e-01,2.496746540069580134e-01,2.496586799621582087e-01,2.496426820755004994e-01,2.496266841888427623e-01,2.496106863021850530e-01,2.495946884155273438e-01,2.495787143707275391e-01,2.495627164840698298e-01,2.495467424392700251e-01,2.495307683944702204e-01,2.495147943496704157e-01,2.494988203048706110e-01,2.494828462600708063e-01,2.494668722152710016e-01,2.494508981704711970e-01,2.494349479675292969e-01,2.494189739227294922e-01,2.494030237197875921e-01,2.493870496749877874e-01,2.493710994720458873e-01,2.493551492691040150e-01,2.493391752243042103e-01,2.493232250213623102e-01,2.493072748184204102e-01,2.492913246154785101e-01,2.492753744125366100e-01,2.492594242095947377e-01,2.492434978485107422e-01,2.492275238037109375e-01,2.492115974426269420e-01,2.491956472396850697e-01,2.491797208786010742e-01,2.491637945175170787e-01,2.491478919982910156e-01,2.491319656372070201e-01,2.491160392761230524e-01,2.491001129150390569e-01,2.490841865539550892e-01,2.490682601928710938e-01,2.490523576736450306e-01,2.490364313125610352e-01,2.490205287933349720e-01,2.490046024322509766e-01,2.489886999130249134e-01,2.489727973937988226e-01,2.489568948745727595e-01,2.489409923553466686e-01,2.489250898361206055e-01,2.489092111587524470e-01,2.488933086395263561e-01,2.488774061203002930e-01,2.488615274429321345e-01,2.488456249237060436e-01,2.488297462463378851e-01,2.488138437271118220e-01,2.487979650497436634e-01,2.487820863723754772e-01,2.487662076950073187e-01,2.487503290176391602e-01,2.487344503402710016e-01,2.487185716629028431e-01,2.487027168273925892e-01,2.486868381500244030e-01,2.486709833145141491e-01,2.486551284790038951e-01,2.486392498016357366e-01,2.486233949661254827e-01,2.486075401306152288e-01,2.485916852951049749e-01,2.485758304595947210e-01,2.485599756240844671e-01,2.485441207885742132e-01,2.485282659530639593e-01,2.485124111175537054e-01
2.324804306030273382e-01,2.324665546417236384e-01,2.324527025222778431e-01,2.324388265609741155e-01,2.324249744415283203e-01,2.324110984802246205e-01,2.323972463607787975e-01,2.323833942413330023e-01,2.323695421218872070e-01,2.323556900024414118e-01,2.323418378829956166e-01,2.323279857635497936e-01,2.323141098022460938e-01,2.323002576828002985e-01,2.322864294052124079e-01,2.322725772857666127e-01,2.322587251663207897e-01,2.322448968887328991e-01,2.322310447692871038e-01,2.322172164916992132e-01,2.322033643722534180e-01,2.321895360946655273e-01,2.321757078170776367e-01,2.321618795394897461e-01,2.321480512619018555e-01,2.321342229843139648e-01,2.321203947067260742e-01,2.321065664291381836e-01,2.320927381515502930e-01,2.320789098739624023e-01,2.320650815963745117e-01,2.320512771606445257e-01,2.320374488830566351e-01,2.320236444473266491e-01,2.320098161697387584e-01,2.319960117340088002e-01,2.319822072982788141e-01,2.319684028625488281e-01,2.319545745849609375e-01,2.319407701492309515e-01,2.319269657135009655e-01,2.319131612777710072e-01,2.318993568420410212e-01,2.318855524063110352e-01,2.318717718124389537e-01,2.318579673767089955e-01,2.318441629409790095e-01,2.318304061889648326e-01,2.318166017532348744e-01,2.318028211593627930e-01,2.317890405654907116e-01,2.317752361297607533e-01,2.317614555358886719e-01,2.317476749420165905e-01,2.317338943481445368e-01,2.317201137542724554e-01,2.317063331604004017e-01,2.316925764083862249e-01,2.316787958145141713e-01,2.316650152206420898e-01,2.316512584686279408e-01,2.316375017166137640e-01,2.316237449645996149e-01,2.316099643707275335e-01,2.315962076187133845e-01,2.315824508666992076e-01,2.315686941146850586e-01,2.315549373626709095e-01,2.315411806106567327e-01,2.315274238586425837e-01,2.315136671066284069e-01,2.314999103546142578e-01,2.314861536026001088e-01,2.314723968505859319e-01,2.314586639404296875e-01,2.314449071884155384e-01,2.314311742782592662e-01,2.314174413681030218e-01,2.314037084579467773e-01,2.313899517059326283e-01
2.174290180206298884e-01,2.174168825149536133e-01,2.174047470092773382e-01,2.173926353454589955e-01,2.173804998397827204e-01,2.173683643341064453e-01,2.173562526702880748e-01,2.173441410064697321e-01,2.173320055007934570e-01,2.173198938369750866e-01,2.173077821731567438e-01,2.172956466674804688e-01,2.172835350036620983e-01,2.172714233398437556e-01,2.172592878341674805e-01,2.172472000122070424e-01,2.172350883483886719e-01,2.172229766845703014e-01,2.172108650207519587e-01,2.171987533569335882e-01,2.171866416931152455e-01,2.171745538711547796e-01,2.171624422073364369e-01,2.171503543853759710e-01,2.171382427215576283e-01,2.171261548995971624e-01,2.171140670776367243e-01,2.171019554138183538e-01,2.170898675918579157e-01,2.170777559280395452e-01,2.170656681060791071e-01,2.170535802841186412e-01,2.170414924621582031e-01,2.170294046401977650e-01,2.170173168182372991e-01,2.170052289962768610e-01,2.169931650161743275e-01,2.169810771942138616e-01,2.169689893722534235e-01,2.169569253921508900e-01,2.169448375701904241e-01,2.169327497482299860e-01,2.169206619262695201e-01,2.169085979461669866e-01,2.168965339660644531e-01,2.168844461441040150e-01,2.168723821640014537e-01,2.168603181838989202e-01,2.168482542037963867e-01,2.168361902236938532e-01,2.168241262435913197e-01,2.168120622634887584e-01,2.167999982833862249e-01,2.167879343032836914e-01,2.167758941650390625e-01,2.167638301849365290e-01,2.167517900466919001e-01,2.167397260665893666e-01,2.167276620864868053e-01,2.167156219482421764e-01,2.167035818099975475e-01,2.166915178298950140e-01,2.166794776916503851e-01,2.166674375534057562e-01,2.166553735733032227e-01,2.166433334350585938e-01,2.166312932968139648e-01,2.166192531585693359e-01,2.166072130203247070e-01,2.165951967239379827e-01,2.165831565856933538e-01,2.165711164474487249e-01,2.165590763092040960e-01,2.165470361709594671e-01,2.165350198745727428e-01,2.165229797363281139e-01,2.165109634399414174e-01,2.164989233016967884e-01,2.164869070053100641e-01,2.164748668670654352e-01
2.042080402374267523e-01,2.041973352432250866e-01,2.041866302490234486e-01,2.041759252548217829e-01,2.041652441024780218e-01,2.041545391082763561e-01,2.041438579559326227e-01,2.041331529617309570e-01,2.041224718093871959e-01,2.041117668151855580e-01,2.041010856628417969e-01,2.040904045104980358e-01,2.040796995162963978e-01,2.040690183639526367e-01,2.040583133697509710e-01,2.040476322174072377e-01,2.040369510650634766e-01,2.040262699127197155e-01,2.040155887603759821e-01,2.040049076080322210e-01,2.039942264556884877e-01,2.039835453033447266e-01,2.039728879928588978e-01,2.039622068405151367e-01,2.039515256881713756e-01,2.039408683776855469e-01,2.039301872253417858e-01,2.039195060729980524e-01,2.039088487625121959e-01,2.038981676101684626e-01,2.038875102996826061e-01,2.038768291473388727e-01,2.038661718368530162e-01,2.038555145263671875e-01,2.038448333740234264e-01,2.038341760635375977e-01,2.038235187530517689e-01,2.038128614425659124e-01,2.038022041320800837e-01,2.037915468215942272e-01,2.037808895111083984e-01,2.037702322006225697e-01,2.037595748901367132e-01,2.037489175796508845e-01,2.037382841110229603e-01,2.037276029586791992e-01,2.037169456481933705e-01,2.037063121795654186e-01,2.036956548690795898e-01,2.036850214004516657e-01,2.036743640899658092e-01,2.036637306213378851e-01,2.036530971527099609e-01,2.036424398422241322e-01,2.036318063735961803e-01,2.036211729049682562e-01,2.036105394363403320e-01,2.035998821258545033e-01,2.035892486572265514e-01,2.035786151885986273e-01,2.035679817199707031e-01,2.035573720932006836e-01,2.035467386245727595e-01,2.035361051559448353e-01,2.035254716873168834e-01,2.035148382186889593e-01,2.035042285919189398e-01,2.034935951232910156e-01,2.034829616546630915e-01,2.034723520278930720e-01,2.034617185592651478e-01,2.034511089324951283e-01,2.034404754638671764e-01,2.034298658370971569e-01,2.034192323684692327e-01,2.034086227416992132e-01,2.033980131149291937e-01,2.033874034881591741e-01,2.033767938613891546e-01,2.033661842346191351e-01
1.925027132034301813e-01,1.924932241439819280e-01,1.924836993217468317e-01,1.924741983413696400e-01,1.924646854400634821e-01,1.924551963806152288e-01,1.924456834793090709e-01,1.924361824989318792e-01,1.924266695976257213e-01,1.924171805381774958e-01,1.924076795578003041e-01,1.923981904983520508e-01,1.923886775970458929e-01,1.923791885375976674e-01,1.923696875572204479e-01,1.923601746559143177e-01,1.923506975173950306e-01,1.923411965370178112e-01,1.923317074775695856e-01,1.923222064971923939e-01,1.923127293586731068e-01,1.923032283782958873e-01,1.922937512397766002e-01,1.922842502593994085e-01,1.922747731208801214e-01,1.922652840614318959e-01,1.922558069229126088e-01,1.922463059425353893e-01,1.922368407249450684e-01,1.922273397445678766e-01,1.922178745269775280e-01,1.922083854675293024e-01,1.921988964080810491e-01,1.921894311904907282e-01,1.921799421310424749e-01,1.921704769134521540e-01,1.921609878540039007e-01,1.921515226364135798e-01,1.921420335769653265e-01,1.921325802803039440e-01,1.921230912208557184e-01,1.921136379241943359e-01,1.921041488647460826e-01,1.920946955680847279e-01,1.920852184295654408e-01,1.920757532119750921e-01,1.920662879943847712e-01,1.920568108558654841e-01,1.920473575592041016e-01,1.920378804206848145e-01,1.920284032821655273e-01,1.920189499855041448e-01,1.920094847679138239e-01,1.920000314712524414e-01,1.919905900955200251e-01,1.919811129570007380e-01,1.919716715812683216e-01,1.919622063636779730e-01,1.919527649879455566e-01,1.919432997703552357e-01,1.919338583946227916e-01,1.919243931770324707e-01,1.919149518013000544e-01,1.919054865837097057e-01,1.918960452079772894e-01,1.918865919113159069e-01,1.918771505355834905e-01,1.918676972389221080e-01,1.918582558631896917e-01,1.918488264083862416e-01,1.918393731117248591e-01,1.918299436569213812e-01,1.918204903602599987e-01,1.918110609054565485e-01,1.918016076087951660e-01,1.917921781539916881e-01,1.917827248573303334e-01,1.917732954025268555e-01,1.917638540267944391e-01,1.917544245719909612e-01
1.820665717124939076e-01,1.820580601692199652e-01,1.820495605468749889e-01,1.820410490036010742e-01,1.820325493812560980e-01,1.820240378379821833e-01,1.820155501365661732e-01,1.820070385932922308e-01,1.819985508918762207e-01,1.819900393486023060e-01,1.819815516471862682e-01,1.819730401039123535e-01,1.819645524024963434e-01,1.819560527801513672e-01,1.819475650787353571e-01,1.819390654563903809e-01,1.819305658340454046e-01,1.819220781326293945e-01,1.819135785102844183e-01,1.819050908088684082e-01,1.818965911865234319e-01,1.818881154060363881e-01,1.818796157836914118e-01,1.818711400032043402e-01,1.818626403808593639e-01,1.818541646003723200e-01,1.818456649780273438e-01,1.818371891975402721e-01,1.818287014961242620e-01,1.818202257156372181e-01,1.818117380142211803e-01,1.818032622337341364e-01,1.817947745323181263e-01,1.817862868309020885e-01,1.817778110504150446e-01,1.817693233489990345e-01,1.817608594894409291e-01,1.817523717880248912e-01,1.817439079284667858e-01,1.817354202270507757e-01,1.817269563674926702e-01,1.817184686660766602e-01,1.817100048065185547e-01,1.817015290260314830e-01,1.816930651664733776e-01,1.816845893859863337e-01,1.816761255264282282e-01,1.816676497459411566e-01,1.816591739654541127e-01,1.816507101058960072e-01,1.816422343254089355e-01,1.816337823867797963e-01,1.816253066062927246e-01,1.816168308258056530e-01,1.816083788871765137e-01,1.815999031066894420e-01,1.815914511680603027e-01,1.815829873085021973e-01,1.815745353698730580e-01,1.815660595893859863e-01,1.815576076507568470e-01,1.815491676330566462e-01,1.815406918525695745e-01,1.815322518348693737e-01,1.815237879753112682e-01,1.815153360366821289e-01,1.815068721771240234e-01,1.814984321594238226e-01,1.814899682998657171e-01,1.814815282821655162e-01,1.814730763435363770e-01,1.814646363258361761e-01,1.814561724662780706e-01,1.814477324485778698e-01,1.814392805099487305e-01,1.814308404922485296e-01,1.814223885536193903e-01,1.814139485359191895e-01,1.814055085182189886e-01,1.813970565795898493e-01
1.727037906646728405e-01,1.726961255073547474e-01,1.726884603500366266e-01,1.726808190345764105e-01,1.726731538772582897e-01,1.726655125617981013e-01,1.726578593254089466e-01,1.726502180099487305e-01,1.726425647735595759e-01,1.726349234580993597e-01,1.726272702217102051e-01,1.726196289062499889e-01,1.726119756698608343e-01,1.726043343544006459e-01,1.725966811180114635e-01,1.725890517234802135e-01,1.725813984870910589e-01,1.725737452507019043e-01,1.725661158561706543e-01,1.725584626197814997e-01,1.725508332252502497e-01,1.725431919097900335e-01,1.725355505943298451e-01,1.725279092788696289e-01,1.725202798843383789e-01,1.725126385688781627e-01,1.725050091743469127e-01,1.724973678588867243e-01,1.724897384643554743e-01,1.724820971488952581e-01,1.724744677543640081e-01,1.724668264389038197e-01,1.724591851234436035e-01,1.724515676498413197e-01,1.724439263343811035e-01,1.724362969398498535e-01,1.724286675453186035e-01,1.724210500717163197e-01,1.724134087562561035e-01,1.724057912826538197e-01,1.723981499671936035e-01,1.723905324935913197e-01,1.723829030990600697e-01,1.723752856254577581e-01,1.723676562309265081e-01,1.723600387573242243e-01,1.723524093627929743e-01,1.723447918891906627e-01,1.723371624946594127e-01,1.723295331001281627e-01,1.723219275474548451e-01,1.723142981529235951e-01,1.723066806793212835e-01,1.722990632057189997e-01,1.722914457321166881e-01,1.722838282585144043e-01,1.722762227058410589e-01,1.722685933113098089e-01,1.722609639167785589e-01,1.722533702850341797e-01,1.722457408905029297e-01,1.722381353378295843e-01,1.722305178642273005e-01,1.722229123115539551e-01,1.722152948379516713e-01,1.722076892852783259e-01,1.722000718116760143e-01,1.721924781799316351e-01,1.721848607063293513e-01,1.721772670745849720e-01,1.721696615219116266e-01,1.721620440483093151e-01,1.721544504165649359e-01,1.721468448638915905e-01,1.721392512321472112e-01,1.721316337585449274e-01,1.721240401268005482e-01,1.721164345741272028e-01,1.721088409423828236e-01,1.721012234687805120e-01
1.642568469047546442e-01,1.642499327659606989e-01,1.642430067062377874e-01,1.642360687255859375e-01,1.642291665077209584e-01,1.642222285270690807e-01,1.642153263092041016e-01,1.642083883285522516e-01,1.642014861106872448e-01,1.641945600509643610e-01,1.641876459121704157e-01,1.641807198524475042e-01,1.641738176345825251e-01,1.641668915748596136e-01,1.641599893569946345e-01,1.641530632972717230e-01,1.641461610794067438e-01,1.641392350196838323e-01,1.641323089599609486e-01,1.641254067420959417e-01,1.641184926033019964e-01,1.641115903854370173e-01,1.641046643257141058e-01,1.640977621078491266e-01,1.640908479690551813e-01,1.640839457511901744e-01,1.640770316123962291e-01,1.640701293945312500e-01,1.640632152557373047e-01,1.640563249588012640e-01,1.640494108200073187e-01,1.640425086021423395e-01,1.640355944633483942e-01,1.640286803245544489e-01,1.640217900276184082e-01,1.640148758888244629e-01,1.640079855918884222e-01,1.640010714530944769e-01,1.639941811561584362e-01,1.639872670173644909e-01,1.639803767204284779e-01,1.639734745025634710e-01,1.639665842056274303e-01,1.639596700668334850e-01,1.639527797698974720e-01,1.639458775520324652e-01,1.639389872550964244e-01,1.639320850372314453e-01,1.639251947402954046e-01,1.639182925224304255e-01,1.639113903045654186e-01,1.639045119285583441e-01,1.638976097106933649e-01,1.638907194137573242e-01,1.638838171958923451e-01,1.638769388198852428e-01,1.638700366020202637e-01,1.638631582260131891e-01,1.638562560081481823e-01,1.638493776321411077e-01,1.638424634933471624e-01,1.638355851173400879e-01,1.638287067413330134e-01,1.638218164443969727e-01,1.638149380683898981e-01,1.638080358505248912e-01,1.638011693954467829e-01,1.637942671775817760e-01,1.637874007225036677e-01,1.637804985046386608e-01,1.637736320495605524e-01,1.637667417526245117e-01,1.637598633766174372e-01,1.637529730796813965e-01,1.637461066246032604e-01,1.637392163276672474e-01,1.637323498725891113e-01,1.637254714965820368e-01,1.637185931205749623e-01,1.637117147445678600e-01
1.565976858139038197e-01,1.565913796424865667e-01,1.565850973129272461e-01,1.565788030624389593e-01,1.565724968910217341e-01,1.565662145614624134e-01,1.565599203109741266e-01,1.565536379814148060e-01,1.565473437309265192e-01,1.565410614013671986e-01,1.565347671508789118e-01,1.565284848213195912e-01,1.565221905708313044e-01,1.565159082412719838e-01,1.565096259117126354e-01,1.565033435821533148e-01,1.564970493316650280e-01,1.564907789230346735e-01,1.564844846725463867e-01,1.564781904220580999e-01,1.564719200134277455e-01,1.564656257629394587e-01,1.564593553543090765e-01,1.564530611038207897e-01,1.564467906951904352e-01,1.564404964447021484e-01,1.564342260360717662e-01,1.564279437065124456e-01,1.564216732978820912e-01,1.564153909683227428e-01,1.564091205596923884e-01,1.564028263092041016e-01,1.563965678215026855e-01,1.563902735710143987e-01,1.563839912414550781e-01,1.563777327537536621e-01,1.563714504241943415e-01,1.563651800155639593e-01,1.563588976860046387e-01,1.563526272773742565e-01,1.563463568687439020e-01,1.563400864601135198e-01,1.563338041305541992e-01,1.563275456428527832e-01,1.563212633132934626e-01,1.563150048255920466e-01,1.563087224960327259e-01,1.563024640083313099e-01,1.562961935997009277e-01,1.562899231910705455e-01,1.562836527824401911e-01,1.562773823738098089e-01,1.562711238861083929e-01,1.562648415565490723e-01,1.562585830688476562e-01,1.562523126602172741e-01,1.562460541725158580e-01,1.562397837638855036e-01,1.562335252761840876e-01,1.562272548675537054e-01,1.562210083007812556e-01,1.562147378921508734e-01,1.562084794044494573e-01,1.562022089958191029e-01,1.561959505081176869e-01,1.561896800994873047e-01,1.561834216117858887e-01,1.561771631240844727e-01,1.561709046363830566e-01,1.561646580696106068e-01,1.561583876609802246e-01,1.561521410942077748e-01,1.561458826065063588e-01,1.561396360397338812e-01,1.561333656311035267e-01,1.561271190643310491e-01,1.561208605766296331e-01,1.561146140098571833e-01,1.561083555221557673e-01,1.561021089553832897e-01
1.496209502220153809e-01,1.496152162551879772e-01,1.496094703674316351e-01,1.496037364006042591e-01,1.495979785919189509e-01,1.495922327041626088e-01,1.495864987373352051e-01,1.495807528495788630e-01,1.495750188827514593e-01,1.495692729949951172e-01,1.495635390281677135e-01,1.495577931404113714e-01,1.495520591735839955e-01,1.495463132858276256e-01,1.495405793190002497e-01,1.495348334312439076e-01,1.495290994644165039e-01,1.495233535766601618e-01,1.495176315307617243e-01,1.495118856430053822e-01,1.495061397552490123e-01,1.495004177093505748e-01,1.494946718215942327e-01,1.494889497756957952e-01,1.494832038879394531e-01,1.494774818420410156e-01,1.494717359542846735e-01,1.494660139083862360e-01,1.494602799415588323e-01,1.494545459747314564e-01,1.494488120079040527e-01,1.494430899620056152e-01,1.494373440742492731e-01,1.494316220283508356e-01,1.494258880615234319e-01,1.494201540946960560e-01,1.494144320487976185e-01,1.494086980819702148e-01,1.494029760360717773e-01,1.493972420692443737e-01,1.493915200233459362e-01,1.493857860565185602e-01,1.493800640106201227e-01,1.493743419647216852e-01,1.493686199188232477e-01,1.493628859519958441e-01,1.493571639060974066e-01,1.493514418601989691e-01,1.493457198143005316e-01,1.493399858474731556e-01,1.493342757225036566e-01,1.493285417556762806e-01,1.493228197097778431e-01,1.493171095848083441e-01,1.493113756179809681e-01,1.493056654930114691e-01,1.492999315261840931e-01,1.492942214012145941e-01,1.492884993553161566e-01,1.492827892303466852e-01,1.492770552635192816e-01,1.492713451385498102e-01,1.492656230926513727e-01,1.492599129676818737e-01,1.492541909217834362e-01,1.492484807968139648e-01,1.492427587509155273e-01,1.492370367050170898e-01,1.492313146591186523e-01,1.492256045341491810e-01,1.492198944091796819e-01,1.492141842842102106e-01,1.492084622383117731e-01,1.492027521133422741e-01,1.491970419883728027e-01,1.491913318634033314e-01,1.491856098175048939e-01,1.491799116134643610e-01,1.491742134094238281e-01,1.491684913635253906e-01
1.432393789291381836e-01,1.432341098785400446e-01,1.432288527488708441e-01,1.432235836982727051e-01,1.432183265686035045e-01,1.432130575180053655e-01,1.432077884674072266e-01,1.432025313377380260e-01,1.431972622871398870e-01,1.431920051574707142e-01,1.431867361068725475e-01,1.431814908981323131e-01,1.431762218475341741e-01,1.431709647178650013e-01,1.431656956672668346e-01,1.431604504585266002e-01,1.431551814079284612e-01,1.431499242782592884e-01,1.431446671485900879e-01,1.431394100189208873e-01,1.431341528892517145e-01,1.431288838386535756e-01,1.431236386299133412e-01,1.431183695793151744e-01,1.431131243705749401e-01,1.431078672409057673e-01,1.431026101112365667e-01,1.430973529815673939e-01,1.430921077728271595e-01,1.430868506431579590e-01,1.430816054344177246e-01,1.430763363838195856e-01,1.430710911750793513e-01,1.430658340454101507e-01,1.430605888366699163e-01,1.430553317070007435e-01,1.430500745773315430e-01,1.430448293685913086e-01,1.430395722389221080e-01,1.430343270301818737e-01,1.430290818214416393e-01,1.430238366127014049e-01,1.430185794830322321e-01,1.430133342742919977e-01,1.430080771446227972e-01,1.430028438568115290e-01,1.429975867271423284e-01,1.429923415184020941e-01,1.429870963096618597e-01,1.429818511009216253e-01,1.429766058921813909e-01,1.429713606834411566e-01,1.429661154747009222e-01,1.429608583450317494e-01,1.429556250572204534e-01,1.429503798484802191e-01,1.429451346397399847e-01,1.429398894309997503e-01,1.429346561431884821e-01,1.429293990135192816e-01,1.429241657257080134e-01,1.429189205169677790e-01,1.429136872291564830e-01,1.429084420204162487e-01,1.429032087326049805e-01,1.428979635238647461e-01,1.428927302360534779e-01,1.428874850273132435e-01,1.428822398185730091e-01,1.428770065307617132e-01,1.428717613220214788e-01,1.428665161132812444e-01,1.428612828254699763e-01,1.428560376167297419e-01,1.428508162498474121e-01,1.428455710411071777e-01,1.428403377532959095e-01,1.428350925445556752e-01,1.428298711776733454e-01,1.428246259689331110e-01
1.373798966407775990e-01,1.373750567436218262e-01,1.373702168464660534e-01,1.373653769493103083e-01,1.373605251312255970e-01,1.373556971549987904e-01,1.373508453369140514e-01,1.373459935188293402e-01,1.373411655426025335e-01,1.373363137245178223e-01,1.373314857482910156e-01,1.373266458511352428e-01,1.373218059539794977e-01,1.373169660568237249e-01,1.373121261596679799e-01,1.373072862625122070e-01,1.373024582862854004e-01,1.372976064682006891e-01,1.372927784919738825e-01,1.372879385948181097e-01,1.372831106185913030e-01,1.372782707214355580e-01,1.372734308242797852e-01,1.372685909271240123e-01,1.372637510299682673e-01,1.372589230537414606e-01,1.372540831565856878e-01,1.372492551803588812e-01,1.372444152832031361e-01,1.372395873069763295e-01,1.372347593307495228e-01,1.372299313545227162e-01,1.372250914573669434e-01,1.372202634811401367e-01,1.372154235839843639e-01,1.372105956077575573e-01,1.372057676315307506e-01,1.372009277343750056e-01,1.371960997581481989e-01,1.371912717819213923e-01,1.371864438056945856e-01,1.371816039085388128e-01,1.371767878532409723e-01,1.371719479560851995e-01,1.371671319007873591e-01,1.371622920036315862e-01,1.371574759483337458e-01,1.371526479721069391e-01,1.371478199958801325e-01,1.371429920196533259e-01,1.371381640434265192e-01,1.371333360671997126e-01,1.371285200119018444e-01,1.371236920356750377e-01,1.371188521385192927e-01,1.371140360832214244e-01,1.371092081069946178e-01,1.371043920516967773e-01,1.370995640754699707e-01,1.370947480201721302e-01,1.370899200439453236e-01,1.370851039886474554e-01,1.370802760124206487e-01,1.370754599571228083e-01,1.370706319808960016e-01,1.370658159255981334e-01,1.370609879493713268e-01,1.370561718940734863e-01,1.370513439178466797e-01,1.370465278625488392e-01,1.370417118072509710e-01,1.370368838310241644e-01,1.370320677757263239e-01,1.370272517204284557e-01,1.370224356651306152e-01,1.370176076889038086e-01,1.370127916336059681e-01,1.370079755783080999e-01,1.370031595230102595e-01,1.369983434677123912e-01
1.319809675216674916e-01,1.319764971733093373e-01,1.319720268249511830e-01,1.319675564765930287e-01,1.319630980491638128e-01,1.319586157798767201e-01,1.319541573524475042e-01,1.319496870040893499e-01,1.319452166557311956e-01,1.319407463073730413e-01,1.319362759590148870e-01,1.319318175315856989e-01,1.319273471832275446e-01,1.319228887557983287e-01,1.319184184074401744e-01,1.319139599800109863e-01,1.319094896316528320e-01,1.319050192832946777e-01,1.319005608558654896e-01,1.318961024284362737e-01,1.318916320800781194e-01,1.318871736526489313e-01,1.318827033042907770e-01,1.318782329559326227e-01,1.318737745285034069e-01,1.318693041801452526e-01,1.318648457527160645e-01,1.318603873252868763e-01,1.318559288978576605e-01,1.318514585494995062e-01,1.318470120429992565e-01,1.318425416946411022e-01,1.318380832672119141e-01,1.318336248397827259e-01,1.318291664123535101e-01,1.318247079849243220e-01,1.318202495574951061e-01,1.318157792091369518e-01,1.318113207817077637e-01,1.318068742752075140e-01,1.318024039268493597e-01,1.317979574203491100e-01,1.317934870719909557e-01,1.317890405654907338e-01,1.317845821380615179e-01,1.317801237106323298e-01,1.317756652832031139e-01,1.317712187767028920e-01,1.317667603492736761e-01,1.317623019218444880e-01,1.317578434944152721e-01,1.317533969879150502e-01,1.317489385604858343e-01,1.317444920539855846e-01,1.317400336265563965e-01,1.317355751991272084e-01,1.317311167716979925e-01,1.317266702651977428e-01,1.317222237586975209e-01,1.317177653312683050e-01,1.317133188247680553e-01,1.317088603973388672e-01,1.317044138908386175e-01,1.316999554634094294e-01,1.316955089569091797e-01,1.316910505294799916e-01,1.316866040229797419e-01,1.316821575164794922e-01,1.316777110099792425e-01,1.316732525825500544e-01,1.316688060760498047e-01,1.316643595695495550e-01,1.316599011421203669e-01,1.316554665565490834e-01,1.316510081291198675e-01,1.316465735435485840e-01,1.316421151161193959e-01,1.316376805305480846e-01,1.316332221031188965e-01,1.316287755966186468e-01
1.269903302192688099e-01,1.269861936569213756e-01,1.269820570945739691e-01,1.269779205322265625e-01,1.269737839698791559e-01,1.269696474075317494e-01,1.269655108451843151e-01,1.269613742828369085e-01,1.269572377204895020e-01,1.269531011581420954e-01,1.269489645957946888e-01,1.269448280334472545e-01,1.269406914710998480e-01,1.269365549087524414e-01,1.269324302673339733e-01,1.269282817840576283e-01,1.269241571426391602e-01,1.269200205802917536e-01,1.269158959388732855e-01,1.269117474555969127e-01,1.269076228141784723e-01,1.269034862518310658e-01,1.268993616104125977e-01,1.268952250480651911e-01,1.268910884857177845e-01,1.268869638442993164e-01,1.268828272819519098e-01,1.268787026405334417e-01,1.268745660781860352e-01,1.268704414367675670e-01,1.268663048744201605e-01,1.268621802330017201e-01,1.268580436706542858e-01,1.268539190292358454e-01,1.268497824668884388e-01,1.268456578254699707e-01,1.268415331840515026e-01,1.268374085426330622e-01,1.268332719802856556e-01,1.268291354179382213e-01,1.268250107765197809e-01,1.268208861351013128e-01,1.268167614936828724e-01,1.268126368522644043e-01,1.268085122108459362e-01,1.268043756484985296e-01,1.268002629280090277e-01,1.267961263656616211e-01,1.267920017242431530e-01,1.267878770828247126e-01,1.267837524414062444e-01,1.267796277999878041e-01,1.267755150794983021e-01,1.267713785171508678e-01,1.267672657966613659e-01,1.267631292343139593e-01,1.267590045928955189e-01,1.267548918724060170e-01,1.267507553100585826e-01,1.267466425895690807e-01,1.267425179481506403e-01,1.267384052276611384e-01,1.267342686653137318e-01,1.267301559448242299e-01,1.267260313034057617e-01,1.267219185829162598e-01,1.267177820205688532e-01,1.267136693000793513e-01,1.267095446586608831e-01,1.267054319381713812e-01,1.267013072967529408e-01,1.266971826553344727e-01,1.266930699348449707e-01,1.266889452934265026e-01,1.266848325729370006e-01,1.266807079315185602e-01,1.266765952110290583e-01,1.266724824905395563e-01,1.266683697700500544e-01,1.266642451286315862e-01
1.223633766174316434e-01,1.223595380783080999e-01,1.223556995391845703e-01,1.223518490791320745e-01,1.223480105400085449e-01,1.223441720008850153e-01,1.223403334617614718e-01,1.223364949226379422e-01,1.223326563835143987e-01,1.223288059234619168e-01,1.223249673843383734e-01,1.223211288452148438e-01,1.223172903060913141e-01,1.223134517669677707e-01,1.223096132278442411e-01,1.223057746887206976e-01,1.223019361495971680e-01,1.222980976104736384e-01,1.222942590713500949e-01,1.222904205322265653e-01,1.222865819931030218e-01,1.222827434539794922e-01,1.222789049148559626e-01,1.222750782966613714e-01,1.222712397575378418e-01,1.222673892974853460e-01,1.222635626792907687e-01,1.222597241401672391e-01,1.222558975219726618e-01,1.222520470619201660e-01,1.222482204437255887e-01,1.222443819046020452e-01,1.222405552864074679e-01,1.222367167472839383e-01,1.222328901290893610e-01,1.222290515899658175e-01,1.222252130508422879e-01,1.222213745117187444e-01,1.222175478935241671e-01,1.222137093544006375e-01,1.222098827362060602e-01,1.222060441970825168e-01,1.222022175788879395e-01,1.221983909606933622e-01,1.221945524215698187e-01,1.221907258033752414e-01,1.221868872642517118e-01,1.221830606460571345e-01,1.221792221069335910e-01,1.221753954887390137e-01,1.221715688705444364e-01,1.221677422523498591e-01,1.221639037132263156e-01,1.221600770950317383e-01,1.221562504768371610e-01,1.221524238586425837e-01,1.221485853195190402e-01,1.221447587013244629e-01,1.221409320831298856e-01,1.221371054649353083e-01,1.221332788467407171e-01,1.221294403076171875e-01,1.221256256103515625e-01,1.221217870712280329e-01,1.221179723739624079e-01,1.221141338348388644e-01,1.221103191375732394e-01,1.221064805984497098e-01,1.221026659011840848e-01,1.220988392829895075e-01,1.220950126647949163e-01,1.220911860466003390e-01,1.220873594284057617e-01,1.220835328102111844e-01,1.220797061920166071e-01,1.220758914947509821e-01,1.220720529556274386e-01,1.220682382583618136e-01,1.220644116401672363e-01,1.220605969429016113e-01
1.180617332458496066e-01,1.180581569671630832e-01,1.180545806884765597e-01,1.180510044097900363e-01,1.180474281311035128e-01,1.180438637733459417e-01,1.180402755737304660e-01,1.180367112159728948e-01,1.180331230163574191e-01,1.180295586585998480e-01,1.180259823799133245e-01,1.180224061012268011e-01,1.180188298225402777e-01,1.180152535438537542e-01,1.180116891860961970e-01,1.180081009864807073e-01,1.180045366287231501e-01,1.180009603500366266e-01,1.179973959922790555e-01,1.179938197135925321e-01,1.179902434349060086e-01,1.179866671562194852e-01,1.179831027984619141e-01,1.179795265197753906e-01,1.179759621620178195e-01,1.179723858833312961e-01,1.179688096046447726e-01,1.179652452468872015e-01,1.179616689682006780e-01,1.179581046104431208e-01,1.179545283317565973e-01,1.179509639739990262e-01,1.179473876953125028e-01,1.179438233375549316e-01,1.179402470588684082e-01,1.179366827011108371e-01,1.179331183433532659e-01,1.179295539855957087e-01,1.179259777069091852e-01,1.179224133491516141e-01,1.179188370704650907e-01,1.179152727127075195e-01,1.179117083549499484e-01,1.179081320762634250e-01,1.179045677185058538e-01,1.179010033607482966e-01,1.178974390029907254e-01,1.178938627243042020e-01,1.178902983665466309e-01,1.178867340087890597e-01,1.178831696510314886e-01,1.178796052932739313e-01,1.178760409355163602e-01,1.178724765777587891e-01,1.178689122200012179e-01,1.178653359413146945e-01,1.178617835044860895e-01,1.178582072257995661e-01,1.178546428680419950e-01,1.178510785102844238e-01,1.178475141525268527e-01,1.178439617156982477e-01,1.178403854370117243e-01,1.178368330001831055e-01,1.178332686424255343e-01,1.178297042846679632e-01,1.178261399269104059e-01,1.178225755691528348e-01,1.178190112113952637e-01,1.178154587745666448e-01,1.178118944168090876e-01,1.178083300590515164e-01,1.178047657012939453e-01,1.178012013435363742e-01,1.177976489067077692e-01,1.177940845489501981e-01,1.177905201911926270e-01,1.177869558334350558e-01,1.177834033966064509e-01,1.177798390388488797e-01
1.140522718429565485e-01,1.140489339828491266e-01,1.140455961227417048e-01,1.140422582626342829e-01,1.140389204025268610e-01,1.140355825424194391e-01,1.140322566032409696e-01,1.140289068222045954e-01,1.140255808830261258e-01,1.140222430229187039e-01,1.140189051628112821e-01,1.140155673027038602e-01,1.140122294425964383e-01,1.140088915824890164e-01,1.140055537223815946e-01,1.140022277832031250e-01,1.139988899230957031e-01,1.139955520629882812e-01,1.139922142028808594e-01,1.139888882637023898e-01,1.139855504035949679e-01,1.139822244644164984e-01,1.139788866043090765e-01,1.139755487442016546e-01,1.139722108840942327e-01,1.139688849449157770e-01,1.139655470848083552e-01,1.139622092247009333e-01,1.139588832855224637e-01,1.139555454254150418e-01,1.139522194862365723e-01,1.139488816261291504e-01,1.139455556869506808e-01,1.139422178268432589e-01,1.139388918876647894e-01,1.139355540275573675e-01,1.139322280883789118e-01,1.139288902282714899e-01,1.139255642890930204e-01,1.139222383499145508e-01,1.139189124107360812e-01,1.139155745506286593e-01,1.139122366905212375e-01,1.139089107513427679e-01,1.139055848121643122e-01,1.139022588729858426e-01,1.138989210128784207e-01,1.138955950736999512e-01,1.138922691345214816e-01,1.138889431953430120e-01,1.138856053352355902e-01,1.138822913169860868e-01,1.138789534568786649e-01,1.138756275177001953e-01,1.138723015785217257e-01,1.138689756393432562e-01,1.138656497001648005e-01,1.138623237609863309e-01,1.138589859008789090e-01,1.138556599617004395e-01,1.138523340225219699e-01,1.138490080833435003e-01,1.138456821441650446e-01,1.138423562049865750e-01,1.138390302658081055e-01,1.138357043266296359e-01,1.138323903083801325e-01,1.138290524482727106e-01,1.138257384300231934e-01,1.138224124908447238e-01,1.138190865516662542e-01,1.138157606124877985e-01,1.138124346733093289e-01,1.138091087341308594e-01,1.138057827949523898e-01,1.138024687767028864e-01,1.137991428375244168e-01,1.137958168983459473e-01,1.137924909591674777e-01,1.137891769409179743e-01
