6.196187973022461160e-01,6.353370189666748269e-01,6.518734931945801003e-01,6.692937850952148660e-01,6.876706600189208540e-01,7.070851802825928178e-01,7.276278495788573997e-01,7.493998050689697488e-01,7.725149154663085715e-01,7.971013545989990012e-01,8.233041763305664062e-01,8.512883186340332031e-01,1.000000000000000000e+00,1.000000000000000000e+00,1.000000000000000000e+00,1.000000000000000000e+00,1.000000000000000000e+00,1.000000000000000000e+00,1.000000000000000000e+00,1.000000000000000000e+00,1.000000000000000000e+00,1.000000000000000000e+00,1.000000000000000000e+00,1.000000000000000000e+00,1.000000000000000000e+00,1.000000000000000000e+00,1.000000000000000000e+00,1.000000000000000000e+00,1.000000000000000000e+00,1.000000000000000000e+00,1.000000000000000000e+00,1.000000000000000000e+00,1.000000000000000000e+00,1.000000000000000000e+00,1.000000000000000000e+00,1.000000000000000000e+00,1.000000000000000000e+00,1.000000000000000000e+00,1.000000000000000000e+00,1.000000000000000000e+00,1.000000000000000000e+00,1.000000000000000000e+00,1.000000000000000000e+00,1.000000000000000000e+00,1.000000000000000000e+00,1.000000000000000000e+00,1.000000000000000000e+00,1.000000000000000000e+00,1.000000000000000000e+00,1.000000000000000000e+00,1.000000000000000000e+00,1.000000000000000000e+00,1.000000000000000000e+00,1.000000000000000000e+00,1.000000000000000000e+00,1.000000000000000000e+00,1.000000000000000000e+00,4.910041809082031361e-01,4.866437911987304688e-01,4.869425296783447266e-01,1.000000000000000000e+00,1.000000000000000000e+00,1.000000000000000000e+00,1.000000000000000000e+00,1.000000000000000000e+00,1.000000000000000000e+00,1.000000000000000000e+00,1.000000000000000000e+00,1.000000000000000000e+00,1.000000000000000000e+00,1.000000000000000000e+00,1.000000000000000000e+00,1.000000000000000000e+00,1.000000000000000000e+00,8.535208702087402344e-01,8.288489341735839622e-01,8.055631637573241743e-01,7.835476398468017578e-01,7.626934051513671875e-01,7.429204940795898215e-01
6.196031093597411665e-01,6.353204727172852007e-01,6.518560886383056863e-01,6.692754268646240456e-01,6.876512527465820090e-01,7.070647239685058372e-01,7.276062011718750222e-01,7.493768692016601340e-01,7.724904537200927290e-01,7.970753192901611772e-01,8.232764244079590066e-01,8.512586593627929910e-01,8.812099456787109153e-01,1.000000000000000000e+00,1.000000000000000000e+00,1.000000000000000000e+00,1.000000000000000000e+00,1.000000000000000000e+00,1.000000000000000000e+00,1.000000000000000000e+00,1.000000000000000000e+00,1.000000000000000000e+00,1.000000000000000000e+00,1.000000000000000000e+00,1.000000000000000000e+00,1.000000000000000000e+00,1.000000000000000000e+00,1.000000000000000000e+00,1.000000000000000000e+00,1.000000000000000000e+00,1.000000000000000000e+00,1.000000000000000000e+00,1.000000000000000000e+00,1.000000000000000000e+00,1.000000000000000000e+00,1.000000000000000000e+00,1.000000000000000000e+00,1.000000000000000000e+00,1.000000000000000000e+00,1.000000000000000000e+00,1.000000000000000000e+00,1.000000000000000000e+00,1.000000000000000000e+00,1.000000000000000000e+00,1.000000000000000000e+00,1.000000000000000000e+00,1.000000000000000000e+00,1.000000000000000000e+00,1.000000000000000000e+00,1.000000000000000000e+00,1.000000000000000000e+00,1.000000000000000000e+00,1.000000000000000000e+00,1.000000000000000000e+00,1.000000000000000000e+00,1.000000000000000000e+00,5.055859565734863725e-01,4.929855823516845481e-01,4.873394489288330189e-01,4.862305164337158425e-01,1.000000000000000000e+00,1.000000000000000000e+00,1.000000000000000000e+00,1.000000000000000000e+00,1.000000000000000000e+00,1.000000000000000000e+00,1.000000000000000000e+00,1.000000000000000000e+00,1.000000000000000000e+00,1.000000000000000000e+00,1.000000000000000000e+00,1.000000000000000000e+00,1.000000000000000000e+00,8.797485351562499556e-01,8.535602569580078569e-01,8.288859367370605691e-01,8.055937767028809038e-01,7.835659980773925781e-01,7.627108097076416016e-01,7.429370403289794478e-01
6.195873737335204634e-01,6.353039264678954634e-01,6.518386840820312722e-01,6.692571163177489790e-01,6.876318931579590288e-01,7.070442199707031028e-01,7.275844573974609153e-01,7.493538379669189009e-01,7.724659919738769975e-01,7.970492839813232422e-01,8.232486724853516069e-01,8.512290000915527788e-01,8.811781883239746538e-01,9.133116722106933150e-01,1.000000000000000000e+00,1.000000000000000000e+00,1.000000000000000000e+00,1.000000000000000000e+00,1.000000000000000000e+00,1.000000000000000000e+00,1.000000000000000000e+00,1.000000000000000000e+00,1.000000000000000000e+00,1.000000000000000000e+00,1.000000000000000000e+00,1.000000000000000000e+00,1.000000000000000000e+00,1.000000000000000000e+00,1.000000000000000000e+00,1.000000000000000000e+00,1.000000000000000000e+00,1.000000000000000000e+00,1.000000000000000000e+00,1.000000000000000000e+00,1.000000000000000000e+00,1.000000000000000000e+00,1.000000000000000000e+00,1.000000000000000000e+00,1.000000000000000000e+00,1.000000000000000000e+00,1.000000000000000000e+00,1.000000000000000000e+00,1.000000000000000000e+00,1.000000000000000000e+00,1.000000000000000000e+00,1.000000000000000000e+00,1.000000000000000000e+00,1.000000000000000000e+00,1.000000000000000000e+00,1.000000000000000000e+00,1.000000000000000000e+00,1.000000000000000000e+00,1.000000000000000000e+00,1.000000000000000000e+00,1.000000000000000000e+00,1.000000000000000000e+00,1.000000000000000000e+00,4.975810050964355469e-01,4.896166324615478516e-01,4.890900135040283092e-01,1.000000000000000000e+00,1.000000000000000000e+00,1.000000000000000000e+00,1.000000000000000000e+00,1.000000000000000000e+00,1.000000000000000000e+00,1.000000000000000000e+00,1.000000000000000000e+00,1.000000000000000000e+00,1.000000000000000000e+00,1.000000000000000000e+00,1.000000000000000000e+00,9.076391220092773215e-01,8.797903060913085938e-01,8.535995483398437500e-01,8.289163589477539507e-01,8.056131362915038840e-01,7.835844039916992632e-01,7.627283096313476340e-01,7.429535865783691850e-01
6.195716381072997603e-01,6.352874279022217019e-01,6.518212795257568581e-01,6.692387580871581587e-01,6.876125812530518022e-01,7.070237636566162331e-01,7.275628089904785378e-01,7.493308067321777788e-01,7.724415302276611550e-01,7.970232486724853072e-01,8.232209205627440962e-01,8.511993408203124556e-01,8.811463356018066628e-01,9.132775306701660378e-01,9.478405952453613503e-01,1.000000000000000000e+00,1.000000000000000000e+00,1.000000000000000000e+00,1.000000000000000000e+00,1.000000000000000000e+00,1.000000000000000000e+00,1.000000000000000000e+00,1.000000000000000000e+00,1.000000000000000000e+00,1.000000000000000000e+00,1.000000000000000000e+00,1.000000000000000000e+00,1.000000000000000000e+00,1.000000000000000000e+00,1.000000000000000000e+00,1.000000000000000000e+00,1.000000000000000000e+00,1.000000000000000000e+00,1.000000000000000000e+00,1.000000000000000000e+00,1.000000000000000000e+00,1.000000000000000000e+00,1.000000000000000000e+00,1.000000000000000000e+00,1.000000000000000000e+00,1.000000000000000000e+00,1.000000000000000000e+00,1.000000000000000000e+00,1.000000000000000000e+00,1.000000000000000000e+00,1.000000000000000000e+00,1.000000000000000000e+00,1.000000000000000000e+00,1.000000000000000000e+00,1.000000000000000000e+00,1.000000000000000000e+00,1.000000000000000000e+00,1.000000000000000000e+00,1.000000000000000000e+00,1.000000000000000000e+00,1.000000000000000000e+00,1.000000000000000000e+00,5.043658256530761941e-01,5.005309581756591797e-01,1.000000000000000000e+00,1.000000000000000000e+00,1.000000000000000000e+00,1.000000000000000000e+00,1.000000000000000000e+00,1.000000000000000000e+00,1.000000000000000000e+00,1.000000000000000000e+00,1.000000000000000000e+00,1.000000000000000000e+00,1.000000000000000000e+00,1.000000000000000000e+00,9.373560905456542747e-01,9.076835632324218306e-01,8.798320770263672319e-01,8.536296844482421653e-01,8.289369583129883035e-01,8.056325912475585938e-01,7.836027622222900835e-01,7.627457618713379128e-01,7.429700851440429465e-01
6.195563793182372603e-01,6.352709293365478294e-01,6.518038749694824441e-01,6.692203998565673384e-01,6.875932216644287109e-01,7.070032596588134988e-01,7.275411128997802956e-01,7.493078231811522993e-01,7.724171638488769309e-01,7.969972133636474831e-01,8.231930732727050781e-01,8.511695861816406250e-01,8.811145782470702903e-01,9.132432937622070312e-01,9.478037834167480913e-01,9.850830078125000222e-01,1.000000000000000000e+00,1.000000000000000000e+00,1.000000000000000000e+00,1.000000000000000000e+00,1.000000000000000000e+00,1.000000000000000000e+00,1.000000000000000000e+00,1.000000000000000000e+00,1.000000000000000000e+00,1.000000000000000000e+00,1.000000000000000000e+00,1.000000000000000000e+00,1.000000000000000000e+00,1.000000000000000000e+00,1.000000000000000000e+00,1.000000000000000000e+00,1.000000000000000000e+00,1.000000000000000000e+00,1.000000000000000000e+00,1.000000000000000000e+00,1.000000000000000000e+00,1.000000000000000000e+00,1.000000000000000000e+00,1.000000000000000000e+00,1.000000000000000000e+00,1.000000000000000000e+00,1.000000000000000000e+00,1.000000000000000000e+00,1.000000000000000000e+00,1.000000000000000000e+00,1.000000000000000000e+00,1.000000000000000000e+00,1.000000000000000000e+00,1.000000000000000000e+00,1.000000000000000000e+00,1.000000000000000000e+00,1.000000000000000000e+00,1.000000000000000000e+00,1.000000000000000000e+00,4.994712352752685436e-01,4.911146163940429688e-01,4.875055313110351340e-01,5.024722576141357200e-01,5.075006008148192915e-01,5.011402130126952903e-01,5.025142669677734597e-01,5.027442455291748491e-01,1.000000000000000000e+00,1.000000000000000000e+00,1.000000000000000000e+00,1.000000000000000000e+00,1.000000000000000000e+00,1.000000000000000000e+00,1.000000000000000000e+00,9.690848350524902122e-01,9.374035835266113503e-01,9.077280998229980691e-01,8.798620223999022993e-01,8.536516189575195090e-01,8.289575576782226562e-01,8.056521415710449219e-01,7.836212635040282759e-01,7.627631664276123269e-01,7.429867267608643022e-01
6.195432186126709206e-01,6.352548122406005415e-01,6.517864704132080300e-01,6.692020416259765181e-01,6.875738620758056197e-01,7.069828510284423828e-01,7.275194168090820535e-01,7.492847919464111772e-01,7.723927497863769531e-01,7.969711780548095481e-01,8.231654167175292969e-01,8.511399269104004128e-01,8.810828208923340288e-01,9.132091522216796431e-01,9.477669715881347212e-01,9.850432395935058150e-01,1.000000000000000000e+00,1.000000000000000000e+00,1.000000000000000000e+00,1.000000000000000000e+00,1.000000000000000000e+00,1.000000000000000000e+00,1.000000000000000000e+00,1.000000000000000000e+00,1.000000000000000000e+00,1.000000000000000000e+00,1.000000000000000000e+00,1.000000000000000000e+00,1.000000000000000000e+00,1.000000000000000000e+00,1.000000000000000000e+00,1.000000000000000000e+00,1.000000000000000000e+00,1.000000000000000000e+00,1.000000000000000000e+00,1.000000000000000000e+00,1.000000000000000000e+00,1.000000000000000000e+00,1.000000000000000000e+00,1.000000000000000000e+00,1.000000000000000000e+00,1.000000000000000000e+00,1.000000000000000000e+00,1.000000000000000000e+00,1.000000000000000000e+00,1.000000000000000000e+00,1.000000000000000000e+00,1.000000000000000000e+00,1.000000000000000000e+00,1.000000000000000000e+00,1.000000000000000000e+00,1.000000000000000000e+00,1.000000000000000000e+00,4.926558971405029519e-01,4.922466278076171875e-01,4.902496814727783092e-01,4.877343654632568248e-01,4.870872974395751842e-01,4.859607219696044922e-01,4.866127490997314564e-01,4.887178897857665794e-01,4.915957927703857311e-01,4.987103939056396484e-01,5.001275062561034712e-01,1.000000000000000000e+00,1.000000000000000000e+00,1.000000000000000000e+00,1.000000000000000000e+00,1.000000000000000000e+00,1.000000000000000000e+00,9.691355705261230913e-01,9.374509811401366965e-01,9.077575683593750444e-01,8.798851966857910156e-01,8.536733627319336160e-01,8.289781570434570090e-01,8.056715011596680132e-01,7.836396694183349609e-01,7.627806186676024947e-01,7.430032253265380637e-01
6.195300579071044700e-01,6.352409839630126509e-01,6.517695426940918191e-01,6.691836833953856978e-01,6.875544548034667747e-01,7.069623470306396484e-01,7.274977207183838113e-01,7.492618083953856978e-01,7.723682880401611106e-01,7.969451427459717241e-01,8.231376647949218972e-01,8.511102676391602007e-01,8.810509681701660378e-01,9.131750106811523660e-01,9.477302551269530806e-01,9.850035667419433372e-01,1.000000000000000000e+00,1.000000000000000000e+00,1.000000000000000000e+00,1.000000000000000000e+00,1.000000000000000000e+00,1.000000000000000000e+00,1.000000000000000000e+00,1.000000000000000000e+00,1.000000000000000000e+00,1.000000000000000000e+00,1.000000000000000000e+00,1.000000000000000000e+00,1.000000000000000000e+00,1.000000000000000000e+00,1.000000000000000000e+00,1.000000000000000000e+00,1.000000000000000000e+00,1.000000000000000000e+00,1.000000000000000000e+00,1.000000000000000000e+00,1.000000000000000000e+00,1.000000000000000000e+00,1.000000000000000000e+00,1.000000000000000000e+00,1.000000000000000000e+00,1.000000000000000000e+00,1.000000000000000000e+00,1.000000000000000000e+00,1.000000000000000000e+00,1.000000000000000000e+00,1.000000000000000000e+00,1.000000000000000000e+00,1.000000000000000000e+00,1.000000000000000000e+00,1.000000000000000000e+00,1.000000000000000000e+00,5.019639015197754350e-01,4.930204391479492410e-01,4.936014652252197488e-01,4.889601230621337669e-01,4.838333129882812500e-01,4.809344768524169700e-01,4.801024436950683816e-01,4.811222553253173828e-01,4.819263935089111439e-01,4.862730503082275391e-01,5.019262790679931419e-01,5.031485080718993697e-01,1.000000000000000000e+00,1.000000000000000000e+00,1.000000000000000000e+00,1.000000000000000000e+00,1.000000000000000000e+00,1.000000000000000000e+00,9.691862106323242410e-01,9.374799728393554688e-01,9.077822685241698775e-01,8.799083709716797319e-01,8.536952972412109597e-01,8.289987564086913618e-01,8.056909561157226118e-01,7.836580753326416460e-01,7.627980232238769087e-01,7.430197715759276900e-01
6.195168972015381303e-01,6.352271556854247603e-01,6.517549037933350053e-01,6.691658020019530806e-01,6.875350952148437944e-01,7.069418907165527788e-01,7.274760246276855691e-01,7.492388248443603294e-01,7.723438262939452681e-01,7.969192028045654075e-01,8.231099128723144975e-01,8.510806083679198775e-01,8.810192108154296653e-01,9.131407737731933594e-01,9.476934432983398215e-01,9.849637985229492410e-01,1.000000000000000000e+00,1.000000000000000000e+00,1.000000000000000000e+00,1.000000000000000000e+00,1.000000000000000000e+00,1.000000000000000000e+00,1.000000000000000000e+00,1.000000000000000000e+00,1.000000000000000000e+00,1.000000000000000000e+00,1.000000000000000000e+00,1.000000000000000000e+00,1.000000000000000000e+00,1.000000000000000000e+00,1.000000000000000000e+00,1.000000000000000000e+00,1.000000000000000000e+00,1.000000000000000000e+00,1.000000000000000000e+00,1.000000000000000000e+00,1.000000000000000000e+00,1.000000000000000000e+00,1.000000000000000000e+00,1.000000000000000000e+00,1.000000000000000000e+00,1.000000000000000000e+00,1.000000000000000000e+00,1.000000000000000000e+00,1.000000000000000000e+00,1.000000000000000000e+00,1.000000000000000000e+00,1.000000000000000000e+00,1.000000000000000000e+00,1.000000000000000000e+00,1.000000000000000000e+00,1.000000000000000000e+00,5.049151420593261941e-01,4.961215019226073997e-01,4.965894699096679576e-01,4.900965213775634877e-01,4.835924625396728627e-01,4.813487052917480580e-01,4.799517154693603294e-01,4.808151245117187611e-01,4.814150333404541016e-01,4.859527111053466575e-01,5.061737060546874778e-01,5.065659523010254128e-01,1.000000000000000000e+00,1.000000000000000000e+00,1.000000000000000000e+00,1.000000000000000000e+00,1.000000000000000000e+00,1.000000000000000000e+00,9.692145347595214622e-01,9.375062942504882590e-01,9.078069686889648215e-01,8.799316406249999556e-01,8.537171363830566850e-01,8.290193557739258257e-01,8.057105064392089400e-01,7.836764335632324663e-01,7.628155708312988059e-01,7.430363178253174272e-01
6.195037364959716797e-01,6.352133274078368697e-01,6.517403602600098100e-01,6.691504001617432085e-01,6.875161647796630415e-01,7.069213867187500444e-01,7.274544239044189453e-01,7.492157936096190962e-01,7.723194122314452903e-01,7.968932151794433372e-01,8.230820655822753684e-01,8.510509490966796653e-01,8.809873580932616743e-01,9.131067276000977007e-01,9.476566314697265625e-01,9.849240303039550337e-01,1.000000000000000000e+00,1.000000000000000000e+00,1.000000000000000000e+00,1.000000000000000000e+00,1.000000000000000000e+00,1.000000000000000000e+00,1.000000000000000000e+00,1.000000000000000000e+00,1.000000000000000000e+00,1.000000000000000000e+00,1.000000000000000000e+00,1.000000000000000000e+00,1.000000000000000000e+00,1.000000000000000000e+00,1.000000000000000000e+00,1.000000000000000000e+00,1.000000000000000000e+00,1.000000000000000000e+00,1.000000000000000000e+00,1.000000000000000000e+00,1.000000000000000000e+00,1.000000000000000000e+00,1.000000000000000000e+00,1.000000000000000000e+00,1.000000000000000000e+00,1.000000000000000000e+00,1.000000000000000000e+00,1.000000000000000000e+00,1.000000000000000000e+00,1.000000000000000000e+00,1.000000000000000000e+00,1.000000000000000000e+00,1.000000000000000000e+00,1.000000000000000000e+00,1.000000000000000000e+00,1.000000000000000000e+00,1.000000000000000000e+00,4.990527153015136830e-01,4.966298580169677956e-01,4.922803878784179910e-01,4.861640930175781250e-01,4.826236248016357311e-01,4.794436931610107644e-01,4.797152996063232533e-01,4.809428215026855247e-01,4.898019313812255748e-01,5.057863712310790572e-01,5.106574058532714622e-01,1.000000000000000000e+00,1.000000000000000000e+00,1.000000000000000000e+00,1.000000000000000000e+00,1.000000000000000000e+00,1.000000000000000000e+00,9.692426681518554465e-01,9.375326156616210493e-01,9.078316688537597656e-01,8.799548149108886719e-01,8.537389755249022993e-01,8.290399551391601785e-01,8.057299613952636497e-01,7.836948394775390403e-01,7.628329753875732200e-01,7.430528640747070535e-01
6.194905757904052290e-01,6.351994991302489790e-01,6.517258167266846147e-01,6.691350460052489790e-01,6.874999046325683816e-01,7.069013118743896484e-01,7.274327278137207031e-01,7.491928100585937278e-01,7.722949504852294478e-01,7.968671798706055132e-01,8.230543136596679688e-01,8.510212898254394531e-01,8.809555053710937944e-01,9.130725860595703125e-01,9.476198196411133035e-01,9.848843574523925559e-01,1.000000000000000000e+00,1.000000000000000000e+00,1.000000000000000000e+00,1.000000000000000000e+00,1.000000000000000000e+00,1.000000000000000000e+00,1.000000000000000000e+00,1.000000000000000000e+00,1.000000000000000000e+00,1.000000000000000000e+00,1.000000000000000000e+00,1.000000000000000000e+00,1.000000000000000000e+00,1.000000000000000000e+00,1.000000000000000000e+00,1.000000000000000000e+00,1.000000000000000000e+00,1.000000000000000000e+00,1.000000000000000000e+00,1.000000000000000000e+00,1.000000000000000000e+00,1.000000000000000000e+00,1.000000000000000000e+00,1.000000000000000000e+00,1.000000000000000000e+00,1.000000000000000000e+00,1.000000000000000000e+00,1.000000000000000000e+00,1.000000000000000000e+00,1.000000000000000000e+00,1.000000000000000000e+00,1.000000000000000000e+00,1.000000000000000000e+00,1.000000000000000000e+00,1.000000000000000000e+00,1.000000000000000000e+00,1.000000000000000000e+00,5.001721382141113281e-01,4.968263626098632924e-01,4.947797298431396706e-01,4.865215301513671764e-01,4.820343017578124778e-01,4.796082496643066517e-01,4.792137145996093750e-01,4.809938907623291238e-01,4.879702091217040794e-01,5.059404850006103960e-01,5.131112098693847434e-01,1.000000000000000000e+00,1.000000000000000000e+00,1.000000000000000000e+00,1.000000000000000000e+00,1.000000000000000000e+00,1.000000000000000000e+00,9.692708969116210493e-01,9.375590324401855691e-01,9.078564643859863281e-01,8.799780845642090066e-01,8.537608146667480247e-01,8.290606498718261497e-01,8.057494163513183594e-01,7.837133407592773438e-01,7.628499031066894309e-01,7.430681705474853072e-01
6.194773674011230247e-01,6.351856708526610884e-01,6.517112731933594194e-01,6.691196918487548606e-01,6.874836921691894753e-01,7.068841934204102007e-01,7.274113655090331809e-01,7.491698265075683594e-01,7.722705364227294700e-01,7.968411445617675781e-01,8.230266571044921875e-01,8.509916305541992410e-01,8.809238433837890403e-01,9.130383491516113059e-01,9.475830078125000444e-01,9.848445892333984597e-01,1.000000000000000000e+00,1.000000000000000000e+00,1.000000000000000000e+00,1.000000000000000000e+00,1.000000000000000000e+00,1.000000000000000000e+00,1.000000000000000000e+00,1.000000000000000000e+00,1.000000000000000000e+00,1.000000000000000000e+00,1.000000000000000000e+00,1.000000000000000000e+00,1.000000000000000000e+00,1.000000000000000000e+00,1.000000000000000000e+00,1.000000000000000000e+00,1.000000000000000000e+00,1.000000000000000000e+00,1.000000000000000000e+00,1.000000000000000000e+00,1.000000000000000000e+00,1.000000000000000000e+00,1.000000000000000000e+00,1.000000000000000000e+00,1.000000000000000000e+00,1.000000000000000000e+00,1.000000000000000000e+00,1.000000000000000000e+00,1.000000000000000000e+00,1.000000000000000000e+00,1.000000000000000000e+00,1.000000000000000000e+00,1.000000000000000000e+00,1.000000000000000000e+00,1.000000000000000000e+00,1.000000000000000000e+00,1.000000000000000000e+00,5.008843421936035600e-01,4.960952281951904186e-01,4.970010757446289285e-01,4.875288963317870872e-01,4.823136329650878906e-01,4.798946857452392467e-01,4.794911384582519753e-01,4.812497138977051003e-01,4.874534130096435658e-01,5.067304134368896262e-01,5.156254768371582031e-01,1.000000000000000000e+00,1.000000000000000000e+00,1.000000000000000000e+00,1.000000000000000000e+00,1.000000000000000000e+00,1.000000000000000000e+00,9.692990303039550337e-01,9.375853538513183594e-01,9.078810691833496538e-01,8.800012588500976118e-01,8.537826538085937500e-01,8.290808677673340288e-01,8.057677268981933150e-01,7.837298870086669700e-01,7.628653049468994141e-01,7.430829048156738503e-01
6.194642543792724387e-01,6.351718425750731978e-01,6.516966819763183594e-01,6.691043376922607422e-01,6.874674797058105691e-01,7.068669795989990234e-01,7.273932456970214622e-01,7.491471290588378462e-01,7.722460746765136275e-01,7.968151569366455078e-01,8.229989051818847878e-01,8.509618759155272993e-01,8.808919906616210493e-01,9.130042076110840288e-01,9.475462913513184038e-01,9.848048210144042525e-01,1.000000000000000000e+00,1.000000000000000000e+00,1.000000000000000000e+00,1.000000000000000000e+00,1.000000000000000000e+00,1.000000000000000000e+00,1.000000000000000000e+00,1.000000000000000000e+00,1.000000000000000000e+00,1.000000000000000000e+00,1.000000000000000000e+00,1.000000000000000000e+00,1.000000000000000000e+00,1.000000000000000000e+00,1.000000000000000000e+00,1.000000000000000000e+00,1.000000000000000000e+00,1.000000000000000000e+00,1.000000000000000000e+00,1.000000000000000000e+00,1.000000000000000000e+00,1.000000000000000000e+00,1.000000000000000000e+00,1.000000000000000000e+00,1.000000000000000000e+00,1.000000000000000000e+00,1.000000000000000000e+00,1.000000000000000000e+00,1.000000000000000000e+00,1.000000000000000000e+00,1.000000000000000000e+00,1.000000000000000000e+00,1.000000000000000000e+00,1.000000000000000000e+00,1.000000000000000000e+00,1.000000000000000000e+00,1.000000000000000000e+00,5.019668579101562722e-01,4.968360424041747825e-01,4.983635902404784934e-01,4.857040405273437278e-01,4.803701877593994363e-01,4.783252239227294700e-01,4.799814701080322155e-01,4.792682170867920144e-01,4.844261169433593528e-01,5.100253105163574663e-01,1.000000000000000000e+00,1.000000000000000000e+00,1.000000000000000000e+00,1.000000000000000000e+00,1.000000000000000000e+00,1.000000000000000000e+00,1.000000000000000000e+00,9.693272590637207475e-01,9.376116752624511497e-01,9.079058647155762163e-01,8.800234794616699219e-01,8.538026809692382812e-01,8.290991783142089844e-01,8.057850837707519753e-01,7.837461948394774947e-01,7.628808498382568803e-01,7.430975914001465288e-01
6.194510936737060991e-01,6.351579666137695535e-01,6.516821384429931641e-01,6.690890312194823775e-01,6.874513149261474165e-01,7.068498611450195757e-01,7.273750305175781250e-01,7.491279125213623491e-01,7.722218990325927512e-01,7.967891216278075728e-01,8.229711532592773882e-01,8.509323120117187056e-01,8.808602333068847878e-01,9.129700660705566406e-01,9.475095748901367632e-01,9.847651481628417747e-01,1.000000000000000000e+00,1.000000000000000000e+00,1.000000000000000000e+00,1.000000000000000000e+00,1.000000000000000000e+00,1.000000000000000000e+00,1.000000000000000000e+00,1.000000000000000000e+00,1.000000000000000000e+00,1.000000000000000000e+00,1.000000000000000000e+00,1.000000000000000000e+00,1.000000000000000000e+00,1.000000000000000000e+00,1.000000000000000000e+00,1.000000000000000000e+00,1.000000000000000000e+00,1.000000000000000000e+00,1.000000000000000000e+00,1.000000000000000000e+00,1.000000000000000000e+00,1.000000000000000000e+00,1.000000000000000000e+00,1.000000000000000000e+00,1.000000000000000000e+00,1.000000000000000000e+00,1.000000000000000000e+00,1.000000000000000000e+00,1.000000000000000000e+00,1.000000000000000000e+00,1.000000000000000000e+00,1.000000000000000000e+00,1.000000000000000000e+00,1.000000000000000000e+00,1.000000000000000000e+00,1.000000000000000000e+00,1.000000000000000000e+00,5.033965110778808594e-01,4.986323356628418191e-01,4.941388130187988059e-01,4.846052169799804910e-01,4.788520812988281139e-01,4.773542881011962891e-01,4.775351047515868919e-01,4.778687953948974609e-01,4.812304496765136830e-01,5.135398387908935991e-01,1.000000000000000000e+00,1.000000000000000000e+00,1.000000000000000000e+00,1.000000000000000000e+00,1.000000000000000000e+00,1.000000000000000000e+00,1.000000000000000000e+00,9.693547248840331809e-01,9.376363754272460938e-01,9.079278945922851785e-01,8.800441741943358931e-01,8.538221359252929910e-01,8.291175842285156694e-01,8.058023452758789062e-01,7.837625980377197488e-01,7.628963470458984819e-01,7.431123256683349609e-01
6.194379329681396484e-01,6.351441383361816628e-01,6.516675472259521040e-01,6.690736770629882590e-01,6.874351024627685103e-01,7.068327426910400169e-01,7.273569107055664062e-01,7.491086483001708762e-01,7.722014904022216353e-01,7.967632770538329856e-01,8.229434013366698775e-01,8.509026527404784934e-01,8.808283805847167969e-01,9.129360198974609819e-01,9.474727630615233931e-01,9.847253799438476785e-01,1.000000000000000000e+00,1.000000000000000000e+00,1.000000000000000000e+00,1.000000000000000000e+00,1.000000000000000000e+00,1.000000000000000000e+00,1.000000000000000000e+00,1.000000000000000000e+00,1.000000000000000000e+00,1.000000000000000000e+00,1.000000000000000000e+00,1.000000000000000000e+00,1.000000000000000000e+00,1.000000000000000000e+00,1.000000000000000000e+00,1.000000000000000000e+00,1.000000000000000000e+00,1.000000000000000000e+00,1.000000000000000000e+00,1.000000000000000000e+00,1.000000000000000000e+00,1.000000000000000000e+00,1.000000000000000000e+00,1.000000000000000000e+00,1.000000000000000000e+00,1.000000000000000000e+00,1.000000000000000000e+00,1.000000000000000000e+00,1.000000000000000000e+00,1.000000000000000000e+00,1.000000000000000000e+00,1.000000000000000000e+00,1.000000000000000000e+00,1.000000000000000000e+00,1.000000000000000000e+00,1.000000000000000000e+00,1.000000000000000000e+00,5.035486221313476562e-01,4.972243309020996094e-01,4.941383838653564675e-01,4.864032745361328014e-01,4.815221786499023215e-01,4.793937206268310547e-01,4.778137207031250000e-01,4.802713394165039062e-01,4.852737903594970814e-01,5.132697105407715288e-01,1.000000000000000000e+00,1.000000000000000000e+00,1.000000000000000000e+00,1.000000000000000000e+00,1.000000000000000000e+00,1.000000000000000000e+00,1.000000000000000000e+00,9.693798065185547097e-01,9.376597404479980469e-01,9.079498291015625222e-01,8.800648689270019753e-01,8.538415908813477007e-01,8.291357994079590066e-01,8.058197021484374556e-01,7.837789535522461382e-01,7.629118919372558372e-01,7.431270599365233931e-01
6.194247722625731978e-01,6.351303100585937722e-01,6.516529560089111550e-01,6.690582752227782759e-01,6.874188899993896040e-01,7.068156242370605691e-01,7.273387432098388228e-01,7.490893363952636497e-01,7.721810340881347656e-01,7.967415332794189897e-01,8.229157447814940962e-01,8.508729934692382812e-01,8.807966232299804243e-01,9.129017829895019753e-01,9.474359512329101340e-01,9.846857070922852007e-01,1.000000000000000000e+00,1.000000000000000000e+00,1.000000000000000000e+00,1.000000000000000000e+00,1.000000000000000000e+00,1.000000000000000000e+00,1.000000000000000000e+00,1.000000000000000000e+00,1.000000000000000000e+00,1.000000000000000000e+00,1.000000000000000000e+00,1.000000000000000000e+00,1.000000000000000000e+00,1.000000000000000000e+00,1.000000000000000000e+00,1.000000000000000000e+00,1.000000000000000000e+00,1.000000000000000000e+00,1.000000000000000000e+00,1.000000000000000000e+00,1.000000000000000000e+00,1.000000000000000000e+00,1.000000000000000000e+00,1.000000000000000000e+00,1.000000000000000000e+00,1.000000000000000000e+00,1.000000000000000000e+00,1.000000000000000000e+00,1.000000000000000000e+00,1.000000000000000000e+00,1.000000000000000000e+00,1.000000000000000000e+00,1.000000000000000000e+00,1.000000000000000000e+00,1.000000000000000000e+00,1.000000000000000000e+00,1.000000000000000000e+00,4.984569072723388783e-01,4.912866115570068137e-01,4.945917129516601562e-01,4.862582683563232422e-01,4.816007137298584095e-01,4.804507732391357644e-01,4.784077167510986106e-01,4.816998481750488503e-01,4.839213371276855358e-01,5.115081787109374556e-01,5.173347473144531694e-01,1.000000000000000000e+00,1.000000000000000000e+00,1.000000000000000000e+00,1.000000000000000000e+00,1.000000000000000000e+00,1.000000000000000000e+00,9.694047927856445090e-01,9.376832008361816184e-01,9.079718589782714844e-01,8.800854682922363281e-01,8.538610458374022993e-01,8.291542053222655806e-01,8.058369636535644975e-01,7.837953567504882812e-01,7.629274368286133035e-01,7.431417942047119363e-01
6.194116115570068581e-01,6.351164817810058816e-01,6.516384124755859597e-01,6.690429210662841575e-01,6.874027252197265625e-01,7.067985057830810103e-01,7.273206233978271040e-01,7.490701198577880415e-01,7.721605300903320312e-01,7.967197895050048828e-01,8.228924751281738725e-01,8.508432388305664507e-01,8.807648658752441628e-01,9.128676414489745872e-01,9.473991394042968750e-01,9.846459388732909934e-01,1.000000000000000000e+00,1.000000000000000000e+00,1.000000000000000000e+00,1.000000000000000000e+00,1.000000000000000000e+00,1.000000000000000000e+00,1.000000000000000000e+00,1.000000000000000000e+00,1.000000000000000000e+00,1.000000000000000000e+00,1.000000000000000000e+00,1.000000000000000000e+00,1.000000000000000000e+00,1.000000000000000000e+00,1.000000000000000000e+00,1.000000000000000000e+00,1.000000000000000000e+00,1.000000000000000000e+00,1.000000000000000000e+00,1.000000000000000000e+00,1.000000000000000000e+00,1.000000000000000000e+00,1.000000000000000000e+00,1.000000000000000000e+00,1.000000000000000000e+00,1.000000000000000000e+00,1.000000000000000000e+00,1.000000000000000000e+00,1.000000000000000000e+00,1.000000000000000000e+00,1.000000000000000000e+00,1.000000000000000000e+00,1.000000000000000000e+00,1.000000000000000000e+00,1.000000000000000000e+00,1.000000000000000000e+00,1.000000000000000000e+00,1.000000000000000000e+00,4.867979049682616965e-01,4.904526710510254128e-01,4.836182594299316406e-01,4.799002170562743919e-01,4.842916488647460715e-01,4.830068588256836160e-01,4.837309837341308705e-01,4.805494308471679465e-01,4.865371227264404519e-01,5.112287521362304243e-01,1.000000000000000000e+00,1.000000000000000000e+00,1.000000000000000000e+00,1.000000000000000000e+00,1.000000000000000000e+00,1.000000000000000000e+00,9.694298744201660378e-01,9.377066612243651900e-01,9.079937934875488281e-01,8.801060676574706809e-01,8.538804054260253906e-01,8.291725158691406472e-01,8.058542251586914285e-01,7.838117599487304243e-01,7.629429340362549050e-01,7.431564331054687500e-01
6.193984985351562722e-01,6.351026535034179910e-01,6.516238689422607644e-01,6.690275669097900391e-01,6.873864650726317915e-01,7.067813873291015625e-01,7.273025035858153853e-01,7.490509033203125444e-01,7.721400737762451616e-01,7.966979503631591575e-01,8.228693008422851562e-01,8.508184432983398882e-01,8.807331085205077903e-01,9.128334999084473100e-01,9.473624229431152344e-01,9.846061706542968972e-01,1.000000000000000000e+00,1.000000000000000000e+00,1.000000000000000000e+00,1.000000000000000000e+00,1.000000000000000000e+00,1.000000000000000000e+00,1.000000000000000000e+00,1.000000000000000000e+00,1.000000000000000000e+00,1.000000000000000000e+00,1.000000000000000000e+00,1.000000000000000000e+00,1.000000000000000000e+00,1.000000000000000000e+00,1.000000000000000000e+00,1.000000000000000000e+00,1.000000000000000000e+00,1.000000000000000000e+00,1.000000000000000000e+00,1.000000000000000000e+00,1.000000000000000000e+00,1.000000000000000000e+00,1.000000000000000000e+00,1.000000000000000000e+00,1.000000000000000000e+00,1.000000000000000000e+00,1.000000000000000000e+00,1.000000000000000000e+00,1.000000000000000000e+00,1.000000000000000000e+00,1.000000000000000000e+00,1.000000000000000000e+00,1.000000000000000000e+00,1.000000000000000000e+00,1.000000000000000000e+00,1.000000000000000000e+00,1.000000000000000000e+00,1.000000000000000000e+00,4.812109947204589733e-01,4.850102424621581809e-01,4.778395175933837780e-01,4.735659599304199441e-01,4.801375389099121205e-01,4.867030620574951394e-01,4.792664051055908203e-01,4.749599456787109153e-01,4.790277481079101562e-01,5.085706710815429688e-01,1.000000000000000000e+00,1.000000000000000000e+00,1.000000000000000000e+00,1.000000000000000000e+00,1.000000000000000000e+00,1.000000000000000000e+00,9.694549560546874556e-01,9.377300262451171431e-01,9.080157279968261719e-01,8.801267623901367632e-01,8.538998603820801003e-01,8.291908264160156028e-01,8.058715820312499778e-01,7.838281154632568137e-01,7.629583835601806419e-01,7.431711673736571822e-01
6.193852901458740678e-01,6.350888252258301003e-01,6.516093254089355691e-01,6.690122604370116743e-01,6.873702526092528853e-01,7.067641735076903853e-01,7.272843837738036665e-01,7.490316867828369363e-01,7.721196174621581809e-01,7.966762065887451616e-01,8.228461265563964400e-01,8.507936477661133257e-01,8.807064056396484153e-01,9.127993583679199219e-01,9.473257064819335938e-01,9.845664978027344194e-01,1.000000000000000000e+00,1.000000000000000000e+00,1.000000000000000000e+00,1.000000000000000000e+00,1.000000000000000000e+00,1.000000000000000000e+00,1.000000000000000000e+00,1.000000000000000000e+00,1.000000000000000000e+00,1.000000000000000000e+00,1.000000000000000000e+00,1.000000000000000000e+00,1.000000000000000000e+00,1.000000000000000000e+00,1.000000000000000000e+00,1.000000000000000000e+00,1.000000000000000000e+00,1.000000000000000000e+00,1.000000000000000000e+00,1.000000000000000000e+00,1.000000000000000000e+00,1.000000000000000000e+00,1.000000000000000000e+00,1.000000000000000000e+00,1.000000000000000000e+00,1.000000000000000000e+00,1.000000000000000000e+00,1.000000000000000000e+00,1.000000000000000000e+00,1.000000000000000000e+00,1.000000000000000000e+00,1.000000000000000000e+00,1.000000000000000000e+00,1.000000000000000000e+00,1.000000000000000000e+00,1.000000000000000000e+00,1.000000000000000000e+00,1.000000000000000000e+00,4.803356170654297097e-01,4.804154396057128684e-01,4.758346080780029297e-01,4.713446617126464955e-01,4.747623920440673939e-01,4.843033313751220481e-01,4.761422634124755637e-01,4.728335380554199441e-01,4.758953571319580189e-01,5.096585273742675337e-01,1.000000000000000000e+00,1.000000000000000000e+00,1.000000000000000000e+00,1.000000000000000000e+00,1.000000000000000000e+00,1.000000000000000000e+00,9.694799423217773660e-01,9.377534866333008257e-01,9.080377578735351340e-01,8.801474571228027344e-01,8.539193153381348100e-01,8.292091369628906694e-01,8.058889389038086382e-01,7.838444232940673384e-01,7.629739284515381081e-01,7.431859016418457253e-01
6.193721294403076172e-01,6.350749492645263450e-01,6.515947818756103738e-01,6.689969062805175559e-01,6.873540401458739790e-01,7.067470550537109375e-01,7.272662639617919478e-01,7.490124225616454634e-01,7.720992088317870650e-01,7.966544151306151900e-01,8.228228569030762163e-01,8.507688522338867632e-01,8.806797981262206587e-01,9.127707481384277344e-01,9.472888946533203347e-01,9.845267295837402122e-01,1.000000000000000000e+00,1.000000000000000000e+00,1.000000000000000000e+00,1.000000000000000000e+00,1.000000000000000000e+00,1.000000000000000000e+00,1.000000000000000000e+00,1.000000000000000000e+00,1.000000000000000000e+00,1.000000000000000000e+00,1.000000000000000000e+00,1.000000000000000000e+00,1.000000000000000000e+00,1.000000000000000000e+00,1.000000000000000000e+00,1.000000000000000000e+00,1.000000000000000000e+00,1.000000000000000000e+00,1.000000000000000000e+00,1.000000000000000000e+00,1.000000000000000000e+00,1.000000000000000000e+00,1.000000000000000000e+00,1.000000000000000000e+00,1.000000000000000000e+00,1.000000000000000000e+00,1.000000000000000000e+00,1.000000000000000000e+00,1.000000000000000000e+00,1.000000000000000000e+00,1.000000000000000000e+00,1.000000000000000000e+00,1.000000000000000000e+00,1.000000000000000000e+00,1.000000000000000000e+00,1.000000000000000000e+00,1.000000000000000000e+00,1.000000000000000000e+00,4.736330986022949108e-01,4.706616878509521373e-01,4.744431972503662109e-01,4.699926853179931530e-01,4.731049060821533314e-01,4.841744422912597767e-01,4.748113632202148326e-01,4.717939853668212669e-01,4.739403724670410156e-01,5.058092594146728072e-01,1.000000000000000000e+00,1.000000000000000000e+00,1.000000000000000000e+00,1.000000000000000000e+00,1.000000000000000000e+00,1.000000000000000000e+00,9.695050239562987837e-01,9.377769470214843972e-01,9.080596923828124778e-01,8.801680564880370872e-01,8.539387702941894087e-01,8.292274475097656250e-01,8.059062004089355691e-01,7.838608264923095925e-01,7.629894256591797097e-01,7.432006359100341575e-01
6.193695068359375000e-01,6.350661754608154519e-01,6.515801429748535600e-01,6.689815521240234375e-01,6.873378753662109375e-01,7.067299365997314897e-01,7.272480487823486106e-01,7.489932060241699663e-01,7.720788002014160600e-01,7.966326713562011941e-01,8.227996826171875000e-01,8.507439613342284712e-01,8.806532859802246316e-01,9.127421379089355469e-01,9.472579002380371316e-01,9.844871520996093528e-01,1.000000000000000000e+00,1.000000000000000000e+00,1.000000000000000000e+00,1.000000000000000000e+00,1.000000000000000000e+00,1.000000000000000000e+00,1.000000000000000000e+00,1.000000000000000000e+00,1.000000000000000000e+00,1.000000000000000000e+00,1.000000000000000000e+00,1.000000000000000000e+00,1.000000000000000000e+00,1.000000000000000000e+00,1.000000000000000000e+00,1.000000000000000000e+00,1.000000000000000000e+00,1.000000000000000000e+00,1.000000000000000000e+00,1.000000000000000000e+00,1.000000000000000000e+00,1.000000000000000000e+00,1.000000000000000000e+00,1.000000000000000000e+00,1.000000000000000000e+00,1.000000000000000000e+00,1.000000000000000000e+00,1.000000000000000000e+00,1.000000000000000000e+00,1.000000000000000000e+00,1.000000000000000000e+00,1.000000000000000000e+00,1.000000000000000000e+00,1.000000000000000000e+00,1.000000000000000000e+00,1.000000000000000000e+00,1.000000000000000000e+00,1.000000000000000000e+00,4.711890220642089844e-01,4.824862480163574219e-01,4.733072757720947488e-01,4.687484741210937722e-01,4.717306137084961160e-01,4.836189270019531361e-01,4.732676982879638894e-01,4.708037376403808594e-01,4.720014095306396262e-01,5.046898841857909712e-01,1.000000000000000000e+00,1.000000000000000000e+00,1.000000000000000000e+00,1.000000000000000000e+00,1.000000000000000000e+00,1.000000000000000000e+00,9.695301055908203125e-01,9.378003120422363503e-01,9.080816268920898215e-01,8.801886558532714400e-01,8.539582252502441184e-01,8.292457580566405806e-01,8.059234619140625000e-01,7.838771820068359819e-01,7.630049705505370650e-01,7.432153701782227007e-01
6.193695068359375000e-01,6.350661754608154519e-01,6.515790939331054243e-01,6.689736843109130859e-01,6.873225212097168191e-01,7.067128181457519309e-01,7.272299289703368919e-01,7.489738941192627397e-01,7.720583438873290794e-01,7.966109275817870872e-01,8.227764129638671653e-01,8.507191658020019087e-01,8.806266784667968750e-01,9.127135276794433594e-01,9.472270965576171653e-01,9.844534873962402788e-01,1.000000000000000000e+00,1.000000000000000000e+00,1.000000000000000000e+00,1.000000000000000000e+00,1.000000000000000000e+00,1.000000000000000000e+00,1.000000000000000000e+00,1.000000000000000000e+00,1.000000000000000000e+00,1.000000000000000000e+00,1.000000000000000000e+00,1.000000000000000000e+00,1.000000000000000000e+00,1.000000000000000000e+00,1.000000000000000000e+00,1.000000000000000000e+00,1.000000000000000000e+00,1.000000000000000000e+00,1.000000000000000000e+00,1.000000000000000000e+00,1.000000000000000000e+00,1.000000000000000000e+00,1.000000000000000000e+00,1.000000000000000000e+00,1.000000000000000000e+00,1.000000000000000000e+00,1.000000000000000000e+00,1.000000000000000000e+00,1.000000000000000000e+00,1.000000000000000000e+00,1.000000000000000000e+00,1.000000000000000000e+00,1.000000000000000000e+00,1.000000000000000000e+00,1.000000000000000000e+00,1.000000000000000000e+00,1.000000000000000000e+00,1.000000000000000000e+00,4.667770862579345703e-01,4.847553253173828014e-01,4.723557949066162220e-01,4.675601482391357200e-01,4.700376510620117299e-01,4.830641269683838002e-01,4.717340469360351562e-01,4.693147659301757924e-01,4.704184055328369252e-01,5.187691688537597878e-01,1.000000000000000000e+00,1.000000000000000000e+00,1.000000000000000000e+00,1.000000000000000000e+00,1.000000000000000000e+00,1.000000000000000000e+00,9.695550918579101118e-01,9.378237724304199219e-01,9.081036567687987837e-01,8.802093505859375222e-01,8.539775848388672097e-01,8.292641639709472656e-01,8.059408187866210493e-01,7.838935852050781250e-01,7.630205154418945312e-01,7.432301044464111328e-01
6.193661689758300781e-01,6.350661754608154519e-01,6.515790939331054243e-01,6.689736843109130859e-01,6.873225212097168191e-01,7.067061901092529519e-01,7.272150039672851118e-01,7.489546775817871316e-01,7.720378398895263450e-01,7.965891838073730913e-01,8.227531433105468306e-01,8.506943702697753462e-01,8.806000709533691184e-01,9.126850128173827903e-01,9.471962928771973100e-01,9.844202995300292969e-01,1.000000000000000000e+00,1.000000000000000000e+00,1.000000000000000000e+00,1.000000000000000000e+00,1.000000000000000000e+00,1.000000000000000000e+00,1.000000000000000000e+00,1.000000000000000000e+00,1.000000000000000000e+00,1.000000000000000000e+00,1.000000000000000000e+00,1.000000000000000000e+00,1.000000000000000000e+00,1.000000000000000000e+00,1.000000000000000000e+00,1.000000000000000000e+00,1.000000000000000000e+00,1.000000000000000000e+00,1.000000000000000000e+00,1.000000000000000000e+00,1.000000000000000000e+00,1.000000000000000000e+00,1.000000000000000000e+00,1.000000000000000000e+00,1.000000000000000000e+00,1.000000000000000000e+00,1.000000000000000000e+00,1.000000000000000000e+00,1.000000000000000000e+00,1.000000000000000000e+00,1.000000000000000000e+00,1.000000000000000000e+00,1.000000000000000000e+00,1.000000000000000000e+00,1.000000000000000000e+00,1.000000000000000000e+00,1.000000000000000000e+00,1.000000000000000000e+00,1.000000000000000000e+00,4.892728805541992076e-01,4.709739208221435658e-01,4.661742687225342019e-01,4.687622547149657981e-01,4.821205139160156250e-01,4.710229873657226785e-01,4.680753707885741965e-01,4.672012329101562500e-01,1.000000000000000000e+00,5.047567844390868919e-01,1.000000000000000000e+00,1.000000000000000000e+00,1.000000000000000000e+00,1.000000000000000000e+00,1.000000000000000000e+00,9.695801734924316406e-01,9.378472328186034934e-01,9.081255912780761275e-01,8.802299499511718750e-01,8.539970397949219194e-01,8.292824745178222212e-01,8.059580802917480913e-01,7.839099884033202681e-01,7.630360126495361328e-01,7.432448387145995650e-01
6.193529605865478738e-01,6.350548744201660600e-01,6.515736103057860884e-01,6.689736843109130859e-01,6.873225212097168191e-01,7.067061901092529519e-01,7.272150039672851118e-01,7.489497661590576172e-01,7.720237255096435991e-01,7.965674400329589844e-01,8.227299690246582253e-01,8.506695747375487837e-01,8.805734634399413618e-01,9.126564025878906028e-01,9.471655845642089622e-01,9.843869209289550781e-01,1.000000000000000000e+00,1.000000000000000000e+00,1.000000000000000000e+00,1.000000000000000000e+00,1.000000000000000000e+00,1.000000000000000000e+00,1.000000000000000000e+00,1.000000000000000000e+00,1.000000000000000000e+00,1.000000000000000000e+00,1.000000000000000000e+00,1.000000000000000000e+00,1.000000000000000000e+00,1.000000000000000000e+00,1.000000000000000000e+00,1.000000000000000000e+00,1.000000000000000000e+00,1.000000000000000000e+00,1.000000000000000000e+00,1.000000000000000000e+00,1.000000000000000000e+00,1.000000000000000000e+00,1.000000000000000000e+00,1.000000000000000000e+00,1.000000000000000000e+00,1.000000000000000000e+00,1.000000000000000000e+00,1.000000000000000000e+00,1.000000000000000000e+00,1.000000000000000000e+00,1.000000000000000000e+00,1.000000000000000000e+00,1.000000000000000000e+00,1.000000000000000000e+00,1.000000000000000000e+00,1.000000000000000000e+00,1.000000000000000000e+00,1.000000000000000000e+00,1.000000000000000000e+00,1.000000000000000000e+00,4.700674533843994252e-01,4.647749423980712669e-01,4.672740936279297097e-01,4.812804222106933372e-01,4.704487800598144420e-01,4.663094997406005970e-01,4.644965648651123158e-01,1.000000000000000000e+00,1.000000000000000000e+00,1.000000000000000000e+00,1.000000000000000000e+00,1.000000000000000000e+00,1.000000000000000000e+00,1.000000000000000000e+00,9.696052551269531694e-01,9.378705978393554465e-01,9.081476211547852007e-01,8.802506446838378462e-01,8.540164947509765181e-01,8.293007850646972878e-01,8.059754371643066406e-01,7.839263916015625222e-01,7.630514621734618697e-01,7.432594776153564897e-01
6.193398475646972878e-01,6.350410461425781694e-01,6.515590667724608931e-01,6.689593791961669922e-01,6.873145103454589844e-01,7.067052841186522993e-01,7.272150039672851118e-01,7.489497661590576172e-01,7.720237255096435991e-01,7.965644836425781472e-01,8.227168083190917747e-01,8.506447792053222212e-01,8.805468559265137163e-01,9.126277923583984153e-01,9.471347808837891069e-01,9.843537330627440962e-01,1.000000000000000000e+00,1.000000000000000000e+00,1.000000000000000000e+00,1.000000000000000000e+00,1.000000000000000000e+00,1.000000000000000000e+00,1.000000000000000000e+00,1.000000000000000000e+00,1.000000000000000000e+00,1.000000000000000000e+00,1.000000000000000000e+00,1.000000000000000000e+00,1.000000000000000000e+00,1.000000000000000000e+00,1.000000000000000000e+00,1.000000000000000000e+00,1.000000000000000000e+00,1.000000000000000000e+00,1.000000000000000000e+00,1.000000000000000000e+00,1.000000000000000000e+00,1.000000000000000000e+00,1.000000000000000000e+00,1.000000000000000000e+00,1.000000000000000000e+00,1.000000000000000000e+00,1.000000000000000000e+00,1.000000000000000000e+00,1.000000000000000000e+00,1.000000000000000000e+00,1.000000000000000000e+00,1.000000000000000000e+00,1.000000000000000000e+00,1.000000000000000000e+00,1.000000000000000000e+00,1.000000000000000000e+00,1.000000000000000000e+00,1.000000000000000000e+00,1.000000000000000000e+00,1.000000000000000000e+00,4.694341659545898660e-01,4.633839607238769420e-01,4.654671669006347767e-01,4.904656410217285156e-01,4.698359012603759988e-01,4.645359516143798828e-01,4.632560253143310769e-01,1.000000000000000000e+00,1.000000000000000000e+00,1.000000000000000000e+00,1.000000000000000000e+00,1.000000000000000000e+00,1.000000000000000000e+00,1.000000000000000000e+00,9.696302413940429688e-01,9.378940582275390181e-01,9.081695556640625444e-01,8.802712440490723100e-01,8.540358543395996094e-01,8.293190956115722434e-01,8.059927940368651900e-01,7.839426517486571822e-01,7.630670070648193359e-01,7.432742118835449219e-01
6.193266391754150835e-01,6.350271701812744141e-01,6.515444755554199441e-01,6.689439296722412553e-01,6.872982501983642134e-01,7.066881179809569868e-01,7.272038459777832031e-01,7.489463329315185769e-01,7.720237255096435991e-01,7.965644836425781472e-01,8.227168083190917747e-01,8.506445884704589844e-01,8.805351257324218750e-01,9.126028060913086160e-01,9.471039772033691406e-01,9.843205451965332253e-01,1.000000000000000000e+00,1.000000000000000000e+00,1.000000000000000000e+00,1.000000000000000000e+00,1.000000000000000000e+00,1.000000000000000000e+00,1.000000000000000000e+00,1.000000000000000000e+00,1.000000000000000000e+00,1.000000000000000000e+00,1.000000000000000000e+00,1.000000000000000000e+00,1.000000000000000000e+00,1.000000000000000000e+00,1.000000000000000000e+00,1.000000000000000000e+00,1.000000000000000000e+00,1.000000000000000000e+00,1.000000000000000000e+00,1.000000000000000000e+00,1.000000000000000000e+00,1.000000000000000000e+00,1.000000000000000000e+00,1.000000000000000000e+00,1.000000000000000000e+00,1.000000000000000000e+00,1.000000000000000000e+00,1.000000000000000000e+00,1.000000000000000000e+00,1.000000000000000000e+00,1.000000000000000000e+00,1.000000000000000000e+00,1.000000000000000000e+00,1.000000000000000000e+00,1.000000000000000000e+00,1.000000000000000000e+00,1.000000000000000000e+00,1.000000000000000000e+00,1.000000000000000000e+00,1.000000000000000000e+00,4.719862937927246094e-01,4.630777835845947266e-01,4.649255752563476451e-01,1.000000000000000000e+00,4.700046539306640403e-01,4.645059108734130859e-01,4.633963584899902233e-01,1.000000000000000000e+00,1.000000000000000000e+00,1.000000000000000000e+00,1.000000000000000000e+00,1.000000000000000000e+00,1.000000000000000000e+00,1.000000000000000000e+00,9.696553230285644975e-01,9.379176139831543191e-01,9.081915855407715066e-01,8.802919387817382812e-01,8.540553092956543191e-01,8.293374061584473100e-01,8.060100555419922319e-01,7.839590549468994363e-01,7.630828857421875222e-01,7.432900428771972434e-01
6.193134307861327681e-01,6.350132942199706587e-01,6.515298366546631303e-01,6.689285278320312722e-01,6.872819900512695535e-01,7.066709041595459206e-01,7.271856307983398660e-01,7.489270210266113503e-01,7.720085144042968528e-01,7.965579986572265403e-01,8.227168083190917747e-01,8.506445884704589844e-01,8.805351257324218750e-01,9.126028060913086160e-01,9.470943450927734597e-01,9.842955589294433150e-01,1.000000000000000000e+00,1.000000000000000000e+00,1.000000000000000000e+00,1.000000000000000000e+00,1.000000000000000000e+00,1.000000000000000000e+00,1.000000000000000000e+00,1.000000000000000000e+00,1.000000000000000000e+00,1.000000000000000000e+00,1.000000000000000000e+00,1.000000000000000000e+00,1.000000000000000000e+00,1.000000000000000000e+00,1.000000000000000000e+00,1.000000000000000000e+00,1.000000000000000000e+00,1.000000000000000000e+00,1.000000000000000000e+00,1.000000000000000000e+00,1.000000000000000000e+00,1.000000000000000000e+00,1.000000000000000000e+00,1.000000000000000000e+00,1.000000000000000000e+00,1.000000000000000000e+00,1.000000000000000000e+00,1.000000000000000000e+00,1.000000000000000000e+00,1.000000000000000000e+00,1.000000000000000000e+00,1.000000000000000000e+00,1.000000000000000000e+00,1.000000000000000000e+00,1.000000000000000000e+00,1.000000000000000000e+00,1.000000000000000000e+00,1.000000000000000000e+00,1.000000000000000000e+00,4.999604225158691406e-01,4.738524436950683483e-01,4.652116775512695201e-01,4.669600486755370872e-01,1.000000000000000000e+00,4.721192836761474720e-01,4.676065921783447155e-01,4.732842445373535156e-01,1.000000000000000000e+00,1.000000000000000000e+00,1.000000000000000000e+00,1.000000000000000000e+00,1.000000000000000000e+00,1.000000000000000000e+00,1.000000000000000000e+00,9.696804046630859153e-01,9.379409790039062722e-01,9.082135200500488503e-01,8.803125381469726340e-01,8.540747642517090288e-01,8.293557167053222656e-01,8.060282707214355691e-01,7.839771270751952903e-01,7.631003856658935547e-01,7.433067321777343528e-01
6.193002223968505637e-01,6.349994182586670144e-01,6.515152454376220703e-01,6.689131259918212891e-01,6.872657299041747825e-01,7.066537380218506081e-01,7.271674156188965288e-01,7.489077091217041238e-01,7.719880104064941184e-01,7.965361595153808150e-01,8.226967811584472434e-01,8.506340980529785156e-01,8.805351257324218750e-01,9.126028060913086160e-01,9.470943450927734597e-01,9.842955589294433150e-01,1.000000000000000000e+00,1.000000000000000000e+00,1.000000000000000000e+00,1.000000000000000000e+00,1.000000000000000000e+00,1.000000000000000000e+00,1.000000000000000000e+00,1.000000000000000000e+00,1.000000000000000000e+00,1.000000000000000000e+00,1.000000000000000000e+00,1.000000000000000000e+00,1.000000000000000000e+00,1.000000000000000000e+00,1.000000000000000000e+00,1.000000000000000000e+00,1.000000000000000000e+00,1.000000000000000000e+00,1.000000000000000000e+00,1.000000000000000000e+00,1.000000000000000000e+00,1.000000000000000000e+00,1.000000000000000000e+00,1.000000000000000000e+00,1.000000000000000000e+00,1.000000000000000000e+00,1.000000000000000000e+00,1.000000000000000000e+00,1.000000000000000000e+00,1.000000000000000000e+00,1.000000000000000000e+00,1.000000000000000000e+00,1.000000000000000000e+00,1.000000000000000000e+00,1.000000000000000000e+00,1.000000000000000000e+00,1.000000000000000000e+00,1.000000000000000000e+00,1.000000000000000000e+00,4.967747211456298717e-01,4.816995143890380748e-01,4.739019870758056641e-01,1.000000000000000000e+00,4.842012405395507701e-01,4.748211860656738059e-01,4.711658954620361328e-01,1.000000000000000000e+00,1.000000000000000000e+00,1.000000000000000000e+00,1.000000000000000000e+00,1.000000000000000000e+00,1.000000000000000000e+00,1.000000000000000000e+00,1.000000000000000000e+00,9.697053909301758257e-01,9.379644393920898438e-01,9.082355499267578125e-01,8.803337097167969194e-01,8.540957450866699663e-01,8.293764114379882368e-01,8.060478210449218972e-01,7.839956760406494585e-01,7.631180286407470703e-01,7.433233737945557085e-01
6.192870140075683594e-01,6.349855422973632590e-01,6.515006542205810103e-01,6.688977241516113059e-01,6.872494697570801225e-01,7.066365242004394309e-01,7.271492481231689453e-01,7.488883972167968972e-01,7.719675064086913840e-01,7.965143203735352007e-01,8.226734161376952903e-01,8.506092071533203347e-01,8.805088996887207031e-01,9.125871658325195312e-01,9.470911026000976562e-01,9.842955589294433150e-01,1.000000000000000000e+00,1.000000000000000000e+00,1.000000000000000000e+00,1.000000000000000000e+00,1.000000000000000000e+00,1.000000000000000000e+00,1.000000000000000000e+00,1.000000000000000000e+00,1.000000000000000000e+00,1.000000000000000000e+00,1.000000000000000000e+00,1.000000000000000000e+00,1.000000000000000000e+00,1.000000000000000000e+00,1.000000000000000000e+00,1.000000000000000000e+00,1.000000000000000000e+00,1.000000000000000000e+00,1.000000000000000000e+00,1.000000000000000000e+00,1.000000000000000000e+00,1.000000000000000000e+00,1.000000000000000000e+00,1.000000000000000000e+00,1.000000000000000000e+00,1.000000000000000000e+00,1.000000000000000000e+00,1.000000000000000000e+00,1.000000000000000000e+00,1.000000000000000000e+00,1.000000000000000000e+00,1.000000000000000000e+00,1.000000000000000000e+00,1.000000000000000000e+00,1.000000000000000000e+00,1.000000000000000000e+00,1.000000000000000000e+00,1.000000000000000000e+00,1.000000000000000000e+00,5.039808750152587891e-01,4.933048248291015403e-01,4.989407062530517578e-01,1.000000000000000000e+00,4.853569507598877175e-01,4.782760620117187389e-01,4.750897407531738392e-01,1.000000000000000000e+00,1.000000000000000000e+00,1.000000000000000000e+00,1.000000000000000000e+00,1.000000000000000000e+00,1.000000000000000000e+00,1.000000000000000000e+00,1.000000000000000000e+00,9.697304725646972434e-01,9.379890441894531694e-01,9.082597732543945535e-01,8.803570747375488725e-01,8.541176795959473100e-01,8.293972015380859375e-01,8.060673713684082253e-01,7.840142250061035156e-01,7.631355285644531028e-01,7.433400154113769531e-01
6.192738533020019087e-01,6.349717140197753684e-01,6.514861106872558150e-01,6.688824176788330522e-01,6.872332572937012163e-01,7.066194057464599831e-01,7.271311283111572266e-01,7.488691806793212891e-01,7.719470500946045144e-01,7.964925765991210938e-01,8.226502418518066850e-01,8.505843162536621538e-01,8.804821968078613281e-01,9.125585556030273438e-01,9.470602035522460715e-01,9.842733383178711160e-01,1.000000000000000000e+00,1.000000000000000000e+00,1.000000000000000000e+00,1.000000000000000000e+00,1.000000000000000000e+00,1.000000000000000000e+00,1.000000000000000000e+00,1.000000000000000000e+00,1.000000000000000000e+00,1.000000000000000000e+00,1.000000000000000000e+00,1.000000000000000000e+00,1.000000000000000000e+00,1.000000000000000000e+00,1.000000000000000000e+00,1.000000000000000000e+00,1.000000000000000000e+00,1.000000000000000000e+00,1.000000000000000000e+00,1.000000000000000000e+00,1.000000000000000000e+00,1.000000000000000000e+00,1.000000000000000000e+00,1.000000000000000000e+00,1.000000000000000000e+00,1.000000000000000000e+00,1.000000000000000000e+00,1.000000000000000000e+00,1.000000000000000000e+00,1.000000000000000000e+00,1.000000000000000000e+00,1.000000000000000000e+00,1.000000000000000000e+00,1.000000000000000000e+00,1.000000000000000000e+00,1.000000000000000000e+00,1.000000000000000000e+00,1.000000000000000000e+00,1.000000000000000000e+00,5.117596149444579856e-01,5.042883872985839400e-01,1.000000000000000000e+00,1.000000000000000000e+00,4.849999904632568137e-01,4.790807247161865123e-01,4.771536350250243919e-01,1.000000000000000000e+00,1.000000000000000000e+00,1.000000000000000000e+00,1.000000000000000000e+00,1.000000000000000000e+00,1.000000000000000000e+00,1.000000000000000000e+00,1.000000000000000000e+00,9.697588920593261941e-01,9.380156517028808150e-01,9.082846641540527344e-01,8.803804397583008257e-01,8.541397094726562722e-01,8.294178962707519087e-01,8.060870170593261719e-01,7.840326786041259544e-01,7.631530761718750000e-01,7.433567523956299272e-01
6.192606925964355691e-01,6.349578380584717241e-01,6.514714717864990012e-01,6.688670158386230691e-01,6.872169971466064453e-01,7.066022396087646706e-01,7.271129131317138894e-01,7.488498687744140625e-01,7.719265460968017800e-01,7.964707374572753684e-01,8.226268768310547319e-01,8.505594253540038618e-01,8.804555892944335715e-01,9.125298500061035378e-01,9.470293998718262163e-01,9.842399597167968972e-01,1.000000000000000000e+00,1.000000000000000000e+00,1.000000000000000000e+00,1.000000000000000000e+00,1.000000000000000000e+00,1.000000000000000000e+00,1.000000000000000000e+00,1.000000000000000000e+00,1.000000000000000000e+00,1.000000000000000000e+00,1.000000000000000000e+00,1.000000000000000000e+00,1.000000000000000000e+00,1.000000000000000000e+00,1.000000000000000000e+00,1.000000000000000000e+00,1.000000000000000000e+00,1.000000000000000000e+00,1.000000000000000000e+00,1.000000000000000000e+00,1.000000000000000000e+00,1.000000000000000000e+00,1.000000000000000000e+00,1.000000000000000000e+00,1.000000000000000000e+00,1.000000000000000000e+00,1.000000000000000000e+00,1.000000000000000000e+00,1.000000000000000000e+00,1.000000000000000000e+00,1.000000000000000000e+00,1.000000000000000000e+00,1.000000000000000000e+00,1.000000000000000000e+00,1.000000000000000000e+00,1.000000000000000000e+00,1.000000000000000000e+00,1.000000000000000000e+00,1.000000000000000000e+00,5.222201824188232866e-01,5.208434581756591353e-01,1.000000000000000000e+00,1.000000000000000000e+00,4.849541664123535045e-01,4.797533988952636941e-01,4.791994571685790905e-01,1.000000000000000000e+00,1.000000000000000000e+00,1.000000000000000000e+00,1.000000000000000000e+00,1.000000000000000000e+00,1.000000000000000000e+00,1.000000000000000000e+00,1.000000000000000000e+00,9.697872161865234153e-01,9.380421638488769531e-01,9.083095550537109153e-01,8.804038047790527788e-01,8.541617393493652344e-01,8.294386863708496094e-01,8.061065673828125000e-01,7.840512752532958762e-01,7.631707191467285156e-01,7.433733463287353072e-01
6.192474842071533647e-01,6.349439620971679688e-01,6.514568805694580522e-01,6.688516139984130859e-01,6.872007369995116743e-01,7.065850734710693581e-01,7.270946979522705522e-01,7.488305568695068359e-01,7.719060420989990456e-01,7.964488983154296431e-01,8.226036071777343972e-01,8.505345344543456809e-01,8.804288864135741965e-01,9.125012397766113503e-01,9.469985008239746316e-01,9.842066764831542969e-01,1.000000000000000000e+00,1.000000000000000000e+00,1.000000000000000000e+00,1.000000000000000000e+00,1.000000000000000000e+00,1.000000000000000000e+00,1.000000000000000000e+00,1.000000000000000000e+00,1.000000000000000000e+00,1.000000000000000000e+00,1.000000000000000000e+00,1.000000000000000000e+00,1.000000000000000000e+00,1.000000000000000000e+00,1.000000000000000000e+00,1.000000000000000000e+00,1.000000000000000000e+00,1.000000000000000000e+00,1.000000000000000000e+00,1.000000000000000000e+00,1.000000000000000000e+00,1.000000000000000000e+00,1.000000000000000000e+00,1.000000000000000000e+00,1.000000000000000000e+00,1.000000000000000000e+00,1.000000000000000000e+00,1.000000000000000000e+00,1.000000000000000000e+00,1.000000000000000000e+00,1.000000000000000000e+00,1.000000000000000000e+00,1.000000000000000000e+00,1.000000000000000000e+00,1.000000000000000000e+00,1.000000000000000000e+00,1.000000000000000000e+00,1.000000000000000000e+00,5.610978126525878462e-01,5.348380088806152788e-01,1.000000000000000000e+00,1.000000000000000000e+00,1.000000000000000000e+00,4.851327419281005748e-01,4.803997516632080300e-01,1.000000000000000000e+00,1.000000000000000000e+00,1.000000000000000000e+00,1.000000000000000000e+00,1.000000000000000000e+00,1.000000000000000000e+00,1.000000000000000000e+00,1.000000000000000000e+00,1.000000000000000000e+00,9.698155403137207475e-01,9.380686759948730913e-01,9.083344459533690962e-01,8.804271697998047319e-01,8.541836738586425781e-01,8.294594764709473100e-01,8.061261177062988281e-01,7.840698242187500444e-01,7.631882190704345481e-01,7.433899879455566628e-01
6.192342758178710493e-01,6.349300861358642134e-01,6.514422416687011275e-01,6.688362121582031028e-01,6.871844768524170144e-01,7.065678596496581809e-01,7.270765304565429688e-01,7.488112926483154741e-01,7.718855381011963113e-01,7.964270591735840288e-01,8.225804328918456809e-01,8.505097389221191184e-01,8.804022789001464400e-01,9.124726295471191628e-01,9.469676971435546653e-01,9.841733932495116965e-01,1.000000000000000000e+00,1.000000000000000000e+00,1.000000000000000000e+00,1.000000000000000000e+00,1.000000000000000000e+00,1.000000000000000000e+00,1.000000000000000000e+00,1.000000000000000000e+00,1.000000000000000000e+00,1.000000000000000000e+00,1.000000000000000000e+00,1.000000000000000000e+00,1.000000000000000000e+00,1.000000000000000000e+00,1.000000000000000000e+00,1.000000000000000000e+00,1.000000000000000000e+00,1.000000000000000000e+00,1.000000000000000000e+00,1.000000000000000000e+00,1.000000000000000000e+00,1.000000000000000000e+00,1.000000000000000000e+00,1.000000000000000000e+00,1.000000000000000000e+00,1.000000000000000000e+00,1.000000000000000000e+00,1.000000000000000000e+00,1.000000000000000000e+00,1.000000000000000000e+00,1.000000000000000000e+00,1.000000000000000000e+00,1.000000000000000000e+00,1.000000000000000000e+00,1.000000000000000000e+00,1.000000000000000000e+00,1.000000000000000000e+00,1.000000000000000000e+00,5.539115428924560325e-01,5.459454059600830078e-01,1.000000000000000000e+00,1.000000000000000000e+00,1.000000000000000000e+00,4.858572959899902233e-01,4.812714576721191517e-01,1.000000000000000000e+00,1.000000000000000000e+00,1.000000000000000000e+00,1.000000000000000000e+00,1.000000000000000000e+00,1.000000000000000000e+00,1.000000000000000000e+00,1.000000000000000000e+00,1.000000000000000000e+00,9.698439598083495872e-01,9.380951881408691184e-01,9.083592414855956587e-01,8.804506301879883035e-01,8.542057037353515403e-01,8.294801712036132812e-01,8.061457633972167747e-01,7.840883255004882368e-01,7.632057666778564453e-01,7.434066295623779075e-01
6.192210674285888450e-01,6.349162101745605691e-01,6.514276504516601785e-01,6.688208103179931197e-01,6.871682167053222434e-01,7.065506935119628684e-01,7.270583152770996316e-01,7.487919807434082475e-01,7.718650341033935769e-01,7.964052200317383035e-01,8.225570678710937278e-01,8.504848480224609375e-01,8.803755760192870650e-01,9.124439239501953569e-01,9.469367980957030806e-01,9.841400146484374778e-01,1.000000000000000000e+00,1.000000000000000000e+00,1.000000000000000000e+00,1.000000000000000000e+00,1.000000000000000000e+00,1.000000000000000000e+00,1.000000000000000000e+00,1.000000000000000000e+00,1.000000000000000000e+00,1.000000000000000000e+00,1.000000000000000000e+00,1.000000000000000000e+00,1.000000000000000000e+00,1.000000000000000000e+00,1.000000000000000000e+00,1.000000000000000000e+00,1.000000000000000000e+00,1.000000000000000000e+00,1.000000000000000000e+00,1.000000000000000000e+00,1.000000000000000000e+00,1.000000000000000000e+00,1.000000000000000000e+00,1.000000000000000000e+00,1.000000000000000000e+00,1.000000000000000000e+00,1.000000000000000000e+00,1.000000000000000000e+00,1.000000000000000000e+00,1.000000000000000000e+00,1.000000000000000000e+00,1.000000000000000000e+00,1.000000000000000000e+00,1.000000000000000000e+00,1.000000000000000000e+00,1.000000000000000000e+00,1.000000000000000000e+00,1.000000000000000000e+00,5.519776344299316406e-01,5.473640441894531694e-01,1.000000000000000000e+00,1.000000000000000000e+00,1.000000000000000000e+00,4.865361690521240456e-01,4.821503162384033203e-01,1.000000000000000000e+00,1.000000000000000000e+00,1.000000000000000000e+00,1.000000000000000000e+00,1.000000000000000000e+00,1.000000000000000000e+00,1.000000000000000000e+00,1.000000000000000000e+00,1.000000000000000000e+00,9.698722839355469194e-01,9.381217956542968750e-01,9.083841323852539507e-01,8.804738998413086382e-01,8.542277336120605025e-01,8.295008659362792525e-01,8.061653137207031028e-01,7.841069221496581587e-01,7.632233619689940962e-01,7.434233665466308816e-01
6.192079544067382590e-01,6.349023818969726785e-01,6.514131069183349831e-01,6.688055038452148660e-01,6.871520519256592019e-01,7.065335750579834206e-01,7.270401954650879128e-01,7.487727642059326394e-01,7.718446254730224609e-01,7.963834762573241965e-01,8.225338935852051225e-01,8.504599571228027566e-01,8.803489685058594194e-01,9.124153137207031694e-01,9.469059944152832253e-01,9.710528373718261275e-01,9.708129882812499556e-01,9.705732345581055132e-01,9.703336715698241965e-01,9.700941085815429910e-01,9.698547363281250222e-01,9.696154594421386719e-01,9.693762779235839400e-01,9.691372871398925559e-01,9.688984870910644087e-01,9.686596870422363725e-01,9.684209823608398438e-01,9.681823730468750444e-01,9.679439544677734819e-01,9.677056312561035378e-01,9.674674034118652122e-01,9.672292709350586160e-01,9.669913291931152566e-01,9.667534828186035156e-01,9.665158271789551225e-01,9.662781715393066184e-01,9.660406112670898438e-01,9.658032417297363059e-01,9.655659675598144975e-01,9.653288841247558150e-01,9.650918006896972434e-01,9.648549079895019087e-01,9.646181106567383035e-01,9.643814086914062056e-01,9.641448020935058372e-01,9.639083862304687056e-01,9.636720657348633035e-01,9.634358406066894087e-01,9.631997108459472434e-01,9.629636764526366965e-01,9.627278327941894975e-01,9.624920845031738059e-01,9.622564315795898438e-01,9.620208740234375000e-01,5.518633365631103738e-01,5.480940341949462891e-01,9.613150596618652566e-01,9.610799789428711160e-01,9.608449935913085938e-01,4.872169494628906250e-01,4.855654716491699108e-01,9.601408004760741965e-01,9.599062919616698775e-01,9.596718788146972878e-01,9.594376564025879350e-01,9.592035293579102007e-01,9.589694976806640847e-01,9.587355613708495872e-01,9.585017204284668191e-01,9.582680702209472878e-01,9.580345153808593750e-01,9.381483078002930132e-01,9.084091186523437500e-01,8.804973602294922097e-01,8.542496681213378462e-01,8.295216560363769531e-01,8.061849594116210493e-01,7.841254234313964622e-01,7.632409095764159934e-01,7.434399604797363725e-01
6.191947460174560547e-01,6.348885059356689231e-01,6.513985157012939231e-01,6.687901020050048828e-01,6.871357917785644309e-01,7.065164089202881081e-01,7.270219802856445757e-01,7.487534523010254128e-01,7.542666912078856978e-01,7.541219711303710493e-01,7.539772510528564009e-01,7.538326740264892356e-01,7.536880970001220703e-01,7.535436153411865234e-01,7.533991336822509766e-01,7.532547950744629128e-01,7.531104087829589844e-01,7.529661655426025391e-01,7.528219699859619585e-01,7.526777744293212669e-01,7.525336742401123047e-01,7.523895740509033425e-01,7.522456169128417525e-01,7.521016597747802734e-01,7.519577980041504128e-01,7.518138885498046875e-01,7.516701698303223100e-01,7.515264511108398215e-01,7.513827323913574441e-01,7.512391567230224387e-01,7.510955810546875444e-01,7.509521007537841575e-01,7.508085727691650169e-01,7.506652355194092241e-01,7.505218505859374556e-01,7.503786087036132812e-01,7.502353191375732422e-01,7.500921726226806863e-01,7.499490737915038840e-01,7.498059749603271928e-01,7.496629714965820090e-01,7.495199680328369363e-01,7.493771076202392356e-01,7.492341995239257812e-01,7.490914344787598100e-01,7.489486694335937278e-01,7.488059997558593750e-01,7.486634254455566406e-01,7.485208034515380415e-01,7.483783245086670366e-01,7.482357978820800559e-01,7.480934143066406694e-01,7.479509830474853072e-01,7.478087425231934038e-01,7.476664543151855247e-01,5.482821941375732866e-01,7.473820686340332253e-01,7.472400188446044478e-01,7.470980167388916460e-01,4.890116214752197044e-01,7.468141078948974387e-01,7.466722011566162553e-01,7.465303897857665794e-01,7.463885784149170144e-01,7.462469100952148215e-01,7.461051940917968750e-01,7.459636211395264116e-01,7.458220958709717019e-01,7.456805706024169922e-01,7.455391407012939009e-01,7.453977108001709206e-01,7.452564239501953125e-01,7.451150894165039507e-01,7.449738979339599609e-01,7.448326587677002175e-01,7.446915626525878462e-01,7.445504665374755859e-01,7.444094657897949441e-01,7.442685127258300559e-01,7.434566020965576172e-01
6.167063236236571822e-01,6.166095256805419478e-01,6.165128231048584428e-01,6.164161205291748269e-01,6.163194179534912109e-01,6.162228107452392134e-01,6.161262035369873269e-01,6.160296440124511941e-01,6.159330844879150613e-01,6.158365726470946822e-01,6.157401561737060325e-01,6.156436443328857644e-01,6.155472755432128684e-01,6.154508590698242188e-01,6.153544902801513228e-01,6.152581691741942915e-01,6.151618957519531250e-01,6.150655746459960938e-01,6.149693489074706809e-01,6.148731708526611328e-01,6.147769927978515847e-01,6.146808624267577903e-01,6.145846843719482422e-01,6.144886493682861772e-01,6.143925666809082475e-01,6.142965316772460715e-01,6.142005443572997603e-01,6.141046047210693137e-01,6.140086174011230025e-01,6.139127254486084206e-01,6.138168811798095925e-01,6.137209892272948997e-01,6.136251926422119363e-01,6.135293960571288618e-01,6.134336471557617632e-01,6.133378982543945535e-01,6.132422447204589622e-01,6.131465435028076172e-01,6.130509376525878906e-01,6.129553794860840288e-01,6.128597259521484375e-01,6.127642154693603294e-01,6.126686573028564675e-01,6.125731945037842241e-01,6.124777317047118697e-01,6.123823165893554910e-01,6.122869014739990012e-01,6.121915340423583762e-01,6.120961666107177512e-01,6.120008945465087447e-01,6.119056224822998491e-01,6.118103504180908425e-01,6.117151260375977007e-01,6.116199493408203125e-01,6.115247726440429243e-01,6.114296436309814009e-01,6.113345623016357422e-01,6.112394332885742188e-01,6.111443996429443137e-01,4.793842315673828014e-01,4.820749759674072266e-01,6.108594894409179465e-01,6.107645511627197710e-01,6.106696605682373491e-01,6.105747699737549272e-01,6.104799270629882590e-01,6.103850841522217019e-01,6.102903366088867632e-01,6.101955890655517134e-01,6.101008892059326394e-01,6.100061893463134544e-01,6.099115371704101340e-01,6.098169326782226785e-01,6.097222805023193581e-01,6.096277236938476562e-01,6.095331668853759544e-01,6.094386577606201172e-01,6.093441486358642800e-01,6.092497348785400613e-01,6.091552734374999778e-01
5.210289001464843972e-01,5.209598541259765625e-01,5.208907604217529741e-01,5.208217620849608931e-01,5.207527637481689231e-01,5.206837654113769531e-01,5.206147670745849831e-01,5.205458641052246316e-01,5.204768657684326616e-01,5.204079627990723100e-01,5.203390598297119585e-01,5.202702045440673606e-01,5.202013492584228738e-01,5.201324939727782759e-01,5.200636386871337891e-01,5.199948787689209206e-01,5.199260711669921875e-01,5.198573112487793191e-01,5.197885513305664507e-01,5.197198390960693359e-01,5.196510791778564675e-01,5.195824146270752175e-01,5.195137500762939675e-01,5.194450855255127175e-01,5.193764209747314675e-01,5.193078041076659712e-01,5.192391872406005859e-01,5.191706180572509544e-01,5.191020488739013228e-01,5.190334796905518022e-01,5.189649581909179243e-01,5.188964366912841575e-01,5.188279151916503906e-01,5.187594890594482422e-01,5.186910152435302290e-01,5.186225891113280806e-01,5.185541152954101785e-01,5.184857368469237837e-01,5.184173107147216353e-01,5.183489799499512163e-01,5.182806015014648215e-01,5.182122707366942915e-01,5.181439876556396262e-01,5.180756568908690962e-01,5.180073738098144309e-01,5.179390907287597656e-01,5.178709030151367188e-01,5.178026199340820535e-01,5.177344322204590066e-01,5.176662445068359597e-01,5.175980567932129128e-01,5.175299167633056197e-01,5.174617767333984375e-01,5.173936843872070090e-01,5.173255443572998269e-01,5.172574996948242632e-01,5.171894073486328347e-01,5.171214103698730247e-01,5.170533180236815962e-01,4.678807735443115123e-01,4.649619102478027566e-01,5.168493747711181419e-01,5.167814254760741965e-01,5.167134761810302512e-01,5.166455745697021706e-01,5.165776252746582253e-01,5.165097713470458984e-01,5.164418697357178178e-01,5.163740634918212447e-01,5.163062095642090288e-01,5.162384033203124556e-01,5.161705970764159934e-01,5.161028385162353960e-01,5.160350799560546875e-01,5.159673213958739790e-01,5.158996105194091353e-01,5.158318519592285378e-01,5.157641887664794478e-01,5.156964778900146040e-01,5.156288623809814897e-01
4.510516166687011941e-01,4.509998321533202903e-01,4.509480953216552512e-01,4.508963584899902122e-01,4.508446216583251731e-01,4.507929325103759988e-01,4.507412433624267689e-01,4.506895065307617299e-01,4.506378650665283092e-01,4.505861759185790794e-01,4.505345344543457142e-01,4.504828929901122936e-01,4.504312515258789285e-01,4.503796577453613170e-01,4.503280639648437611e-01,4.502764701843261497e-01,4.502248764038085938e-01,4.501733303070068470e-01,4.501217842102051003e-01,4.500701904296874889e-01,4.500186920166015514e-01,4.499671459197998047e-01,4.499156475067138672e-01,4.498641490936279297e-01,4.498126506805419922e-01,4.497611999511718639e-01,4.497097492218017356e-01,4.496582984924316628e-01,4.496068477630615345e-01,4.495554447174072155e-01,4.495039939880370872e-01,4.494525909423828236e-01,4.494011878967285045e-01,4.493498325347900502e-01,4.492984771728515403e-01,4.492471218109130859e-01,4.491957664489746316e-01,4.491444587707519309e-01,4.490931034088134766e-01,4.490417957305908314e-01,4.489904880523681863e-01,4.489392280578613503e-01,4.488879680633545144e-01,4.488366603851318137e-01,4.487854480743408425e-01,4.487341880798340066e-01,4.486829757690429799e-01,4.486317634582519531e-01,4.485805511474609264e-01,4.485293865203857644e-01,4.484781742095947377e-01,4.484270095825195201e-01,4.483758449554443581e-01,4.483247280120849498e-01,4.482735633850097878e-01,4.482224464416503795e-01,4.481713771820068359e-01,4.481202602386474831e-01,4.480691909790038840e-01,4.480180740356445312e-01,4.479670047760009877e-01,4.479159355163574441e-01,4.478649139404297097e-01,4.478138923645019753e-01,4.477628707885742410e-01,4.477118968963623158e-01,4.476608753204345814e-01,4.476099014282226562e-01,4.475589275360107311e-01,4.475080013275146706e-01,4.474570274353027455e-01,4.474061012268066295e-01,4.473551750183105691e-01,4.473042488098144531e-01,4.472533226013183372e-01,4.472024440765380859e-01,4.471515655517578347e-01,4.471006870269775280e-01,4.470498561859130859e-01,4.469990253448486439e-01
3.976454257965088002e-01,3.976052045822143777e-01,3.975650072097778320e-01,3.975247859954834095e-01,3.974845647811889870e-01,3.974443674087524414e-01,3.974042177200317605e-01,3.973640203475952148e-01,3.973238468170166016e-01,3.972836732864379883e-01,3.972434997558593750e-01,3.972033977508545033e-01,3.971632480621337669e-01,3.971230983734130859e-01,3.970829725265502819e-01,3.970428943634033425e-01,3.970027685165405384e-01,3.969626665115356667e-01,3.969225645065307395e-01,3.968825101852416770e-01,3.968424320220947377e-01,3.968023538589477428e-01,3.967622756958008035e-01,3.967222690582275502e-01,3.966822147369384877e-01,3.966421604156494252e-01,3.966021299362182395e-01,3.965621471405029186e-01,3.965221405029296653e-01,3.964821100234985352e-01,3.964421749114990234e-01,3.964021682739257701e-01,3.963621854782104492e-01,3.963222026824951283e-01,3.962822675704956166e-01,3.962423086166381725e-01,3.962023496627807839e-01,3.961624383926391491e-01,3.961225032806396373e-01,3.960825681686401256e-01,3.960426568984985463e-01,3.960027933120727761e-01,3.959628820419311412e-01,3.959229707717895619e-01,3.958830833435058594e-01,3.958432435989379661e-01,3.958033561706543191e-01,3.957634925842284934e-01,3.957236766815185325e-01,3.956838369369506947e-01,3.956439971923828014e-01,3.956041574478149636e-01,3.955643653869628795e-01,3.955245494842529186e-01,3.954847335815429576e-01,3.954449415206909291e-01,3.954051733016967773e-01,3.953654050827026256e-01,3.953256130218505970e-01,3.952858924865722545e-01,3.952461242675781028e-01,3.952063798904418834e-01,3.951666116714477317e-01,3.951269388198852539e-01,3.950871944427490345e-01,3.950474739074706920e-01,3.950077533721924050e-01,3.949681043624878041e-01,3.949283838272094616e-01,3.948887109756469838e-01,3.948490619659423828e-01,3.948093891143799050e-01,3.947697162628173717e-01,3.947300672531127708e-01,3.946904420852661022e-01,3.946508169174194336e-01,3.946111679077148326e-01,3.945715904235839733e-01,3.945319652557373047e-01,3.944923639297485130e-01
3.555473327636718972e-01,3.555151700973510631e-01,3.554830551147460938e-01,3.554508924484253152e-01,3.554187297821044811e-01,3.553865909576415794e-01,3.553544521331787331e-01,3.553223371505737083e-01,3.552902221679687389e-01,3.552580833435058372e-01,3.552259683609008678e-01,3.551939010620117076e-01,3.551617860794067383e-01,3.551296949386596458e-01,3.550976037979126088e-01,3.550655364990234486e-01,3.550334692001342884e-01,3.550013780593871959e-01,3.549693107604980358e-01,3.549372434616088756e-01,3.549052238464355247e-01,3.548731565475463645e-01,3.548411130905151367e-01,3.548090696334839089e-01,3.547770738601684348e-01,3.547450304031372070e-01,3.547130107879638561e-01,3.546809911727905051e-01,3.546490192413330189e-01,3.546169996261596680e-01,3.545850038528442494e-01,3.545530557632446400e-01,3.545210599899292214e-01,3.544890642166137473e-01,3.544570922851562611e-01,3.544251441955566517e-01,3.543931722640991100e-01,3.543612241744995006e-01,3.543292522430420144e-01,3.542973518371582142e-01,3.542654037475586049e-01,3.542334556579589955e-01,3.542015552520751953e-01,3.541696310043335183e-01,3.541377067565917858e-01,3.541058063507079856e-01,3.540739297866821178e-01,3.540420293807983176e-01,3.540101289749145730e-01,3.539782762527465820e-01,3.539463758468627819e-01,3.539144992828369141e-01,3.538826227188110463e-01,3.538507938385009877e-01,3.538189172744751199e-01,3.537870645523071289e-01,3.537552118301391380e-01,3.537234067916870117e-01,3.536915540695190208e-01,3.536597251892089622e-01,3.536279201507568359e-01,3.535960912704467773e-01,3.535642862319946511e-01,3.535324573516845925e-01,3.535006999969482200e-01,3.534688949584960938e-01,3.534370899200439675e-01,3.534053087234497181e-01,3.533735513687134011e-01,3.533417940139770286e-01,3.533100128173828347e-01,3.532782793045043945e-01,3.532465219497680775e-01,3.532147645950317605e-01,3.531830072402953880e-01,3.531512975692748801e-01,3.531195640563964955e-01,3.530878543853759877e-01,3.530561208724975475e-01,3.530244350433349720e-01
3.215096235275268777e-01,3.214833259582519642e-01,3.214570283889770508e-01,3.214307546615600697e-01,3.214044570922851562e-01,3.213781595230102428e-01,3.213518857955932617e-01,3.213256359100341575e-01,3.212993621826171764e-01,3.212730884552001953e-01,3.212468147277832142e-01,3.212205648422241100e-01,3.211943149566650613e-01,3.211680650711059570e-01,3.211418151855468528e-01,3.211155652999878041e-01,3.210893630981445090e-01,3.210631370544433372e-01,3.210368871688842884e-01,3.210106611251831166e-01,3.209844589233398215e-01,3.209582567214965820e-01,3.209320306777954102e-01,3.209058284759521706e-01,3.208796024322509988e-01,3.208534479141235130e-01,3.208272457122802734e-01,3.208010435104370339e-01,3.207748651504516713e-01,3.207487106323242410e-01,3.207225084304809459e-01,3.206963300704955833e-01,3.206701993942260853e-01,3.206440210342407227e-01,3.206178665161132924e-01,3.205917119979858620e-01,3.205655813217163086e-01,3.205394268035888783e-01,3.205132722854614480e-01,3.204871416091918945e-01,3.204610347747802734e-01,3.204348802566528431e-01,3.204087495803832897e-01,3.203826665878296009e-01,3.203565359115600475e-01,3.203304290771484264e-01,3.203043222427368053e-01,3.202782392501831166e-01,3.202521324157714955e-01,3.202260255813598744e-01,3.201999187469482533e-01,3.201738595962524414e-01,3.201477766036987527e-01,3.201216936111450084e-01,3.200956583023071289e-01,3.200695753097534402e-01,3.200434923171996959e-01,3.200174331665038840e-01,3.199913978576660045e-01,3.199653387069701926e-01,3.199392795562744363e-01,3.199132442474365012e-01,3.198872089385986217e-01,3.198611736297607422e-01,3.198351383209228627e-01,3.198091268539428600e-01,3.197831153869629128e-01,3.197570800781249778e-01,3.197310686111450306e-01,3.197050809860229603e-01,3.196790695190429576e-01,3.196530580520630105e-01,3.196270465850830078e-01,3.196010828018188699e-01,3.195750951766967995e-01,3.195491075515747292e-01,3.195231437683105358e-01,3.194971561431884655e-01,3.194711923599243275e-01,3.194452047348022572e-01
2.934195995330810547e-01,2.933976888656616433e-01,2.933757781982421764e-01,2.933538675308227650e-01,2.933320045471191628e-01,2.933100938796996959e-01,2.932882070541381614e-01,2.932663202285766824e-01,2.932444572448730247e-01,2.932225704193115456e-01,2.932006835937500111e-01,2.931788206100464089e-01,2.931569576263427512e-01,2.931350946426391491e-01,2.931132316589355469e-01,2.930913686752319447e-01,2.930695056915283425e-01,2.930476665496826172e-01,2.930258035659790150e-01,2.930039644241332897e-01,2.929821014404296875e-01,2.929602861404418945e-01,2.929384469985961692e-01,2.929166078567504994e-01,2.928947687149047741e-01,2.928729534149169811e-01,2.928511381149291881e-01,2.928292989730835183e-01,2.928074836730957253e-01,2.927856683731079324e-01,2.927638769149780162e-01,2.927420616149902233e-01,2.927202463150024303e-01,2.926984548568725697e-01,2.926766633987426536e-01,2.926548719406127930e-01,2.926330804824829324e-01,2.926113128662109486e-01,2.925895214080810325e-01,2.925677299499511719e-01,2.925459384918213113e-01,2.925241947174072044e-01,2.925024032592773438e-01,2.924806356430053600e-01,2.924588680267333762e-01,2.924371242523193248e-01,2.924153566360473411e-01,2.923936128616332897e-01,2.923718690872192383e-01,2.923501253128051869e-01,2.923283576965332031e-01,2.923066139221191517e-01,2.922848939895629772e-01,2.922631502151489258e-01,2.922414302825927512e-01,2.922197103500366322e-01,2.921979904174804576e-01,2.921762466430664062e-01,2.921545267105102317e-01,2.921328306198119895e-01,2.921111106872558705e-01,2.920893907546996959e-01,2.920676946640014537e-01,2.920459985733032116e-01,2.920243024826049694e-01,2.920025825500488503e-01,2.919809103012084850e-01,2.919592142105102428e-01,2.919375181198120006e-01,2.919158458709716908e-01,2.918941736221313255e-01,2.918725013732910156e-01,2.918508052825927734e-01,2.918291330337524636e-01,2.918074846267700306e-01,2.917858123779296653e-01,2.917641401290893555e-01,2.917425155639648549e-01,2.917208433151244895e-01,2.916991949081421120e-01
2.698435783386230469e-01,2.698250532150268666e-01,2.698065280914306863e-01,2.697880029678344505e-01,2.697695016860962025e-01,2.697509765625000222e-01,2.697324514389037864e-01,2.697139501571655384e-01,2.696954488754272350e-01,2.696769475936889870e-01,2.696584224700927512e-01,2.696399211883545033e-01,2.696214199066161998e-01,2.696029424667358287e-01,2.695844411849975808e-01,2.695659399032592773e-01,2.695474624633789062e-01,2.695289850234985352e-01,2.695105075836181641e-01,2.694920063018798606e-01,2.694735288619994895e-01,2.694550752639770508e-01,2.694365978240966797e-01,2.694181203842163086e-01,2.693996667861938699e-01,2.693811893463134988e-01,2.693627357482910045e-01,2.693442821502685658e-01,2.693258047103881947e-01,2.693073511123657005e-01,2.692889213562011941e-01,2.692704677581786998e-01,2.692520141601562611e-01,2.692335605621337669e-01,2.692151069641113281e-01,2.691966772079467662e-01,2.691782474517822044e-01,2.691598176956176980e-01,2.691413879394531361e-01,2.691229581832885742e-01,2.691045284271240123e-01,2.690860986709594505e-01,2.690676927566528209e-01,2.690492630004882590e-01,2.690308332443237527e-01,2.690124273300170676e-01,2.689940214157104381e-01,2.689756155014038086e-01,2.689572095870971791e-01,2.689388036727905495e-01,2.689203977584838645e-01,2.689019918441772350e-01,2.688835859298706055e-01,2.688652276992797852e-01,2.688468217849731556e-01,2.688284158706665261e-01,2.688100337982177734e-01,2.687916755676269531e-01,2.687732696533203236e-01,2.687548875808715709e-01,2.687365293502807506e-01,2.687181472778320535e-01,2.686997652053833008e-01,2.686814069747924805e-01,2.686630487442016602e-01,2.686446905136108398e-01,2.686263084411620872e-01,2.686079740524291992e-01,2.685896158218383789e-01,2.685712575912475586e-01,2.685528993606567383e-01,2.685345649719238503e-01,2.685162067413330300e-01,2.684978485107422097e-01,2.684795141220092662e-01,2.684611797332763783e-01,2.684428453445434348e-01,2.684245109558105469e-01,2.684062004089355358e-01,2.683878660202026478e-01
2.497744321823120173e-01,2.497585535049438588e-01,2.497426748275756725e-01,2.497267961502075140e-01,2.497109413146972601e-01,2.496950864791870062e-01,2.496792078018188477e-01,2.496633529663085938e-01,2.496474981307983398e-01,2.496316432952880859e-01,2.496157884597778320e-01,2.495999336242675781e-01,2.495840787887573242e-01,2.495682477951049749e-01,2.495523929595947210e-01,2.495365381240844671e-01,2.495206832885742132e-01,2.495048522949218639e-01,2.494890213012695424e-01,2.494731903076171931e-01,2.494573354721069391e-01,2.494415044784545898e-01,2.494256973266601451e-01,2.494098424911498912e-01,2.493940114974975697e-01,2.493782043457031250e-01,2.493623971939086803e-01,2.493465662002563588e-01,2.493307352066040095e-01,2.493149280548095648e-01,2.492990970611572155e-01,2.492832899093627985e-01,2.492674827575683538e-01,2.492516756057739369e-01,2.492358684539794922e-01,2.492200613021850475e-01,2.492042541503906306e-01,2.491884469985961859e-01,2.491726636886596735e-01,2.491568803787231334e-01,2.491410732269287165e-01,2.491252660751342718e-01,2.491094827651977595e-01,2.490936994552612194e-01,2.490779161453247070e-01,2.490621328353881947e-01,2.490463495254516546e-01,2.490305662155151423e-01,2.490147829055786022e-01,2.489989995956420898e-01,2.489832401275634821e-01,2.489674806594848744e-01,2.489516973495483343e-01,2.489359140396118220e-01,2.489201784133911188e-01,2.489043951034545787e-01,2.488886356353759710e-01,2.488728761672973633e-01,2.488571166992187556e-01,2.488413572311401478e-01,2.488255977630615123e-01,2.488098621368408092e-01,2.487941265106201061e-01,2.487783670425414984e-01,2.487626075744628906e-01,2.487468719482421875e-01,2.487311363220214844e-01,2.487154006958007812e-01,2.486996412277221735e-01,2.486839294433593750e-01,2.486681938171386719e-01,2.486524581909179688e-01,2.486367225646972656e-01,2.486210107803344671e-01,2.486052751541137640e-01,2.485895395278930609e-01,2.485738277435302623e-01,2.485581159591674916e-01,2.485423803329467884e-01,2.485266685485839899e-01
2.324838161468505970e-01,2.324700832366943248e-01,2.324563264846801758e-01,2.324425935745239313e-01,2.324288368225097545e-01,2.324151039123535101e-01,2.324013471603393610e-01,2.323876142501831166e-01,2.323738574981689398e-01,2.323601245880126953e-01,2.323463916778564509e-01,2.323326587677002064e-01,2.323189258575439342e-01,2.323051929473876898e-01,2.322914600372314453e-01,2.322777271270752009e-01,2.322639942169189564e-01,2.322502851486206166e-01,2.322365522384643444e-01,2.322228431701660045e-01,2.322091102600097601e-01,2.321954011917114202e-01,2.321816682815551758e-01,2.321679592132568359e-01,2.321542501449584961e-01,2.321405410766601562e-01,2.321268081665039118e-01,2.321131229400634766e-01,2.320994138717651367e-01,2.320857048034667969e-01,2.320719957351684570e-01,2.320582866668701172e-01,2.320446014404296819e-01,2.320308923721313421e-01,2.320171833038330023e-01,2.320034742355346624e-01,2.319898128509521595e-01,2.319761037826538197e-01,2.319624185562133845e-01,2.319487094879150446e-01,2.319350242614746094e-01,2.319213390350341741e-01,2.319076538085937389e-01,2.318939685821533314e-01,2.318803071975708008e-01,2.318666219711303655e-01,2.318529367446899303e-01,2.318392515182495228e-01,2.318255901336669922e-01,2.318119049072265569e-01,2.317982435226440541e-01,2.317845582962036188e-01,2.317708969116210882e-01,2.317572355270385853e-01,2.317435741424560547e-01,2.317299127578735241e-01,2.317162513732910212e-01,2.317025899887084905e-01,2.316889286041259877e-01,2.316752672195434570e-01,2.316616296768188588e-01,2.316479682922363281e-01,2.316343307495117299e-01,2.316206693649291992e-01,2.316070079803466686e-01,2.315933704376220703e-01,2.315797328948974720e-01,2.315660715103149414e-01,2.315524339675903431e-01,2.315387964248657171e-01,2.315251588821411188e-01,2.315115213394164928e-01,2.314978837966918945e-01,2.314842462539672963e-01,2.314706087112426702e-01,2.314569950103759766e-01,2.314433574676513783e-01,2.314297437667846569e-01,2.314161062240600586e-01,2.314024686813354603e-01
2.174321174621582087e-01,2.174201011657714844e-01,2.174080848693847601e-01,2.173960447311401312e-01,2.173840284347534069e-01,2.173719882965087780e-01,2.173599720001220814e-01,2.173479557037353571e-01,2.173359394073486328e-01,2.173239231109619085e-01,2.173119068145751842e-01,2.172998905181884877e-01,2.172878742218017634e-01,2.172758579254150391e-01,2.172638654708862194e-01,2.172518491744995228e-01,2.172398328781127985e-01,2.172278165817260742e-01,2.172158241271972545e-01,2.172038078308105580e-01,2.171918153762817383e-01,2.171797990798950140e-01,2.171678066253662220e-01,2.171558141708374023e-01,2.171438217163085826e-01,2.171318054199218861e-01,2.171198129653930664e-01,2.171078443527221791e-01,2.170958280563354548e-01,2.170838356018066351e-01,2.170718431472778431e-01,2.170598506927490234e-01,2.170478820800781361e-01,2.170358896255493164e-01,2.170238971710204967e-01,2.170119285583496094e-01,2.169999599456787220e-01,2.169879674911499023e-01,2.169759750366210826e-01,2.169640064239501953e-01,2.169520139694213756e-01,2.169400453567504883e-01,2.169280767440796009e-01,2.169161081314086859e-01,2.169041156768798939e-01,2.168921709060668834e-01,2.168802022933959961e-01,2.168682336807251088e-01,2.168562650680541937e-01,2.168442964553833063e-01,2.168323278427123912e-01,2.168203592300415039e-01,2.168084144592285212e-01,2.167964458465576061e-01,2.167845010757446234e-01,2.167725324630737360e-01,2.167605876922607533e-01,2.167486190795898382e-01,2.167366743087768555e-01,2.167247295379638727e-01,2.167127847671508900e-01,2.167008161544799749e-01,2.166888713836669922e-01,2.166769266128540095e-01,2.166649818420410267e-01,2.166530370712280162e-01,2.166410923004150335e-01,2.166291713714599554e-01,2.166172266006469727e-01,2.166052818298339899e-01,2.165933370590210072e-01,2.165814161300659291e-01,2.165694713592529186e-01,2.165575504302978405e-01,2.165456056594848577e-01,2.165336847305297796e-01,2.165217638015747015e-01,2.165098190307617188e-01,2.164978981018066406e-01,2.164859771728515625e-01
2.042109012603759710e-01,2.042002916336059515e-01,2.041896820068359319e-01,2.041790723800659124e-01,2.041684627532958929e-01,2.041578531265258734e-01,2.041472673416137584e-01,2.041366577148437389e-01,2.041260480880737194e-01,2.041154384613036998e-01,2.041048526763916127e-01,2.040942430496215931e-01,2.040836572647094782e-01,2.040730476379394587e-01,2.040624618530273438e-01,2.040518760681152288e-01,2.040412664413452093e-01,2.040306806564330944e-01,2.040200710296630748e-01,2.040095090866088923e-01,2.039988994598388727e-01,2.039883136749267578e-01,2.039777278900146429e-01,2.039671421051025280e-01,2.039565563201904408e-01,2.039459705352783259e-01,2.039353847503662109e-01,2.039247989654540960e-01,2.039142370223999134e-01,2.039036512374877985e-01,2.038930654525756836e-01,2.038825035095214733e-01,2.038719177246093861e-01,2.038613557815551758e-01,2.038507699966430609e-01,2.038402080535888783e-01,2.038296222686767634e-01,2.038190603256225530e-01,2.038084983825683705e-01,2.037979125976562556e-01,2.037873506546020452e-01,2.037767887115478627e-01,2.037662267684936523e-01,2.037556648254394420e-01,2.037450790405273549e-01,2.037345409393310491e-01,2.037239551544189342e-01,2.037134170532226562e-01,2.037028551101684459e-01,2.036922931671142634e-01,2.036817550659179576e-01,2.036711931228637751e-01,2.036606311798095648e-01,2.036500692367553822e-01,2.036395311355590765e-01,2.036289691925048939e-01,2.036184310913085882e-01,2.036078929901123102e-01,2.035973310470580999e-01,2.035867929458618220e-01,2.035762310028076116e-01,2.035656929016113337e-01,2.035551548004150280e-01,2.035446166992187500e-01,2.035340547561645397e-01,2.035235404968261663e-01,2.035130023956298884e-01,2.035024642944335826e-01,2.034919261932373047e-01,2.034813880920410267e-01,2.034708499908447210e-01,2.034603118896484431e-01,2.034497976303100697e-01,2.034392595291137640e-01,2.034287214279174860e-01,2.034181833267211803e-01,2.034076690673828069e-01,2.033971548080444336e-01,2.033866167068481556e-01,2.033761024475097545e-01
