6.194651603698730913e-01,6.351727962493896040e-01,6.516977787017822488e-01,6.691054821014403853e-01,6.874687671661376953e-01,7.068684101104736328e-01,7.273947238922119363e-01,7.491487979888915572e-01,7.722476005554199663e-01,7.968165397644042525e-01,8.230000495910644309e-01,8.509630203247070535e-01,8.808928489685058372e-01,9.130048751831054688e-01,9.475465774536132590e-01,9.848048210144042525e-01,1.000000000000000000e+00,1.000000000000000000e+00,1.000000000000000000e+00,1.000000000000000000e+00,1.000000000000000000e+00,1.000000000000000000e+00,1.000000000000000000e+00,1.000000000000000000e+00,1.000000000000000000e+00,1.000000000000000000e+00,1.000000000000000000e+00,1.000000000000000000e+00,1.000000000000000000e+00,1.000000000000000000e+00,1.000000000000000000e+00,1.000000000000000000e+00,1.000000000000000000e+00,1.000000000000000000e+00,1.000000000000000000e+00,1.000000000000000000e+00,1.000000000000000000e+00,1.000000000000000000e+00,1.000000000000000000e+00,1.000000000000000000e+00,1.000000000000000000e+00,1.000000000000000000e+00,1.000000000000000000e+00,1.000000000000000000e+00,1.000000000000000000e+00,1.000000000000000000e+00,1.000000000000000000e+00,1.000000000000000000e+00,1.000000000000000000e+00,1.000000000000000000e+00,1.000000000000000000e+00,1.000000000000000000e+00,1.000000000000000000e+00,1.000000000000000000e+00,1.000000000000000000e+00,1.000000000000000000e+00,3.709022998809814453e-01,3.681041955947875755e-01,3.570196866989135964e-01,3.470601797103881614e-01,3.422438144683838113e-01,3.397947788238525613e-01,3.374047994613647572e-01,3.404803514480591042e-01,3.527111768722533958e-01,3.498048067092895397e-01,3.472855567932128795e-01,3.460312128067016824e-01,3.511570692062377930e-01,1.000000000000000000e+00,9.693222045898437500e-01,3.565243959426879772e-01,3.480969190597534291e-01,8.800193786621093306e-01,8.537987709045410378e-01,8.290955543518065962e-01,8.057815551757812056e-01,7.837429046630859375e-01,7.628777027130126953e-01,7.430946350097655806e-01
6.194519042968750222e-01,6.351587772369384766e-01,6.516830444335937056e-01,6.690900325775146484e-01,6.874524116516113059e-01,7.068511009216308372e-01,7.273764610290527344e-01,7.491293430328369585e-01,7.722235202789307085e-01,7.967906475067139116e-01,8.229723930358886497e-01,8.509334564208984597e-01,8.808610916137695757e-01,9.129707336425780806e-01,9.475099563598632368e-01,9.847651481628417747e-01,1.000000000000000000e+00,1.000000000000000000e+00,1.000000000000000000e+00,1.000000000000000000e+00,1.000000000000000000e+00,1.000000000000000000e+00,1.000000000000000000e+00,1.000000000000000000e+00,1.000000000000000000e+00,1.000000000000000000e+00,1.000000000000000000e+00,1.000000000000000000e+00,1.000000000000000000e+00,1.000000000000000000e+00,1.000000000000000000e+00,1.000000000000000000e+00,1.000000000000000000e+00,1.000000000000000000e+00,1.000000000000000000e+00,1.000000000000000000e+00,1.000000000000000000e+00,1.000000000000000000e+00,1.000000000000000000e+00,1.000000000000000000e+00,1.000000000000000000e+00,1.000000000000000000e+00,1.000000000000000000e+00,1.000000000000000000e+00,1.000000000000000000e+00,1.000000000000000000e+00,1.000000000000000000e+00,1.000000000000000000e+00,1.000000000000000000e+00,1.000000000000000000e+00,1.000000000000000000e+00,1.000000000000000000e+00,1.000000000000000000e+00,1.000000000000000000e+00,1.000000000000000000e+00,1.000000000000000000e+00,3.690253734588623269e-01,3.661678791046142356e-01,3.558763742446899303e-01,3.453637599945068581e-01,3.411637306213378684e-01,3.387089729309081809e-01,3.363012790679931752e-01,3.376014947891235463e-01,3.518600463867187500e-01,3.480706214904785156e-01,3.454711198806762473e-01,3.431157588958740345e-01,3.485452651977539174e-01,1.000000000000000000e+00,9.693499565124511497e-01,3.455409049987793191e-01,3.423229217529296653e-01,3.411974668502807395e-01,8.538183212280273660e-01,8.291139602661132812e-01,8.057989120483398660e-01,7.837593555450439453e-01,7.628933429718017800e-01,7.431094646453857422e-01
6.194385528564453347e-01,6.351448535919189675e-01,6.516683578491211382e-01,6.690745353698730469e-01,6.874361038208007812e-01,7.068337917327880415e-01,7.273581027984619141e-01,7.491099357604980025e-01,7.722028732299804910e-01,7.967648983001709428e-01,8.229448318481444868e-01,8.509037971496582475e-01,8.808294296264648215e-01,9.129366874694824219e-01,9.474732398986815962e-01,9.847255706787109153e-01,1.000000000000000000e+00,1.000000000000000000e+00,1.000000000000000000e+00,1.000000000000000000e+00,1.000000000000000000e+00,1.000000000000000000e+00,1.000000000000000000e+00,1.000000000000000000e+00,1.000000000000000000e+00,1.000000000000000000e+00,1.000000000000000000e+00,1.000000000000000000e+00,1.000000000000000000e+00,1.000000000000000000e+00,1.000000000000000000e+00,1.000000000000000000e+00,1.000000000000000000e+00,1.000000000000000000e+00,1.000000000000000000e+00,1.000000000000000000e+00,1.000000000000000000e+00,1.000000000000000000e+00,1.000000000000000000e+00,1.000000000000000000e+00,1.000000000000000000e+00,1.000000000000000000e+00,1.000000000000000000e+00,1.000000000000000000e+00,1.000000000000000000e+00,1.000000000000000000e+00,1.000000000000000000e+00,1.000000000000000000e+00,1.000000000000000000e+00,1.000000000000000000e+00,1.000000000000000000e+00,1.000000000000000000e+00,1.000000000000000000e+00,1.000000000000000000e+00,1.000000000000000000e+00,1.000000000000000000e+00,3.676424264907837136e-01,3.655784130096435547e-01,3.572782993316650502e-01,3.455962419509887584e-01,3.404638767242431641e-01,3.380599021911621094e-01,3.356895685195923074e-01,3.360749959945678600e-01,3.415198564529419167e-01,3.470628023147582786e-01,3.448147296905517689e-01,3.426325082778930442e-01,3.476472139358520730e-01,1.000000000000000000e+00,9.693750381469726785e-01,9.376553535461426003e-01,3.382707595825195090e-01,3.382939338684082253e-01,8.538378715515136941e-01,8.291323661804199663e-01,8.058163642883300337e-01,7.837758541107178178e-01,7.629089355468750000e-01,7.431241989135741743e-01
6.194252967834472656e-01,6.351308822631835938e-01,6.516536235809325950e-01,6.690589904785155806e-01,6.874197006225586382e-01,7.068164825439453569e-01,7.273397922515869585e-01,7.490905284881591575e-01,7.721821784973144087e-01,7.967428684234618697e-01,8.229172706604004350e-01,8.508742332458496538e-01,8.807977676391601785e-01,9.129027366638183816e-01,9.474366188049316850e-01,9.846859931945800559e-01,1.000000000000000000e+00,1.000000000000000000e+00,1.000000000000000000e+00,1.000000000000000000e+00,1.000000000000000000e+00,1.000000000000000000e+00,1.000000000000000000e+00,1.000000000000000000e+00,1.000000000000000000e+00,1.000000000000000000e+00,1.000000000000000000e+00,1.000000000000000000e+00,1.000000000000000000e+00,1.000000000000000000e+00,1.000000000000000000e+00,1.000000000000000000e+00,1.000000000000000000e+00,1.000000000000000000e+00,1.000000000000000000e+00,1.000000000000000000e+00,1.000000000000000000e+00,1.000000000000000000e+00,1.000000000000000000e+00,1.000000000000000000e+00,1.000000000000000000e+00,1.000000000000000000e+00,1.000000000000000000e+00,1.000000000000000000e+00,1.000000000000000000e+00,1.000000000000000000e+00,1.000000000000000000e+00,1.000000000000000000e+00,1.000000000000000000e+00,1.000000000000000000e+00,1.000000000000000000e+00,1.000000000000000000e+00,1.000000000000000000e+00,1.000000000000000000e+00,1.000000000000000000e+00,1.000000000000000000e+00,3.693857669830322155e-01,1.000000000000000000e+00,3.594899415969848855e-01,3.473124027252197377e-01,3.400578975677490123e-01,3.374417781829833762e-01,3.350801229476928489e-01,3.347429752349853627e-01,3.397846698760986217e-01,3.469926357269287331e-01,3.447830915451050027e-01,3.426491737365722767e-01,3.472836256027221902e-01,1.000000000000000000e+00,9.694003105163574441e-01,9.376789093017577903e-01,3.380333185195922852e-01,3.476592063903808372e-01,3.385752439498901367e-01,8.291507720947265403e-01,8.058337211608886941e-01,7.837923049926758257e-01,7.629244804382324663e-01,7.431389808654784712e-01
6.194119930267334428e-01,6.351169109344482200e-01,6.516389369964599165e-01,6.690435409545898438e-01,6.874033451080322488e-01,7.067992210388183150e-01,7.273214340209961382e-01,7.490710258483886941e-01,7.721615791320800559e-01,7.967209339141845259e-01,8.228938102722167525e-01,8.508446693420410600e-01,8.807661056518554243e-01,9.128686904907226118e-01,9.473999023437500444e-01,9.846464157104491965e-01,1.000000000000000000e+00,1.000000000000000000e+00,1.000000000000000000e+00,1.000000000000000000e+00,1.000000000000000000e+00,1.000000000000000000e+00,1.000000000000000000e+00,1.000000000000000000e+00,1.000000000000000000e+00,1.000000000000000000e+00,1.000000000000000000e+00,1.000000000000000000e+00,1.000000000000000000e+00,1.000000000000000000e+00,1.000000000000000000e+00,1.000000000000000000e+00,1.000000000000000000e+00,1.000000000000000000e+00,1.000000000000000000e+00,1.000000000000000000e+00,1.000000000000000000e+00,1.000000000000000000e+00,1.000000000000000000e+00,1.000000000000000000e+00,1.000000000000000000e+00,1.000000000000000000e+00,1.000000000000000000e+00,1.000000000000000000e+00,1.000000000000000000e+00,1.000000000000000000e+00,1.000000000000000000e+00,1.000000000000000000e+00,1.000000000000000000e+00,1.000000000000000000e+00,1.000000000000000000e+00,1.000000000000000000e+00,1.000000000000000000e+00,1.000000000000000000e+00,1.000000000000000000e+00,1.000000000000000000e+00,3.668693304061889648e-01,3.630671262741088645e-01,3.635841131210327259e-01,3.490457057952880970e-01,3.396727323532104381e-01,3.370471477508544811e-01,3.344728708267211692e-01,3.334214687347412109e-01,3.380476236343383789e-01,3.471342563629150613e-01,3.450792312622070201e-01,3.429416179656982200e-01,3.471385478973388894e-01,1.000000000000000000e+00,9.694254875183105913e-01,9.377024650573730913e-01,9.079898834228515847e-01,8.801023483276366743e-01,3.367982625961303822e-01,8.291691780090332253e-01,8.058511734008788618e-01,7.838088035583495872e-01,7.629400730133056863e-01,7.431538105010986328e-01
6.193986892700195090e-01,6.351029396057128462e-01,6.516242504119873491e-01,6.690280437469482422e-01,6.873869419097899947e-01,7.067818641662597656e-01,7.273031234741210715e-01,7.490516662597656028e-01,7.721409797668457031e-01,7.966989040374755637e-01,8.228703498840331809e-01,8.508196830749511497e-01,8.807343482971191628e-01,9.128346443176269531e-01,9.473632812500000222e-01,9.846067428588867188e-01,1.000000000000000000e+00,1.000000000000000000e+00,1.000000000000000000e+00,1.000000000000000000e+00,1.000000000000000000e+00,1.000000000000000000e+00,1.000000000000000000e+00,1.000000000000000000e+00,1.000000000000000000e+00,1.000000000000000000e+00,1.000000000000000000e+00,1.000000000000000000e+00,1.000000000000000000e+00,1.000000000000000000e+00,1.000000000000000000e+00,1.000000000000000000e+00,1.000000000000000000e+00,1.000000000000000000e+00,1.000000000000000000e+00,1.000000000000000000e+00,1.000000000000000000e+00,1.000000000000000000e+00,1.000000000000000000e+00,1.000000000000000000e+00,1.000000000000000000e+00,1.000000000000000000e+00,1.000000000000000000e+00,1.000000000000000000e+00,1.000000000000000000e+00,1.000000000000000000e+00,1.000000000000000000e+00,1.000000000000000000e+00,1.000000000000000000e+00,1.000000000000000000e+00,1.000000000000000000e+00,1.000000000000000000e+00,1.000000000000000000e+00,1.000000000000000000e+00,1.000000000000000000e+00,1.000000000000000000e+00,3.634385585784912220e-01,3.627849102020263561e-01,3.595834016799926980e-01,3.509991407394409402e-01,3.411282777786254772e-01,3.366687536239624245e-01,3.340892314910888783e-01,3.320186853408813588e-01,3.363282442092895286e-01,3.470948219299316295e-01,3.453292369842529408e-01,3.432345867156982311e-01,3.471636772155761719e-01,1.000000000000000000e+00,9.694505691528320090e-01,9.377260208129882812e-01,9.080119132995605469e-01,8.801231384277343750e-01,8.538965225219726785e-01,8.291875839233397993e-01,8.058685302734375222e-01,7.838252067565918413e-01,7.629557132720947710e-01,7.431686401367187944e-01
6.193854331970214400e-01,6.350890159606933372e-01,6.516095161437988059e-01,6.690124988555907759e-01,6.873705863952637163e-01,7.067646026611328347e-01,7.272848606109618697e-01,7.490321636199951394e-01,7.721202850341797319e-01,7.966769218444824663e-01,8.228468894958496094e-01,8.507946014404297319e-01,8.807075500488281694e-01,9.128005981445312944e-01,9.473266601562500000e-01,9.845671653747558594e-01,1.000000000000000000e+00,1.000000000000000000e+00,1.000000000000000000e+00,1.000000000000000000e+00,1.000000000000000000e+00,1.000000000000000000e+00,1.000000000000000000e+00,1.000000000000000000e+00,1.000000000000000000e+00,1.000000000000000000e+00,1.000000000000000000e+00,1.000000000000000000e+00,1.000000000000000000e+00,1.000000000000000000e+00,1.000000000000000000e+00,1.000000000000000000e+00,1.000000000000000000e+00,1.000000000000000000e+00,1.000000000000000000e+00,1.000000000000000000e+00,1.000000000000000000e+00,1.000000000000000000e+00,1.000000000000000000e+00,1.000000000000000000e+00,1.000000000000000000e+00,1.000000000000000000e+00,1.000000000000000000e+00,1.000000000000000000e+00,1.000000000000000000e+00,1.000000000000000000e+00,1.000000000000000000e+00,1.000000000000000000e+00,1.000000000000000000e+00,1.000000000000000000e+00,1.000000000000000000e+00,1.000000000000000000e+00,1.000000000000000000e+00,1.000000000000000000e+00,1.000000000000000000e+00,1.000000000000000000e+00,3.647847652435302623e-01,1.000000000000000000e+00,3.580003499984741322e-01,3.546206474304199330e-01,3.429376363754272350e-01,3.357666015624999889e-01,3.331188440322875866e-01,3.305124998092651145e-01,3.346697568893432506e-01,3.470553874969482533e-01,3.452902317047119030e-01,3.435280799865722545e-01,3.475075006484985574e-01,1.000000000000000000e+00,9.694758415222167747e-01,9.377495765686034712e-01,9.080340385437011275e-01,8.801439285278320757e-01,8.539160728454590066e-01,8.292060852050781028e-01,8.058859825134276900e-01,7.838416576385498491e-01,7.629713058471679910e-01,7.431834220886230913e-01
6.193721294403076172e-01,6.350749969482422097e-01,6.515948295593261275e-01,6.689970493316650391e-01,6.873542785644530806e-01,7.067472934722900391e-01,7.272665023803710493e-01,7.490127563476562944e-01,7.720996379852295144e-01,7.966549873352051225e-01,8.228234291076660378e-01,8.507695198059082031e-01,8.806806564331054465e-01,9.127716064453125222e-01,9.472899436950683594e-01,9.845275878906250000e-01,1.000000000000000000e+00,1.000000000000000000e+00,1.000000000000000000e+00,1.000000000000000000e+00,1.000000000000000000e+00,1.000000000000000000e+00,1.000000000000000000e+00,1.000000000000000000e+00,1.000000000000000000e+00,1.000000000000000000e+00,1.000000000000000000e+00,1.000000000000000000e+00,1.000000000000000000e+00,1.000000000000000000e+00,1.000000000000000000e+00,1.000000000000000000e+00,1.000000000000000000e+00,1.000000000000000000e+00,1.000000000000000000e+00,1.000000000000000000e+00,1.000000000000000000e+00,1.000000000000000000e+00,1.000000000000000000e+00,1.000000000000000000e+00,1.000000000000000000e+00,1.000000000000000000e+00,1.000000000000000000e+00,1.000000000000000000e+00,1.000000000000000000e+00,1.000000000000000000e+00,1.000000000000000000e+00,1.000000000000000000e+00,1.000000000000000000e+00,1.000000000000000000e+00,1.000000000000000000e+00,1.000000000000000000e+00,1.000000000000000000e+00,1.000000000000000000e+00,1.000000000000000000e+00,1.000000000000000000e+00,3.638983011245727761e-01,1.000000000000000000e+00,1.000000000000000000e+00,3.581244230270385631e-01,3.448972225189209095e-01,3.356389045715332253e-01,3.321089506149291770e-01,3.295183420181274636e-01,3.330210447311401367e-01,3.470195055007934681e-01,3.453380584716796986e-01,3.436456680297851340e-01,3.473172903060913197e-01,1.000000000000000000e+00,9.695010185241699219e-01,9.377731323242187722e-01,9.080561637878418191e-01,8.801646232604980469e-01,8.539356231689453347e-01,8.292244911193847878e-01,8.059033393859863503e-01,7.838581562042236106e-01,7.629868984222412109e-01,7.431982517242431419e-01
6.193694591522216353e-01,6.350660324096679688e-01,6.515801429748535600e-01,6.689815044403075728e-01,6.873378753662109375e-01,7.067299842834472434e-01,7.272481918334960938e-01,7.489933967590332031e-01,7.720789432525634322e-01,7.966329574584960493e-01,8.228000640869140847e-01,8.507444381713866743e-01,8.806538581848144531e-01,9.127428054809569868e-01,9.472586631774901900e-01,9.844880104064941406e-01,1.000000000000000000e+00,1.000000000000000000e+00,1.000000000000000000e+00,1.000000000000000000e+00,1.000000000000000000e+00,1.000000000000000000e+00,1.000000000000000000e+00,1.000000000000000000e+00,1.000000000000000000e+00,1.000000000000000000e+00,1.000000000000000000e+00,1.000000000000000000e+00,1.000000000000000000e+00,1.000000000000000000e+00,1.000000000000000000e+00,1.000000000000000000e+00,1.000000000000000000e+00,1.000000000000000000e+00,1.000000000000000000e+00,1.000000000000000000e+00,1.000000000000000000e+00,1.000000000000000000e+00,1.000000000000000000e+00,1.000000000000000000e+00,1.000000000000000000e+00,1.000000000000000000e+00,1.000000000000000000e+00,1.000000000000000000e+00,1.000000000000000000e+00,1.000000000000000000e+00,1.000000000000000000e+00,1.000000000000000000e+00,1.000000000000000000e+00,1.000000000000000000e+00,1.000000000000000000e+00,1.000000000000000000e+00,1.000000000000000000e+00,1.000000000000000000e+00,1.000000000000000000e+00,1.000000000000000000e+00,3.625744342803954856e-01,1.000000000000000000e+00,1.000000000000000000e+00,1.000000000000000000e+00,3.474565982818603738e-01,3.369807243347168191e-01,3.316816806793213002e-01,3.285301208496093639e-01,3.309623003005981445e-01,3.474341630935668945e-01,3.456005573272705189e-01,3.439055919647217019e-01,3.466595649719238503e-01,1.000000000000000000e+00,9.695261955261230691e-01,9.377966880798339622e-01,9.080781936645507812e-01,8.801854133605957475e-01,8.539551734924316628e-01,8.292428970336913618e-01,8.059207916259765181e-01,7.838746547698974831e-01,7.630025386810302956e-01,7.432129859924316850e-01
6.193694591522216353e-01,6.350660324096679688e-01,6.515789508819580522e-01,6.689734935760498491e-01,6.873222351074218528e-01,7.067127227783203125e-01,7.272298336029052734e-01,7.489738941192627397e-01,7.720583438873290794e-01,7.966110229492187056e-01,8.227766036987305132e-01,8.507194519042968750e-01,8.806269645690918413e-01,9.127140045166015625e-01,9.472275733947753684e-01,9.844541549682617188e-01,1.000000000000000000e+00,1.000000000000000000e+00,1.000000000000000000e+00,1.000000000000000000e+00,1.000000000000000000e+00,1.000000000000000000e+00,1.000000000000000000e+00,1.000000000000000000e+00,1.000000000000000000e+00,1.000000000000000000e+00,1.000000000000000000e+00,1.000000000000000000e+00,1.000000000000000000e+00,1.000000000000000000e+00,1.000000000000000000e+00,1.000000000000000000e+00,1.000000000000000000e+00,1.000000000000000000e+00,1.000000000000000000e+00,1.000000000000000000e+00,1.000000000000000000e+00,1.000000000000000000e+00,1.000000000000000000e+00,1.000000000000000000e+00,1.000000000000000000e+00,1.000000000000000000e+00,1.000000000000000000e+00,1.000000000000000000e+00,1.000000000000000000e+00,1.000000000000000000e+00,1.000000000000000000e+00,1.000000000000000000e+00,1.000000000000000000e+00,1.000000000000000000e+00,1.000000000000000000e+00,1.000000000000000000e+00,1.000000000000000000e+00,1.000000000000000000e+00,1.000000000000000000e+00,1.000000000000000000e+00,1.000000000000000000e+00,1.000000000000000000e+00,1.000000000000000000e+00,1.000000000000000000e+00,3.506240129470825084e-01,3.390505075454711692e-01,3.316870450973510853e-01,3.278166770935058705e-01,3.289288997650146595e-01,3.479094266891479270e-01,3.455912113189697488e-01,3.441658735275268666e-01,3.460043668746948242e-01,1.000000000000000000e+00,9.695513725280762163e-01,9.378203392028808816e-01,9.081003189086913618e-01,8.802062034606933372e-01,8.539746284484863725e-01,8.292613983154296653e-01,8.059381484985351785e-01,7.838911056518554910e-01,7.630180835723876509e-01,7.432278156280517356e-01
6.193662166595459428e-01,6.350661277770995872e-01,6.515789985656738059e-01,6.689735412597656028e-01,6.873223304748534712e-01,7.067059516906738503e-01,7.272147178649902566e-01,7.489544868469237837e-01,7.720377445220947266e-01,7.965890884399413618e-01,8.227531433105468306e-01,8.506943702697753462e-01,8.806000709533691184e-01,9.126851081848144087e-01,9.471965789794921653e-01,9.844205856323242632e-01,1.000000000000000000e+00,1.000000000000000000e+00,1.000000000000000000e+00,1.000000000000000000e+00,1.000000000000000000e+00,1.000000000000000000e+00,1.000000000000000000e+00,1.000000000000000000e+00,1.000000000000000000e+00,1.000000000000000000e+00,1.000000000000000000e+00,1.000000000000000000e+00,1.000000000000000000e+00,1.000000000000000000e+00,1.000000000000000000e+00,1.000000000000000000e+00,1.000000000000000000e+00,1.000000000000000000e+00,1.000000000000000000e+00,1.000000000000000000e+00,1.000000000000000000e+00,1.000000000000000000e+00,1.000000000000000000e+00,1.000000000000000000e+00,1.000000000000000000e+00,1.000000000000000000e+00,1.000000000000000000e+00,1.000000000000000000e+00,1.000000000000000000e+00,1.000000000000000000e+00,1.000000000000000000e+00,1.000000000000000000e+00,1.000000000000000000e+00,1.000000000000000000e+00,1.000000000000000000e+00,1.000000000000000000e+00,1.000000000000000000e+00,1.000000000000000000e+00,1.000000000000000000e+00,1.000000000000000000e+00,1.000000000000000000e+00,1.000000000000000000e+00,1.000000000000000000e+00,1.000000000000000000e+00,3.527884721755981667e-01,3.411452770233154297e-01,3.319462537765502930e-01,3.275393009185790794e-01,3.279810905456542747e-01,3.483859777450561412e-01,3.453684329986572155e-01,3.443959712982177512e-01,3.453627347946167103e-01,1.000000000000000000e+00,9.695766448974609819e-01,9.378437995910644531e-01,9.081224441528320535e-01,8.802269935607910378e-01,8.539941787719727007e-01,8.292797088623047319e-01,8.059556007385253462e-01,7.839076042175292525e-01,7.630336761474609819e-01,7.432426452636718972e-01
6.193530559539794922e-01,6.350549221038818137e-01,6.515736103057860884e-01,6.689736366271972212e-01,6.873223781585693359e-01,7.067060470581054688e-01,7.272147655487060103e-01,7.489494323730468972e-01,7.720232486724853960e-01,7.965670585632323997e-01,8.227296829223632590e-01,8.506692886352539285e-01,8.805732727050781250e-01,9.126562118530273660e-01,9.471654891967773438e-01,9.843870162963866965e-01,1.000000000000000000e+00,1.000000000000000000e+00,1.000000000000000000e+00,1.000000000000000000e+00,1.000000000000000000e+00,1.000000000000000000e+00,1.000000000000000000e+00,1.000000000000000000e+00,1.000000000000000000e+00,1.000000000000000000e+00,1.000000000000000000e+00,1.000000000000000000e+00,1.000000000000000000e+00,1.000000000000000000e+00,1.000000000000000000e+00,1.000000000000000000e+00,1.000000000000000000e+00,1.000000000000000000e+00,1.000000000000000000e+00,1.000000000000000000e+00,1.000000000000000000e+00,1.000000000000000000e+00,1.000000000000000000e+00,1.000000000000000000e+00,1.000000000000000000e+00,1.000000000000000000e+00,1.000000000000000000e+00,1.000000000000000000e+00,1.000000000000000000e+00,1.000000000000000000e+00,1.000000000000000000e+00,1.000000000000000000e+00,1.000000000000000000e+00,1.000000000000000000e+00,1.000000000000000000e+00,1.000000000000000000e+00,1.000000000000000000e+00,1.000000000000000000e+00,1.000000000000000000e+00,1.000000000000000000e+00,1.000000000000000000e+00,1.000000000000000000e+00,1.000000000000000000e+00,1.000000000000000000e+00,1.000000000000000000e+00,3.435528039932250755e-01,3.331195831298828236e-01,3.283799886703491211e-01,3.289097547531127930e-01,3.488638877868652233e-01,3.451459169387817161e-01,3.441746711730956920e-01,3.463694334030151256e-01,1.000000000000000000e+00,9.696017265319823997e-01,9.378674507141113725e-01,9.081445693969726340e-01,8.802476882934570090e-01,8.540138244628906472e-01,8.292982101440429243e-01,8.059729576110840066e-01,7.839240074157715066e-01,7.630493164062499556e-01,7.432574272155761941e-01
6.193397521972656694e-01,6.350409984588623047e-01,6.515590190887451394e-01,6.689592838287353738e-01,6.873144149780273660e-01,7.067052364349365456e-01,7.272148609161377397e-01,7.489494800567626509e-01,7.720233440399170144e-01,7.965641021728515625e-01,8.227162361145019531e-01,8.506442070007323997e-01,8.805463790893555132e-01,9.126275062561035600e-01,9.471343994140625222e-01,9.843534469604492410e-01,1.000000000000000000e+00,1.000000000000000000e+00,1.000000000000000000e+00,1.000000000000000000e+00,1.000000000000000000e+00,1.000000000000000000e+00,1.000000000000000000e+00,1.000000000000000000e+00,1.000000000000000000e+00,1.000000000000000000e+00,1.000000000000000000e+00,1.000000000000000000e+00,1.000000000000000000e+00,1.000000000000000000e+00,1.000000000000000000e+00,1.000000000000000000e+00,1.000000000000000000e+00,1.000000000000000000e+00,1.000000000000000000e+00,1.000000000000000000e+00,1.000000000000000000e+00,1.000000000000000000e+00,1.000000000000000000e+00,1.000000000000000000e+00,1.000000000000000000e+00,1.000000000000000000e+00,1.000000000000000000e+00,1.000000000000000000e+00,1.000000000000000000e+00,1.000000000000000000e+00,1.000000000000000000e+00,1.000000000000000000e+00,1.000000000000000000e+00,1.000000000000000000e+00,1.000000000000000000e+00,1.000000000000000000e+00,1.000000000000000000e+00,1.000000000000000000e+00,1.000000000000000000e+00,1.000000000000000000e+00,1.000000000000000000e+00,1.000000000000000000e+00,1.000000000000000000e+00,1.000000000000000000e+00,1.000000000000000000e+00,3.427869558334350475e-01,3.350372076034545676e-01,3.303729772567748912e-01,3.315001487731933372e-01,3.497013807296752708e-01,3.461677789688110130e-01,3.453689813613891602e-01,1.000000000000000000e+00,1.000000000000000000e+00,9.696269989013671653e-01,9.378909111022949441e-01,9.081666946411133257e-01,8.802684783935547097e-01,8.540332794189453569e-01,8.293166160583496094e-01,8.059904098510741743e-01,7.839404582977295144e-01,7.630649089813232866e-01,7.432722568511962447e-01
6.193265914916992188e-01,6.350271224975585493e-01,6.515444278717040794e-01,6.689438819885253906e-01,6.872981071472168413e-01,7.066879749298096147e-01,7.272036552429199663e-01,7.489461421966552290e-01,7.720234394073486328e-01,7.965641975402831809e-01,8.227163314819335715e-01,8.506441116333007812e-01,8.805344581604004350e-01,9.126019477844238281e-01,9.471033096313477007e-01,9.843198776245116743e-01,1.000000000000000000e+00,1.000000000000000000e+00,1.000000000000000000e+00,1.000000000000000000e+00,1.000000000000000000e+00,1.000000000000000000e+00,1.000000000000000000e+00,1.000000000000000000e+00,1.000000000000000000e+00,1.000000000000000000e+00,1.000000000000000000e+00,1.000000000000000000e+00,1.000000000000000000e+00,1.000000000000000000e+00,1.000000000000000000e+00,1.000000000000000000e+00,1.000000000000000000e+00,1.000000000000000000e+00,1.000000000000000000e+00,1.000000000000000000e+00,1.000000000000000000e+00,1.000000000000000000e+00,1.000000000000000000e+00,1.000000000000000000e+00,1.000000000000000000e+00,1.000000000000000000e+00,1.000000000000000000e+00,1.000000000000000000e+00,1.000000000000000000e+00,1.000000000000000000e+00,1.000000000000000000e+00,1.000000000000000000e+00,1.000000000000000000e+00,1.000000000000000000e+00,1.000000000000000000e+00,1.000000000000000000e+00,1.000000000000000000e+00,1.000000000000000000e+00,1.000000000000000000e+00,1.000000000000000000e+00,1.000000000000000000e+00,1.000000000000000000e+00,1.000000000000000000e+00,1.000000000000000000e+00,1.000000000000000000e+00,3.427971363067626731e-01,3.368649721145630105e-01,3.329160451889038308e-01,3.343260526657104714e-01,3.517179250717162864e-01,3.482926607131958119e-01,3.474540710449218750e-01,1.000000000000000000e+00,1.000000000000000000e+00,9.696521759033203125e-01,9.379145622253417525e-01,9.081887245178222878e-01,8.802892684936522993e-01,8.540528297424316850e-01,8.293350219726562944e-01,8.060077667236328347e-01,7.839569568634032759e-01,7.630807876586913618e-01,7.432880878448486772e-01
6.193133354187011497e-01,6.350131511688232866e-01,6.515297412872314009e-01,6.689284324645996538e-01,6.872818470001220703e-01,7.066707611083984375e-01,7.271854877471923828e-01,7.489268302917480025e-01,7.720083236694336160e-01,7.965578079223633035e-01,8.227164268493651900e-01,8.506441116333007812e-01,8.805345535278320535e-01,9.126020431518554465e-01,9.470934867858886719e-01,9.842946052551269087e-01,1.000000000000000000e+00,1.000000000000000000e+00,1.000000000000000000e+00,1.000000000000000000e+00,1.000000000000000000e+00,1.000000000000000000e+00,1.000000000000000000e+00,1.000000000000000000e+00,1.000000000000000000e+00,1.000000000000000000e+00,1.000000000000000000e+00,1.000000000000000000e+00,1.000000000000000000e+00,1.000000000000000000e+00,1.000000000000000000e+00,1.000000000000000000e+00,1.000000000000000000e+00,1.000000000000000000e+00,1.000000000000000000e+00,1.000000000000000000e+00,1.000000000000000000e+00,1.000000000000000000e+00,1.000000000000000000e+00,1.000000000000000000e+00,1.000000000000000000e+00,1.000000000000000000e+00,1.000000000000000000e+00,1.000000000000000000e+00,1.000000000000000000e+00,1.000000000000000000e+00,1.000000000000000000e+00,1.000000000000000000e+00,1.000000000000000000e+00,1.000000000000000000e+00,1.000000000000000000e+00,1.000000000000000000e+00,1.000000000000000000e+00,1.000000000000000000e+00,1.000000000000000000e+00,1.000000000000000000e+00,1.000000000000000000e+00,1.000000000000000000e+00,1.000000000000000000e+00,1.000000000000000000e+00,1.000000000000000000e+00,3.436346530914306530e-01,3.387128114700317383e-01,3.354985475540160911e-01,3.393294095993041881e-01,3.560906648635864258e-01,3.538439273834228516e-01,3.520288944244384655e-01,1.000000000000000000e+00,1.000000000000000000e+00,9.696773529052734597e-01,9.379381179809570535e-01,9.082108497619628684e-01,8.803100585937500000e-01,8.540723800659180132e-01,8.293535232543944868e-01,8.060259819030761719e-01,7.839749813079833762e-01,7.630984306335448775e-01,7.433046817779540572e-01
6.193001270294189453e-01,6.349992752075195312e-01,6.515151023864745872e-01,6.689130306243896706e-01,6.872655868530272993e-01,7.066535949707031250e-01,7.271671772003174272e-01,7.489074707031250222e-01,7.719877243041992632e-01,7.965358734130859597e-01,8.226964950561523882e-01,8.506337165832519309e-01,8.805346488952636719e-01,9.126021385192870650e-01,9.470935821533202903e-01,9.842946052551269087e-01,1.000000000000000000e+00,1.000000000000000000e+00,1.000000000000000000e+00,1.000000000000000000e+00,1.000000000000000000e+00,1.000000000000000000e+00,1.000000000000000000e+00,1.000000000000000000e+00,1.000000000000000000e+00,1.000000000000000000e+00,1.000000000000000000e+00,1.000000000000000000e+00,1.000000000000000000e+00,1.000000000000000000e+00,1.000000000000000000e+00,1.000000000000000000e+00,1.000000000000000000e+00,1.000000000000000000e+00,1.000000000000000000e+00,1.000000000000000000e+00,1.000000000000000000e+00,1.000000000000000000e+00,1.000000000000000000e+00,1.000000000000000000e+00,1.000000000000000000e+00,1.000000000000000000e+00,1.000000000000000000e+00,1.000000000000000000e+00,1.000000000000000000e+00,1.000000000000000000e+00,1.000000000000000000e+00,1.000000000000000000e+00,1.000000000000000000e+00,1.000000000000000000e+00,1.000000000000000000e+00,1.000000000000000000e+00,1.000000000000000000e+00,1.000000000000000000e+00,1.000000000000000000e+00,1.000000000000000000e+00,1.000000000000000000e+00,1.000000000000000000e+00,1.000000000000000000e+00,1.000000000000000000e+00,3.575293779373168723e-01,3.451001644134521484e-01,3.405810117721557728e-01,3.378872156143188366e-01,3.432879686355591042e-01,3.655802488327026256e-01,1.000000000000000000e+00,1.000000000000000000e+00,1.000000000000000000e+00,1.000000000000000000e+00,9.697025299072266069e-01,9.379616737365722434e-01,9.082329750061035600e-01,8.803313255310059038e-01,8.540933609008789507e-01,8.293741226196289507e-01,8.060456275939941184e-01,7.839934825897216797e-01,7.631159305572510210e-01,7.433214187622070312e-01
6.192869186401367410e-01,6.349853992462157759e-01,6.515004634857177734e-01,6.688975334167480691e-01,6.872492313385010210e-01,7.066363334655761941e-01,7.271490097045898438e-01,7.488881587982177956e-01,7.719672203063965288e-01,7.965140342712402344e-01,8.226731300354004350e-01,8.506088256835937500e-01,8.805084228515625000e-01,9.125865936279297097e-01,9.470905303955078347e-01,9.842947959899902566e-01,1.000000000000000000e+00,1.000000000000000000e+00,1.000000000000000000e+00,1.000000000000000000e+00,1.000000000000000000e+00,1.000000000000000000e+00,1.000000000000000000e+00,1.000000000000000000e+00,1.000000000000000000e+00,1.000000000000000000e+00,1.000000000000000000e+00,1.000000000000000000e+00,1.000000000000000000e+00,1.000000000000000000e+00,1.000000000000000000e+00,1.000000000000000000e+00,1.000000000000000000e+00,1.000000000000000000e+00,1.000000000000000000e+00,1.000000000000000000e+00,1.000000000000000000e+00,1.000000000000000000e+00,1.000000000000000000e+00,1.000000000000000000e+00,1.000000000000000000e+00,1.000000000000000000e+00,1.000000000000000000e+00,1.000000000000000000e+00,1.000000000000000000e+00,1.000000000000000000e+00,1.000000000000000000e+00,1.000000000000000000e+00,1.000000000000000000e+00,1.000000000000000000e+00,1.000000000000000000e+00,1.000000000000000000e+00,1.000000000000000000e+00,1.000000000000000000e+00,1.000000000000000000e+00,1.000000000000000000e+00,1.000000000000000000e+00,1.000000000000000000e+00,1.000000000000000000e+00,1.000000000000000000e+00,1.000000000000000000e+00,3.464378356933593972e-01,3.412595510482788197e-01,3.384626626968383900e-01,3.435092449188232311e-01,3.789435625076293945e-01,1.000000000000000000e+00,1.000000000000000000e+00,1.000000000000000000e+00,1.000000000000000000e+00,9.697278022766113725e-01,9.379864692687988059e-01,9.082571983337401900e-01,8.803545951843261275e-01,8.541153907775879128e-01,8.293949127197265403e-01,8.060651779174804465e-01,7.840120792388916016e-01,7.631334781646728072e-01,7.433380603790282759e-01
6.192736625671386719e-01,6.349714756011962669e-01,6.514858245849609597e-01,6.688821315765380859e-01,6.872329711914062500e-01,7.066191196441650169e-01,7.271307945251465066e-01,7.488688468933105691e-01,7.719466209411620650e-01,7.964920997619628906e-01,8.226497650146484819e-01,8.505838394165039507e-01,8.804817199707031250e-01,9.125578880310059038e-01,9.470595359802246316e-01,9.842725753784179465e-01,1.000000000000000000e+00,1.000000000000000000e+00,1.000000000000000000e+00,1.000000000000000000e+00,1.000000000000000000e+00,1.000000000000000000e+00,1.000000000000000000e+00,1.000000000000000000e+00,1.000000000000000000e+00,1.000000000000000000e+00,1.000000000000000000e+00,1.000000000000000000e+00,1.000000000000000000e+00,1.000000000000000000e+00,1.000000000000000000e+00,1.000000000000000000e+00,1.000000000000000000e+00,1.000000000000000000e+00,1.000000000000000000e+00,1.000000000000000000e+00,1.000000000000000000e+00,1.000000000000000000e+00,1.000000000000000000e+00,1.000000000000000000e+00,1.000000000000000000e+00,1.000000000000000000e+00,1.000000000000000000e+00,1.000000000000000000e+00,1.000000000000000000e+00,1.000000000000000000e+00,1.000000000000000000e+00,1.000000000000000000e+00,1.000000000000000000e+00,1.000000000000000000e+00,1.000000000000000000e+00,1.000000000000000000e+00,1.000000000000000000e+00,1.000000000000000000e+00,1.000000000000000000e+00,1.000000000000000000e+00,1.000000000000000000e+00,1.000000000000000000e+00,1.000000000000000000e+00,1.000000000000000000e+00,1.000000000000000000e+00,3.477485418319702370e-01,3.420166730880737083e-01,3.389935970306396373e-01,3.436194658279418945e-01,1.000000000000000000e+00,1.000000000000000000e+00,1.000000000000000000e+00,1.000000000000000000e+00,1.000000000000000000e+00,9.697560310363769753e-01,9.380129814147949441e-01,9.082820892333984819e-01,8.803779602050780806e-01,8.541373252868652566e-01,8.294156074523926225e-01,8.060847282409667747e-01,7.840305805206299050e-01,7.631510734558105691e-01,7.433546543121337669e-01
6.192604541778564675e-01,6.349575996398926225e-01,6.514712333679198997e-01,6.688667297363281028e-01,6.872166633605957253e-01,7.066018581390380859e-01,7.271125316619873047e-01,7.488494396209717241e-01,7.719261169433593306e-01,7.964702606201171653e-01,8.226263999938965288e-01,8.505589485168456587e-01,8.804550170898437500e-01,9.125292778015137163e-01,9.470286369323730469e-01,9.842391967773437278e-01,1.000000000000000000e+00,1.000000000000000000e+00,1.000000000000000000e+00,1.000000000000000000e+00,1.000000000000000000e+00,1.000000000000000000e+00,1.000000000000000000e+00,1.000000000000000000e+00,1.000000000000000000e+00,1.000000000000000000e+00,1.000000000000000000e+00,1.000000000000000000e+00,1.000000000000000000e+00,1.000000000000000000e+00,1.000000000000000000e+00,1.000000000000000000e+00,1.000000000000000000e+00,1.000000000000000000e+00,1.000000000000000000e+00,1.000000000000000000e+00,1.000000000000000000e+00,1.000000000000000000e+00,1.000000000000000000e+00,1.000000000000000000e+00,1.000000000000000000e+00,1.000000000000000000e+00,1.000000000000000000e+00,1.000000000000000000e+00,1.000000000000000000e+00,1.000000000000000000e+00,1.000000000000000000e+00,1.000000000000000000e+00,1.000000000000000000e+00,1.000000000000000000e+00,1.000000000000000000e+00,1.000000000000000000e+00,1.000000000000000000e+00,1.000000000000000000e+00,1.000000000000000000e+00,1.000000000000000000e+00,1.000000000000000000e+00,1.000000000000000000e+00,1.000000000000000000e+00,1.000000000000000000e+00,1.000000000000000000e+00,3.490763187408447155e-01,3.429407119750976785e-01,3.395261764526367188e-01,3.437298059463501088e-01,1.000000000000000000e+00,1.000000000000000000e+00,1.000000000000000000e+00,1.000000000000000000e+00,1.000000000000000000e+00,9.697844505310058150e-01,9.380394935607909712e-01,9.083069801330566628e-01,8.804014205932617632e-01,8.541593551635742188e-01,8.294363975524902122e-01,8.061043739318847212e-01,7.840490818023682085e-01,7.631686210632324663e-01,7.433713912963867410e-01
6.192471981048583984e-01,6.349436283111572488e-01,6.514565467834472212e-01,6.688512802124023660e-01,6.872004032135009544e-01,7.065846920013427734e-01,7.270943164825439675e-01,7.488301753997802512e-01,7.719056129455565962e-01,7.964484214782714400e-01,8.226030349731445757e-01,8.505339622497558594e-01,8.804282188415527566e-01,9.125004768371581809e-01,9.469977378845214622e-01,9.842058181762695090e-01,1.000000000000000000e+00,1.000000000000000000e+00,1.000000000000000000e+00,1.000000000000000000e+00,1.000000000000000000e+00,1.000000000000000000e+00,1.000000000000000000e+00,1.000000000000000000e+00,1.000000000000000000e+00,1.000000000000000000e+00,1.000000000000000000e+00,1.000000000000000000e+00,1.000000000000000000e+00,1.000000000000000000e+00,1.000000000000000000e+00,1.000000000000000000e+00,1.000000000000000000e+00,1.000000000000000000e+00,1.000000000000000000e+00,1.000000000000000000e+00,1.000000000000000000e+00,1.000000000000000000e+00,1.000000000000000000e+00,1.000000000000000000e+00,1.000000000000000000e+00,1.000000000000000000e+00,1.000000000000000000e+00,1.000000000000000000e+00,1.000000000000000000e+00,1.000000000000000000e+00,1.000000000000000000e+00,1.000000000000000000e+00,1.000000000000000000e+00,1.000000000000000000e+00,1.000000000000000000e+00,1.000000000000000000e+00,1.000000000000000000e+00,1.000000000000000000e+00,1.000000000000000000e+00,1.000000000000000000e+00,1.000000000000000000e+00,1.000000000000000000e+00,1.000000000000000000e+00,1.000000000000000000e+00,1.000000000000000000e+00,3.504400730133056530e-01,3.441574335098266380e-01,3.400887966156005970e-01,3.438402175903320090e-01,1.000000000000000000e+00,1.000000000000000000e+00,1.000000000000000000e+00,1.000000000000000000e+00,1.000000000000000000e+00,9.698127746582031472e-01,9.380660057067871094e-01,9.083318710327148438e-01,8.804246902465819868e-01,8.541813850402831809e-01,8.294570922851562944e-01,8.061239242553710493e-01,7.840676784515381303e-01,7.631861686706542525e-01,7.433880329132079856e-01
6.192339897155761941e-01,6.349297523498534934e-01,6.514419555664062722e-01,6.688358783721923828e-01,6.871841430664062944e-01,7.065674781799315962e-01,7.270760536193847656e-01,7.488107681274414062e-01,7.718850135803222434e-01,7.964264869689940962e-01,8.225797653198242410e-01,8.505089759826660600e-01,8.804015159606933816e-01,9.124717712402343750e-01,9.469668388366698775e-01,9.841724395751952903e-01,1.000000000000000000e+00,1.000000000000000000e+00,1.000000000000000000e+00,1.000000000000000000e+00,1.000000000000000000e+00,1.000000000000000000e+00,1.000000000000000000e+00,1.000000000000000000e+00,1.000000000000000000e+00,1.000000000000000000e+00,1.000000000000000000e+00,1.000000000000000000e+00,1.000000000000000000e+00,1.000000000000000000e+00,1.000000000000000000e+00,1.000000000000000000e+00,1.000000000000000000e+00,1.000000000000000000e+00,1.000000000000000000e+00,1.000000000000000000e+00,1.000000000000000000e+00,1.000000000000000000e+00,1.000000000000000000e+00,1.000000000000000000e+00,1.000000000000000000e+00,1.000000000000000000e+00,1.000000000000000000e+00,1.000000000000000000e+00,1.000000000000000000e+00,1.000000000000000000e+00,1.000000000000000000e+00,1.000000000000000000e+00,1.000000000000000000e+00,1.000000000000000000e+00,1.000000000000000000e+00,1.000000000000000000e+00,1.000000000000000000e+00,1.000000000000000000e+00,1.000000000000000000e+00,1.000000000000000000e+00,1.000000000000000000e+00,1.000000000000000000e+00,1.000000000000000000e+00,1.000000000000000000e+00,4.293414592742920144e-01,3.518712759017944558e-01,3.455812692642211692e-01,3.414674282073974498e-01,3.442453861236572377e-01,1.000000000000000000e+00,1.000000000000000000e+00,1.000000000000000000e+00,1.000000000000000000e+00,1.000000000000000000e+00,9.698411941528319868e-01,9.380925178527832475e-01,9.083567619323730247e-01,8.804480552673339400e-01,8.542033195495605247e-01,8.294778823852538840e-01,8.061435699462891069e-01,7.840861797332763228e-01,7.632037639617920144e-01,7.434046745300293413e-01
6.192207813262939897e-01,6.349158287048339844e-01,6.514272689819335938e-01,6.688204288482666460e-01,6.871678352355956587e-01,7.065502166748046653e-01,7.270578384399414285e-01,7.487914562225341797e-01,7.718645095825195090e-01,7.964046478271484819e-01,8.225564002990722878e-01,8.504840850830077681e-01,8.803747177124023882e-01,9.124430656433105691e-01,9.469359397888184038e-01,9.841390609741210715e-01,1.000000000000000000e+00,1.000000000000000000e+00,1.000000000000000000e+00,1.000000000000000000e+00,1.000000000000000000e+00,1.000000000000000000e+00,1.000000000000000000e+00,1.000000000000000000e+00,1.000000000000000000e+00,1.000000000000000000e+00,1.000000000000000000e+00,1.000000000000000000e+00,1.000000000000000000e+00,1.000000000000000000e+00,1.000000000000000000e+00,1.000000000000000000e+00,1.000000000000000000e+00,1.000000000000000000e+00,1.000000000000000000e+00,1.000000000000000000e+00,1.000000000000000000e+00,1.000000000000000000e+00,1.000000000000000000e+00,1.000000000000000000e+00,1.000000000000000000e+00,1.000000000000000000e+00,1.000000000000000000e+00,1.000000000000000000e+00,1.000000000000000000e+00,1.000000000000000000e+00,1.000000000000000000e+00,1.000000000000000000e+00,1.000000000000000000e+00,1.000000000000000000e+00,1.000000000000000000e+00,1.000000000000000000e+00,1.000000000000000000e+00,1.000000000000000000e+00,1.000000000000000000e+00,1.000000000000000000e+00,1.000000000000000000e+00,1.000000000000000000e+00,1.000000000000000000e+00,1.000000000000000000e+00,4.290633201599121094e-01,3.534851312637329324e-01,3.471561670303344727e-01,3.433307170867919700e-01,3.447032213211059792e-01,1.000000000000000000e+00,1.000000000000000000e+00,1.000000000000000000e+00,1.000000000000000000e+00,1.000000000000000000e+00,9.698695182800293191e-01,9.381191253662108931e-01,9.083815574645995872e-01,8.804715156555176225e-01,8.542253494262694868e-01,8.294985771179199663e-01,8.061631202697754350e-01,7.841047286987304910e-01,7.632213115692139116e-01,7.434213638305664507e-01
6.192075252532959206e-01,6.349019527435302290e-01,6.514126777648925337e-01,6.688050270080566628e-01,6.871515750885009988e-01,7.065330505371093528e-01,7.270396709442138450e-01,7.487720966339110884e-01,7.718439102172851562e-01,7.963827133178711382e-01,8.225331306457519531e-01,8.504591941833495872e-01,8.803481101989746316e-01,9.124143600463867632e-01,9.469049453735352007e-01,9.710227966308593306e-01,9.707820892333984819e-01,9.705415725708007590e-01,9.703010559082031472e-01,9.700606346130371538e-01,9.698204994201660156e-01,9.695803642272948775e-01,9.693404197692870872e-01,9.691005706787109153e-01,9.688607215881347434e-01,9.686211585998535378e-01,9.683815956115722212e-01,9.681422233581542525e-01,9.679029464721680132e-01,9.676638603210448997e-01,9.674247741699218972e-01,9.671857833862305132e-01,9.669469833374023660e-01,9.667083740234374556e-01,9.664697647094726562e-01,9.662313461303710938e-01,9.659929275512695312e-01,9.657547950744629350e-01,9.655166625976562278e-01,9.652787208557128684e-01,9.650408744812011275e-01,9.648031234741211160e-01,9.645655632019043413e-01,9.643280029296874556e-01,9.640905380249022993e-01,9.638532638549804910e-01,9.636161804199219194e-01,9.633790969848632368e-01,9.631422042846680132e-01,9.629053115844726785e-01,9.626686096191405806e-01,9.624320983886718306e-01,9.621956825256348100e-01,9.619592666625976785e-01,9.617230415344237837e-01,9.614869117736816184e-01,9.612509727478026900e-01,9.610150337219238725e-01,9.607792854309081809e-01,9.605436325073242188e-01,4.267898559570312278e-01,3.551139593124389426e-01,3.487608909606933483e-01,3.448058605194092019e-01,3.451622247695922963e-01,9.591321945190429688e-01,9.588973999023437944e-01,9.586626052856445090e-01,9.584280014038085715e-01,9.581934928894042525e-01,9.579591751098632812e-01,9.381456375122070312e-01,9.084064483642577681e-01,8.804947853088378462e-01,8.542473793029785600e-01,8.295193672180175559e-01,8.061826705932617632e-01,7.841233253479004128e-01,7.632388114929199441e-01,7.434380054473876953e-01
6.191943168640137163e-01,6.348880767822265847e-01,6.513980865478515847e-01,6.687895774841308150e-01,6.871352195739746094e-01,7.065157890319824219e-01,7.270213603973388894e-01,7.487527847290038618e-01,7.542493820190430132e-01,7.541041851043701616e-01,7.539589881896973100e-01,7.538138866424560769e-01,7.536687850952148438e-01,7.535237312316894753e-01,7.533788681030273438e-01,7.532339096069335938e-01,7.530891418457030806e-01,7.529442787170410600e-01,7.527996063232421653e-01,7.526548862457275169e-01,7.525102138519287331e-01,7.523657321929931863e-01,7.522212028503417747e-01,7.520767688751220925e-01,7.519323348999022993e-01,7.517880439758301003e-01,7.516437053680420366e-01,7.514994621276855913e-01,7.513553142547607644e-01,7.512111663818359375e-01,7.510671615600585938e-01,7.509231090545653853e-01,7.507791042327880415e-01,7.506352424621581809e-01,7.504913806915283203e-01,7.503476142883300781e-01,7.502038478851318359e-01,7.500602245330810769e-01,7.499165534973144531e-01,7.497729301452636941e-01,7.496294975280761719e-01,7.494859695434570312e-01,7.493426322937011275e-01,7.491992473602294700e-01,7.490559101104736772e-01,7.489127159118652566e-01,7.487694740295409712e-01,7.486264228820800337e-01,7.484833240509033425e-01,7.483403205871581587e-01,7.481973171234130859e-01,7.480543613433837669e-01,7.479115962982177956e-01,7.477687358856200950e-01,7.476260662078857422e-01,7.474833011627197710e-01,7.473407268524170366e-01,7.471981048583984375e-01,7.470555305480957031e-01,7.469130992889404519e-01,4.252443313598632812e-01,3.595660209655761608e-01,3.503805637359619363e-01,3.456025838851928822e-01,3.456224679946899303e-01,7.460593223571777566e-01,7.459172725677489790e-01,7.457751750946044478e-01,7.456332683563232644e-01,7.454912662506103516e-01,7.453493595123290572e-01,7.452075958251953569e-01,7.450657844543456809e-01,7.449241161346435991e-01,7.447824001312255415e-01,7.446407318115234597e-01,7.444992542266846147e-01,7.443576812744140403e-01,7.442162990570068137e-01,7.434546470642089400e-01
6.166956424713134766e-01,6.165985584259032759e-01,6.165015220642089400e-01,6.164044380187988503e-01,6.163074493408202681e-01,6.162105083465576616e-01,6.161135196685790794e-01,6.160166263580322266e-01,6.159197330474853738e-01,6.158228397369385210e-01,6.157260894775390403e-01,6.156292438507080522e-01,6.155325412750244363e-01,6.154357910156249556e-01,6.153390884399414507e-01,6.152424335479735884e-01,6.151457309722900835e-01,6.150491714477539507e-01,6.149525642395019531e-01,6.148560523986816850e-01,6.147595405578613059e-01,6.146630287170410378e-01,6.145665645599365234e-01,6.144701480865478738e-01,6.143737792968749778e-01,6.142773628234863281e-01,6.141810894012451616e-01,6.140847682952881303e-01,6.139884471893310991e-01,6.138922214508056863e-01,6.137959957122802734e-01,6.136998653411864790e-01,6.136036872863769309e-01,6.135075092315673828e-01,6.134114742279053178e-01,6.133153915405273882e-01,6.132193565368652122e-01,6.131233692169189009e-01,6.130274295806884544e-01,6.129314422607421431e-01,6.128355026245116965e-01,6.127396583557128684e-01,6.126437664031982866e-01,6.125480175018310769e-01,6.124521732330322488e-01,6.123564243316650391e-01,6.122606754302978294e-01,6.121649742126464844e-01,6.120693206787108931e-01,6.119736671447754128e-01,6.118780612945556863e-01,6.117824554443359597e-01,6.116868972778319868e-01,6.115913867950439897e-01,6.114958763122558816e-01,6.114004135131836382e-01,6.113049983978271484e-01,6.112095832824706587e-01,6.111142158508300337e-01,6.110188484191894087e-01,4.235410213470459095e-01,4.271961212158202903e-01,3.538848876953125111e-01,3.493589162826538086e-01,6.105425357818603516e-01,6.104474067687988281e-01,6.103522300720214400e-01,6.102571487426757812e-01,6.101620674133301225e-01,6.100670337677002175e-01,6.099720001220703125e-01,6.098770141601562722e-01,6.097820758819579856e-01,6.096870899200439453e-01,6.095922470092773882e-01,6.094973564147949663e-01,6.094025611877441628e-01,6.093077182769774947e-01,6.092129230499268022e-01,6.091181755065917525e-01
5.210199832916260210e-01,5.209506511688232200e-01,5.208814144134521484e-01,5.208121299743652122e-01,5.207428455352782759e-01,5.206736087799072044e-01,5.206044197082519975e-01,5.205351829528808150e-01,5.204660415649413618e-01,5.203968524932861550e-01,5.203277111053467019e-01,5.202586174011230025e-01,5.201894760131835493e-01,5.201204299926758257e-01,5.200513362884521262e-01,5.199822902679442915e-01,5.199132442474365678e-01,5.198442459106444868e-01,5.197752475738525169e-01,5.197062492370605469e-01,5.196372985839843306e-01,5.195683479309082253e-01,5.194994449615478738e-01,5.194305419921875222e-01,5.193616390228271706e-01,5.192927837371825728e-01,5.192239284515380859e-01,5.191551208496093528e-01,5.190863132476806197e-01,5.190175056457519975e-01,5.189487457275390181e-01,5.188799858093261497e-01,5.188112735748291460e-01,5.187425136566161665e-01,5.186738491058349165e-01,5.186051368713379128e-01,5.185364723205566628e-01,5.184678077697754128e-01,5.183991909027099165e-01,5.183305740356445312e-01,5.182620048522948997e-01,5.181933879852295144e-01,5.181248664855957475e-01,5.180562973022461160e-01,5.179878234863281028e-01,5.179193019866943359e-01,5.178508281707763228e-01,5.177823543548584206e-01,5.177138805389404075e-01,5.176454544067382590e-01,5.175770282745361106e-01,5.175086498260498269e-01,5.174402713775634322e-01,5.173719406127930132e-01,5.173036098480224831e-01,5.172352313995360884e-01,5.171669960021972878e-01,5.170986652374267578e-01,5.170304298400878462e-01,5.169621467590331809e-01,4.195344924926757701e-01,4.234713554382324441e-01,3.550963163375854270e-01,3.497017621994018555e-01,3.484322786331176536e-01,5.165530681610107644e-01,5.164849281311034712e-01,5.164167881011962891e-01,5.163487434387207253e-01,5.162806510925292969e-01,5.162126064300537331e-01,5.161445617675781694e-01,5.160765647888183594e-01,5.160085678100585493e-01,5.159405708312988503e-01,5.158726215362549050e-01,5.158046722412109597e-01,5.157367706298827681e-01,5.156688213348388228e-01,5.156009197235107422e-01
4.510439395904540794e-01,4.509919643402099387e-01,4.509400844573974720e-01,4.508881568908691406e-01,4.508362293243408092e-01,4.507843494415283425e-01,4.507324695587158203e-01,4.506805896759032981e-01,4.506287097930908314e-01,4.505768775939941184e-01,4.505250453948974609e-01,4.504732131958008035e-01,4.504213809967040905e-01,4.503695964813232422e-01,4.503178119659423939e-01,4.502660274505615456e-01,4.502142906188965066e-01,4.501625061035156028e-01,4.501107692718505637e-01,4.500590801239013894e-01,4.500073432922363503e-01,4.499556541442871205e-01,4.499039649963378906e-01,4.498522758483886608e-01,4.498006343841552956e-01,4.497489452362060658e-01,4.496973037719726451e-01,4.496456623077392800e-01,4.495940685272216686e-01,4.495424747467041127e-01,4.494908332824706920e-01,4.494392871856689453e-01,4.493876934051513894e-01,4.493361473083495872e-01,4.492846012115478405e-01,4.492330551147460938e-01,4.491815567016601562e-01,4.491300106048584095e-01,4.490785121917724720e-01,4.490270137786865345e-01,4.489755630493164062e-01,4.489240646362304688e-01,4.488726139068603405e-01,4.488211631774902122e-01,4.487697601318359486e-01,4.487183570861816295e-01,4.486669063568115012e-01,4.486155509948730469e-01,4.485641479492187278e-01,4.485127449035644642e-01,4.484614372253418191e-01,4.484100341796875000e-01,4.483587265014648549e-01,4.483074188232422097e-01,4.482561111450195090e-01,4.482048034667968639e-01,4.481534957885742188e-01,4.481022357940673828e-01,4.480509281158447377e-01,4.479997158050537109e-01,4.479484558105468750e-01,4.478971958160400391e-01,3.550882339477539062e-01,3.466434478759765625e-01,3.423964262008666881e-01,4.476923942565917969e-01,4.476412773132324441e-01,4.475901126861572266e-01,4.475389480590820090e-01,4.474878311157226562e-01,4.474366664886474387e-01,4.473855972290038951e-01,4.473344802856445424e-01,4.472834110260009988e-01,4.472322940826415905e-01,4.471812248229980469e-01,4.471301555633545033e-01,4.470791339874267689e-01,4.470281124114990345e-01,4.469770431518554910e-01
3.976387023925781472e-01,3.975983142852783092e-01,3.975579977035522683e-01,3.975176334381103627e-01,3.974772691726684570e-01,3.974369287490844838e-01,3.973965883255005105e-01,3.973562717437744141e-01,3.973159790039062500e-01,3.972756862640380859e-01,3.972353696823119895e-01,3.971950769424438255e-01,3.971547842025756614e-01,3.971144914627074973e-01,3.970742225646972656e-01,3.970340251922607200e-01,3.969937562942504883e-01,3.969535112380981334e-01,3.969132661819457786e-01,3.968730688095092884e-01,3.968328475952148660e-01,3.967926263809203880e-01,3.967524290084838978e-01,3.967122316360473522e-01,3.966720819473266713e-01,3.966319084167480580e-01,3.965917348861694447e-01,3.965515613555908314e-01,3.965114116668700950e-01,3.964713096618652233e-01,3.964311599731445424e-01,3.963910102844238059e-01,3.963508844375610574e-01,3.963107824325561301e-01,3.962707042694091908e-01,3.962306022644043191e-01,3.961905241012573242e-01,3.961504220962524525e-01,3.961103439331054576e-01,3.960703372955322044e-01,3.960302591323852650e-01,3.959902048110962025e-01,3.959501743316650169e-01,3.959101676940918191e-01,3.958701372146606334e-01,3.958301305770873801e-01,3.957901000976562500e-01,3.957500934600829967e-01,3.957101583480834850e-01,3.956701517105102317e-01,3.956301689147949108e-01,3.955902099609375222e-01,3.955502510070800781e-01,3.955103397369384988e-01,3.954703807830810547e-01,3.954304456710815430e-01,3.953905105590820312e-01,3.953505754470825195e-01,3.953107118606567494e-01,3.952708005905151145e-01,3.952309131622314675e-01,3.951910018920898326e-01,3.557583570480346569e-01,3.429766654968261497e-01,3.380983829498290794e-01,3.351739883422851785e-01,3.345683336257934681e-01,3.949519157409667747e-01,3.949120759963989369e-01,3.948722600936889759e-01,3.948324203491210826e-01,3.947926282882690541e-01,3.947528600692749023e-01,3.947130680084228738e-01,3.946732759475707897e-01,3.946334838867187611e-01,3.945937156677246094e-01,3.945539951324462669e-01,3.945142507553100475e-01,3.944745063781738281e-01
3.555413484573364258e-01,3.555090665817260964e-01,3.554767847061157116e-01,3.554445266723632590e-01,3.554122447967529297e-01,3.553800344467162864e-01,3.553477764129638894e-01,3.553155422210693137e-01,3.552832841873169167e-01,3.552510499954223411e-01,3.552188396453857533e-01,3.551866531372070424e-01,3.551544189453125222e-01,3.551222085952758789e-01,3.550899982452392356e-01,3.550578117370605247e-01,3.550256013870239369e-01,3.549934148788452259e-01,3.549612760543823242e-01,3.549290895462036133e-01,3.548969268798828347e-01,3.548647642135620006e-01,3.548326015472412220e-01,3.548004865646362527e-01,3.547683238983154186e-01,3.547361850738525169e-01,3.547040462493896706e-01,3.546719312667846458e-01,3.546398401260376088e-01,3.546077251434326394e-01,3.545756101608276145e-01,3.545434951782226451e-01,3.545114278793334850e-01,3.544793367385864480e-01,3.544472455978393555e-01,3.544151544570922630e-01,3.543830871582031028e-01,3.543510437011718750e-01,3.543189764022827148e-01,3.542869091033935547e-01,3.542548656463623269e-01,3.542227983474731667e-01,3.541908025741576926e-01,3.541587591171264648e-01,3.541267156600952370e-01,3.540946960449218861e-01,3.540626764297485352e-01,3.540307044982909934e-01,3.539986848831176980e-01,3.539666891098022239e-01,3.539346933364868053e-01,3.539027452468871959e-01,3.538707494735717773e-01,3.538387775421142356e-01,3.538067817687988170e-01,3.537748336791992076e-01,3.537429094314575306e-01,3.537109374999999889e-01,3.536789894104003795e-01,3.536470413208007701e-01,3.536150932312011608e-01,3.535832166671752930e-01,3.535512685775756836e-01,3.380554676055907981e-01,3.309356451034545787e-01,3.284880399703979381e-01,3.254002332687377930e-01,3.250295162200927956e-01,3.533598661422729381e-01,3.533279895782470703e-01,3.532960891723632701e-01,3.532642602920532116e-01,3.532323837280273438e-01,3.532005310058593528e-01,3.531686544418334850e-01,3.531368494033813588e-01,3.531049966812133678e-01,3.530731678009033092e-01,3.530413389205932506e-01,3.530095100402831920e-01
3.215042114257812278e-01,3.214777946472168191e-01,3.214514493942260964e-01,3.214250564575195090e-01,3.213986635208129772e-01,3.213722944259643777e-01,3.213459014892577903e-01,3.213195323944091908e-01,3.212932109832763450e-01,3.212668418884277455e-01,3.212404727935790905e-01,3.212141275405883678e-01,3.211877822875976451e-01,3.211614370346069225e-01,3.211350917816161998e-01,3.211087942123412864e-01,3.210824489593505637e-01,3.210561275482177734e-01,3.210298061370849831e-01,3.210034847259521373e-01,3.209771633148193470e-01,3.209508895874023660e-01,3.209245681762695201e-01,3.208982706069946067e-01,3.208719730377197488e-01,3.208456754684448353e-01,3.208194255828857311e-01,3.207931280136108176e-01,3.207668542861938366e-01,3.207405805587768555e-01,3.207143068313598744e-01,3.206880569458007701e-01,3.206618070602417214e-01,3.206355333328246848e-01,3.206092834472656361e-01,3.205830335617065319e-01,3.205568075180053600e-01,3.205305814743041881e-01,3.205043315887451394e-01,3.204781055450439675e-01,3.204519033432006725e-01,3.204256772994995006e-01,3.203994512557983287e-01,3.203732490539550892e-01,3.203470230102539174e-01,3.203208446502685547e-01,3.202946424484253152e-01,3.202684402465820201e-01,3.202422618865966575e-01,3.202160596847534180e-01,3.201899051666259877e-01,3.201637268066406250e-01,3.201375484466552623e-01,3.201113700866698997e-01,3.200852155685424694e-01,3.200590610504150391e-01,3.200329065322876088e-01,3.200067520141601785e-01,3.199805974960326926e-01,3.199544668197631947e-01,3.199283361434936412e-01,3.199021816253662109e-01,3.198760509490966575e-01,3.198499202728271595e-01,3.198238372802734153e-01,3.197977066040039174e-01,3.197715997695922963e-01,3.197454690933227428e-01,3.197193622589111217e-01,3.196933031082153098e-01,3.196671962738036887e-01,3.196410894393920676e-01,3.196150064468383789e-01,3.195889234542846902e-01,3.195628643035888783e-01,3.195367813110351340e-01,3.195106983184814453e-01,3.194846391677856334e-01,3.194585561752319447e-01,3.194325208663940652e-01
2.934146642684936634e-01,2.933926820755005105e-01,2.933706998825073020e-01,2.933487176895141491e-01,2.933267354965209961e-01,2.933048009872436523e-01,2.932828187942504994e-01,2.932608604431152233e-01,2.932389020919800027e-01,2.932169437408447266e-01,2.931949853897094505e-01,2.931730508804321067e-01,2.931510925292968861e-01,2.931291580200195424e-01,2.931071996688842662e-01,2.930852651596069225e-01,2.930633306503295787e-01,2.930413961410522350e-01,2.930194854736328236e-01,2.929975509643554799e-01,2.929756402969360130e-01,2.929537057876586692e-01,2.929317951202392578e-01,2.929098844528198464e-01,2.928879737854003795e-01,2.928660869598388450e-01,2.928441762924194336e-01,2.928222894668578991e-01,2.928003787994384877e-01,2.927785158157348855e-01,2.927566289901733509e-01,2.927347421646118164e-01,2.927128553390502819e-01,2.926909685134887473e-01,2.926691055297851451e-01,2.926472425460815430e-01,2.926253557205200084e-01,2.926034927368164062e-01,2.925816297531128041e-01,2.925597906112670787e-01,2.925379276275634766e-01,2.925160884857177512e-01,2.924942255020141491e-01,2.924723863601684792e-01,2.924505710601806863e-01,2.924287080764770286e-01,2.924068689346313588e-01,2.923850536346435658e-01,2.923632383346557728e-01,2.923413991928100475e-01,2.923195838928222545e-01,2.922977685928344616e-01,2.922759294509887917e-01,2.922541379928588756e-01,2.922323465347290150e-01,2.922105312347412220e-01,2.921887159347534291e-01,2.921669244766235130e-01,2.921451330184936523e-01,2.921233415603637917e-01,2.921015501022338756e-01,2.920797586441040150e-01,2.920579671859740989e-01,2.920362234115600475e-01,2.920144319534301869e-01,2.919926643371582031e-01,2.919708728790283425e-01,2.919491291046142356e-01,2.919273614883423074e-01,2.919056177139282005e-01,2.918838500976562722e-01,2.918620824813842884e-01,2.918403625488281139e-01,2.918185949325561301e-01,2.917968511581420787e-01,2.917751073837280273e-01,2.917533636093139759e-01,2.917316675186157338e-01,2.917099237442016824e-01,2.916881799697875755e-01
2.698390483856201172e-01,2.698204517364501953e-01,2.698018789291382058e-01,2.697832822799682839e-01,2.697647094726562389e-01,2.697461128234863170e-01,2.697275400161743275e-01,2.697089433670044056e-01,2.696903944015502930e-01,2.696718215942383035e-01,2.696532487869262584e-01,2.696346759796142689e-01,2.696161031723022239e-01,2.695975542068481667e-01,2.695789813995361217e-01,2.695604562759399414e-01,2.695418834686279519e-01,2.695233345031738392e-01,2.695047855377197266e-01,2.694862365722656139e-01,2.694676876068115012e-01,2.694491624832153209e-01,2.694306373596191406e-01,2.694120883941650280e-01,2.693935632705688477e-01,2.693750143051147350e-01,2.693564891815185547e-01,2.693379640579223744e-01,2.693194627761840709e-01,2.693009376525878906e-01,2.692824125289917103e-01,2.692638874053955300e-01,2.692453861236572266e-01,2.692268848419189231e-01,2.692083835601806752e-01,2.691898584365844949e-01,2.691713571548461914e-01,2.691528797149658203e-01,2.691343784332275169e-01,2.691158771514892689e-01,2.690973758697509655e-01,2.690788745880127175e-01,2.690604209899902233e-01,2.690419197082519753e-01,2.690234422683716042e-01,2.690049648284912331e-01,2.689864873886108620e-01,2.689680099487304910e-01,2.689495563507079967e-01,2.689310789108276256e-01,2.689126014709472545e-01,2.688941240310668834e-01,2.688756942749023215e-01,2.688572168350219505e-01,2.688387632369995117e-01,2.688203096389770730e-01,2.688018798828125111e-01,2.687834262847900169e-01,2.687649726867675781e-01,2.687465190887451394e-01,2.687280654907226451e-01,2.687096595764160156e-01,2.686912059783935769e-01,2.686727762222290150e-01,2.686543464660644531e-01,2.686359167098998912e-01,2.686174869537353294e-01,2.685990571975708230e-01,2.685806512832641380e-01,2.685622215270996316e-01,2.685437917709350697e-01,2.685254096984863170e-01,2.685069799423217551e-01,2.684885740280151256e-01,2.684701681137084961e-01,2.684517621994018666e-01,2.684333801269531139e-01,2.684149742126464844e-01,2.683965682983398549e-01,2.683781623840332253e-01
2.497702360153198353e-01,2.497543096542358398e-01,2.497383832931518444e-01,2.497224569320678766e-01,2.497065305709838812e-01,2.496906280517578181e-01,2.496747016906738226e-01,2.496587753295898549e-01,2.496428728103637640e-01,2.496269464492797963e-01,2.496110200881958008e-01,2.495951414108276423e-01,2.495792388916015514e-01,2.495633125305175837e-01,2.495474100112914928e-01,2.495315074920654297e-01,2.495156049728393666e-01,2.494997024536132757e-01,2.494838237762451172e-01,2.494679212570190541e-01,2.494520425796508678e-01,2.494361400604248047e-01,2.494202613830566462e-01,2.494043588638305553e-01,2.493884801864623968e-01,2.493726253509521429e-01,2.493567228317260798e-01,2.493408441543579213e-01,2.493249654769897350e-01,2.493091106414794811e-01,2.492932319641113226e-01,2.492773771286010687e-01,2.492614984512329102e-01,2.492456436157226562e-01,2.492297649383544977e-01,2.492139101028442438e-01,2.491980552673339899e-01,2.491822004318237360e-01,2.491663455963134821e-01,2.491504907608032282e-01,2.491346359252929743e-01,2.491188049316406250e-01,2.491029500961303711e-01,2.490870952606201172e-01,2.490712642669677679e-01,2.490554332733154186e-01,2.490396022796630970e-01,2.490237474441528431e-01,2.490079164505004938e-01,2.489920854568481445e-01,2.489762783050536998e-01,2.489604234695434459e-01,2.489446163177490290e-01,2.489287853240966797e-01,2.489129543304443304e-01,2.488971471786499134e-01,2.488813161849975641e-01,2.488655090332031194e-01,2.488497018814087025e-01,2.488338708877563532e-01,2.488180875778198131e-01,2.488022804260253962e-01,2.487864494323730469e-01,2.487706422805786022e-01,2.487548589706420898e-01,2.487390518188476451e-01,2.487232685089111328e-01,2.487074613571166881e-01,2.486916542053222712e-01,2.486758947372436634e-01,2.486600875854492188e-01,2.486443042755127064e-01,2.486285209655761663e-01,2.486127376556396540e-01,2.485969543457031139e-01,2.485811710357666016e-01,2.485653877258300892e-01,2.485496282577514537e-01,2.485338449478149414e-01,2.485180854797363337e-01
2.324799537658691351e-01,2.324661493301391491e-01,2.324523687362670954e-01,2.324385643005371094e-01,2.324247598648071234e-01,2.324109554290771373e-01,2.323971748352050837e-01,2.323833703994750977e-01,2.323695898056030162e-01,2.323558092117309626e-01,2.323420286178588812e-01,2.323282241821288951e-01,2.323144435882568415e-01,2.323006629943847601e-01,2.322868824005127064e-01,2.322731256484985296e-01,2.322593450546264759e-01,2.322455644607543945e-01,2.322317838668823131e-01,2.322180032730102595e-01,2.322042465209960826e-01,2.321904897689819336e-01,2.321767091751098522e-01,2.321629524230957031e-01,2.321491956710815541e-01,2.321354150772094727e-01,2.321216583251953236e-01,2.321079015731811468e-01,2.320941448211669977e-01,2.320803880691528209e-01,2.320666313171386719e-01,2.320528984069824274e-01,2.320391416549682506e-01,2.320253849029541016e-01,2.320116519927978571e-01,2.319978952407836803e-01,2.319841623306274359e-01,2.319704055786132868e-01,2.319566726684570424e-01,2.319429397583007701e-01,2.319292068481445257e-01,2.319154739379882812e-01,2.319017410278320368e-01,2.318879842758178600e-01,2.318742752075195201e-01,2.318605422973632757e-01,2.318468093872070312e-01,2.318331003189086914e-01,2.318193674087524470e-01,2.318056583404541071e-01,2.317919254302978627e-01,2.317782163619995228e-01,2.317644834518432506e-01,2.317507743835449108e-01,2.317370653152465709e-01,2.317233562469482311e-01,2.317096471786498912e-01,2.316959381103515514e-01,2.316822290420532116e-01,2.316685199737548717e-01,2.316548109054565319e-01,2.316411256790161244e-01,2.316274166107177845e-01,2.316137313842773493e-01,2.316000223159790095e-01,2.315863370895385742e-01,2.315726280212402344e-01,2.315589427947997991e-01,2.315452575683593639e-01,2.315315723419189564e-01,2.315178871154785212e-01,2.315041780471801813e-01,2.314904928207397461e-01,2.314768314361572155e-01,2.314631462097168080e-01,2.314494609832763727e-01,2.314357757568359375e-01,2.314221143722534069e-01,2.314084529876709040e-01,2.313947677612304688e-01
2.174284934997558483e-01,2.174164295196533148e-01,2.174043655395507812e-01,2.173922777175903431e-01,2.173802137374877819e-01,2.173681735992431530e-01,2.173560857772827148e-01,2.173440217971801813e-01,2.173319578170776478e-01,2.173198938369750866e-01,2.173078536987304576e-01,2.172957897186279241e-01,2.172837257385253906e-01,2.172716856002807617e-01,2.172596216201782282e-01,2.172475576400756947e-01,2.172355175018310658e-01,2.172234535217285045e-01,2.172114372253418080e-01,2.171993732452392467e-01,2.171873331069946178e-01,2.171752929687499889e-01,2.171632289886474554e-01,2.171511888504028265e-01,2.171391487121581976e-01,2.171271324157714733e-01,2.171150922775268444e-01,2.171030521392822155e-01,2.170910120010375866e-01,2.170789718627929576e-01,2.170669317245483287e-01,2.170549154281616322e-01,2.170428752899170033e-01,2.170308589935302790e-01,2.170188188552856501e-01,2.170068025588989258e-01,2.169947624206542969e-01,2.169827461242675726e-01,2.169707298278808483e-01,2.169587135314941517e-01,2.169466972351074274e-01,2.169346570968627985e-01,2.169226646423339788e-01,2.169106483459472545e-01,2.168986320495605580e-01,2.168866157531738337e-01,2.168745994567871094e-01,2.168626070022582897e-01,2.168505907058715931e-01,2.168385744094848688e-01,2.168265819549560491e-01,2.168145656585693248e-01,2.168025732040405329e-01,2.167905807495117132e-01,2.167785644531249889e-01,2.167665719985961970e-01,2.167545557022094727e-01,2.167425870895385853e-01,2.167305946350097656e-01,2.167185783386230413e-01,2.167065858840942494e-01,2.166945934295654297e-01,2.166826248168945424e-01,2.166706323623657227e-01,2.166586399078369030e-01,2.166466474533081110e-01,2.166346788406371959e-01,2.166226863861084040e-01,2.166107177734374889e-01,2.165987253189086970e-01,2.165867328643798773e-01,2.165747880935668945e-01,2.165627956390380748e-01,2.165508270263671875e-01,2.165388345718383678e-01,2.165268659591674805e-01,2.165149211883544977e-01,2.165029287338256780e-01,2.164909601211547907e-01,2.164789915084838756e-01
2.042074918746948353e-01,2.041968345642089788e-01,2.041862010955810547e-01,2.041755676269531306e-01,2.041649103164672741e-01,2.041542768478393499e-01,2.041436195373535212e-01,2.041329860687255970e-01,2.041223526000976451e-01,2.041117191314697210e-01,2.041010618209838923e-01,2.040904283523559681e-01,2.040797948837280162e-01,2.040691614151000921e-01,2.040585279464721680e-01,2.040478944778442438e-01,2.040372610092163197e-01,2.040266275405883678e-01,2.040159940719604437e-01,2.040053606033325195e-01,2.039947509765625000e-01,2.039841175079345759e-01,2.039735078811645563e-01,2.039628744125366322e-01,2.039522409439086803e-01,2.039416313171386608e-01,2.039309978485107366e-01,2.039203882217407171e-01,2.039097785949706976e-01,2.038991689682006780e-01,2.038885354995727539e-01,2.038779258728027344e-01,2.038673162460327148e-01,2.038566827774047907e-01,2.038460969924926758e-01,2.038354873657226562e-01,2.038248777389526367e-01,2.038142681121826172e-01,2.038036584854125977e-01,2.037930488586425781e-01,2.037824392318725586e-01,2.037718296051025391e-01,2.037612438201904241e-01,2.037506341934204046e-01,2.037400245666503851e-01,2.037294387817382701e-01,2.037188529968261830e-01,2.037082433700561634e-01,2.036976337432861439e-01,2.036870479583740290e-01,2.036764621734619141e-01,2.036658763885497991e-01,2.036552667617797796e-01,2.036446809768676647e-01,2.036340951919555775e-01,2.036235094070434626e-01,2.036129236221313477e-01,2.036023378372192327e-01,2.035917520523071178e-01,2.035811662673950306e-01,2.035705804824829157e-01,2.035600185394287054e-01,2.035494327545165905e-01,2.035388469696045033e-01,2.035282611846923884e-01,2.035176992416381780e-01,2.035071134567260631e-01,2.034965515136718806e-01,2.034859657287597656e-01,2.034753799438476507e-01,2.034648180007934681e-01,2.034542560577392578e-01,2.034436941146850475e-01,2.034331083297729603e-01,2.034225463867187500e-01,2.034119844436645397e-01,2.034014225006103571e-01,2.033908605575561468e-01,2.033802986145019642e-01,2.033697366714477539e-01
1.925021886825561412e-01,1.924927115440368541e-01,1.924832582473754994e-01,1.924737811088562123e-01,1.924643278121948298e-01,1.924548864364624134e-01,1.924454092979431263e-01,1.924359679222106823e-01,1.924265027046203613e-01,1.924170494079589788e-01,1.924075841903686579e-01,1.923981428146362416e-01,1.923887014389037975e-01,1.923792362213134766e-01,1.923697948455810602e-01,1.923603296279907116e-01,1.923509001731872614e-01,1.923414349555969127e-01,1.923319935798644964e-01,1.923225641250610463e-01,1.923130989074706976e-01,1.923036694526672474e-01,1.922942161560058649e-01,1.922847867012023870e-01,1.922753214836120661e-01,1.922658920288085882e-01,1.922564625740051381e-01,1.922470211982726940e-01,1.922375917434692438e-01,1.922281384468078613e-01,1.922187089920043834e-01,1.922092914581298717e-01,1.921998381614685170e-01,1.921904206275940052e-01,1.921809792518615612e-01,1.921715497970581110e-01,1.921621084213256947e-01,1.921526908874511830e-01,1.921432733535766713e-01,1.921338319778442272e-01,1.921244144439697155e-01,1.921149730682372991e-01,1.921055555343627874e-01,1.920961260795593373e-01,1.920867085456848256e-01,1.920773029327392523e-01,1.920678615570068359e-01,1.920584559440612904e-01,1.920490264892578125e-01,1.920396089553833008e-01,1.920302033424377552e-01,1.920207738876342773e-01,1.920113682746887318e-01,1.920019507408142201e-01,1.919925451278686468e-01,1.919831395149231013e-01,1.919737100601196234e-01,1.919643163681030162e-01,1.919548869132995661e-01,1.919454932212829590e-01,1.919360876083374134e-01,1.919266700744629017e-01,1.919172763824462946e-01,1.919078826904296875e-01,1.918984651565551758e-01,1.918890714645385687e-01,1.918796539306640569e-01,1.918702602386474498e-01,1.918608665466308705e-01,1.918514609336852972e-01,1.918420672416686901e-01,1.918326616287231445e-01,1.918232679367065374e-01,1.918138861656188965e-01,1.918044805526733509e-01,1.917950868606567438e-01,1.917856812477111705e-01,1.917762994766235296e-01,1.917669177055358887e-01,1.917575240135192816e-01
1.820660233497619629e-01,1.820575475692748912e-01,1.820490837097167858e-01,1.820406317710876465e-01,1.820321559906005748e-01,1.820237040519714355e-01,1.820152282714843639e-01,1.820067882537841908e-01,1.819983363151550237e-01,1.819898605346679799e-01,1.819814085960388128e-01,1.819729447364807073e-01,1.819644927978515681e-01,1.819560289382934626e-01,1.819475889205932617e-01,1.819391369819641224e-01,1.819306731224060170e-01,1.819222331047058161e-01,1.819137692451477106e-01,1.819053292274475098e-01,1.818968653678894043e-01,1.818884253501892034e-01,1.818799853324890026e-01,1.818715333938598633e-01,1.818630933761596624e-01,1.818546414375305231e-01,1.818462014198303223e-01,1.818377494812011830e-01,1.818293094635009821e-01,1.818208813667297474e-01,1.818124294281005804e-01,1.818039894104003795e-01,1.817955374717712402e-01,1.817871093750000056e-01,1.817786812782287709e-01,1.817702293395996038e-01,1.817618012428283691e-01,1.817533493041992299e-01,1.817449331283569336e-01,1.817364811897277943e-01,1.817280530929565319e-01,1.817196369171142634e-01,1.817111849784850963e-01,1.817027688026428278e-01,1.816943287849426270e-01,1.816859006881713923e-01,1.816774606704711914e-01,1.816690444946288951e-01,1.816606283187866266e-01,1.816521883010864258e-01,1.816437721252441295e-01,1.816353321075439564e-01,1.816269159317016602e-01,1.816184997558593639e-01,1.816100716590881292e-01,1.816016554832458607e-01,1.815932273864745983e-01,1.815848112106323298e-01,1.815763950347900335e-01,1.815679669380187988e-01,1.815595626831054688e-01,1.815511345863342341e-01,1.815427184104919378e-01,1.815343141555786077e-01,1.815258860588073730e-01,1.815174818038940430e-01,1.815090537071228083e-01,1.815006494522094782e-01,1.814922451972961481e-01,1.814838290214538519e-01,1.814754247665405218e-01,1.814670205116271917e-01,1.814586043357849232e-01,1.814502000808715931e-01,1.814417839050292969e-01,1.814333915710449330e-01,1.814249873161316029e-01,1.814165711402893066e-01,1.814081788063049427e-01,1.813997626304626465e-01
1.727032184600830189e-01,1.726956129074096735e-01,1.726879835128784235e-01,1.726803779602050781e-01,1.726727485656738281e-01,1.726651430130004827e-01,1.726575374603271373e-01,1.726499199867248535e-01,1.726423144340515081e-01,1.726346969604492243e-01,1.726270914077758789e-01,1.726194858551025335e-01,1.726118683815002497e-01,1.726042628288269043e-01,1.725966453552246205e-01,1.725890517234802135e-01,1.725814342498779297e-01,1.725738406181335505e-01,1.725662350654602051e-01,1.725586295127868597e-01,1.725510239601135143e-01,1.725434184074401966e-01,1.725358247756957897e-01,1.725282073020935059e-01,1.725206136703491266e-01,1.725130200386047474e-01,1.725054144859314020e-01,1.724978208541870228e-01,1.724902153015136774e-01,1.724826216697692982e-01,1.724750161170959528e-01,1.724674344062805120e-01,1.724598407745361328e-01,1.724522352218627874e-01,1.724446535110473744e-01,1.724370479583740290e-01,1.724294662475585882e-01,1.724218606948852428e-01,1.724142789840698298e-01,1.724066972732543890e-01,1.723990917205810436e-01,1.723915100097656306e-01,1.723839163780212513e-01,1.723763346672058105e-01,1.723687529563903698e-01,1.723611593246459905e-01,1.723535776138305775e-01,1.723459839820861705e-01,1.723384022712707575e-01,1.723308086395263783e-01,1.723232269287109375e-01,1.723156571388244629e-01,1.723080635070800837e-01,1.723004937171936091e-01,1.722929000854492299e-01,1.722853302955627552e-01,1.722777366638183483e-01,1.722701668739318737e-01,1.722625970840453991e-01,1.722550034523010198e-01,1.722474455833435114e-01,1.722398757934570368e-01,1.722322821617126576e-01,1.722247242927551214e-01,1.722171306610107422e-01,1.722095727920532338e-01,1.722020030021667591e-01,1.721944212913513184e-01,1.721868515014648438e-01,1.721792817115783691e-01,1.721717119216918945e-01,1.721641540527343861e-01,1.721565723419189453e-01,1.721490144729614369e-01,1.721414327621459961e-01,1.721338748931884877e-01,1.721263170242309515e-01,1.721187472343444769e-01,1.721111893653869684e-01,1.721036314964294323e-01
1.642562866210937611e-01,1.642494082450866588e-01,1.642425179481506459e-01,1.642356276512146052e-01,1.642287373542785645e-01,1.642218470573425237e-01,1.642149686813354492e-01,1.642080664634704701e-01,1.642012000083923340e-01,1.641943216323852595e-01,1.641874194145202526e-01,1.641805410385131780e-01,1.641736507415771373e-01,1.641667842864990290e-01,1.641598820686340221e-01,1.641530156135559138e-01,1.641461372375488392e-01,1.641392469406127985e-01,1.641323804855346624e-01,1.641254901885986217e-01,1.641186237335205134e-01,1.641117453575134388e-01,1.641048669815063366e-01,1.640979886054992620e-01,1.640911102294921875e-01,1.640842437744140514e-01,1.640773534774780384e-01,1.640704870223999023e-01,1.640636205673217662e-01,1.640567421913146917e-01,1.640498757362365834e-01,1.640429854393005427e-01,1.640361309051513727e-01,1.640292406082153320e-01,1.640223860740661621e-01,1.640155196189880260e-01,1.640086412429809515e-01,1.640017747879028431e-01,1.639948964118957409e-01,1.639880418777465709e-01,1.639811635017394964e-01,1.639743089675903265e-01,1.639674425125122181e-01,1.639605760574340820e-01,1.639537096023559459e-01,1.639468431472778376e-01,1.639399886131286677e-01,1.639331102371215931e-01,1.639262557029724232e-01,1.639194011688232533e-01,1.639125347137451172e-01,1.639056801795959473e-01,1.638988137245178112e-01,1.638919591903686412e-01,1.638851046562194713e-01,1.638782382011413630e-01,1.638713836669921931e-01,1.638645172119140569e-01,1.638576745986938532e-01,1.638508081436157171e-01,1.638439536094665472e-01,1.638371109962463434e-01,1.638302445411682073e-01,1.638234019279480036e-01,1.638165473937988337e-01,1.638096928596496638e-01,1.638028383255004938e-01,1.637959837913513239e-01,1.637891411781310924e-01,1.637822985649108887e-01,1.637754321098327526e-01,1.637685894966125488e-01,1.637617349624633789e-01,1.637548923492431752e-01,1.637480497360229437e-01,1.637411952018737737e-01,1.637343525886535700e-01,1.637274980545044001e-01,1.637206673622131348e-01,1.637138247489929310e-01
1.565971255302429088e-01,1.565908551216125544e-01,1.565845966339111384e-01,1.565783262252807562e-01,1.565720796585083063e-01,1.565658211708068903e-01,1.565595507621765081e-01,1.565533041954040583e-01,1.565470337867736761e-01,1.565407872200012263e-01,1.565345168113708441e-01,1.565282702445983942e-01,1.565220117568969782e-01,1.565157532691955622e-01,1.565095067024230846e-01,1.565032362937927302e-01,1.564969897270202526e-01,1.564907312393188366e-01,1.564844846725463867e-01,1.564782381057739369e-01,1.564719796180725209e-01,1.564657330513000433e-01,1.564594745635986273e-01,1.564532279968261774e-01,1.564469695091247614e-01,1.564407229423522838e-01,1.564344763755798340e-01,1.564282178878784180e-01,1.564219832420349066e-01,1.564157247543334905e-01,1.564094781875610407e-01,1.564032435417175293e-01,1.563969850540161133e-01,1.563907504081726019e-01,1.563844919204711859e-01,1.563782572746276744e-01,1.563719987869262584e-01,1.563657641410827748e-01,1.563595294952392634e-01,1.563532710075378473e-01,1.563470363616943359e-01,1.563407897949218861e-01,1.563345551490783747e-01,1.563282966613769587e-01,1.563220620155334473e-01,1.563158392906189020e-01,1.563095808029174860e-01,1.563033580780029408e-01,1.562971115112304632e-01,1.562908768653869518e-01,1.562846302986145020e-01,1.562783956527709905e-01,1.562721729278564453e-01,1.562659263610839955e-01,1.562596917152404841e-01,1.562534451484680065e-01,1.562472224235534612e-01,1.562409996986389160e-01,1.562347531318664662e-01,1.562285304069518932e-01,1.562222838401794434e-01,1.562160611152648981e-01,1.562098145484924205e-01,1.562035918235778753e-01,1.561973690986633301e-01,1.561911344528198187e-01,1.561849117279052734e-01,1.561786890029907282e-01,1.561724543571472168e-01,1.561662316322326716e-01,1.561599850654601940e-01,1.561537742614746149e-01,1.561475515365600697e-01,1.561413168907165583e-01,1.561350941658020131e-01,1.561288595199585016e-01,1.561226487159728948e-01,1.561164259910583496e-01,1.561101913452148382e-01,1.561039805412292591e-01
1.496204137802124023e-01,1.496146798133849987e-01,1.496089696884155273e-01,1.496032595634460560e-01,1.495975375175476185e-01,1.495918273925781194e-01,1.495861172676086481e-01,1.495804071426391491e-01,1.495746970176696777e-01,1.495689749717712402e-01,1.495632648468017689e-01,1.495575428009033314e-01,1.495518445968627985e-01,1.495461225509643610e-01,1.495404243469238281e-01,1.495347142219543568e-01,1.495289921760559193e-01,1.495232939720153864e-01,1.495175719261169489e-01,1.495118737220764160e-01,1.495061516761779785e-01,1.495004534721374456e-01,1.494947552680969127e-01,1.494890451431274414e-01,1.494833350181579701e-01,1.494776248931884710e-01,1.494719266891479381e-01,1.494662165641784668e-01,1.494605183601379339e-01,1.494548201560974010e-01,1.494490981101989635e-01,1.494434118270873968e-01,1.494376897811889593e-01,1.494320034980773926e-01,1.494263052940368597e-01,1.494205951690673884e-01,1.494148969650268555e-01,1.494091868400573841e-01,1.494035005569457897e-01,1.493977904319763184e-01,1.493920922279357855e-01,1.493864059448242188e-01,1.493806958198547474e-01,1.493749976158142145e-01,1.493692994117736816e-01,1.493636012077331487e-01,1.493579030036926159e-01,1.493522047996521107e-01,1.493465185165405162e-01,1.493408203125000111e-01,1.493351221084594782e-01,1.493294239044189453e-01,1.493237376213073786e-01,1.493180394172668457e-01,1.493123412132263128e-01,1.493066549301147461e-01,1.493009567260742132e-01,1.492952704429626465e-01,1.492895722389221136e-01,1.492838859558105469e-01,1.492781877517700140e-01,1.492725014686584473e-01,1.492668151855468806e-01,1.492611289024353138e-01,1.492554426193237194e-01,1.492497444152832142e-01,1.492440581321716198e-01,1.492383837699890192e-01,1.492326855659484863e-01,1.492269992828369196e-01,1.492213249206542913e-01,1.492156267166137584e-01,1.492099523544311579e-01,1.492042541503906250e-01,1.491985797882079967e-01,1.491928935050964300e-01,1.491872072219848633e-01,1.491815328598022350e-01,1.491758346557617299e-01,1.491701602935791016e-01
1.432388305664062389e-01,1.432335972785949707e-01,1.432283520698547363e-01,1.432231187820434681e-01,1.432178735733032338e-01,1.432126402854919378e-01,1.432074069976806696e-01,1.432021617889404352e-01,1.431969285011291393e-01,1.431916952133178711e-01,1.431864619255066029e-01,1.431812286376953069e-01,1.431759834289550726e-01,1.431707620620727428e-01,1.431655168533325084e-01,1.431602835655212402e-01,1.431550502777099720e-01,1.431498169898986761e-01,1.431445956230163463e-01,1.431393504142761119e-01,1.431341290473938099e-01,1.431288838386535756e-01,1.431236624717712458e-01,1.431184291839599498e-01,1.431131958961486816e-01,1.431079745292663519e-01,1.431027412414550837e-01,1.430975079536437877e-01,1.430922746658325195e-01,1.430870532989501898e-01,1.430818200111389216e-01,1.430765986442565918e-01,1.430713772773742620e-01,1.430661439895629938e-01,1.430609226226806641e-01,1.430556893348693959e-01,1.430504679679870661e-01,1.430452346801757701e-01,1.430400133132934681e-01,1.430347919464111384e-01,1.430295586585998424e-01,1.430243492126464788e-01,1.430191159248352106e-01,1.430138945579528809e-01,1.430086851119995173e-01,1.430034518241882213e-01,1.429982304573059193e-01,1.429930090904235895e-01,1.429877877235412598e-01,1.429825663566589300e-01,1.429773449897766002e-01,1.429721355438232366e-01,1.429669022560119684e-01,1.429616928100586049e-01,1.429564595222473089e-01,1.429512500762939453e-01,1.429460287094116155e-01,1.429408192634582520e-01,1.429355978965759222e-01,1.429303765296935924e-01,1.429251670837402288e-01,1.429199457168578991e-01,1.429147362709045355e-01,1.429095149040222057e-01,1.429043054580688421e-01,1.428990960121154785e-01,1.428938746452331487e-01,1.428886651992797852e-01,1.428834438323974554e-01,1.428782343864440918e-01,1.428730249404907282e-01,1.428678035736083984e-01,1.428625941276550348e-01,1.428573966026306097e-01,1.428521752357482799e-01,1.428469657897949163e-01,1.428417444229125866e-01,1.428365468978881891e-01,1.428313374519348256e-01,1.428261280059814342e-01
1.373793601989746205e-01,1.373745441436767523e-01,1.373697280883789118e-01,1.373649001121521052e-01,1.373600840568542369e-01,1.373552680015563965e-01,1.373504519462585560e-01,1.373456239700317494e-01,1.373408198356628473e-01,1.373360037803649791e-01,1.373311877250671387e-01,1.373263716697692982e-01,1.373215436935424916e-01,1.373167395591735895e-01,1.373119115829467829e-01,1.373071074485778809e-01,1.373023033142089788e-01,1.372974753379821722e-01,1.372926712036132701e-01,1.372878432273864635e-01,1.372830390930175892e-01,1.372782349586486872e-01,1.372734189033508190e-01,1.372686028480529785e-01,1.372637867927551381e-01,1.372589826583862360e-01,1.372541666030883678e-01,1.372493624687194935e-01,1.372445583343505915e-01,1.372397422790527233e-01,1.372349381446838490e-01,1.372301220893859808e-01,1.372253179550170787e-01,1.372205018997192383e-01,1.372156977653503362e-01,1.372108936309814342e-01,1.372060775756835938e-01,1.372012734413146917e-01,1.371964573860168513e-01,1.371916651725769154e-01,1.371868491172790472e-01,1.371820449829101451e-01,1.371772408485412709e-01,1.371724367141723688e-01,1.371676325798034668e-01,1.371628284454345648e-01,1.371580243110656627e-01,1.371532201766967884e-01,1.371484160423278864e-01,1.371436119079589844e-01,1.371388077735900823e-01,1.371340155601501465e-01,1.371291995048523060e-01,1.371244072914123424e-01,1.371196031570434681e-01,1.371147990226745661e-01,1.371100068092346302e-01,1.371052026748657282e-01,1.371003985404968262e-01,1.370955944061279241e-01,1.370908021926879883e-01,1.370860099792480524e-01,1.370812058448791504e-01,1.370764136314392145e-01,1.370716094970703125e-01,1.370668053627014105e-01,1.370620131492614746e-01,1.370572209358215388e-01,1.370524287223816029e-01,1.370476245880127009e-01,1.370428323745727650e-01,1.370380282402038630e-01,1.370332360267639271e-01,1.370284318923950251e-01,1.370236396789550892e-01,1.370188593864440918e-01,1.370140552520751898e-01,1.370092630386352539e-01,1.370044827461242565e-01,1.369996786117553822e-01
1.319804430007934515e-01,1.319759845733642634e-01,1.319715380668640137e-01,1.319670915603637640e-01,1.319626450538635143e-01,1.319582104682922308e-01,1.319537520408630427e-01,1.319493055343627930e-01,1.319448590278625433e-01,1.319404125213622936e-01,1.319359660148620716e-01,1.319315314292907604e-01,1.319270849227905384e-01,1.319226384162902888e-01,1.319181919097900391e-01,1.319137454032897894e-01,1.319093108177185059e-01,1.319048643112182562e-01,1.319004178047180065e-01,1.318959832191467230e-01,1.318915367126464733e-01,1.318871021270751898e-01,1.318826436996460016e-01,1.318782091140747181e-01,1.318737626075744684e-01,1.318693280220031849e-01,1.318648934364318737e-01,1.318604469299316517e-01,1.318560123443603405e-01,1.318515658378601185e-01,1.318471312522888073e-01,1.318426966667175237e-01,1.318382501602172741e-01,1.318338155746459905e-01,1.318293690681457409e-01,1.318249464035034235e-01,1.318204998970031738e-01,1.318160653114318903e-01,1.318116307258606068e-01,1.318071842193603571e-01,1.318027615547180120e-01,1.317983150482177623e-01,1.317938804626464788e-01,1.317894458770751953e-01,1.317850112915039118e-01,1.317805767059326283e-01,1.317761421203613170e-01,1.317717075347900335e-01,1.317672729492187500e-01,1.317628383636474665e-01,1.317584037780761830e-01,1.317539691925048717e-01,1.317495465278625544e-01,1.317451119422912709e-01,1.317406773567199596e-01,1.317362427711486761e-01,1.317318201065063588e-01,1.317273855209350475e-01,1.317229509353637640e-01,1.317185282707214466e-01,1.317140936851501354e-01,1.317096590995788519e-01,1.317052245140075684e-01,1.317008018493652233e-01,1.316963791847229059e-01,1.316919445991516224e-01,1.316875219345092773e-01,1.316830873489379938e-01,1.316786646842956487e-01,1.316742300987243652e-01,1.316698074340820201e-01,1.316653847694397028e-01,1.316609501838684193e-01,1.316565275192260742e-01,1.316520929336547907e-01,1.316476702690124456e-01,1.316432476043701283e-01,1.316388249397277832e-01,1.316344022750854381e-01,1.316299676895141546e-01
1.269898176193237360e-01,1.269856929779052679e-01,1.269815802574157659e-01,1.269774675369262640e-01,1.269733428955078236e-01,1.269692301750183216e-01,1.269651055335998535e-01,1.269609928131103516e-01,1.269568800926208496e-01,1.269527554512023815e-01,1.269486427307128795e-01,1.269445300102233776e-01,1.269404172897338756e-01,1.269362926483154352e-01,1.269321799278259333e-01,1.269280791282653698e-01,1.269239544868469294e-01,1.269198417663574274e-01,1.269157290458679255e-01,1.269116163253784235e-01,1.269075036048889216e-01,1.269033908843994196e-01,1.268992781639099177e-01,1.268951654434204157e-01,1.268910527229309138e-01,1.268869400024414118e-01,1.268828392028808483e-01,1.268787145614624079e-01,1.268746137619018444e-01,1.268705010414123424e-01,1.268663883209228405e-01,1.268622875213623047e-01,1.268581628799438366e-01,1.268540620803833008e-01,1.268499612808227650e-01,1.268458485603332631e-01,1.268417358398437611e-01,1.268376231193542591e-01,1.268335223197936956e-01,1.268294095993041937e-01,1.268253087997436579e-01,1.268211960792541559e-01,1.268170833587646540e-01,1.268129825592040905e-01,1.268088698387145885e-01,1.268047690391540527e-01,1.268006563186645508e-01,1.267965555191040150e-01,1.267924547195434515e-01,1.267883419990539495e-01,1.267842411994934138e-01,1.267801403999328502e-01,1.267760396003723145e-01,1.267719268798828125e-01,1.267678260803222767e-01,1.267637252807617132e-01,1.267596244812011774e-01,1.267555236816406139e-01,1.267514109611511119e-01,1.267473101615905762e-01,1.267432093620300404e-01,1.267391085624694769e-01,1.267350077629089411e-01,1.267308950424194391e-01,1.267268061637878418e-01,1.267226934432983398e-01,1.267186045646667425e-01,1.267145037651062067e-01,1.267104029655456432e-01,1.267063021659851074e-01,1.267022013664245716e-01,1.266981005668640081e-01,1.266939997673034723e-01,1.266898989677429088e-01,1.266858100891113392e-01,1.266817092895507757e-01,1.266776084899902399e-01,1.266735076904296764e-01,1.266694188117981068e-01,1.266653180122375433e-01
1.223628640174865695e-01,1.223590493202209445e-01,1.223552227020263672e-01,1.223513960838317899e-01,1.223475694656372126e-01,1.223437547683715876e-01,1.223399281501769964e-01,1.223361015319824191e-01,1.223322868347167941e-01,1.223284602165222168e-01,1.223246455192565918e-01,1.223208308219909668e-01,1.223170042037963895e-01,1.223131895065307645e-01,1.223093628883361872e-01,1.223055481910705622e-01,1.223017215728759710e-01,1.222979068756103460e-01,1.222940921783447210e-01,1.222902655601501437e-01,1.222864508628845187e-01,1.222826242446899414e-01,1.222788095474243164e-01,1.222749829292297391e-01,1.222711682319641141e-01,1.222673535346984891e-01,1.222635388374328641e-01,1.222597241401672391e-01,1.222558975219726618e-01,1.222520828247070368e-01,1.222482681274414118e-01,1.222444534301757868e-01,1.222406387329101618e-01,1.222368240356445368e-01,1.222330093383789118e-01,1.222291946411132868e-01,1.222253799438476618e-01,1.222215533256530706e-01,1.222177505493164118e-01,1.222139358520507868e-01,1.222101211547851618e-01,1.222063064575195368e-01,1.222024917602539118e-01,1.221986770629882868e-01,1.221948742866516141e-01,1.221910476684570368e-01,1.221872448921203641e-01,1.221834301948547391e-01,1.221796154975891141e-01,1.221758008003234891e-01,1.221719980239868164e-01,1.221681833267211914e-01,1.221643686294555664e-01,1.221605658531188937e-01,1.221567392349243164e-01,1.221529364585876437e-01,1.221491217613220187e-01,1.221453189849853460e-01,1.221415162086486872e-01,1.221377015113830622e-01,1.221338868141174372e-01,1.221300721168518122e-01,1.221262693405151395e-01,1.221224546432495145e-01,1.221186518669128418e-01,1.221148490905761691e-01,1.221110343933105441e-01,1.221072316169738714e-01,1.221034169197082464e-01,1.220996141433715876e-01,1.220958113670349149e-01,1.220919966697692899e-01,1.220881938934326172e-01,1.220843911170959445e-01,1.220805883407592718e-01,1.220767736434936468e-01,1.220729708671569880e-01,1.220691680908203153e-01,1.220653653144836426e-01,1.220615625381469699e-01
