6.195458412170410378e-01,6.352575778961181419e-01,6.517892837524413840e-01,6.692049026489257368e-01,6.875767230987548384e-01,7.069857597351074663e-01,7.275224208831787553e-01,7.492878437042236328e-01,7.723957538604736550e-01,7.969743251800537331e-01,8.231684684753417525e-01,8.511430740356444868e-01,8.810858726501464844e-01,9.132122993469238281e-01,9.477701187133789062e-01,9.850463867187500000e-01,1.000000000000000000e+00,1.000000000000000000e+00,1.000000000000000000e+00,1.000000000000000000e+00,1.000000000000000000e+00,1.000000000000000000e+00,1.000000000000000000e+00,1.000000000000000000e+00,1.000000000000000000e+00,1.000000000000000000e+00,1.000000000000000000e+00,1.000000000000000000e+00,1.000000000000000000e+00,1.000000000000000000e+00,1.000000000000000000e+00,1.000000000000000000e+00,1.000000000000000000e+00,1.000000000000000000e+00,1.000000000000000000e+00,1.000000000000000000e+00,1.000000000000000000e+00,1.000000000000000000e+00,1.000000000000000000e+00,1.000000000000000000e+00,1.000000000000000000e+00,1.000000000000000000e+00,1.000000000000000000e+00,1.000000000000000000e+00,1.000000000000000000e+00,1.000000000000000000e+00,1.000000000000000000e+00,1.000000000000000000e+00,1.000000000000000000e+00,1.000000000000000000e+00,1.000000000000000000e+00,1.000000000000000000e+00,1.000000000000000000e+00,1.000000000000000000e+00,1.000000000000000000e+00,1.000000000000000000e+00,3.491690635681152233e-01,3.441083669662475808e-01,3.432491064071655495e-01,3.365957021713256725e-01,3.288746595382690541e-01,3.256501197814941628e-01,3.226204872131347434e-01,3.205239295959472767e-01,3.197245359420776145e-01,3.187735795974731556e-01,3.194477319717407005e-01,3.209916353225708008e-01,3.240601062774658425e-01,3.500349283218383567e-01,3.457280635833740456e-01,3.438987016677856334e-01,3.494970798492431641e-01,8.798832893371582031e-01,8.536715507507324219e-01,8.289763450622558150e-01,8.056697845458984375e-01,7.836379051208496316e-01,7.627789497375487837e-01,7.430015087127685991e-01
6.195326328277588335e-01,6.352437019348144975e-01,6.517723560333251731e-01,6.691866397857666460e-01,6.875574111938476118e-01,7.069653511047363503e-01,7.275008201599121316e-01,7.492649078369140181e-01,7.723713874816894309e-01,7.969483852386474165e-01,8.231408119201659712e-01,8.511135101318358931e-01,8.810542106628418413e-01,9.131782531738281694e-01,9.477334976196288840e-01,9.850068092346191406e-01,1.000000000000000000e+00,1.000000000000000000e+00,1.000000000000000000e+00,1.000000000000000000e+00,1.000000000000000000e+00,1.000000000000000000e+00,1.000000000000000000e+00,1.000000000000000000e+00,1.000000000000000000e+00,1.000000000000000000e+00,1.000000000000000000e+00,1.000000000000000000e+00,1.000000000000000000e+00,1.000000000000000000e+00,1.000000000000000000e+00,1.000000000000000000e+00,1.000000000000000000e+00,1.000000000000000000e+00,1.000000000000000000e+00,1.000000000000000000e+00,1.000000000000000000e+00,1.000000000000000000e+00,1.000000000000000000e+00,1.000000000000000000e+00,1.000000000000000000e+00,1.000000000000000000e+00,1.000000000000000000e+00,1.000000000000000000e+00,1.000000000000000000e+00,1.000000000000000000e+00,1.000000000000000000e+00,1.000000000000000000e+00,1.000000000000000000e+00,1.000000000000000000e+00,1.000000000000000000e+00,1.000000000000000000e+00,1.000000000000000000e+00,1.000000000000000000e+00,1.000000000000000000e+00,1.000000000000000000e+00,3.483873605728149414e-01,3.419275522232055886e-01,3.409792184829711914e-01,3.356386423110961914e-01,3.279717206954956277e-01,3.252279281616211049e-01,3.225371599197387473e-01,3.210889339447021706e-01,3.198785066604614147e-01,3.196385860443115012e-01,3.201563119888305442e-01,3.221837997436523549e-01,3.250585794448852539e-01,3.486245870590209961e-01,3.443644523620605358e-01,3.416103124618530273e-01,3.409013986587524636e-01,8.799065589904785378e-01,8.536934852600097656e-01,8.289969444274902788e-01,8.056892395019531472e-01,7.836563110351562056e-01,7.627964019775390625e-01,7.430181503295898438e-01
6.195194244384765181e-01,6.352297782897948775e-01,6.517577648162842241e-01,6.691687583923340288e-01,6.875381469726562500e-01,7.069449424743652344e-01,7.274791717529296431e-01,7.492419719696045144e-01,7.723470211029053178e-01,7.969224452972412109e-01,8.231131553649901900e-01,8.510839462280272993e-01,8.810225486755370872e-01,9.131442070007323997e-01,9.476967811584472434e-01,9.849671363830566628e-01,1.000000000000000000e+00,1.000000000000000000e+00,1.000000000000000000e+00,1.000000000000000000e+00,1.000000000000000000e+00,1.000000000000000000e+00,1.000000000000000000e+00,1.000000000000000000e+00,1.000000000000000000e+00,1.000000000000000000e+00,1.000000000000000000e+00,1.000000000000000000e+00,1.000000000000000000e+00,1.000000000000000000e+00,1.000000000000000000e+00,1.000000000000000000e+00,1.000000000000000000e+00,1.000000000000000000e+00,1.000000000000000000e+00,1.000000000000000000e+00,1.000000000000000000e+00,1.000000000000000000e+00,1.000000000000000000e+00,1.000000000000000000e+00,1.000000000000000000e+00,1.000000000000000000e+00,1.000000000000000000e+00,1.000000000000000000e+00,1.000000000000000000e+00,1.000000000000000000e+00,1.000000000000000000e+00,1.000000000000000000e+00,1.000000000000000000e+00,1.000000000000000000e+00,1.000000000000000000e+00,1.000000000000000000e+00,1.000000000000000000e+00,1.000000000000000000e+00,1.000000000000000000e+00,1.000000000000000000e+00,3.459774971008300892e-01,3.393323183059692161e-01,3.382605791091918834e-01,3.339899778366088867e-01,3.270847558975219505e-01,3.245615243911743053e-01,3.221938133239746205e-01,3.230641841888427512e-01,3.228194475173949973e-01,3.207606792449951283e-01,3.230461835861205833e-01,3.242616653442382812e-01,3.241727113723754661e-01,3.317048311233520286e-01,3.436043500900268777e-01,3.395752191543578991e-01,3.390206813812255970e-01,8.799297332763671431e-01,8.537153244018554910e-01,8.290176391601562500e-01,8.057086944580078569e-01,7.836747169494628906e-01,7.628138065338134766e-01,7.430346488952637163e-01
6.195062160491943137e-01,6.352159023284912331e-01,6.517431735992431641e-01,6.691533088684081809e-01,6.875191688537597434e-01,7.069245338439941184e-01,7.274575710296631303e-01,7.492190837860107644e-01,7.723227024078369585e-01,7.968965053558350053e-01,8.230854988098144087e-01,8.510543823242187056e-01,8.809907913208008257e-01,9.131101608276367410e-01,9.476601600646972212e-01,9.849275588989258035e-01,1.000000000000000000e+00,1.000000000000000000e+00,1.000000000000000000e+00,1.000000000000000000e+00,1.000000000000000000e+00,1.000000000000000000e+00,1.000000000000000000e+00,1.000000000000000000e+00,1.000000000000000000e+00,1.000000000000000000e+00,1.000000000000000000e+00,1.000000000000000000e+00,1.000000000000000000e+00,1.000000000000000000e+00,1.000000000000000000e+00,1.000000000000000000e+00,1.000000000000000000e+00,1.000000000000000000e+00,1.000000000000000000e+00,1.000000000000000000e+00,1.000000000000000000e+00,1.000000000000000000e+00,1.000000000000000000e+00,1.000000000000000000e+00,1.000000000000000000e+00,1.000000000000000000e+00,1.000000000000000000e+00,1.000000000000000000e+00,1.000000000000000000e+00,1.000000000000000000e+00,1.000000000000000000e+00,1.000000000000000000e+00,1.000000000000000000e+00,1.000000000000000000e+00,1.000000000000000000e+00,1.000000000000000000e+00,1.000000000000000000e+00,1.000000000000000000e+00,1.000000000000000000e+00,1.000000000000000000e+00,3.441892623901366965e-01,3.375494718551635964e-01,3.363266944885253684e-01,3.330856084823608509e-01,3.257920980453491433e-01,3.237306594848632924e-01,3.215493917465209739e-01,3.233920335769653320e-01,3.258150100708007701e-01,3.235800981521606556e-01,3.259887218475341908e-01,3.235751867294311412e-01,3.212774038314819558e-01,3.237693786621093639e-01,3.436049699783325084e-01,3.391350746154785378e-01,3.360436439514160045e-01,8.799529075622558594e-01,8.537370681762694868e-01,8.290381431579589844e-01,8.057281494140624556e-01,7.836931228637695757e-01,7.628312587738037553e-01,7.430511951446533425e-01
6.194930076599121094e-01,6.352020263671874778e-01,6.517285346984863503e-01,6.691379070281981978e-01,6.875029087066650835e-01,7.069044113159179688e-01,7.274359703063965066e-01,7.491961479187011497e-01,7.722983360290527344e-01,7.968706130981445535e-01,8.230578422546386275e-01,8.510248184204101118e-01,8.809591293334960715e-01,9.130761146545409712e-01,9.476235389709473100e-01,9.848879814147949441e-01,1.000000000000000000e+00,1.000000000000000000e+00,1.000000000000000000e+00,1.000000000000000000e+00,1.000000000000000000e+00,1.000000000000000000e+00,1.000000000000000000e+00,1.000000000000000000e+00,1.000000000000000000e+00,1.000000000000000000e+00,1.000000000000000000e+00,1.000000000000000000e+00,1.000000000000000000e+00,1.000000000000000000e+00,1.000000000000000000e+00,1.000000000000000000e+00,1.000000000000000000e+00,1.000000000000000000e+00,1.000000000000000000e+00,1.000000000000000000e+00,1.000000000000000000e+00,1.000000000000000000e+00,1.000000000000000000e+00,1.000000000000000000e+00,1.000000000000000000e+00,1.000000000000000000e+00,1.000000000000000000e+00,1.000000000000000000e+00,1.000000000000000000e+00,1.000000000000000000e+00,1.000000000000000000e+00,1.000000000000000000e+00,1.000000000000000000e+00,1.000000000000000000e+00,1.000000000000000000e+00,1.000000000000000000e+00,1.000000000000000000e+00,1.000000000000000000e+00,1.000000000000000000e+00,1.000000000000000000e+00,3.428789854049682506e-01,3.357852458953857200e-01,3.343763828277587780e-01,3.321393251419067494e-01,3.237795114517211803e-01,3.217237472534179576e-01,3.196966409683227317e-01,3.195706367492675559e-01,3.261607646942138450e-01,3.290569543838500755e-01,3.232081413269042858e-01,3.196750402450561634e-01,3.163086175918579102e-01,3.134395360946655162e-01,3.192593574523925892e-01,3.382052183151245117e-01,3.337733268737793080e-01,3.348362445831298828e-01,8.537590026855468306e-01,8.290587425231933372e-01,8.057476043701171653e-01,7.837115764617920144e-01,7.628482341766357200e-01,7.430665969848633257e-01
6.194797992706299050e-01,6.351881980895995872e-01,6.517138957977295366e-01,6.691225051879883257e-01,6.874866485595703125e-01,7.068872451782226562e-01,7.274146080017089844e-01,7.491732120513916460e-01,7.722739696502685103e-01,7.968446731567382368e-01,8.230301856994628462e-01,8.509951591491698997e-01,8.809274673461914285e-01,9.130420684814453125e-01,9.475868225097656694e-01,9.848484039306640847e-01,1.000000000000000000e+00,1.000000000000000000e+00,1.000000000000000000e+00,1.000000000000000000e+00,1.000000000000000000e+00,1.000000000000000000e+00,1.000000000000000000e+00,1.000000000000000000e+00,1.000000000000000000e+00,1.000000000000000000e+00,1.000000000000000000e+00,1.000000000000000000e+00,1.000000000000000000e+00,1.000000000000000000e+00,1.000000000000000000e+00,1.000000000000000000e+00,1.000000000000000000e+00,1.000000000000000000e+00,1.000000000000000000e+00,1.000000000000000000e+00,1.000000000000000000e+00,1.000000000000000000e+00,1.000000000000000000e+00,1.000000000000000000e+00,1.000000000000000000e+00,1.000000000000000000e+00,1.000000000000000000e+00,1.000000000000000000e+00,1.000000000000000000e+00,1.000000000000000000e+00,1.000000000000000000e+00,1.000000000000000000e+00,1.000000000000000000e+00,1.000000000000000000e+00,1.000000000000000000e+00,1.000000000000000000e+00,1.000000000000000000e+00,1.000000000000000000e+00,1.000000000000000000e+00,1.000000000000000000e+00,1.000000000000000000e+00,3.334364414215088002e-01,3.313745260238647461e-01,3.310838460922241322e-01,3.225150346755981667e-01,3.203452587127685325e-01,3.182391881942748801e-01,3.161606073379516491e-01,3.211850643157959095e-01,3.271801471710205078e-01,3.202066659927368386e-01,3.161261796951294056e-01,3.138439416885375755e-01,3.115943908691406472e-01,3.142407417297363170e-01,3.396658182144164928e-01,3.357100963592529186e-01,3.348992586135864369e-01,8.537808418273925559e-01,8.290791511535644531e-01,8.057660102844238503e-01,7.837282657623291238e-01,7.628637790679931863e-01,7.430813789367676225e-01
6.194665908813477007e-01,6.351743221282959428e-01,6.516993045806884766e-01,6.691071033477783425e-01,6.874703884124755415e-01,7.068700313568114790e-01,7.273964881896972656e-01,7.491505622863769975e-01,7.722496509552001509e-01,7.968187332153320312e-01,8.230025291442870650e-01,8.509655952453613059e-01,8.808958053588866743e-01,9.130081176757812722e-01,9.475502014160156472e-01,9.848088264465332253e-01,1.000000000000000000e+00,1.000000000000000000e+00,1.000000000000000000e+00,1.000000000000000000e+00,1.000000000000000000e+00,1.000000000000000000e+00,1.000000000000000000e+00,1.000000000000000000e+00,1.000000000000000000e+00,1.000000000000000000e+00,1.000000000000000000e+00,1.000000000000000000e+00,1.000000000000000000e+00,1.000000000000000000e+00,1.000000000000000000e+00,1.000000000000000000e+00,1.000000000000000000e+00,1.000000000000000000e+00,1.000000000000000000e+00,1.000000000000000000e+00,1.000000000000000000e+00,1.000000000000000000e+00,1.000000000000000000e+00,1.000000000000000000e+00,1.000000000000000000e+00,1.000000000000000000e+00,1.000000000000000000e+00,1.000000000000000000e+00,1.000000000000000000e+00,1.000000000000000000e+00,1.000000000000000000e+00,1.000000000000000000e+00,1.000000000000000000e+00,1.000000000000000000e+00,1.000000000000000000e+00,1.000000000000000000e+00,1.000000000000000000e+00,1.000000000000000000e+00,1.000000000000000000e+00,1.000000000000000000e+00,3.409781694412231667e-01,3.317554473876953014e-01,3.299144029617309681e-01,3.308544635772704967e-01,3.222295045852661133e-01,3.200532197952270508e-01,3.179060935974121205e-01,3.158072471618652566e-01,3.185712337493896706e-01,3.267749309539794700e-01,3.199819087982177512e-01,3.146926879882812611e-01,3.124458789825439453e-01,3.103929758071899414e-01,3.103446960449218750e-01,3.178924560546875222e-01,3.315349578857421653e-01,3.306050062179565208e-01,8.538009643554687056e-01,8.290975570678711382e-01,8.057834625244140181e-01,7.837446212768555132e-01,7.628793716430664062e-01,7.430962085723876731e-01
6.194534301757812500e-01,6.351603984832763228e-01,6.516846656799316628e-01,6.690917015075683594e-01,6.874541282653808816e-01,7.068528175354004128e-01,7.273782730102539285e-01,7.491312503814697710e-01,7.722254753112792747e-01,7.967927932739258257e-01,8.229748725891112837e-01,8.509360313415527122e-01,8.808640480041504128e-01,9.129740715026855025e-01,9.475135803222656250e-01,9.847692489624023660e-01,1.000000000000000000e+00,1.000000000000000000e+00,1.000000000000000000e+00,1.000000000000000000e+00,1.000000000000000000e+00,1.000000000000000000e+00,1.000000000000000000e+00,1.000000000000000000e+00,1.000000000000000000e+00,1.000000000000000000e+00,1.000000000000000000e+00,1.000000000000000000e+00,1.000000000000000000e+00,1.000000000000000000e+00,1.000000000000000000e+00,1.000000000000000000e+00,1.000000000000000000e+00,1.000000000000000000e+00,1.000000000000000000e+00,1.000000000000000000e+00,1.000000000000000000e+00,1.000000000000000000e+00,1.000000000000000000e+00,1.000000000000000000e+00,1.000000000000000000e+00,1.000000000000000000e+00,1.000000000000000000e+00,1.000000000000000000e+00,1.000000000000000000e+00,1.000000000000000000e+00,1.000000000000000000e+00,1.000000000000000000e+00,1.000000000000000000e+00,1.000000000000000000e+00,1.000000000000000000e+00,1.000000000000000000e+00,1.000000000000000000e+00,1.000000000000000000e+00,1.000000000000000000e+00,1.000000000000000000e+00,1.000000000000000000e+00,3.328652381896972656e-01,3.474891185760498047e-01,3.307149887084960826e-01,3.221190690994262806e-01,3.199378252029418945e-01,3.178070545196532981e-01,3.157044649124145508e-01,3.177480220794677845e-01,3.264868259429931641e-01,3.201435327529907338e-01,3.138139009475707786e-01,3.114718437194824441e-01,3.094316720962524414e-01,3.074180603027343861e-01,3.142350673675536887e-01,3.265328407287597656e-01,3.266737222671508567e-01,8.538205146789550337e-01,8.291159629821777122e-01,8.058008193969726785e-01,7.837611198425292747e-01,7.628949642181396262e-01,7.431109428405762163e-01
6.194402217864990456e-01,6.351465225219726785e-01,6.516700744628906028e-01,6.690762519836426225e-01,6.874378681182861106e-01,7.068356990814208540e-01,7.273600578308105913e-01,7.491119384765625444e-01,7.722049236297607866e-01,7.967669963836669922e-01,8.229472160339355025e-01,8.509064674377441184e-01,8.808323860168456587e-01,9.129400253295898438e-01,9.474768638610839844e-01,9.847296714782715066e-01,1.000000000000000000e+00,1.000000000000000000e+00,1.000000000000000000e+00,1.000000000000000000e+00,1.000000000000000000e+00,1.000000000000000000e+00,1.000000000000000000e+00,1.000000000000000000e+00,1.000000000000000000e+00,1.000000000000000000e+00,1.000000000000000000e+00,1.000000000000000000e+00,1.000000000000000000e+00,1.000000000000000000e+00,1.000000000000000000e+00,1.000000000000000000e+00,1.000000000000000000e+00,1.000000000000000000e+00,1.000000000000000000e+00,1.000000000000000000e+00,1.000000000000000000e+00,1.000000000000000000e+00,1.000000000000000000e+00,1.000000000000000000e+00,1.000000000000000000e+00,1.000000000000000000e+00,1.000000000000000000e+00,1.000000000000000000e+00,1.000000000000000000e+00,1.000000000000000000e+00,1.000000000000000000e+00,1.000000000000000000e+00,1.000000000000000000e+00,1.000000000000000000e+00,1.000000000000000000e+00,1.000000000000000000e+00,1.000000000000000000e+00,1.000000000000000000e+00,1.000000000000000000e+00,1.000000000000000000e+00,1.000000000000000000e+00,3.298984527587890403e-01,3.268109560012817383e-01,3.318016290664672630e-01,3.229741334915161022e-01,3.200334310531616211e-01,3.179013967514038308e-01,3.157975673675537109e-01,3.175862312316894420e-01,3.279394149780273660e-01,3.201764345169067494e-01,3.137884616851806530e-01,3.101779937744140736e-01,3.084710359573364369e-01,3.064750671386718972e-01,3.108865261077881081e-01,3.249369621276855247e-01,3.275655269622802512e-01,3.228358507156371959e-01,8.291343688964843972e-01,8.058181762695312278e-01,7.837775707244872825e-01,7.629105091094970925e-01,7.431257724761962669e-01
6.194270133972168413e-01,6.351326465606689231e-01,6.516554355621337891e-01,6.690608501434326394e-01,6.874215602874755859e-01,7.068184852600097878e-01,7.273418426513671431e-01,7.490926265716553178e-01,7.721844196319580522e-01,7.967451572418212669e-01,8.229196548461914507e-01,8.508769989013671431e-01,8.808007240295410156e-01,9.129059791564941850e-01,9.474402427673339622e-01,9.846899986267090288e-01,1.000000000000000000e+00,1.000000000000000000e+00,1.000000000000000000e+00,1.000000000000000000e+00,1.000000000000000000e+00,1.000000000000000000e+00,1.000000000000000000e+00,1.000000000000000000e+00,1.000000000000000000e+00,1.000000000000000000e+00,1.000000000000000000e+00,1.000000000000000000e+00,1.000000000000000000e+00,1.000000000000000000e+00,1.000000000000000000e+00,1.000000000000000000e+00,1.000000000000000000e+00,1.000000000000000000e+00,1.000000000000000000e+00,1.000000000000000000e+00,1.000000000000000000e+00,1.000000000000000000e+00,1.000000000000000000e+00,1.000000000000000000e+00,1.000000000000000000e+00,1.000000000000000000e+00,1.000000000000000000e+00,1.000000000000000000e+00,1.000000000000000000e+00,1.000000000000000000e+00,1.000000000000000000e+00,1.000000000000000000e+00,1.000000000000000000e+00,1.000000000000000000e+00,1.000000000000000000e+00,1.000000000000000000e+00,1.000000000000000000e+00,1.000000000000000000e+00,1.000000000000000000e+00,1.000000000000000000e+00,1.000000000000000000e+00,3.265074968338012584e-01,3.251972675323486217e-01,3.222047328948974831e-01,3.248910903930664062e-01,3.203186273574828991e-01,3.179957628250121848e-01,3.158906936645508035e-01,3.174246072769165150e-01,3.216752767562865989e-01,3.201655864715576283e-01,3.137629985809325950e-01,3.087870597839355580e-01,3.070953369140624889e-01,3.054220438003539817e-01,3.076745271682739258e-01,9.079702377319336382e-01,3.366087198257446400e-01,3.202526092529296986e-01,8.291527748107909712e-01,8.058355331420898882e-01,7.837939739227295366e-01,7.629261016845703125e-01,7.431405544281005637e-01
6.194138050079345259e-01,6.351187705993652788e-01,6.516408443450927290e-01,6.690454483032226562e-01,6.874053001403808150e-01,7.068013191223144753e-01,7.273236274719238059e-01,7.490733146667480913e-01,7.721638679504394531e-01,7.967232704162597878e-01,8.228963851928711160e-01,8.508474349975585493e-01,8.807691574096679910e-01,9.128719329833984153e-01,9.474036216735839400e-01,9.846504211425781694e-01,1.000000000000000000e+00,1.000000000000000000e+00,1.000000000000000000e+00,1.000000000000000000e+00,1.000000000000000000e+00,1.000000000000000000e+00,1.000000000000000000e+00,1.000000000000000000e+00,1.000000000000000000e+00,1.000000000000000000e+00,1.000000000000000000e+00,1.000000000000000000e+00,1.000000000000000000e+00,1.000000000000000000e+00,1.000000000000000000e+00,1.000000000000000000e+00,1.000000000000000000e+00,1.000000000000000000e+00,1.000000000000000000e+00,1.000000000000000000e+00,1.000000000000000000e+00,1.000000000000000000e+00,1.000000000000000000e+00,1.000000000000000000e+00,1.000000000000000000e+00,1.000000000000000000e+00,1.000000000000000000e+00,1.000000000000000000e+00,1.000000000000000000e+00,1.000000000000000000e+00,1.000000000000000000e+00,1.000000000000000000e+00,1.000000000000000000e+00,1.000000000000000000e+00,1.000000000000000000e+00,1.000000000000000000e+00,1.000000000000000000e+00,1.000000000000000000e+00,1.000000000000000000e+00,1.000000000000000000e+00,3.370013713836669811e-01,3.266201972961425559e-01,1.000000000000000000e+00,3.203194618225097545e-01,3.268309116363525280e-01,3.206104516983032116e-01,3.182500600814819336e-01,3.159838914871215820e-01,3.171771526336669700e-01,3.211390018463134988e-01,3.201547145843505748e-01,3.137375593185424694e-01,3.075518608093261719e-01,3.058330059051513894e-01,3.042799711227416881e-01,3.036746025085449441e-01,9.079922676086426003e-01,8.801046371459960715e-01,3.304988622665405162e-01,8.291711807250976562e-01,8.058529853820800559e-01,7.838104724884032981e-01,7.629417419433593972e-01,7.431552886962891069e-01
6.194005966186523215e-01,6.351048946380615234e-01,6.516262054443359153e-01,6.690300464630126731e-01,6.873891353607177734e-01,7.067841053009032981e-01,7.273054122924804688e-01,7.490540027618408647e-01,7.721433639526367188e-01,7.967015266418456809e-01,8.228730201721191628e-01,8.508224487304687500e-01,8.807374000549316184e-01,9.128379821777343750e-01,9.473669052124022993e-01,9.846108436584473100e-01,1.000000000000000000e+00,1.000000000000000000e+00,1.000000000000000000e+00,1.000000000000000000e+00,1.000000000000000000e+00,1.000000000000000000e+00,1.000000000000000000e+00,1.000000000000000000e+00,1.000000000000000000e+00,1.000000000000000000e+00,1.000000000000000000e+00,1.000000000000000000e+00,1.000000000000000000e+00,1.000000000000000000e+00,1.000000000000000000e+00,1.000000000000000000e+00,1.000000000000000000e+00,1.000000000000000000e+00,1.000000000000000000e+00,1.000000000000000000e+00,1.000000000000000000e+00,1.000000000000000000e+00,1.000000000000000000e+00,1.000000000000000000e+00,1.000000000000000000e+00,1.000000000000000000e+00,1.000000000000000000e+00,1.000000000000000000e+00,1.000000000000000000e+00,1.000000000000000000e+00,1.000000000000000000e+00,1.000000000000000000e+00,1.000000000000000000e+00,1.000000000000000000e+00,1.000000000000000000e+00,1.000000000000000000e+00,1.000000000000000000e+00,1.000000000000000000e+00,1.000000000000000000e+00,1.000000000000000000e+00,3.376994848251342884e-01,3.249329566955566628e-01,3.186196804046630970e-01,3.417388916015625111e-01,3.287940502166747936e-01,3.209028244018554688e-01,3.185381412506103627e-01,3.161939620971679910e-01,3.166557550430297852e-01,3.206044912338256725e-01,3.201438665390014537e-01,3.135761260986328347e-01,3.072731733322143777e-01,3.048117637634277233e-01,3.032920598983764870e-01,3.017646789550781361e-01,3.096456050872802845e-01,8.801254272460937722e-01,8.538986206054687278e-01,3.212306499481201172e-01,8.058703422546387163e-01,7.838269233703613059e-01,7.629572391510009988e-01,7.431701183319091575e-01
6.193873882293701172e-01,6.350909709930420144e-01,6.516116142272949663e-01,6.690146446228026900e-01,6.873728752136230025e-01,7.067669391632079856e-01,7.272871971130371316e-01,7.490346908569336382e-01,7.721228599548339844e-01,7.966796874999999556e-01,8.228497505187988281e-01,8.507975578308105691e-01,8.807106018066406250e-01,9.128039360046387163e-01,9.473303794860840066e-01,9.845712661743164507e-01,1.000000000000000000e+00,1.000000000000000000e+00,1.000000000000000000e+00,1.000000000000000000e+00,1.000000000000000000e+00,1.000000000000000000e+00,1.000000000000000000e+00,1.000000000000000000e+00,1.000000000000000000e+00,1.000000000000000000e+00,1.000000000000000000e+00,1.000000000000000000e+00,1.000000000000000000e+00,1.000000000000000000e+00,1.000000000000000000e+00,1.000000000000000000e+00,1.000000000000000000e+00,1.000000000000000000e+00,1.000000000000000000e+00,1.000000000000000000e+00,1.000000000000000000e+00,1.000000000000000000e+00,1.000000000000000000e+00,1.000000000000000000e+00,1.000000000000000000e+00,1.000000000000000000e+00,1.000000000000000000e+00,1.000000000000000000e+00,1.000000000000000000e+00,1.000000000000000000e+00,1.000000000000000000e+00,1.000000000000000000e+00,1.000000000000000000e+00,1.000000000000000000e+00,1.000000000000000000e+00,1.000000000000000000e+00,1.000000000000000000e+00,1.000000000000000000e+00,1.000000000000000000e+00,1.000000000000000000e+00,3.366445779800414928e-01,3.228895664215087891e-01,3.164970636367797630e-01,1.000000000000000000e+00,3.308721780776977539e-01,3.214652061462402455e-01,3.182777166366577148e-01,3.159126281738281472e-01,3.161939859390258678e-01,3.200174093246460072e-01,3.216160297393798606e-01,3.131006240844726451e-01,3.070393085479736217e-01,3.031861543655395286e-01,3.022819042205810436e-01,3.007930517196655273e-01,3.041007995605468639e-01,8.801461219787597434e-01,8.539180755615234375e-01,8.292079925537109153e-01,8.058876991271972656e-01,7.838433265686035600e-01,7.629728794097900835e-01,7.431849479675293191e-01
6.193741798400879128e-01,6.350770950317382590e-01,6.515969753265380415e-01,6.689992904663085715e-01,6.873566150665283425e-01,7.067497253417969194e-01,7.272690296173095481e-01,7.490153789520264116e-01,7.721023082733153853e-01,7.966578483581543413e-01,8.228263854980468750e-01,8.507726669311523882e-01,8.806838989257812500e-01,9.127750396728515625e-01,9.472937583923339844e-01,9.845316886901855913e-01,1.000000000000000000e+00,1.000000000000000000e+00,1.000000000000000000e+00,1.000000000000000000e+00,1.000000000000000000e+00,1.000000000000000000e+00,1.000000000000000000e+00,1.000000000000000000e+00,1.000000000000000000e+00,1.000000000000000000e+00,1.000000000000000000e+00,1.000000000000000000e+00,1.000000000000000000e+00,1.000000000000000000e+00,1.000000000000000000e+00,1.000000000000000000e+00,1.000000000000000000e+00,1.000000000000000000e+00,1.000000000000000000e+00,1.000000000000000000e+00,1.000000000000000000e+00,1.000000000000000000e+00,1.000000000000000000e+00,1.000000000000000000e+00,1.000000000000000000e+00,1.000000000000000000e+00,1.000000000000000000e+00,1.000000000000000000e+00,1.000000000000000000e+00,1.000000000000000000e+00,1.000000000000000000e+00,1.000000000000000000e+00,1.000000000000000000e+00,1.000000000000000000e+00,1.000000000000000000e+00,1.000000000000000000e+00,1.000000000000000000e+00,1.000000000000000000e+00,1.000000000000000000e+00,1.000000000000000000e+00,1.000000000000000000e+00,3.213961362838745339e-01,1.000000000000000000e+00,1.000000000000000000e+00,3.339516162872314675e-01,3.237001895904541016e-01,3.180584430694580189e-01,3.156317472457885742e-01,3.157362222671508678e-01,3.190830469131469838e-01,3.237541675567626731e-01,3.126264810562133789e-01,3.068058013916015736e-01,3.021478652954101562e-01,3.006830692291259655e-01,2.997936487197875866e-01,2.997362852096557839e-01,8.801668167114258257e-01,8.539376258850097656e-01,8.292263984680176003e-01,8.059051513671875444e-01,7.838597774505615678e-01,7.629884719848633035e-01,7.431996822357177512e-01
6.193714618682861772e-01,6.350682258605957475e-01,6.515823841094970925e-01,6.689838886260985884e-01,6.873403549194335715e-01,7.067325592041016069e-01,7.272508144378662109e-01,7.489960670471191850e-01,7.720818996429443803e-01,7.966360092163086160e-01,8.228031158447265403e-01,8.507477760314940962e-01,8.806571960449218750e-01,9.127463340759277566e-01,9.472624778747558150e-01,9.844922065734863503e-01,1.000000000000000000e+00,1.000000000000000000e+00,1.000000000000000000e+00,1.000000000000000000e+00,1.000000000000000000e+00,1.000000000000000000e+00,1.000000000000000000e+00,1.000000000000000000e+00,1.000000000000000000e+00,1.000000000000000000e+00,1.000000000000000000e+00,1.000000000000000000e+00,1.000000000000000000e+00,1.000000000000000000e+00,1.000000000000000000e+00,1.000000000000000000e+00,1.000000000000000000e+00,1.000000000000000000e+00,1.000000000000000000e+00,1.000000000000000000e+00,1.000000000000000000e+00,1.000000000000000000e+00,1.000000000000000000e+00,1.000000000000000000e+00,1.000000000000000000e+00,1.000000000000000000e+00,1.000000000000000000e+00,1.000000000000000000e+00,1.000000000000000000e+00,1.000000000000000000e+00,1.000000000000000000e+00,1.000000000000000000e+00,1.000000000000000000e+00,1.000000000000000000e+00,1.000000000000000000e+00,1.000000000000000000e+00,1.000000000000000000e+00,1.000000000000000000e+00,1.000000000000000000e+00,1.000000000000000000e+00,1.000000000000000000e+00,1.000000000000000000e+00,1.000000000000000000e+00,1.000000000000000000e+00,3.376595735549926536e-01,3.258733272552490345e-01,3.186267614364624023e-01,3.153513669967651367e-01,3.152797698974609264e-01,3.181541442871093639e-01,1.000000000000000000e+00,3.123062849044799805e-01,3.065726041793823131e-01,3.019217252731323242e-01,2.991010665893554799e-01,2.982209920883178711e-01,2.973460435867309459e-01,8.801876068115234153e-01,8.539571762084960938e-01,8.292448043823241743e-01,8.059225082397460938e-01,7.838762760162353294e-01,7.630040168762206587e-01,7.432144641876220481e-01
6.193713665008544478e-01,6.350681304931640181e-01,6.515812397003173384e-01,6.689759731292724831e-01,6.873249053955078347e-01,7.067153453826904297e-01,7.272325992584228738e-01,7.489767551422119585e-01,7.720613479614257812e-01,7.966141700744628906e-01,8.227798461914062056e-01,8.507228851318359153e-01,8.806304931640625000e-01,9.127177238464355691e-01,9.472315788269043413e-01,9.844583511352539285e-01,1.000000000000000000e+00,1.000000000000000000e+00,1.000000000000000000e+00,1.000000000000000000e+00,1.000000000000000000e+00,1.000000000000000000e+00,1.000000000000000000e+00,1.000000000000000000e+00,1.000000000000000000e+00,1.000000000000000000e+00,1.000000000000000000e+00,1.000000000000000000e+00,1.000000000000000000e+00,1.000000000000000000e+00,1.000000000000000000e+00,1.000000000000000000e+00,1.000000000000000000e+00,1.000000000000000000e+00,1.000000000000000000e+00,1.000000000000000000e+00,1.000000000000000000e+00,1.000000000000000000e+00,1.000000000000000000e+00,1.000000000000000000e+00,1.000000000000000000e+00,1.000000000000000000e+00,1.000000000000000000e+00,1.000000000000000000e+00,1.000000000000000000e+00,1.000000000000000000e+00,1.000000000000000000e+00,1.000000000000000000e+00,1.000000000000000000e+00,1.000000000000000000e+00,1.000000000000000000e+00,1.000000000000000000e+00,1.000000000000000000e+00,1.000000000000000000e+00,1.000000000000000000e+00,1.000000000000000000e+00,1.000000000000000000e+00,1.000000000000000000e+00,1.000000000000000000e+00,1.000000000000000000e+00,3.400043725967407116e-01,3.280555009841918945e-01,3.191971540451049583e-01,3.155349254608154075e-01,3.146317481994628795e-01,3.172306060791015847e-01,1.000000000000000000e+00,3.177978038787842019e-01,3.063439846038818470e-01,3.017422676086425892e-01,2.984752893447876199e-01,2.978804111480712891e-01,2.972123384475707786e-01,8.802083969116211160e-01,8.539766311645508035e-01,8.292632102966308594e-01,8.059398651123046431e-01,7.838927745819092019e-01,7.630196094512939897e-01,7.432292938232422097e-01
6.193680763244628906e-01,6.350680828094482644e-01,6.515811443328857200e-01,6.689758777618408647e-01,6.873248577117919700e-01,7.067086219787597212e-01,7.272176265716552290e-01,7.489575386047363503e-01,7.720408439636230469e-01,7.965922832489014116e-01,8.227565765380859819e-01,8.506979942321777344e-01,8.806038856506347434e-01,9.126891136169433816e-01,9.472007751464843750e-01,9.844249725341797097e-01,1.000000000000000000e+00,1.000000000000000000e+00,1.000000000000000000e+00,1.000000000000000000e+00,1.000000000000000000e+00,1.000000000000000000e+00,1.000000000000000000e+00,1.000000000000000000e+00,1.000000000000000000e+00,1.000000000000000000e+00,1.000000000000000000e+00,1.000000000000000000e+00,1.000000000000000000e+00,1.000000000000000000e+00,1.000000000000000000e+00,1.000000000000000000e+00,1.000000000000000000e+00,1.000000000000000000e+00,1.000000000000000000e+00,1.000000000000000000e+00,1.000000000000000000e+00,1.000000000000000000e+00,1.000000000000000000e+00,1.000000000000000000e+00,1.000000000000000000e+00,1.000000000000000000e+00,1.000000000000000000e+00,1.000000000000000000e+00,1.000000000000000000e+00,1.000000000000000000e+00,1.000000000000000000e+00,1.000000000000000000e+00,1.000000000000000000e+00,1.000000000000000000e+00,1.000000000000000000e+00,1.000000000000000000e+00,1.000000000000000000e+00,1.000000000000000000e+00,1.000000000000000000e+00,1.000000000000000000e+00,1.000000000000000000e+00,1.000000000000000000e+00,1.000000000000000000e+00,1.000000000000000000e+00,1.000000000000000000e+00,3.307347536087036355e-01,3.201596736907958984e-01,3.159476757049560769e-01,3.143415451049804688e-01,3.167858600616454967e-01,1.000000000000000000e+00,1.000000000000000000e+00,3.064931869506836160e-01,3.021392583847045676e-01,2.984784603118896262e-01,2.979448556900024525e-01,2.974131822586059681e-01,8.802290916442870872e-01,8.539961814880371316e-01,8.292816162109375444e-01,8.059573173522949219e-01,7.839091777801513450e-01,7.630352497100829634e-01,7.432440280914306419e-01
6.193548679351806863e-01,6.350567817687988725e-01,6.515756607055663840e-01,6.689758300781250000e-01,6.873247146606444868e-01,7.067085742950439675e-01,7.272175312042236106e-01,7.489524364471435991e-01,7.720265388488769531e-01,7.965704441070556863e-01,8.227333068847656472e-01,8.506730079650879350e-01,8.805771827697753684e-01,9.126604080200195757e-01,9.471698760986327903e-01,9.843916893005371094e-01,1.000000000000000000e+00,1.000000000000000000e+00,1.000000000000000000e+00,1.000000000000000000e+00,1.000000000000000000e+00,1.000000000000000000e+00,1.000000000000000000e+00,1.000000000000000000e+00,1.000000000000000000e+00,1.000000000000000000e+00,1.000000000000000000e+00,1.000000000000000000e+00,1.000000000000000000e+00,1.000000000000000000e+00,1.000000000000000000e+00,1.000000000000000000e+00,1.000000000000000000e+00,1.000000000000000000e+00,1.000000000000000000e+00,1.000000000000000000e+00,1.000000000000000000e+00,1.000000000000000000e+00,1.000000000000000000e+00,1.000000000000000000e+00,1.000000000000000000e+00,1.000000000000000000e+00,1.000000000000000000e+00,1.000000000000000000e+00,1.000000000000000000e+00,1.000000000000000000e+00,1.000000000000000000e+00,1.000000000000000000e+00,1.000000000000000000e+00,1.000000000000000000e+00,1.000000000000000000e+00,1.000000000000000000e+00,1.000000000000000000e+00,1.000000000000000000e+00,1.000000000000000000e+00,1.000000000000000000e+00,1.000000000000000000e+00,1.000000000000000000e+00,1.000000000000000000e+00,1.000000000000000000e+00,1.000000000000000000e+00,3.333046197891235130e-01,3.226291894912719505e-01,3.169518947601318581e-01,3.151179790496826394e-01,3.176045894622802623e-01,1.000000000000000000e+00,3.197290182113647350e-01,3.083498477935791016e-01,3.036478519439697044e-01,3.004129171371460183e-01,2.997648239135742299e-01,2.992925167083740345e-01,8.802498817443847878e-01,8.540157318115234597e-01,8.293000221252441184e-01,8.059746742248534712e-01,7.839256286621093528e-01,7.630507946014404297e-01,7.432588577270508035e-01
6.193416118621826172e-01,6.350429058074951172e-01,6.515610218048095703e-01,6.689614295959472878e-01,6.873167037963867632e-01,7.067076206207275613e-01,7.272174835205078569e-01,7.489523410797118697e-01,7.720264434814453347e-01,7.965674400329589844e-01,8.227199554443359597e-01,8.506481170654296431e-01,8.805504798889159934e-01,9.126317024230956587e-01,9.471389770507812056e-01,9.843583106994628906e-01,1.000000000000000000e+00,1.000000000000000000e+00,1.000000000000000000e+00,1.000000000000000000e+00,1.000000000000000000e+00,1.000000000000000000e+00,1.000000000000000000e+00,1.000000000000000000e+00,1.000000000000000000e+00,1.000000000000000000e+00,1.000000000000000000e+00,1.000000000000000000e+00,1.000000000000000000e+00,1.000000000000000000e+00,1.000000000000000000e+00,1.000000000000000000e+00,1.000000000000000000e+00,1.000000000000000000e+00,1.000000000000000000e+00,1.000000000000000000e+00,1.000000000000000000e+00,1.000000000000000000e+00,1.000000000000000000e+00,1.000000000000000000e+00,1.000000000000000000e+00,1.000000000000000000e+00,1.000000000000000000e+00,1.000000000000000000e+00,1.000000000000000000e+00,1.000000000000000000e+00,1.000000000000000000e+00,1.000000000000000000e+00,1.000000000000000000e+00,1.000000000000000000e+00,1.000000000000000000e+00,1.000000000000000000e+00,1.000000000000000000e+00,1.000000000000000000e+00,1.000000000000000000e+00,1.000000000000000000e+00,1.000000000000000000e+00,1.000000000000000000e+00,1.000000000000000000e+00,1.000000000000000000e+00,1.000000000000000000e+00,3.333095788955688366e-01,3.239590406417846569e-01,3.189203977584839089e-01,3.180888414382934681e-01,3.209571361541748158e-01,3.331695795059204102e-01,3.186461925506591797e-01,3.125573873519897350e-01,3.062018156051635742e-01,3.041274309158324973e-01,3.032064914703369030e-01,9.081688880920409934e-01,8.802705764770507590e-01,8.540352821350097878e-01,8.293184280395508035e-01,8.059920310974121316e-01,7.839421272277832253e-01,7.630663871765136497e-01,7.432736396789551003e-01
6.193284034729004128e-01,6.350290298461913618e-01,6.515463829040527566e-01,6.689459323883056863e-01,6.873003482818603738e-01,7.066903591156006303e-01,7.272061824798583540e-01,7.489488124847412109e-01,7.720263004302978516e-01,7.965673446655273660e-01,8.227198600769043413e-01,8.506478309631347878e-01,8.805386543273925337e-01,9.126065254211426225e-01,9.471081733703613503e-01,9.843249320983886719e-01,1.000000000000000000e+00,1.000000000000000000e+00,1.000000000000000000e+00,1.000000000000000000e+00,1.000000000000000000e+00,1.000000000000000000e+00,1.000000000000000000e+00,1.000000000000000000e+00,1.000000000000000000e+00,1.000000000000000000e+00,1.000000000000000000e+00,1.000000000000000000e+00,1.000000000000000000e+00,1.000000000000000000e+00,1.000000000000000000e+00,1.000000000000000000e+00,1.000000000000000000e+00,1.000000000000000000e+00,1.000000000000000000e+00,1.000000000000000000e+00,1.000000000000000000e+00,1.000000000000000000e+00,1.000000000000000000e+00,1.000000000000000000e+00,1.000000000000000000e+00,1.000000000000000000e+00,1.000000000000000000e+00,1.000000000000000000e+00,1.000000000000000000e+00,1.000000000000000000e+00,1.000000000000000000e+00,1.000000000000000000e+00,1.000000000000000000e+00,1.000000000000000000e+00,1.000000000000000000e+00,1.000000000000000000e+00,1.000000000000000000e+00,1.000000000000000000e+00,1.000000000000000000e+00,1.000000000000000000e+00,1.000000000000000000e+00,1.000000000000000000e+00,1.000000000000000000e+00,1.000000000000000000e+00,1.000000000000000000e+00,3.328054189682007058e-01,3.258103609085082897e-01,3.219533205032348855e-01,3.218034029006958119e-01,1.000000000000000000e+00,3.296203136444091908e-01,3.221856117248534934e-01,3.151599884033203236e-01,3.117496252059936412e-01,3.099184513092040905e-01,9.379169464111327681e-01,9.081910133361816850e-01,8.802913665771484597e-01,8.540548324584961160e-01,8.293369293212891069e-01,8.060094833374022993e-01,7.839585304260253684e-01,7.630823612213134544e-01,7.432895660400390403e-01
6.193151473999023438e-01,6.350151062011718528e-01,6.515317440032959428e-01,6.689305305480957031e-01,6.872840881347656028e-01,7.066731452941894531e-01,7.271880149841308816e-01,7.489294528961181197e-01,7.720110893249512163e-01,7.965607166290282759e-01,8.227196693420409934e-01,8.506477355957031694e-01,8.805384635925292969e-01,9.126063346862792747e-01,9.470982551574707031e-01,9.842998504638671431e-01,1.000000000000000000e+00,1.000000000000000000e+00,1.000000000000000000e+00,1.000000000000000000e+00,1.000000000000000000e+00,1.000000000000000000e+00,1.000000000000000000e+00,1.000000000000000000e+00,1.000000000000000000e+00,1.000000000000000000e+00,1.000000000000000000e+00,1.000000000000000000e+00,1.000000000000000000e+00,1.000000000000000000e+00,1.000000000000000000e+00,1.000000000000000000e+00,1.000000000000000000e+00,1.000000000000000000e+00,1.000000000000000000e+00,1.000000000000000000e+00,1.000000000000000000e+00,1.000000000000000000e+00,1.000000000000000000e+00,1.000000000000000000e+00,1.000000000000000000e+00,1.000000000000000000e+00,1.000000000000000000e+00,1.000000000000000000e+00,1.000000000000000000e+00,1.000000000000000000e+00,1.000000000000000000e+00,1.000000000000000000e+00,1.000000000000000000e+00,1.000000000000000000e+00,1.000000000000000000e+00,1.000000000000000000e+00,1.000000000000000000e+00,1.000000000000000000e+00,1.000000000000000000e+00,1.000000000000000000e+00,1.000000000000000000e+00,1.000000000000000000e+00,1.000000000000000000e+00,1.000000000000000000e+00,1.000000000000000000e+00,3.335753202438354603e-01,3.282475233078002708e-01,3.250444889068603294e-01,3.260587215423583762e-01,1.000000000000000000e+00,3.314504146575927845e-01,3.243859767913818137e-01,3.211530923843383678e-01,3.176125288009643555e-01,3.239588737487792969e-01,9.379405975341796875e-01,9.082131385803222656e-01,8.803120613098144309e-01,8.540742874145508257e-01,8.293552398681640625e-01,8.060276985168457475e-01,7.839766502380370872e-01,7.630999565124512163e-01,7.433062553405761497e-01
6.193019390106201394e-01,6.350012302398682085e-01,6.515171527862548828e-01,6.689151287078857200e-01,6.872677803039550781e-01,7.066558837890625222e-01,7.271697044372558150e-01,7.489101409912108931e-01,7.719905853271484819e-01,7.965388774871826616e-01,8.226996421813964622e-01,8.506371498107909712e-01,8.805383682250976785e-01,9.126062393188476562e-01,9.470981597900390847e-01,9.842996597290039062e-01,1.000000000000000000e+00,1.000000000000000000e+00,1.000000000000000000e+00,1.000000000000000000e+00,1.000000000000000000e+00,1.000000000000000000e+00,1.000000000000000000e+00,1.000000000000000000e+00,1.000000000000000000e+00,1.000000000000000000e+00,1.000000000000000000e+00,1.000000000000000000e+00,1.000000000000000000e+00,1.000000000000000000e+00,1.000000000000000000e+00,1.000000000000000000e+00,1.000000000000000000e+00,1.000000000000000000e+00,1.000000000000000000e+00,1.000000000000000000e+00,1.000000000000000000e+00,1.000000000000000000e+00,1.000000000000000000e+00,1.000000000000000000e+00,1.000000000000000000e+00,1.000000000000000000e+00,1.000000000000000000e+00,1.000000000000000000e+00,1.000000000000000000e+00,1.000000000000000000e+00,1.000000000000000000e+00,1.000000000000000000e+00,1.000000000000000000e+00,1.000000000000000000e+00,1.000000000000000000e+00,1.000000000000000000e+00,1.000000000000000000e+00,1.000000000000000000e+00,1.000000000000000000e+00,1.000000000000000000e+00,1.000000000000000000e+00,1.000000000000000000e+00,1.000000000000000000e+00,1.000000000000000000e+00,3.472615957260131725e-01,3.354957580566406139e-01,3.307213783264160156e-01,3.280167102813720814e-01,3.330811500549316628e-01,3.437528371810912864e-01,3.331245660781860241e-01,3.278688907623291127e-01,3.252786397933959961e-01,3.226457595825195090e-01,9.697051048278808594e-01,9.379640579223632590e-01,9.082351684570312278e-01,8.803333282470703347e-01,8.540953636169433816e-01,8.293761253356933816e-01,8.060474395751953125e-01,7.839952468872070090e-01,7.631175994873047319e-01,7.433229923248291238e-01
6.192886829376220703e-01,6.349872589111328347e-01,6.515024662017822044e-01,6.688996791839599831e-01,6.872515201568603072e-01,7.066387176513672097e-01,7.271514892578124778e-01,7.488908290863036665e-01,7.719699859619140181e-01,7.965169429779053178e-01,8.226762771606445090e-01,8.506122589111327903e-01,8.805120468139648882e-01,9.125905036926269531e-01,9.470947265625000444e-01,9.842994689941406694e-01,1.000000000000000000e+00,1.000000000000000000e+00,1.000000000000000000e+00,1.000000000000000000e+00,1.000000000000000000e+00,1.000000000000000000e+00,1.000000000000000000e+00,1.000000000000000000e+00,1.000000000000000000e+00,1.000000000000000000e+00,1.000000000000000000e+00,1.000000000000000000e+00,1.000000000000000000e+00,1.000000000000000000e+00,1.000000000000000000e+00,1.000000000000000000e+00,1.000000000000000000e+00,1.000000000000000000e+00,1.000000000000000000e+00,1.000000000000000000e+00,1.000000000000000000e+00,1.000000000000000000e+00,1.000000000000000000e+00,1.000000000000000000e+00,1.000000000000000000e+00,1.000000000000000000e+00,1.000000000000000000e+00,1.000000000000000000e+00,1.000000000000000000e+00,1.000000000000000000e+00,1.000000000000000000e+00,1.000000000000000000e+00,1.000000000000000000e+00,1.000000000000000000e+00,1.000000000000000000e+00,1.000000000000000000e+00,1.000000000000000000e+00,1.000000000000000000e+00,1.000000000000000000e+00,1.000000000000000000e+00,1.000000000000000000e+00,1.000000000000000000e+00,1.000000000000000000e+00,1.000000000000000000e+00,3.521207332611083762e-01,3.373208284378051980e-01,3.323593378067016824e-01,3.296118974685668945e-01,3.344007015228271373e-01,3.423673391342162975e-01,3.351041316986084206e-01,3.314759492874145286e-01,3.288858175277710183e-01,1.000000000000000000e+00,9.697302818298340066e-01,9.379888534545898215e-01,9.082595825195312056e-01,8.803568840026855247e-01,8.541173934936523438e-01,8.293969154357909712e-01,8.060670852661132590e-01,7.840139389038085493e-01,7.631351947784423828e-01,7.433396816253662331e-01
6.192754745483398660e-01,6.349733829498290794e-01,6.514878749847412553e-01,6.688842773437500000e-01,6.872352123260497825e-01,7.066214561462402788e-01,7.271332263946532759e-01,7.488714218139648215e-01,7.719494819641112837e-01,7.964951038360595925e-01,8.226529121398925559e-01,8.505872726440429910e-01,8.804853439331055132e-01,9.125617980957031472e-01,9.470638275146484597e-01,9.842771530151367410e-01,1.000000000000000000e+00,1.000000000000000000e+00,1.000000000000000000e+00,1.000000000000000000e+00,1.000000000000000000e+00,1.000000000000000000e+00,1.000000000000000000e+00,1.000000000000000000e+00,1.000000000000000000e+00,1.000000000000000000e+00,1.000000000000000000e+00,1.000000000000000000e+00,1.000000000000000000e+00,1.000000000000000000e+00,1.000000000000000000e+00,1.000000000000000000e+00,1.000000000000000000e+00,1.000000000000000000e+00,1.000000000000000000e+00,1.000000000000000000e+00,1.000000000000000000e+00,1.000000000000000000e+00,1.000000000000000000e+00,1.000000000000000000e+00,1.000000000000000000e+00,1.000000000000000000e+00,1.000000000000000000e+00,1.000000000000000000e+00,1.000000000000000000e+00,1.000000000000000000e+00,1.000000000000000000e+00,1.000000000000000000e+00,1.000000000000000000e+00,1.000000000000000000e+00,1.000000000000000000e+00,1.000000000000000000e+00,1.000000000000000000e+00,1.000000000000000000e+00,1.000000000000000000e+00,1.000000000000000000e+00,1.000000000000000000e+00,1.000000000000000000e+00,1.000000000000000000e+00,1.000000000000000000e+00,1.000000000000000000e+00,3.390920877456665150e-01,3.335698366165161244e-01,3.307244777679443359e-01,3.355270147323608509e-01,3.444313287734985241e-01,3.376112222671509011e-01,3.351632833480834850e-01,3.325738906860351562e-01,1.000000000000000000e+00,9.697587966918945757e-01,9.380155563354491965e-01,9.082845687866211160e-01,8.803803443908690962e-01,8.541395187377929243e-01,8.294178009033202903e-01,8.060867309570312056e-01,7.840325355529784712e-01,7.631528854370117632e-01,7.433564662933349609e-01
6.192622661590576616e-01,6.349595069885254350e-01,6.514731884002685769e-01,6.688688278198242632e-01,6.872189044952392578e-01,7.066042423248291016e-01,7.271150112152099387e-01,7.488521099090575950e-01,7.719289779663085493e-01,7.964732646942138672e-01,8.226296424865722212e-01,8.505622863769530806e-01,8.804586410522461382e-01,9.125331878662109597e-01,9.470328330993652566e-01,9.842437744140625222e-01,1.000000000000000000e+00,1.000000000000000000e+00,1.000000000000000000e+00,1.000000000000000000e+00,1.000000000000000000e+00,1.000000000000000000e+00,1.000000000000000000e+00,1.000000000000000000e+00,1.000000000000000000e+00,1.000000000000000000e+00,1.000000000000000000e+00,1.000000000000000000e+00,1.000000000000000000e+00,1.000000000000000000e+00,1.000000000000000000e+00,1.000000000000000000e+00,1.000000000000000000e+00,1.000000000000000000e+00,1.000000000000000000e+00,1.000000000000000000e+00,1.000000000000000000e+00,1.000000000000000000e+00,1.000000000000000000e+00,1.000000000000000000e+00,1.000000000000000000e+00,1.000000000000000000e+00,1.000000000000000000e+00,1.000000000000000000e+00,1.000000000000000000e+00,1.000000000000000000e+00,1.000000000000000000e+00,1.000000000000000000e+00,1.000000000000000000e+00,1.000000000000000000e+00,1.000000000000000000e+00,1.000000000000000000e+00,1.000000000000000000e+00,1.000000000000000000e+00,1.000000000000000000e+00,1.000000000000000000e+00,1.000000000000000000e+00,1.000000000000000000e+00,1.000000000000000000e+00,1.000000000000000000e+00,1.000000000000000000e+00,3.409011363983154297e-01,3.350515365600585938e-01,3.318445682525634766e-01,3.366370677947997936e-01,3.471550226211547741e-01,3.415094614028930664e-01,3.389335632324218528e-01,1.000000000000000000e+00,1.000000000000000000e+00,9.697872161865234153e-01,9.380421638488769531e-01,9.083095550537109153e-01,8.804038047790527788e-01,8.541616439819336160e-01,8.294385910034179910e-01,8.061064720153808816e-01,7.840511322021483931e-01,7.631705284118652788e-01,7.433732032775879350e-01
6.192490100860595925e-01,6.349455833435058150e-01,6.514585971832275169e-01,6.688534259796142800e-01,6.872026443481444868e-01,7.065870761871337891e-01,7.270967483520507368e-01,7.488327503204346147e-01,7.719083786010741965e-01,7.964513301849365234e-01,8.226062774658202681e-01,8.505373954772948997e-01,8.804318428039550337e-01,9.125043869018554243e-01,9.470019340515136719e-01,9.842103004455566850e-01,1.000000000000000000e+00,1.000000000000000000e+00,1.000000000000000000e+00,1.000000000000000000e+00,1.000000000000000000e+00,1.000000000000000000e+00,1.000000000000000000e+00,1.000000000000000000e+00,1.000000000000000000e+00,1.000000000000000000e+00,1.000000000000000000e+00,1.000000000000000000e+00,1.000000000000000000e+00,1.000000000000000000e+00,1.000000000000000000e+00,1.000000000000000000e+00,1.000000000000000000e+00,1.000000000000000000e+00,1.000000000000000000e+00,1.000000000000000000e+00,1.000000000000000000e+00,1.000000000000000000e+00,1.000000000000000000e+00,1.000000000000000000e+00,1.000000000000000000e+00,1.000000000000000000e+00,1.000000000000000000e+00,1.000000000000000000e+00,1.000000000000000000e+00,1.000000000000000000e+00,1.000000000000000000e+00,1.000000000000000000e+00,1.000000000000000000e+00,1.000000000000000000e+00,1.000000000000000000e+00,1.000000000000000000e+00,1.000000000000000000e+00,1.000000000000000000e+00,1.000000000000000000e+00,1.000000000000000000e+00,1.000000000000000000e+00,1.000000000000000000e+00,1.000000000000000000e+00,1.000000000000000000e+00,1.000000000000000000e+00,3.427499294281005637e-01,3.365464687347411998e-01,3.329722881317138672e-01,3.377545118331909402e-01,3.498596429824828991e-01,3.456530332565307395e-01,3.430022239685058816e-01,1.000000000000000000e+00,1.000000000000000000e+00,9.698158264160156028e-01,9.380688667297363281e-01,9.083345413208008257e-01,8.804272651672363503e-01,8.541837692260741965e-01,8.294594764709473100e-01,8.061261177062988281e-01,7.840697288513183150e-01,7.631881237030029297e-01,7.433898925781250444e-01
6.192358016967773882e-01,6.349317073822021706e-01,6.514439582824707031e-01,6.688379287719726785e-01,6.871863365173339622e-01,7.065698146820068581e-01,7.270785808563232644e-01,7.488134384155273882e-01,7.718878269195557085e-01,7.964294910430907981e-01,8.225829124450683150e-01,8.505124092102051003e-01,8.804051399230956587e-01,9.124756813049316184e-01,9.469710350036620872e-01,9.841769218444824663e-01,1.000000000000000000e+00,1.000000000000000000e+00,1.000000000000000000e+00,1.000000000000000000e+00,1.000000000000000000e+00,1.000000000000000000e+00,1.000000000000000000e+00,1.000000000000000000e+00,1.000000000000000000e+00,1.000000000000000000e+00,1.000000000000000000e+00,1.000000000000000000e+00,1.000000000000000000e+00,1.000000000000000000e+00,1.000000000000000000e+00,1.000000000000000000e+00,1.000000000000000000e+00,1.000000000000000000e+00,1.000000000000000000e+00,1.000000000000000000e+00,1.000000000000000000e+00,1.000000000000000000e+00,1.000000000000000000e+00,1.000000000000000000e+00,1.000000000000000000e+00,1.000000000000000000e+00,1.000000000000000000e+00,1.000000000000000000e+00,1.000000000000000000e+00,1.000000000000000000e+00,1.000000000000000000e+00,1.000000000000000000e+00,1.000000000000000000e+00,1.000000000000000000e+00,1.000000000000000000e+00,1.000000000000000000e+00,1.000000000000000000e+00,1.000000000000000000e+00,1.000000000000000000e+00,1.000000000000000000e+00,1.000000000000000000e+00,1.000000000000000000e+00,1.000000000000000000e+00,1.000000000000000000e+00,1.000000000000000000e+00,3.446533918380737527e-01,3.382873773574829324e-01,3.343823194503784402e-01,3.391201496124267578e-01,3.531783103942870983e-01,3.498984336853027122e-01,1.000000000000000000e+00,1.000000000000000000e+00,1.000000000000000000e+00,9.698442459106445535e-01,9.380954742431640847e-01,9.083595275878906250e-01,8.804507255554199219e-01,8.542058944702148882e-01,8.294802665710448997e-01,8.061458587646483931e-01,7.840884208679199663e-01,7.632058620452880637e-01,7.434066295623779075e-01
6.192225456237793191e-01,6.349177360534667969e-01,6.514293193817138894e-01,6.688225269317626953e-01,6.871700763702393022e-01,7.065526008605956809e-01,7.270603656768799272e-01,7.487941265106201616e-01,7.718672752380371094e-01,7.964075565338134544e-01,8.225596427917480913e-01,8.504875183105469194e-01,8.803784370422362837e-01,9.124469757080078125e-01,9.469401359558105025e-01,9.841435432434082475e-01,1.000000000000000000e+00,1.000000000000000000e+00,1.000000000000000000e+00,1.000000000000000000e+00,1.000000000000000000e+00,1.000000000000000000e+00,1.000000000000000000e+00,1.000000000000000000e+00,1.000000000000000000e+00,1.000000000000000000e+00,1.000000000000000000e+00,1.000000000000000000e+00,1.000000000000000000e+00,1.000000000000000000e+00,1.000000000000000000e+00,1.000000000000000000e+00,1.000000000000000000e+00,1.000000000000000000e+00,1.000000000000000000e+00,1.000000000000000000e+00,1.000000000000000000e+00,1.000000000000000000e+00,1.000000000000000000e+00,1.000000000000000000e+00,1.000000000000000000e+00,1.000000000000000000e+00,1.000000000000000000e+00,1.000000000000000000e+00,1.000000000000000000e+00,1.000000000000000000e+00,1.000000000000000000e+00,1.000000000000000000e+00,1.000000000000000000e+00,1.000000000000000000e+00,1.000000000000000000e+00,1.000000000000000000e+00,1.000000000000000000e+00,1.000000000000000000e+00,1.000000000000000000e+00,1.000000000000000000e+00,1.000000000000000000e+00,1.000000000000000000e+00,1.000000000000000000e+00,1.000000000000000000e+00,1.000000000000000000e+00,3.467838764190673828e-01,3.403789043426513894e-01,3.368687391281127708e-01,3.406287193298339622e-01,3.574435710906982422e-01,3.582406520843505748e-01,1.000000000000000000e+00,1.000000000000000000e+00,1.000000000000000000e+00,9.698727607727051225e-01,9.381221771240234597e-01,9.083845138549804243e-01,8.804741859436034934e-01,8.542279243469238503e-01,8.295011520385742188e-01,8.061655044555664507e-01,7.841070175170898882e-01,7.632234573364258257e-01,7.434234142303466353e-01
6.192093849182128684e-01,6.349039077758789062e-01,6.514146804809570757e-01,6.688071727752685769e-01,6.871538162231445312e-01,7.065353393554687500e-01,7.270421028137207253e-01,7.487747669219970703e-01,7.718467235565185103e-01,7.963857650756835938e-01,8.225362777709961382e-01,8.504625320434570090e-01,8.803517341613769087e-01,9.124182701110840066e-01,9.469091415405272993e-01,9.710271835327148882e-01,9.707866668701171653e-01,9.705462455749511719e-01,9.703060150146484153e-01,9.700657844543456587e-01,9.698257446289062500e-01,9.695858001708984597e-01,9.693460464477539062e-01,9.691062927246093528e-01,9.688667297363281472e-01,9.686271667480468306e-01,9.683878898620605913e-01,9.681487083435058594e-01,9.679095268249511275e-01,9.676705360412597434e-01,9.674317359924315962e-01,9.671929359436035600e-01,9.669542312622070312e-01,9.667157173156738503e-01,9.664772987365722878e-01,9.662390708923339622e-01,9.660008430480957475e-01,9.657628059387206587e-01,9.655248641967772993e-01,9.652871131896972878e-01,9.650493621826171653e-01,9.648118019104003906e-01,9.645743370056152344e-01,9.643370628356933150e-01,9.640997886657715066e-01,9.638626098632812056e-01,9.636256217956542525e-01,9.633888244628906472e-01,9.631520271301269309e-01,9.629153251647949441e-01,9.626788139343261941e-01,9.624423980712890625e-01,9.622060775756835493e-01,9.619699478149413840e-01,9.617338180541992188e-01,9.614978790283202903e-01,9.612620353698730913e-01,9.610263824462890181e-01,9.607907295227050559e-01,9.605551719665527122e-01,9.603199005126953347e-01,3.489408254623412864e-01,3.424964904785156028e-01,3.393924713134765514e-01,3.429080009460448997e-01,3.645960569381713756e-01,9.589099884033203125e-01,9.586754798889159934e-01,9.584409713745116743e-01,9.582067489624023215e-01,9.579724311828613503e-01,9.381487846374512163e-01,9.084095001220703347e-01,8.804977416992187944e-01,8.542500495910644309e-01,8.295219421386719194e-01,8.061851501464843972e-01,7.841256141662598100e-01,7.632411003112793413e-01,7.434401512145996094e-01
6.191961765289306641e-01,6.348899364471435325e-01,6.514000415802001509e-01,6.687916755676269753e-01,6.871375083923340066e-01,7.065181732177734375e-01,7.270238876342773882e-01,7.487554550170898438e-01,7.542510032653808594e-01,7.541059017181396262e-01,7.539607524871826394e-01,7.538157463073730247e-01,7.536708354949951394e-01,7.535258769989013894e-01,7.533810615539551225e-01,7.532361984252929910e-01,7.530914783477783425e-01,7.529468536376953125e-01,7.528021335601806641e-01,7.526576042175292525e-01,7.525130271911620872e-01,7.523685932159424050e-01,7.522242069244384766e-01,7.520798206329345481e-01,7.519355297088623491e-01,7.517913341522216575e-01,7.516470909118652122e-01,7.515029907226562500e-01,7.513588428497314231e-01,7.512148857116699441e-01,7.510709285736083540e-01,7.509269714355468750e-01,7.507831573486327681e-01,7.506393909454345259e-01,7.504955768585205300e-01,7.503519058227539062e-01,7.502082347869872825e-01,7.500646591186523882e-01,7.499211788177490012e-01,7.497776508331298606e-01,7.496342658996582031e-01,7.494908332824706809e-01,7.493475437164306419e-01,7.492043495178222212e-01,7.490611076354980469e-01,7.489180088043212447e-01,7.487749099731445535e-01,7.486318588256836160e-01,7.484889030456542969e-01,7.483458995819092241e-01,7.482030868530273882e-01,7.480603218078613059e-01,7.479175090789794700e-01,7.477748394012451172e-01,7.476321220397948997e-01,7.474895477294921653e-01,7.473470211029052956e-01,7.472044944763183150e-01,7.470621109008789285e-01,7.469197273254394309e-01,7.467773437500000444e-01,3.511248350143432728e-01,3.446405649185180775e-01,3.415578365325927512e-01,3.648612499237060547e-01,3.619838476181030384e-01,7.459245681762695090e-01,7.457825660705565962e-01,7.456407070159911665e-01,7.454988956451416016e-01,7.453570842742920366e-01,7.452153682708739790e-01,7.450736999511718972e-01,7.449320316314697044e-01,7.447905063629149947e-01,7.446489334106445312e-01,7.445075035095214400e-01,7.443661212921142134e-01,7.442246913909912331e-01,7.434568881988525835e-01
6.166959762573241965e-01,6.165989398956298606e-01,6.165019512176513894e-01,6.164049625396728072e-01,6.163079738616943359e-01,6.162110328674316184e-01,6.161141872406006303e-01,6.160173892974853960e-01,6.159205436706542969e-01,6.158237457275390625e-01,6.157269954681396928e-01,6.156302928924560769e-01,6.155335903167724609e-01,6.154368877410888450e-01,6.153402805328369585e-01,6.152437210083008257e-01,6.151471138000488281e-01,6.150506019592285600e-01,6.149540424346924272e-01,6.148575782775879128e-01,6.147611618041992632e-01,6.146646976470947488e-01,6.145683288574218528e-01,6.144719123840332031e-01,6.143756389617920366e-01,6.142793655395507590e-01,6.141830444335937278e-01,6.140868186950683150e-01,6.139906406402587669e-01,6.138944149017333540e-01,6.137982845306396706e-01,6.137021541595458762e-01,6.136060714721679465e-01,6.135100364685058816e-01,6.134140014648437056e-01,6.133180141448975053e-01,6.132220268249511941e-01,6.131260871887207475e-01,6.130302429199219194e-01,6.129343032836913618e-01,6.128384590148925337e-01,6.127427101135254350e-01,6.126468658447266069e-01,6.125511169433593972e-01,6.124553680419921875e-01,6.123596668243408425e-01,6.122640609741211160e-01,6.121683597564697710e-01,6.120728015899657981e-01,6.119772434234619363e-01,6.118816375732422097e-01,6.117861270904541016e-01,6.116906166076659934e-01,6.115952014923096147e-01,6.114997863769531250e-01,6.114043235778808816e-01,6.113090038299560103e-01,6.112135887145996316e-01,6.111183166503906250e-01,6.110230445861816184e-01,6.109277725219726118e-01,6.108325958251953347e-01,3.468116521835327148e-01,3.430990934371948020e-01,3.627595186233520397e-01,3.594420671463012806e-01,3.638682603836059792e-01,6.102618694305419478e-01,6.101668357849121538e-01,6.100718498229980025e-01,6.099768638610839622e-01,6.098819732666015403e-01,6.097870826721191184e-01,6.096921920776366965e-01,6.095973968505858931e-01,6.095026016235352007e-01,6.094078063964843972e-01,6.093130588531494585e-01,6.092183113098144087e-01,6.091236591339110884e-01
5.210200786590576394e-01,5.209508419036865678e-01,5.208815574645996316e-01,5.208123207092285600e-01,5.207431316375732422e-01,5.206738948822021706e-01,5.206047058105468528e-01,5.205355644226073997e-01,5.204664230346679465e-01,5.203972816467284934e-01,5.203282356262206587e-01,5.202591419219970703e-01,5.201900959014892356e-01,5.201210021972656472e-01,5.200520038604736772e-01,5.199830055236815962e-01,5.199140071868896262e-01,5.198450565338135210e-01,5.197761058807373047e-01,5.197072029113769531e-01,5.196382999420166016e-01,5.195693492889403853e-01,5.195004940032958984e-01,5.194316864013671653e-01,5.193628311157226785e-01,5.192940235137939453e-01,5.192251682281494585e-01,5.191564083099364790e-01,5.190876483917236106e-01,5.190188884735107422e-01,5.189501762390136275e-01,5.188815116882323775e-01,5.188127994537353738e-01,5.187441349029541238e-01,5.186754226684570090e-01,5.186068058013916238e-01,5.185382366180419922e-01,5.184695720672607422e-01,5.184010028839111106e-01,5.183324337005614790e-01,5.182639122009277122e-01,5.181953907012939453e-01,5.181268692016601785e-01,5.180583953857421653e-01,5.179899215698242632e-01,5.179214477539062500e-01,5.178530216217041016e-01,5.177845954895019531e-01,5.177162170410156694e-01,5.176478385925292747e-01,5.175794601440429910e-01,5.175111293792724609e-01,5.174427509307861772e-01,5.173744678497314009e-01,5.173061847686767356e-01,5.172379016876220703e-01,5.171696662902831587e-01,5.171014308929443581e-01,5.170331954956054465e-01,5.169650077819823997e-01,5.168967723846435991e-01,5.168286323547363059e-01,3.505326032638549916e-01,3.465469121932983620e-01,3.603858232498168834e-01,3.564367055892944114e-01,3.586763143539428711e-01,5.164200305938720925e-01,5.163519382476806641e-01,5.162839412689208540e-01,5.162159442901611550e-01,5.161479473114013450e-01,5.160799980163573997e-01,5.160120010375977007e-01,5.159440994262695090e-01,5.158761978149414285e-01,5.158082962036132368e-01,5.157403945922851562e-01,5.156725883483886941e-01,5.156046867370605025e-01
4.510438919067382701e-01,4.509919643402099387e-01,4.509400844573974720e-01,4.508882045745849498e-01,4.508363246917724831e-01,4.507844448089599609e-01,4.507326126098633035e-01,4.506807327270507812e-01,4.506289005279541238e-01,4.505770683288574108e-01,4.505252838134765625e-01,4.504734992980957142e-01,4.504217147827148660e-01,4.503699302673339622e-01,4.503181934356689231e-01,4.502664566040038840e-01,4.502147197723388450e-01,4.501630306243896706e-01,4.501113414764404408e-01,4.500596046447754017e-01,4.500079631805419811e-01,4.499562740325927512e-01,4.499046325683593861e-01,4.498529911041259655e-01,4.498013496398926003e-01,4.497497081756591797e-01,4.496981143951416238e-01,4.496465206146240123e-01,4.495949268341064564e-01,4.495433330535888450e-01,4.494917869567870983e-01,4.494402885437011608e-01,4.493886947631836049e-01,4.493371963500976674e-01,4.492856502532959206e-01,4.492341995239257924e-01,4.491827011108398549e-01,4.491312026977539174e-01,4.490797519683837891e-01,4.490283012390136608e-01,4.489768505096435325e-01,4.489254474639892689e-01,4.488739967346191406e-01,4.488225936889648215e-01,4.487711906433105580e-01,4.487197875976562389e-01,4.486684322357177845e-01,4.486170768737792747e-01,4.485657215118408203e-01,4.485144138336181752e-01,4.484630584716796653e-01,4.484117507934570201e-01,4.483604907989501842e-01,4.483091831207275391e-01,4.482579231262207031e-01,4.482066154479980580e-01,4.481553554534912220e-01,4.481041431427001953e-01,4.480528831481933594e-01,4.480016708374023326e-01,4.479505062103271706e-01,4.478992938995361439e-01,3.493453502655029519e-01,3.429309129714965820e-01,3.404499530792236550e-01,3.514099121093750000e-01,3.517110109329223411e-01,4.475923538208007590e-01,4.475412368774414062e-01,4.474901199340820535e-01,4.474390506744384544e-01,4.473879814147949108e-01,4.473369121551513672e-01,4.472858428955078236e-01,4.472348213195800892e-01,4.471837997436523549e-01,4.471327304840088113e-01,4.470817565917968861e-01,4.470307350158691517e-01,4.469797611236572266e-01
3.976386070251464733e-01,3.975982189178466908e-01,3.975579023361205944e-01,3.975175857543945535e-01,3.974772214889526478e-01,3.974369287490844838e-01,3.973966360092163197e-01,3.973563194274902233e-01,3.973160266876220592e-01,3.972757577896118275e-01,3.972354650497436634e-01,3.971952199935913086e-01,3.971549749374389537e-01,3.971146821975707897e-01,3.970744609832763672e-01,3.970342397689819447e-01,3.969939947128295898e-01,3.969537973403930442e-01,3.969135999679565541e-01,3.968733549118041992e-01,3.968331813812255859e-01,3.967930078506469727e-01,3.967528581619262917e-01,3.967127084732055553e-01,3.966725111007690652e-01,3.966323614120483287e-01,3.965922355651855247e-01,3.965521335601806530e-01,3.965120077133178489e-01,3.964719057083129772e-01,3.964317560195922963e-01,3.963916778564453014e-01,3.963515996932983620e-01,3.963115215301513672e-01,3.962714672088623047e-01,3.962313652038574330e-01,3.961913108825683705e-01,3.961512804031371848e-01,3.961112499237060547e-01,3.960712194442749245e-01,3.960311651229858620e-01,3.959911346435546764e-01,3.959511518478393555e-01,3.959111452102661022e-01,3.958711624145507812e-01,3.958311557769775280e-01,3.957911729812622070e-01,3.957512140274047630e-01,3.957112789154052512e-01,3.956713199615478627e-01,3.956313371658325417e-01,3.955914258956909069e-01,3.955514907836913951e-01,3.955115795135498158e-01,3.954716920852661133e-01,3.954317808151245339e-01,3.953918457031250222e-01,3.953519821166991965e-01,3.953121185302734264e-01,3.952722549438476562e-01,3.952323913574218861e-01,3.951925039291381836e-01,3.459244728088378684e-01,3.392885923385620117e-01,3.352325439453124889e-01,3.333833932876587025e-01,3.949933290481567605e-01,3.949535369873046764e-01,3.949137449264526478e-01,3.948739767074584961e-01,3.948341846466064675e-01,3.947943925857543834e-01,3.947546243667602317e-01,3.947148799896240123e-01,3.946751356124877930e-01,3.946353912353515736e-01,3.945956707000732311e-01,3.945559024810790794e-01,3.945162057876586692e-01,3.944764852523803822e-01
3.555411577224731334e-01,3.555089235305786133e-01,3.554766893386840931e-01,3.554444074630737083e-01,3.554121732711791881e-01,3.553799629211426003e-01,3.553477048873901478e-01,3.553154945373535045e-01,3.552832841873169167e-01,3.552510499954223411e-01,3.552188634872436301e-01,3.551866769790649192e-01,3.551544666290283314e-01,3.551222801208496205e-01,3.550901174545287864e-01,3.550579071044921986e-01,3.550257682800292969e-01,3.549936056137085183e-01,3.549614191055298074e-01,3.549292802810669056e-01,3.548971176147460715e-01,3.548649787902832253e-01,3.548328638076782005e-01,3.548007488250732311e-01,3.547686338424682617e-01,3.547364950180053600e-01,3.547043800354003906e-01,3.546722888946532981e-01,3.546401977539062611e-01,3.546081304550171009e-01,3.545760154724121316e-01,3.545439481735229714e-01,3.545118808746338113e-01,3.544798135757446511e-01,3.544477701187133678e-01,3.544156789779663308e-01,3.543836355209350475e-01,3.543515920639038197e-01,3.543195724487304688e-01,3.542875528335571178e-01,3.542554855346679576e-01,3.542234897613525391e-01,3.541914701461791881e-01,3.541594743728637695e-01,3.541274785995483509e-01,3.540954828262329324e-01,3.540634632110595814e-01,3.540314912796020397e-01,3.539995193481445535e-01,3.539675474166870117e-01,3.539355754852294700e-01,3.539036035537719838e-01,3.538716554641723744e-01,3.538397073745727650e-01,3.538077592849731556e-01,3.537758350372314231e-01,3.537438631057739369e-01,3.537119388580322044e-01,3.536800384521484597e-01,3.536481142044067272e-01,3.536162137985229270e-01,3.535842895507812500e-01,3.535523891448974498e-01,3.331706285476684348e-01,3.283609390258789285e-01,3.258815050125122292e-01,3.247152328491210715e-01,3.533929824829101785e-01,3.533611297607421875e-01,3.533292770385741965e-01,3.532974481582641380e-01,3.532655954360962025e-01,3.532337188720703347e-01,3.532018899917602761e-01,3.531700849533080944e-01,3.531382560729980358e-01,3.531064510345459095e-01,3.530746221542358509e-01,3.530428171157836692e-01,3.530110359191894753e-01
3.215040206909179910e-01,3.214776515960693359e-01,3.214512586593628041e-01,3.214248895645141491e-01,3.213985443115234264e-01,3.213721752166748269e-01,3.213458299636841042e-01,3.213194847106933816e-01,3.212931156158447266e-01,3.212667703628540039e-01,3.212404489517212136e-01,3.212141036987304910e-01,3.211877822875976451e-01,3.211614608764648549e-01,3.211351156234741322e-01,3.211088180541992188e-01,3.210825204849243053e-01,3.210561752319335826e-01,3.210299015045166016e-01,3.210036039352416881e-01,3.209772825241088978e-01,3.209510087966919167e-01,3.209247350692748801e-01,3.208984136581420898e-01,3.208721637725829856e-01,3.208458662033081277e-01,3.208195924758910911e-01,3.207933425903320424e-01,3.207670927047729381e-01,3.207408428192138894e-01,3.207145690917968528e-01,3.206883430480956809e-01,3.206621170043945090e-01,3.206358671188354603e-01,3.206096649169921653e-01,3.205833911895751842e-01,3.205571889877319447e-01,3.205309629440307728e-01,3.205047607421874778e-01,3.204785585403442383e-01,3.204523563385009988e-01,3.204261302947998269e-01,3.203999519348144642e-01,3.203737735748291016e-01,3.203475713729858620e-01,3.203213930130004994e-01,3.202951908111572044e-01,3.202690362930297741e-01,3.202428579330444114e-01,3.202167034149169811e-01,3.201905488967895508e-01,3.201643705368041881e-01,3.201382160186767578e-01,3.201120853424072044e-01,3.200859308242797741e-01,3.200598001480102761e-01,3.200336456298827903e-01,3.200075149536132924e-01,3.199813842773437389e-01,3.199552774429321178e-01,3.199291467666626199e-01,3.199030399322509988e-01,3.198769092559814453e-01,3.198508024215698242e-01,3.198247194290161355e-01,3.197986125946045144e-01,3.197725296020507701e-01,3.197464227676391491e-01,3.197203397750854603e-01,3.196942567825317161e-01,3.196681976318359597e-01,3.196421384811401478e-01,3.196160316467285267e-01,3.195899724960327148e-01,3.195639133453369030e-01,3.195378780364990234e-01,3.195118188858032116e-01,3.194857597351073997e-01,3.194597244262695201e-01,3.194336891174316406e-01
2.934144735336303711e-01,2.933925151824950950e-01,2.933705329895019420e-01,2.933485746383667214e-01,2.933265924453735130e-01,2.933046340942382924e-01,2.932826995849609486e-01,2.932607412338256725e-01,2.932387828826904519e-01,2.932168483734131081e-01,2.931948900222778320e-01,2.931729793548584206e-01,2.931510448455810769e-01,2.931291103363037331e-01,2.931071758270263894e-01,2.930852651596069225e-01,2.930633306503295787e-01,2.930414199829101674e-01,2.930195093154907005e-01,2.929975748062133567e-01,2.929756879806518777e-01,2.929538011550903431e-01,2.929318666458129994e-01,2.929099798202514648e-01,2.928880929946899303e-01,2.928661823272705189e-01,2.928443193435669167e-01,2.928224086761474498e-01,2.928005456924438477e-01,2.927786588668823131e-01,2.927567958831787109e-01,2.927349090576171764e-01,2.927130460739135742e-01,2.926911830902099720e-01,2.926693439483642467e-01,2.926474809646606445e-01,2.926256179809570424e-01,2.926037788391113170e-01,2.925819396972656472e-01,2.925601005554199219e-01,2.925382614135741965e-01,2.925164222717285267e-01,2.924945831298828014e-01,2.924727678298950084e-01,2.924509525299072155e-01,2.924291372299194225e-01,2.924072980880737527e-01,2.923854827880859597e-01,2.923636674880981667e-01,2.923418760299682506e-01,2.923200607299804576e-01,2.922982454299926647e-01,2.922764539718628041e-01,2.922546625137328880e-01,2.922328710556030273e-01,2.922110795974731667e-01,2.921893119812011830e-01,2.921674966812133900e-01,2.921457290649414062e-01,2.921239614486694225e-01,2.921021938323974387e-01,2.920804262161255105e-01,2.920586347579955944e-01,2.920368671417236106e-01,2.920151233673095592e-01,2.919933795928955078e-01,2.919716119766235241e-01,2.919498443603515403e-01,2.919281005859374889e-01,2.919063568115234375e-01,2.918846368789672630e-01,2.918628931045532116e-01,2.918411493301391602e-01,2.918194293975829856e-01,2.917976856231689342e-01,2.917759656906128152e-01,2.917542695999145730e-01,2.917325496673583984e-01,2.917108058929443470e-01,2.916891098022461049e-01
2.698388576507568248e-01,2.698202610015869030e-01,2.698016881942749134e-01,2.697831153869628684e-01,2.697645187377929465e-01,2.697459697723388894e-01,2.697273731231689675e-01,2.697088241577148549e-01,2.696902751922607422e-01,2.696717023849487527e-01,2.696531534194946400e-01,2.696346044540405273e-01,2.696160316467285378e-01,2.695974826812744252e-01,2.695789337158203125e-01,2.695603847503661998e-01,2.695418596267700195e-01,2.695233106613159069e-01,2.695047616958617942e-01,2.694862365722656139e-01,2.694677114486694336e-01,2.694491624832153209e-01,2.694306612014770730e-01,2.694121360778808372e-01,2.693936109542846569e-01,2.693750858306884766e-01,2.693565845489501731e-01,2.693380594253539928e-01,2.693195343017578125e-01,2.693010091781616322e-01,2.692825317382812611e-01,2.692640066146850808e-01,2.692455053329467773e-01,2.692270040512084739e-01,2.692085266113281028e-01,2.691900253295898549e-01,2.691715240478515514e-01,2.691530466079711803e-01,2.691345691680908092e-01,2.691160917282104381e-01,2.690976142883300670e-01,2.690791130065918191e-01,2.690606594085693248e-01,2.690421819686889537e-01,2.690237283706665150e-01,2.690052509307861439e-01,2.689867973327636497e-01,2.689683198928832786e-01,2.689498662948608398e-01,2.689314126968384011e-01,2.689129590988159069e-01,2.688945293426513450e-01,2.688760519027709739e-01,2.688576221466064675e-01,2.688391685485839733e-01,2.688207387924194114e-01,2.688023090362549050e-01,2.687838554382324108e-01,2.687654256820678489e-01,2.687469959259033425e-01,2.687285661697387806e-01,2.687101364135742188e-01,2.686917066574096569e-01,2.686733007431030273e-01,2.686548709869384655e-01,2.686364650726318359e-01,2.686180591583252064e-01,2.685996294021606445e-01,2.685812234878540150e-01,2.685628175735473855e-01,2.685444355010986328e-01,2.685260295867920033e-01,2.685076236724853738e-01,2.684892177581786887e-01,2.684708356857299916e-01,2.684524536132812389e-01,2.684340715408325417e-01,2.684156894683837891e-01,2.683972835540771595e-01,2.683789014816284069e-01
2.497700214385986384e-01,2.497541189193725475e-01,2.497381925582885798e-01,2.497222661972045843e-01,2.497063636779785212e-01,2.496904373168945257e-01,2.496745347976684626e-01,2.496586322784423717e-01,2.496427059173584040e-01,2.496268272399902455e-01,2.496109247207641546e-01,2.495949983596801869e-01,2.495791196823120006e-01,2.495632171630859375e-01,2.495473146438598744e-01,2.495314359664916881e-01,2.495155572891235296e-01,2.494996547698974665e-01,2.494837760925293080e-01,2.494678974151611217e-01,2.494519948959350586e-01,2.494361162185669001e-01,2.494202613830566462e-01,2.494043588638305553e-01,2.493885040283203014e-01,2.493726253509521429e-01,2.493567466735839844e-01,2.493408918380737305e-01,2.493250370025634766e-01,2.493091583251953181e-01,2.492933034896850641e-01,2.492774248123169056e-01,2.492615699768066517e-01,2.492457389831543024e-01,2.492298603057861439e-01,2.492140054702758900e-01,2.491981506347656361e-01,2.491823196411132868e-01,2.491664648056030329e-01,2.491506338119506836e-01,2.491348028182983343e-01,2.491189718246459850e-01,2.491031169891357311e-01,2.490872859954834095e-01,2.490714550018310602e-01,2.490556478500366155e-01,2.490398168563842662e-01,2.490239858627319447e-01,2.490081548690795954e-01,2.489923477172851507e-01,2.489765167236328014e-01,2.489607095718383845e-01,2.489448785781860352e-01,2.489290714263915905e-01,2.489132642745971735e-01,2.488974571228027288e-01,2.488816499710083119e-01,2.488658428192138672e-01,2.488500356674194225e-01,2.488342523574829102e-01,2.488184452056884655e-01,2.488026618957519531e-01,2.487868547439575084e-01,2.487710475921630915e-01,2.487552642822265514e-01,2.487394809722900391e-01,2.487236976623535267e-01,2.487079143524169866e-01,2.486921310424804743e-01,2.486763477325439342e-01,2.486605644226074219e-01,2.486448049545288141e-01,2.486290216445922741e-01,2.486132383346557617e-01,2.485974788665771540e-01,2.485817193984985463e-01,2.485659599304199108e-01,2.485502004623413030e-01,2.485344171524047907e-01,2.485186576843261830e-01
2.324797391891479381e-01,2.324659585952758845e-01,2.324521541595458984e-01,2.324383735656738170e-01,2.324245929718017634e-01,2.324107885360717773e-01,2.323970079421996959e-01,2.323832035064697377e-01,2.323694467544555609e-01,2.323556661605835072e-01,2.323418855667114258e-01,2.323281049728393444e-01,2.323143482208251953e-01,2.323005437850952093e-01,2.322867870330810602e-01,2.322730302810668834e-01,2.322592496871948298e-01,2.322454929351806530e-01,2.322317361831665039e-01,2.322179555892944225e-01,2.322041988372802734e-01,2.321904420852661244e-01,2.321766614913940430e-01,2.321629285812377985e-01,2.321491718292236217e-01,2.321354150772094727e-01,2.321216583251953236e-01,2.321079254150390514e-01,2.320941448211669977e-01,2.320804119110107533e-01,2.320666551589965765e-01,2.320529222488403320e-01,2.320391893386840876e-01,2.320254325866699108e-01,2.320116996765136663e-01,2.319979667663574219e-01,2.319842100143432728e-01,2.319705009460449330e-01,2.319567441940307562e-01,2.319430351257324163e-01,2.319293022155761719e-01,2.319155693054199274e-01,2.319018363952636830e-01,2.318881273269653431e-01,2.318744182586670033e-01,2.318606853485107311e-01,2.318469762802123912e-01,2.318332433700561468e-01,2.318195343017578069e-01,2.318058252334594671e-01,2.317921161651611273e-01,2.317784070968627874e-01,2.317646980285644476e-01,2.317509889602661077e-01,2.317372798919677679e-01,2.317235946655273326e-01,2.317098855972289928e-01,2.316962003707885853e-01,2.316824913024902455e-01,2.316688060760498102e-01,2.316551208496093750e-01,2.316414117813110352e-01,2.316277265548705999e-01,2.316140413284301647e-01,2.316003561019897572e-01,2.315866708755493220e-01,2.315729856491088867e-01,2.315593004226684515e-01,2.315456151962280162e-01,2.315319299697876088e-01,2.315182685852050781e-01,2.315045833587646429e-01,2.314909219741821400e-01,2.314772367477417048e-01,2.314635515213012695e-01,2.314498901367187389e-01,2.314362287521362360e-01,2.314225673675537054e-01,2.314089059829712025e-01,2.313952207565307673e-01
2.174283027648925837e-01,2.174162149429321178e-01,2.174041509628295843e-01,2.173921108245849554e-01,2.173800230026245173e-01,2.173679828643798884e-01,2.173559188842773549e-01,2.173438549041747936e-01,2.173318147659301647e-01,2.173197507858276312e-01,2.173077106475830023e-01,2.172956466674804688e-01,2.172836065292358398e-01,2.172715425491333063e-01,2.172595024108886774e-01,2.172474622726440485e-01,2.172354221343994196e-01,2.172233819961547907e-01,2.172113180160522572e-01,2.171993017196655329e-01,2.171872615814209040e-01,2.171752214431762751e-01,2.171631813049316462e-01,2.171511411666870173e-01,2.171391010284423884e-01,2.171270847320556641e-01,2.171150445938110352e-01,2.171030044555664062e-01,2.170909881591796819e-01,2.170789718627929576e-01,2.170669317245483287e-01,2.170549154281616322e-01,2.170428752899170033e-01,2.170308589935302790e-01,2.170188426971435547e-01,2.170068264007568304e-01,2.169948101043701061e-01,2.169827938079834095e-01,2.169707775115966852e-01,2.169587612152099609e-01,2.169467449188232366e-01,2.169347286224365123e-01,2.169227123260498158e-01,2.169107198715209961e-01,2.168987035751342718e-01,2.168867111206054799e-01,2.168747186660766602e-01,2.168627262115478405e-01,2.168507099151611439e-01,2.168387174606323242e-01,2.168267250061035045e-01,2.168147325515747126e-01,2.168027400970458929e-01,2.167907238006591686e-01,2.167787313461303766e-01,2.167667388916015569e-01,2.167547702789306696e-01,2.167427778244018499e-01,2.167307853698730580e-01,2.167187929153442383e-01,2.167068243026733509e-01,2.166948318481445312e-01,2.166828632354736439e-01,2.166708707809448242e-01,2.166589021682739369e-01,2.166469097137451172e-01,2.166349411010742299e-01,2.166229724884033148e-01,2.166109800338745228e-01,2.165990114212036077e-01,2.165870428085327204e-01,2.165750741958618053e-01,2.165631294250488226e-01,2.165511608123779352e-01,2.165391683578491155e-01,2.165272235870361328e-01,2.165152549743652455e-01,2.165033102035522350e-01,2.164913415908813477e-01,2.164793729782104603e-01
2.042072772979736384e-01,2.041966438293457142e-01,2.041860103607177623e-01,2.041753530502319336e-01,2.041647195816040095e-01,2.041540861129760853e-01,2.041434526443481334e-01,2.041328191757202093e-01,2.041221857070922852e-01,2.041115522384643610e-01,2.041009187698364369e-01,2.040902853012084850e-01,2.040796518325805609e-01,2.040690422058105413e-01,2.040583848953247126e-01,2.040477752685546931e-01,2.040371417999267689e-01,2.040265321731567494e-01,2.040158987045287975e-01,2.040052890777587780e-01,2.039946556091308538e-01,2.039840459823608343e-01,2.039734363555908148e-01,2.039628028869628906e-01,2.039521932601928711e-01,2.039415836334228516e-01,2.039309501647949274e-01,2.039203405380249079e-01,2.039097309112548884e-01,2.038991212844848688e-01,2.038885116577148493e-01,2.038779020309448298e-01,2.038672924041748102e-01,2.038566827774047907e-01,2.038460731506347712e-01,2.038354873657226562e-01,2.038248777389526367e-01,2.038142681121826172e-01,2.038036823272705023e-01,2.037930727005004827e-01,2.037824630737304632e-01,2.037718772888183483e-01,2.037612915039062611e-01,2.037506818771362416e-01,2.037400960922241266e-01,2.037295103073120117e-01,2.037189006805419922e-01,2.037083148956298773e-01,2.036977291107177623e-01,2.036871433258056752e-01,2.036765575408935602e-01,2.036659717559814453e-01,2.036553859710693304e-01,2.036448001861572155e-01,2.036342144012451283e-01,2.036236286163330134e-01,2.036130666732788030e-01,2.036024808883666881e-01,2.035918951034546009e-01,2.035813331604003906e-01,2.035707473754882757e-01,2.035601854324340931e-01,2.035495996475219782e-01,2.035390377044677679e-01,2.035284519195556530e-01,2.035178899765014704e-01,2.035073280334472601e-01,2.034967660903930775e-01,2.034862041473388672e-01,2.034756183624267523e-01,2.034650564193725697e-01,2.034544944763183594e-01,2.034439325332641491e-01,2.034333944320678711e-01,2.034228086471557562e-01,2.034122705459594782e-01,2.034017086029052679e-01,2.033911466598510853e-01,2.033806085586547796e-01,2.033700466156005970e-01
1.925019621849060059e-01,1.924925208091735895e-01,1.924830675125122070e-01,1.924736022949218861e-01,1.924641609191894420e-01,1.924546837806701549e-01,1.924452424049377386e-01,1.924357891082763561e-01,1.924263477325439398e-01,1.924168944358825573e-01,1.924074530601501409e-01,1.923979878425598200e-01,1.923885464668274037e-01,1.923791050910949596e-01,1.923696637153625433e-01,1.923602223396301270e-01,1.923507571220398060e-01,1.923413276672363281e-01,1.923318862915039118e-01,1.923224449157714955e-01,1.923130154609680176e-01,1.923035860061645397e-01,1.922941207885742188e-01,1.922846913337707409e-01,1.922752618789672907e-01,1.922658324241638128e-01,1.922564029693603627e-01,1.922469735145568848e-01,1.922375202178955023e-01,1.922280907630920521e-01,1.922186732292175404e-01,1.922092437744140625e-01,1.921998143196105846e-01,1.921903967857360729e-01,1.921809554100036566e-01,1.921715259552002064e-01,1.921621084213256947e-01,1.921526908874511830e-01,1.921432733535766713e-01,1.921338319778442272e-01,1.921244144439697155e-01,1.921149969100952037e-01,1.921055793762206920e-01,1.920961737632751465e-01,1.920867562294006348e-01,1.920773267745971569e-01,1.920679092407226451e-01,1.920585036277770996e-01,1.920490860939025879e-01,1.920396566390991100e-01,1.920302510261535645e-01,1.920208454132080189e-01,1.920114398002624456e-01,1.920020341873169001e-01,1.919926285743713268e-01,1.919832229614257812e-01,1.919738173484802357e-01,1.919644236564636286e-01,1.919550180435180553e-01,1.919456005096435436e-01,1.919362068176269642e-01,1.919268012046813909e-01,1.919174075126647838e-01,1.919080138206482045e-01,1.918986201286315973e-01,1.918892264366149902e-01,1.918798327445983831e-01,1.918704390525817760e-01,1.918610453605651966e-01,1.918516278266906849e-01,1.918422460556030162e-01,1.918328523635864369e-01,1.918234705924987682e-01,1.918140769004821888e-01,1.918046951293945201e-01,1.917953133583068792e-01,1.917859315872192383e-01,1.917765378952026312e-01,1.917671561241149902e-01,1.917577862739562877e-01
1.820658206939697321e-01,1.820573449134826605e-01,1.820488929748535212e-01,1.820404410362243541e-01,1.820319771766662487e-01,1.820235252380371094e-01,1.820150732994079701e-01,1.820066094398498646e-01,1.819981575012206976e-01,1.819897055625915583e-01,1.819812536239623912e-01,1.819728136062622181e-01,1.819643378257751465e-01,1.819558978080749456e-01,1.819474458694458063e-01,1.819390058517456055e-01,1.819305658340454046e-01,1.819221138954162653e-01,1.819136500358581598e-01,1.819052100181579590e-01,1.818967700004577581e-01,1.818883299827575573e-01,1.818798899650573841e-01,1.818714499473571833e-01,1.818629980087280162e-01,1.818545579910278431e-01,1.818461179733276423e-01,1.818376898765564076e-01,1.818292498588562067e-01,1.818208217620849720e-01,1.818123698234558050e-01,1.818039298057556041e-01,1.817955017089843694e-01,1.817870736122131348e-01,1.817786455154419001e-01,1.817702174186706654e-01,1.817617654800414984e-01,1.817533373832702637e-01,1.817449092864990290e-01,1.817364811897277943e-01,1.817280530929565319e-01,1.817196130752563588e-01,1.817111849784850963e-01,1.817027688026428278e-01,1.816943407058715931e-01,1.816859245300292969e-01,1.816775083541870006e-01,1.816690683364868275e-01,1.816606402397155651e-01,1.816522240638732966e-01,1.816438078880310003e-01,1.816353917121887318e-01,1.816269755363464355e-01,1.816185474395752009e-01,1.816101312637329046e-01,1.816017150878906361e-01,1.815932989120483398e-01,1.815848946571350098e-01,1.815764784812927135e-01,1.815680503845214788e-01,1.815596342086792103e-01,1.815512299537658802e-01,1.815428137779235840e-01,1.815344095230102539e-01,1.815260052680969238e-01,1.815176010131835938e-01,1.815091967582702637e-01,1.815007925033569336e-01,1.814923882484436035e-01,1.814839601516723688e-01,1.814755678176879772e-01,1.814671635627746471e-01,1.814587593078613170e-01,1.814503669738769531e-01,1.814419627189636230e-01,1.814335703849792591e-01,1.814251661300659291e-01,1.814167737960815374e-01,1.814083814620971735e-01,1.813999772071838434e-01
1.727030158042907604e-01,1.726954102516174427e-01,1.726878046989440973e-01,1.726801753044128473e-01,1.726725697517395020e-01,1.726649641990661566e-01,1.726573586463928112e-01,1.726497530937194935e-01,1.726421475410461481e-01,1.726345300674438366e-01,1.726269245147705189e-01,1.726193308830261119e-01,1.726117253303527943e-01,1.726041316986083873e-01,1.725965142250061035e-01,1.725889086723327581e-01,1.725813150405883789e-01,1.725737094879150335e-01,1.725661158561706543e-01,1.725585222244262751e-01,1.725509047508239635e-01,1.725433111190795843e-01,1.725357174873352051e-01,1.725281238555908259e-01,1.725205302238464466e-01,1.725129365921020397e-01,1.725053310394287220e-01,1.724977374076843151e-01,1.724901437759399359e-01,1.724825501441955566e-01,1.724749684333801159e-01,1.724673748016357366e-01,1.724597692489623912e-01,1.724521875381469782e-01,1.724445939064025990e-01,1.724370121955871582e-01,1.724294304847717174e-01,1.724218368530273382e-01,1.724142432212829590e-01,1.724066615104675182e-01,1.723990797996521052e-01,1.723914980888366644e-01,1.723839163780212513e-01,1.723763108253479059e-01,1.723687291145324652e-01,1.723611593246459905e-01,1.723535776138305775e-01,1.723459959030151367e-01,1.723384261131286621e-01,1.723308205604553167e-01,1.723232507705688421e-01,1.723156809806823675e-01,1.723080992698669545e-01,1.723005294799804799e-01,1.722929477691650391e-01,1.722853660583495983e-01,1.722777962684631237e-01,1.722702145576477106e-01,1.722626447677612360e-01,1.722550630569457952e-01,1.722474932670593206e-01,1.722399234771728460e-01,1.722323536872863714e-01,1.722247838973998968e-01,1.722172260284423884e-01,1.722096562385559138e-01,1.722020864486694391e-01,1.721945285797119030e-01,1.721869587898254284e-01,1.721794009208679199e-01,1.721718192100524791e-01,1.721642613410949707e-01,1.721566915512084961e-01,1.721491336822509877e-01,1.721415758132934515e-01,1.721340179443359431e-01,1.721264600753784069e-01,1.721189022064208984e-01,1.721113443374633900e-01,1.721037864685058538e-01
1.642560958862304688e-01,1.642492055892944280e-01,1.642423272132873535e-01,1.642354488372802790e-01,1.642285704612732045e-01,1.642216682434081976e-01,1.642147898674011230e-01,1.642079114913940485e-01,1.642010331153869740e-01,1.641941547393798717e-01,1.641872763633727972e-01,1.641803860664367565e-01,1.641735076904296819e-01,1.641666293144226074e-01,1.641597628593444713e-01,1.641528844833373968e-01,1.641459941864013561e-01,1.641391277313232477e-01,1.641322493553161732e-01,1.641253829002380371e-01,1.641185045242309626e-01,1.641116380691528265e-01,1.641047477722167858e-01,1.640978813171386774e-01,1.640910148620605413e-01,1.640841364860534668e-01,1.640772700309753307e-01,1.640704035758972223e-01,1.640635251998901478e-01,1.640566587448120117e-01,1.640497922897338756e-01,1.640429258346557673e-01,1.640360593795776312e-01,1.640291929244995228e-01,1.640223145484924205e-01,1.640154600143432506e-01,1.640085935592651423e-01,1.640017271041870062e-01,1.639948725700378362e-01,1.639879941940307617e-01,1.639811277389526256e-01,1.639742732048034557e-01,1.639674186706542858e-01,1.639605522155761774e-01,1.639536976814270075e-01,1.639468193054199330e-01,1.639399647712707631e-01,1.639331102371215931e-01,1.639262557029724232e-01,1.639194011688232533e-01,1.639125466346740834e-01,1.639056801795959473e-01,1.638988256454467773e-01,1.638919711112976074e-01,1.638851165771484375e-01,1.638782739639282338e-01,1.638714194297790638e-01,1.638645529747009277e-01,1.638576984405517578e-01,1.638508558273315541e-01,1.638439893722534180e-01,1.638371348381042480e-01,1.638302922248840443e-01,1.638234496116638128e-01,1.638165950775146429e-01,1.638097524642944391e-01,1.638029098510742076e-01,1.637960672378540039e-01,1.637892127037048340e-01,1.637823700904846302e-01,1.637755155563354603e-01,1.637686729431152288e-01,1.637618303298950251e-01,1.637549877166747936e-01,1.637481451034545898e-01,1.637413144111633245e-01,1.637344717979431208e-01,1.637276291847228893e-01,1.637207984924316517e-01,1.637139558792114202e-01
1.565969347953796442e-01,1.565906643867492620e-01,1.565844058990478460e-01,1.565781593322753962e-01,1.565719008445739802e-01,1.565656423568725641e-01,1.565593957901000866e-01,1.565531253814697321e-01,1.565468788146972545e-01,1.565406203269958385e-01,1.565343737602233887e-01,1.565281271934509388e-01,1.565218687057495228e-01,1.565156102180481068e-01,1.565093517303466908e-01,1.565031051635742132e-01,1.564968585968017634e-01,1.564906120300292858e-01,1.564843535423278698e-01,1.564781069755554199e-01,1.564718604087829701e-01,1.564656138420104925e-01,1.564593672752380427e-01,1.564531207084655651e-01,1.564468622207641491e-01,1.564406156539916992e-01,1.564343810081481878e-01,1.564281344413757380e-01,1.564218878746032604e-01,1.564156532287597767e-01,1.564093947410583607e-01,1.564031481742858831e-01,1.563969135284423717e-01,1.563906669616699219e-01,1.563844323158264105e-01,1.563781976699828991e-01,1.563719391822814830e-01,1.563657045364379994e-01,1.563594698905944880e-01,1.563532352447509766e-01,1.563469886779785267e-01,1.563407421112060491e-01,1.563345074653625377e-01,1.563282728195190541e-01,1.563220381736755427e-01,1.563158035278320312e-01,1.563095688819885198e-01,1.563033223152160700e-01,1.562970876693725586e-01,1.562908649444580134e-01,1.562846302986145020e-01,1.562783956527709905e-01,1.562721729278564453e-01,1.562659263610839955e-01,1.562596917152404841e-01,1.562534689903259388e-01,1.562472343444824274e-01,1.562410116195678822e-01,1.562347769737243708e-01,1.562285423278808594e-01,1.562223196029663141e-01,1.562160849571228027e-01,1.562098622322082575e-01,1.562036395072937123e-01,1.561974048614502009e-01,1.561911702156066895e-01,1.561849474906921442e-01,1.561787247657775990e-01,1.561725020408630260e-01,1.561662793159484808e-01,1.561600446701049694e-01,1.561538338661193903e-01,1.561476111412048451e-01,1.561413884162902721e-01,1.561351656913757269e-01,1.561289548873901478e-01,1.561227321624755748e-01,1.561165094375610296e-01,1.561102986335754506e-01,1.561040759086608776e-01
