6.199382305145263450e-01,6.356698989868163618e-01,6.522207260131835938e-01,6.696565151214599609e-01,6.880500316619873047e-01,7.074825763702392578e-01,7.280447483062744141e-01,7.498378753662109375e-01,7.729760169982909934e-01,7.975850582122803178e-01,8.238125801086425559e-01,8.518238067626953125e-01,8.818067550659179910e-01,9.139775276184082253e-01,9.485845565795898438e-01,9.859154701232910600e-01,1.000000000000000000e+00,1.000000000000000000e+00,1.000000000000000000e+00,1.000000000000000000e+00,1.000000000000000000e+00,1.000000000000000000e+00,1.000000000000000000e+00,2.770493030548095703e-01,2.724863052368163840e-01,2.731359720230102650e-01,2.751528978347778098e-01,2.745461225509643333e-01,2.659262418746948242e-01,2.598666429519653209e-01,2.547921657562255970e-01,2.527977705001830944e-01,2.528417825698852650e-01,2.528858184814453125e-01,2.598156213760375866e-01,2.977543830871581809e-01,3.019146442413330189e-01,3.150593757629394642e-01,1.000000000000000000e+00,1.000000000000000000e+00,1.000000000000000000e+00,1.000000000000000000e+00,3.077136278152465820e-01,3.141779422760009877e-01,1.000000000000000000e+00,1.000000000000000000e+00,1.000000000000000000e+00,1.000000000000000000e+00,1.000000000000000000e+00,1.000000000000000000e+00,1.000000000000000000e+00,1.000000000000000000e+00,1.000000000000000000e+00,1.000000000000000000e+00,1.000000000000000000e+00,1.000000000000000000e+00,1.000000000000000000e+00,1.000000000000000000e+00,1.000000000000000000e+00,1.000000000000000000e+00,1.000000000000000000e+00,1.000000000000000000e+00,1.000000000000000000e+00,1.000000000000000000e+00,1.000000000000000000e+00,1.000000000000000000e+00,1.000000000000000000e+00,1.000000000000000000e+00,1.000000000000000000e+00,1.000000000000000000e+00,9.683204650878906028e-01,9.366706848144531472e-01,9.070243835449218750e-01,8.791971206665039062e-01,8.530265808105468306e-01,8.283689498901367632e-01,8.050968170166015181e-01,7.830965995788574663e-01,7.622666358947753906e-01,7.425161838531494363e-01
6.199249267578125222e-01,6.356559276580810991e-01,6.522060394287109153e-01,6.696410179138183594e-01,6.880337238311767800e-01,7.074653625488280806e-01,7.280264377593994585e-01,7.498184204101562278e-01,7.729553222656250222e-01,7.975655555725097434e-01,8.237916946411132368e-01,8.518013954162597656e-01,8.817828178405762163e-01,9.139518737792968750e-01,9.485569000244140625e-01,9.858855247497558816e-01,1.000000000000000000e+00,1.000000000000000000e+00,1.000000000000000000e+00,1.000000000000000000e+00,1.000000000000000000e+00,1.000000000000000000e+00,1.000000000000000000e+00,2.758045434951782449e-01,2.729331731796264537e-01,2.708672285079956055e-01,2.742268085479736550e-01,1.000000000000000000e+00,2.679585933685302845e-01,2.607057332992553933e-01,2.556160449981689231e-01,2.513940811157226451e-01,2.504605770111084095e-01,2.505038022994995339e-01,2.550194025039672630e-01,2.634685754776001088e-01,3.036738395690917747e-01,1.000000000000000000e+00,1.000000000000000000e+00,1.000000000000000000e+00,1.000000000000000000e+00,1.000000000000000000e+00,1.000000000000000000e+00,3.222636461257934459e-01,3.078782558441162109e-01,1.000000000000000000e+00,1.000000000000000000e+00,1.000000000000000000e+00,1.000000000000000000e+00,1.000000000000000000e+00,1.000000000000000000e+00,1.000000000000000000e+00,1.000000000000000000e+00,1.000000000000000000e+00,1.000000000000000000e+00,1.000000000000000000e+00,1.000000000000000000e+00,1.000000000000000000e+00,1.000000000000000000e+00,1.000000000000000000e+00,1.000000000000000000e+00,1.000000000000000000e+00,1.000000000000000000e+00,1.000000000000000000e+00,1.000000000000000000e+00,1.000000000000000000e+00,1.000000000000000000e+00,1.000000000000000000e+00,1.000000000000000000e+00,1.000000000000000000e+00,9.683538436889648215e-01,9.367019653320312056e-01,9.070536613464355025e-01,8.792246818542480691e-01,8.530524253845215288e-01,8.283933639526367410e-01,8.051198959350586160e-01,7.831183433532714622e-01,7.622873306274413618e-01,7.425357818603515181e-01
6.199117183685303178e-01,6.356420040130614790e-01,6.521914005279541016e-01,6.696255207061767578e-01,6.880173683166503906e-01,7.074480533599853960e-01,7.280081748962402566e-01,7.497991085052490012e-01,7.729346752166748047e-01,7.975435733795166460e-01,8.237709045410156472e-01,8.517791748046874556e-01,8.817589759826660600e-01,9.139262199401855247e-01,9.485292434692382812e-01,9.858557701110839400e-01,1.000000000000000000e+00,1.000000000000000000e+00,1.000000000000000000e+00,1.000000000000000000e+00,1.000000000000000000e+00,1.000000000000000000e+00,1.000000000000000000e+00,2.755003452301025280e-01,2.718210697174072155e-01,2.683827400207519642e-01,1.000000000000000000e+00,1.000000000000000000e+00,2.699298620223998801e-01,2.622710704803467019e-01,2.564301967620849498e-01,2.510475873947143333e-01,2.491125822067260798e-01,2.481662273406982366e-01,2.503970384597778431e-01,2.581247806549072377e-01,3.054536581039428711e-01,1.000000000000000000e+00,1.000000000000000000e+00,1.000000000000000000e+00,1.000000000000000000e+00,1.000000000000000000e+00,1.000000000000000000e+00,3.259241819381714089e-01,3.162968635559081920e-01,1.000000000000000000e+00,1.000000000000000000e+00,1.000000000000000000e+00,1.000000000000000000e+00,1.000000000000000000e+00,1.000000000000000000e+00,1.000000000000000000e+00,1.000000000000000000e+00,1.000000000000000000e+00,1.000000000000000000e+00,1.000000000000000000e+00,1.000000000000000000e+00,1.000000000000000000e+00,1.000000000000000000e+00,1.000000000000000000e+00,1.000000000000000000e+00,1.000000000000000000e+00,1.000000000000000000e+00,1.000000000000000000e+00,1.000000000000000000e+00,1.000000000000000000e+00,1.000000000000000000e+00,1.000000000000000000e+00,1.000000000000000000e+00,1.000000000000000000e+00,9.683873176574706587e-01,9.367331504821777566e-01,9.070829391479492410e-01,8.792521476745605025e-01,8.530783653259277344e-01,8.284177780151367188e-01,8.051428794860839844e-01,7.831401824951171875e-01,7.623080253601074441e-01,7.425554275512695757e-01
6.198984146118163840e-01,6.356280326843262163e-01,6.521767139434814231e-01,6.696100711822510210e-01,6.880010604858398660e-01,7.074307441711426003e-01,7.279898643493651900e-01,7.497796535491942915e-01,7.729141235351562056e-01,7.975216388702393022e-01,8.237475395202636941e-01,8.517568588256836382e-01,8.817350387573241743e-01,9.139004707336425559e-01,9.485015869140625000e-01,9.858258247375488725e-01,1.000000000000000000e+00,1.000000000000000000e+00,1.000000000000000000e+00,1.000000000000000000e+00,1.000000000000000000e+00,1.000000000000000000e+00,1.000000000000000000e+00,2.752866506576537864e-01,2.703201770782470703e-01,2.670240640640259011e-01,1.000000000000000000e+00,1.000000000000000000e+00,1.000000000000000000e+00,2.643850564956665150e-01,2.572495222091674694e-01,2.520421028137206920e-01,2.479621887207031361e-01,2.468721389770507924e-01,2.459392547607421875e-01,2.529934406280517356e-01,3.073776006698608620e-01,1.000000000000000000e+00,1.000000000000000000e+00,1.000000000000000000e+00,1.000000000000000000e+00,1.000000000000000000e+00,1.000000000000000000e+00,1.000000000000000000e+00,1.000000000000000000e+00,1.000000000000000000e+00,1.000000000000000000e+00,1.000000000000000000e+00,1.000000000000000000e+00,1.000000000000000000e+00,1.000000000000000000e+00,1.000000000000000000e+00,1.000000000000000000e+00,1.000000000000000000e+00,1.000000000000000000e+00,1.000000000000000000e+00,1.000000000000000000e+00,1.000000000000000000e+00,1.000000000000000000e+00,1.000000000000000000e+00,1.000000000000000000e+00,1.000000000000000000e+00,1.000000000000000000e+00,1.000000000000000000e+00,1.000000000000000000e+00,1.000000000000000000e+00,1.000000000000000000e+00,1.000000000000000000e+00,1.000000000000000000e+00,1.000000000000000000e+00,9.684206008911132590e-01,9.367644309997558150e-01,9.071122169494628684e-01,8.792797088623046653e-01,8.531043052673339400e-01,8.284421920776366965e-01,8.051659584045409712e-01,7.831620216369629128e-01,7.623287200927734153e-01,7.425750732421875222e-01
6.198852062225341797e-01,6.356141090393065962e-01,6.521619796752929910e-01,6.695945739746094194e-01,6.879847049713134766e-01,7.074135303497314231e-01,7.279716014862060991e-01,7.497601985931396928e-01,7.728934764862060991e-01,7.974996566772460938e-01,8.237240791320801225e-01,8.517318725585937278e-01,8.817111015319823997e-01,9.138748168945312056e-01,9.484739303588867188e-01,9.857959747314453125e-01,1.000000000000000000e+00,1.000000000000000000e+00,1.000000000000000000e+00,1.000000000000000000e+00,1.000000000000000000e+00,1.000000000000000000e+00,1.000000000000000000e+00,2.744210958480834961e-01,2.688340902328490989e-01,1.000000000000000000e+00,1.000000000000000000e+00,1.000000000000000000e+00,1.000000000000000000e+00,2.657965421676635742e-01,2.591422319412231556e-01,2.530445575714111439e-01,2.474266529083251898e-01,2.456990957260131725e-01,2.446019887924194280e-01,2.492013931274414118e-01,3.101243734359740989e-01,1.000000000000000000e+00,1.000000000000000000e+00,1.000000000000000000e+00,1.000000000000000000e+00,1.000000000000000000e+00,1.000000000000000000e+00,1.000000000000000000e+00,1.000000000000000000e+00,1.000000000000000000e+00,1.000000000000000000e+00,1.000000000000000000e+00,1.000000000000000000e+00,1.000000000000000000e+00,1.000000000000000000e+00,1.000000000000000000e+00,1.000000000000000000e+00,1.000000000000000000e+00,1.000000000000000000e+00,1.000000000000000000e+00,1.000000000000000000e+00,1.000000000000000000e+00,1.000000000000000000e+00,1.000000000000000000e+00,1.000000000000000000e+00,1.000000000000000000e+00,1.000000000000000000e+00,1.000000000000000000e+00,1.000000000000000000e+00,1.000000000000000000e+00,1.000000000000000000e+00,1.000000000000000000e+00,1.000000000000000000e+00,1.000000000000000000e+00,9.684539794921874778e-01,9.367956161499023660e-01,9.071414947509766069e-01,8.793072700500488281e-01,8.531301498413086382e-01,8.284666061401366743e-01,8.051890373229980691e-01,7.831838607788086382e-01,7.623494148254394975e-01,7.425946235656738503e-01
6.198719024658203569e-01,6.356001853942870872e-01,6.521473407745361772e-01,6.695791244506835715e-01,6.879683494567870872e-01,7.073962211608886275e-01,7.279532909393310325e-01,7.497408866882324663e-01,7.728729248046875000e-01,7.974776744842528853e-01,8.237007141113281694e-01,8.517068862915039285e-01,8.816844940185546431e-01,9.138491630554199663e-01,9.484462738037109375e-01,9.857661247253417525e-01,1.000000000000000000e+00,1.000000000000000000e+00,1.000000000000000000e+00,1.000000000000000000e+00,1.000000000000000000e+00,1.000000000000000000e+00,1.000000000000000000e+00,1.000000000000000000e+00,1.000000000000000000e+00,1.000000000000000000e+00,1.000000000000000000e+00,1.000000000000000000e+00,1.000000000000000000e+00,1.000000000000000000e+00,2.603585958480835183e-01,2.541033029556274414e-01,2.485050916671752985e-01,2.453399658203125056e-01,2.438264131546020452e-01,2.466615200042724665e-01,2.520648479461670144e-01,1.000000000000000000e+00,1.000000000000000000e+00,1.000000000000000000e+00,1.000000000000000000e+00,1.000000000000000000e+00,1.000000000000000000e+00,1.000000000000000000e+00,1.000000000000000000e+00,1.000000000000000000e+00,1.000000000000000000e+00,1.000000000000000000e+00,1.000000000000000000e+00,1.000000000000000000e+00,1.000000000000000000e+00,1.000000000000000000e+00,1.000000000000000000e+00,1.000000000000000000e+00,1.000000000000000000e+00,1.000000000000000000e+00,1.000000000000000000e+00,1.000000000000000000e+00,1.000000000000000000e+00,1.000000000000000000e+00,1.000000000000000000e+00,1.000000000000000000e+00,1.000000000000000000e+00,1.000000000000000000e+00,1.000000000000000000e+00,1.000000000000000000e+00,1.000000000000000000e+00,1.000000000000000000e+00,1.000000000000000000e+00,1.000000000000000000e+00,9.684873580932616965e-01,9.368268013000488059e-01,9.071708679199218528e-01,8.793347358703613725e-01,8.531560897827148438e-01,8.284910202026367632e-01,8.052121162414550559e-01,7.832056045532226340e-01,7.623700618743896040e-01,7.426142692565917969e-01
6.198586940765380415e-01,6.355862140655517134e-01,6.521326541900634988e-01,6.695636272430419700e-01,6.879520416259765625e-01,7.073790073394775613e-01,7.279349803924560769e-01,7.497214317321777566e-01,7.728522777557372825e-01,7.974557876586914062e-01,8.236772537231444868e-01,8.516818046569823997e-01,8.816576957702636497e-01,9.138205528259277788e-01,9.484186172485351562e-01,9.857361793518066850e-01,1.000000000000000000e+00,1.000000000000000000e+00,1.000000000000000000e+00,1.000000000000000000e+00,1.000000000000000000e+00,1.000000000000000000e+00,1.000000000000000000e+00,1.000000000000000000e+00,1.000000000000000000e+00,1.000000000000000000e+00,1.000000000000000000e+00,1.000000000000000000e+00,1.000000000000000000e+00,1.000000000000000000e+00,2.614218950271606223e-01,2.552508592605590709e-01,2.495917797088623158e-01,2.455192089080810436e-01,2.439249753952026367e-01,2.469022989273071400e-01,2.517856121063232200e-01,1.000000000000000000e+00,1.000000000000000000e+00,1.000000000000000000e+00,1.000000000000000000e+00,1.000000000000000000e+00,1.000000000000000000e+00,1.000000000000000000e+00,1.000000000000000000e+00,1.000000000000000000e+00,1.000000000000000000e+00,1.000000000000000000e+00,1.000000000000000000e+00,1.000000000000000000e+00,1.000000000000000000e+00,1.000000000000000000e+00,1.000000000000000000e+00,1.000000000000000000e+00,1.000000000000000000e+00,1.000000000000000000e+00,1.000000000000000000e+00,1.000000000000000000e+00,1.000000000000000000e+00,1.000000000000000000e+00,1.000000000000000000e+00,1.000000000000000000e+00,1.000000000000000000e+00,1.000000000000000000e+00,1.000000000000000000e+00,1.000000000000000000e+00,1.000000000000000000e+00,1.000000000000000000e+00,1.000000000000000000e+00,1.000000000000000000e+00,9.685207366943359153e-01,9.368580818176269753e-01,9.072000503540038618e-01,8.793622016906738059e-01,8.531819343566894309e-01,8.285154342651367410e-01,8.052351951599121538e-01,7.832274436950683594e-01,7.623907566070556863e-01,7.426339149475097434e-01
6.198379039764404519e-01,6.355688571929931641e-01,6.521180152893066850e-01,6.695481300354003684e-01,6.879356861114501731e-01,7.073616981506347656e-01,7.279167175292968750e-01,7.497020721435546653e-01,7.728316307067870650e-01,7.974338054656981978e-01,8.236538887023925337e-01,8.516568183898926003e-01,8.816308975219726562e-01,9.137917518615722434e-01,9.483879089355469194e-01,9.857063293457031250e-01,1.000000000000000000e+00,1.000000000000000000e+00,1.000000000000000000e+00,1.000000000000000000e+00,1.000000000000000000e+00,1.000000000000000000e+00,1.000000000000000000e+00,1.000000000000000000e+00,1.000000000000000000e+00,1.000000000000000000e+00,1.000000000000000000e+00,1.000000000000000000e+00,1.000000000000000000e+00,1.000000000000000000e+00,1.000000000000000000e+00,2.560196399688720592e-01,2.491752862930297907e-01,2.463450670242309515e-01,2.448011875152587835e-01,2.479541301727294922e-01,2.526971340179443581e-01,1.000000000000000000e+00,1.000000000000000000e+00,1.000000000000000000e+00,1.000000000000000000e+00,1.000000000000000000e+00,1.000000000000000000e+00,1.000000000000000000e+00,1.000000000000000000e+00,1.000000000000000000e+00,1.000000000000000000e+00,1.000000000000000000e+00,1.000000000000000000e+00,1.000000000000000000e+00,1.000000000000000000e+00,1.000000000000000000e+00,1.000000000000000000e+00,1.000000000000000000e+00,1.000000000000000000e+00,1.000000000000000000e+00,1.000000000000000000e+00,1.000000000000000000e+00,1.000000000000000000e+00,1.000000000000000000e+00,1.000000000000000000e+00,1.000000000000000000e+00,1.000000000000000000e+00,1.000000000000000000e+00,1.000000000000000000e+00,1.000000000000000000e+00,1.000000000000000000e+00,1.000000000000000000e+00,1.000000000000000000e+00,1.000000000000000000e+00,9.685541152954101340e-01,9.368892669677734153e-01,9.072294235229492188e-01,8.793897628784179688e-01,8.532078742980957475e-01,8.285398483276367188e-01,8.052582740783691406e-01,7.832492828369140847e-01,7.624114513397216575e-01,7.426535606384276900e-01
6.198150157928467019e-01,6.355447769165039062e-01,6.520936965942383257e-01,6.695274353027343972e-01,6.879189968109130637e-01,7.073443889617919700e-01,7.278984069824219194e-01,7.496826648712158203e-01,7.728110790252685769e-01,7.974119186401367188e-01,8.236305236816405806e-01,8.516317367553710715e-01,8.816040992736816628e-01,9.137629508972168191e-01,9.483568191528319868e-01,9.856732368469238725e-01,1.000000000000000000e+00,1.000000000000000000e+00,1.000000000000000000e+00,1.000000000000000000e+00,1.000000000000000000e+00,1.000000000000000000e+00,1.000000000000000000e+00,1.000000000000000000e+00,1.000000000000000000e+00,1.000000000000000000e+00,1.000000000000000000e+00,1.000000000000000000e+00,1.000000000000000000e+00,1.000000000000000000e+00,1.000000000000000000e+00,2.547899007797241322e-01,2.489501953125000111e-01,2.477299451828002819e-01,2.461686849594116322e-01,2.496016502380370983e-01,1.000000000000000000e+00,1.000000000000000000e+00,1.000000000000000000e+00,1.000000000000000000e+00,1.000000000000000000e+00,1.000000000000000000e+00,1.000000000000000000e+00,1.000000000000000000e+00,1.000000000000000000e+00,1.000000000000000000e+00,1.000000000000000000e+00,1.000000000000000000e+00,1.000000000000000000e+00,1.000000000000000000e+00,1.000000000000000000e+00,1.000000000000000000e+00,1.000000000000000000e+00,1.000000000000000000e+00,1.000000000000000000e+00,1.000000000000000000e+00,1.000000000000000000e+00,1.000000000000000000e+00,1.000000000000000000e+00,1.000000000000000000e+00,1.000000000000000000e+00,1.000000000000000000e+00,1.000000000000000000e+00,1.000000000000000000e+00,1.000000000000000000e+00,1.000000000000000000e+00,1.000000000000000000e+00,1.000000000000000000e+00,1.000000000000000000e+00,1.000000000000000000e+00,9.685874938964843528e-01,9.369205474853515847e-01,9.072586059570312278e-01,8.794172286987305132e-01,8.532337188720703347e-01,8.285642623901366965e-01,8.052813529968261275e-01,7.832711696624755637e-01,7.624321460723877397e-01,7.426731109619140181e-01
6.197943687438964844e-01,6.355206966400146484e-01,6.520683288574218306e-01,6.695007324218750222e-01,6.878908634185790794e-01,7.073197364807128906e-01,7.278780460357665572e-01,7.496632099151611106e-01,7.727903842926024947e-01,7.973899364471435103e-01,8.236070632934570090e-01,8.516067504882812722e-01,8.815772056579589400e-01,9.137341499328612837e-01,9.483258247375487837e-01,9.856396675109863059e-01,1.000000000000000000e+00,1.000000000000000000e+00,1.000000000000000000e+00,1.000000000000000000e+00,1.000000000000000000e+00,1.000000000000000000e+00,1.000000000000000000e+00,1.000000000000000000e+00,1.000000000000000000e+00,1.000000000000000000e+00,1.000000000000000000e+00,1.000000000000000000e+00,1.000000000000000000e+00,1.000000000000000000e+00,1.000000000000000000e+00,2.533085823059081920e-01,2.494508266448974554e-01,2.487006902694702259e-01,2.475515842437744085e-01,2.512712001800537220e-01,1.000000000000000000e+00,1.000000000000000000e+00,1.000000000000000000e+00,1.000000000000000000e+00,1.000000000000000000e+00,1.000000000000000000e+00,1.000000000000000000e+00,1.000000000000000000e+00,1.000000000000000000e+00,1.000000000000000000e+00,1.000000000000000000e+00,1.000000000000000000e+00,1.000000000000000000e+00,1.000000000000000000e+00,1.000000000000000000e+00,1.000000000000000000e+00,1.000000000000000000e+00,1.000000000000000000e+00,1.000000000000000000e+00,1.000000000000000000e+00,1.000000000000000000e+00,1.000000000000000000e+00,1.000000000000000000e+00,1.000000000000000000e+00,1.000000000000000000e+00,1.000000000000000000e+00,1.000000000000000000e+00,1.000000000000000000e+00,1.000000000000000000e+00,1.000000000000000000e+00,1.000000000000000000e+00,1.000000000000000000e+00,1.000000000000000000e+00,1.000000000000000000e+00,9.686208724975585715e-01,9.369517326354980247e-01,9.072879791259765847e-01,8.794447898864745650e-01,8.532596588134765403e-01,8.285887718200684038e-01,8.053044319152832253e-01,7.832930088043212891e-01,7.624527454376220925e-01,7.426927566528320757e-01
6.197810173034667969e-01,6.355045795440673606e-01,6.520467281341553178e-01,6.694739818572997825e-01,6.878626346588134766e-01,7.072899341583251953e-01,7.278464794158935325e-01,7.496336936950683816e-01,7.727655887603759322e-01,7.973680496215820312e-01,8.235836029052734375e-01,8.515817642211913618e-01,8.815504074096679465e-01,9.137053489685058594e-01,9.482948303222655806e-01,9.856060981750488503e-01,1.000000000000000000e+00,1.000000000000000000e+00,1.000000000000000000e+00,1.000000000000000000e+00,1.000000000000000000e+00,1.000000000000000000e+00,1.000000000000000000e+00,1.000000000000000000e+00,1.000000000000000000e+00,1.000000000000000000e+00,1.000000000000000000e+00,1.000000000000000000e+00,1.000000000000000000e+00,1.000000000000000000e+00,1.000000000000000000e+00,2.529224872589111439e-01,2.500382661819458008e-01,2.496072292327880804e-01,2.489500761032104603e-01,2.538662195205688699e-01,1.000000000000000000e+00,1.000000000000000000e+00,1.000000000000000000e+00,1.000000000000000000e+00,1.000000000000000000e+00,1.000000000000000000e+00,1.000000000000000000e+00,1.000000000000000000e+00,1.000000000000000000e+00,1.000000000000000000e+00,1.000000000000000000e+00,1.000000000000000000e+00,1.000000000000000000e+00,1.000000000000000000e+00,1.000000000000000000e+00,1.000000000000000000e+00,1.000000000000000000e+00,1.000000000000000000e+00,1.000000000000000000e+00,1.000000000000000000e+00,1.000000000000000000e+00,1.000000000000000000e+00,1.000000000000000000e+00,1.000000000000000000e+00,1.000000000000000000e+00,1.000000000000000000e+00,1.000000000000000000e+00,1.000000000000000000e+00,1.000000000000000000e+00,1.000000000000000000e+00,1.000000000000000000e+00,1.000000000000000000e+00,1.000000000000000000e+00,1.000000000000000000e+00,9.686542510986327903e-01,9.369830131530761941e-01,9.073171615600585938e-01,8.794722557067871094e-01,8.532855987548828569e-01,8.286131858825683816e-01,8.053275108337402122e-01,7.833147525787353960e-01,7.624734401702880637e-01,7.427124023437500222e-01
6.197676658630371094e-01,6.354905605316162331e-01,6.520319461822510210e-01,6.694574832916260210e-01,6.878400325775146928e-01,7.072605609893798384e-01,7.278149127960205078e-01,7.496002674102782981e-01,7.727299690246581809e-01,7.973325252532958984e-01,8.235531806945800559e-01,8.515566825866699441e-01,8.815236091613769531e-01,9.136765480041504350e-01,9.482637405395507590e-01,9.855726242065430132e-01,1.000000000000000000e+00,1.000000000000000000e+00,1.000000000000000000e+00,1.000000000000000000e+00,1.000000000000000000e+00,1.000000000000000000e+00,1.000000000000000000e+00,1.000000000000000000e+00,1.000000000000000000e+00,1.000000000000000000e+00,1.000000000000000000e+00,1.000000000000000000e+00,1.000000000000000000e+00,1.000000000000000000e+00,2.640969276428222767e-01,2.532317876815796120e-01,2.506284952163696511e-01,2.505203962326049694e-01,2.503644943237304799e-01,2.575787067413329856e-01,1.000000000000000000e+00,1.000000000000000000e+00,1.000000000000000000e+00,1.000000000000000000e+00,1.000000000000000000e+00,1.000000000000000000e+00,1.000000000000000000e+00,1.000000000000000000e+00,1.000000000000000000e+00,1.000000000000000000e+00,1.000000000000000000e+00,1.000000000000000000e+00,1.000000000000000000e+00,1.000000000000000000e+00,1.000000000000000000e+00,1.000000000000000000e+00,1.000000000000000000e+00,1.000000000000000000e+00,1.000000000000000000e+00,1.000000000000000000e+00,1.000000000000000000e+00,1.000000000000000000e+00,1.000000000000000000e+00,1.000000000000000000e+00,1.000000000000000000e+00,1.000000000000000000e+00,1.000000000000000000e+00,1.000000000000000000e+00,1.000000000000000000e+00,1.000000000000000000e+00,1.000000000000000000e+00,1.000000000000000000e+00,1.000000000000000000e+00,1.000000000000000000e+00,9.686877250671386275e-01,9.370141983032226340e-01,9.073465347290039507e-01,8.794998168945312722e-01,8.533114433288574441e-01,8.286375999450683594e-01,8.053505897521973100e-01,7.833365917205810103e-01,7.624941825866698997e-01,7.427320480346679688e-01
6.197543144226074219e-01,6.354765415191649947e-01,6.520172119140624778e-01,6.694419384002685547e-01,6.878235816955566850e-01,7.072431564331054243e-01,7.277912139892578347e-01,7.495689392089843750e-01,7.726943969726562944e-01,7.972946166992187500e-01,8.235127449035644087e-01,8.515139579772948997e-01,8.814862251281738725e-01,9.136455535888672319e-01,9.482326507568359375e-01,9.855391502380370650e-01,1.000000000000000000e+00,1.000000000000000000e+00,1.000000000000000000e+00,1.000000000000000000e+00,1.000000000000000000e+00,1.000000000000000000e+00,1.000000000000000000e+00,1.000000000000000000e+00,1.000000000000000000e+00,1.000000000000000000e+00,1.000000000000000000e+00,1.000000000000000000e+00,1.000000000000000000e+00,1.000000000000000000e+00,2.610577821731567272e-01,2.538372039794921653e-01,2.512123823165893777e-01,2.512473821640014426e-01,2.513199329376220592e-01,2.598015308380127175e-01,1.000000000000000000e+00,1.000000000000000000e+00,1.000000000000000000e+00,1.000000000000000000e+00,1.000000000000000000e+00,1.000000000000000000e+00,1.000000000000000000e+00,1.000000000000000000e+00,1.000000000000000000e+00,1.000000000000000000e+00,1.000000000000000000e+00,1.000000000000000000e+00,1.000000000000000000e+00,1.000000000000000000e+00,1.000000000000000000e+00,1.000000000000000000e+00,1.000000000000000000e+00,1.000000000000000000e+00,1.000000000000000000e+00,1.000000000000000000e+00,1.000000000000000000e+00,1.000000000000000000e+00,1.000000000000000000e+00,1.000000000000000000e+00,1.000000000000000000e+00,1.000000000000000000e+00,1.000000000000000000e+00,1.000000000000000000e+00,1.000000000000000000e+00,1.000000000000000000e+00,1.000000000000000000e+00,1.000000000000000000e+00,1.000000000000000000e+00,1.000000000000000000e+00,9.687210083007812278e-01,9.370454788208008035e-01,9.073758125305175781e-01,8.795273780822754350e-01,8.533373832702636497e-01,8.286620140075683372e-01,8.053736686706542969e-01,7.833584785461426003e-01,7.625143527984619141e-01,7.427500724792480691e-01
6.197410106658935991e-01,6.354625225067138672e-01,6.520024299621581809e-01,6.694263935089110884e-01,6.878071784973144309e-01,7.072257995605468750e-01,7.277728080749511497e-01,7.495494365692139116e-01,7.726695060729980025e-01,7.972611904144286665e-01,8.234724044799804910e-01,8.514707565307617632e-01,8.814399719238281694e-01,9.135957717895507590e-01,9.481866836547852007e-01,9.854999542236327903e-01,1.000000000000000000e+00,1.000000000000000000e+00,1.000000000000000000e+00,1.000000000000000000e+00,1.000000000000000000e+00,1.000000000000000000e+00,1.000000000000000000e+00,1.000000000000000000e+00,1.000000000000000000e+00,1.000000000000000000e+00,1.000000000000000000e+00,1.000000000000000000e+00,1.000000000000000000e+00,3.193811416625976785e-01,2.640201568603515736e-01,2.543522834777832142e-01,2.517296552658080944e-01,2.511965513229370006e-01,2.512691020965576172e-01,2.594791173934936634e-01,1.000000000000000000e+00,1.000000000000000000e+00,1.000000000000000000e+00,1.000000000000000000e+00,1.000000000000000000e+00,1.000000000000000000e+00,1.000000000000000000e+00,1.000000000000000000e+00,1.000000000000000000e+00,1.000000000000000000e+00,1.000000000000000000e+00,1.000000000000000000e+00,1.000000000000000000e+00,1.000000000000000000e+00,1.000000000000000000e+00,1.000000000000000000e+00,1.000000000000000000e+00,1.000000000000000000e+00,1.000000000000000000e+00,1.000000000000000000e+00,1.000000000000000000e+00,1.000000000000000000e+00,1.000000000000000000e+00,1.000000000000000000e+00,1.000000000000000000e+00,1.000000000000000000e+00,1.000000000000000000e+00,1.000000000000000000e+00,1.000000000000000000e+00,1.000000000000000000e+00,1.000000000000000000e+00,1.000000000000000000e+00,1.000000000000000000e+00,1.000000000000000000e+00,9.687544822692870650e-01,9.370767593383788618e-01,9.074050903320312056e-01,8.795548439025878684e-01,8.533632278442382368e-01,8.286864280700683150e-01,8.053954124450684038e-01,7.833777427673339622e-01,7.625319480895995650e-01,7.427666664123535600e-01
6.197276592254639116e-01,6.354485034942627397e-01,6.519876956939697488e-01,6.694108486175537331e-01,6.877907276153564231e-01,7.072084426879883257e-01,7.277544498443603294e-01,7.495299339294433372e-01,7.726487636566161665e-01,7.972391128540039507e-01,8.234461784362793191e-01,8.514348983764647993e-01,8.813936233520507368e-01,9.135460853576660156e-01,9.481330871582031028e-01,9.854420661926269753e-01,1.000000000000000000e+00,1.000000000000000000e+00,1.000000000000000000e+00,1.000000000000000000e+00,1.000000000000000000e+00,1.000000000000000000e+00,1.000000000000000000e+00,1.000000000000000000e+00,1.000000000000000000e+00,1.000000000000000000e+00,1.000000000000000000e+00,1.000000000000000000e+00,1.000000000000000000e+00,3.172431945800781028e-01,3.134626150131225586e-01,2.548601865768432839e-01,2.522491216659545898e-01,2.511457681655883678e-01,2.512182712554931752e-01,2.590097665786743053e-01,1.000000000000000000e+00,1.000000000000000000e+00,1.000000000000000000e+00,1.000000000000000000e+00,1.000000000000000000e+00,1.000000000000000000e+00,1.000000000000000000e+00,1.000000000000000000e+00,1.000000000000000000e+00,1.000000000000000000e+00,1.000000000000000000e+00,1.000000000000000000e+00,1.000000000000000000e+00,1.000000000000000000e+00,1.000000000000000000e+00,1.000000000000000000e+00,1.000000000000000000e+00,1.000000000000000000e+00,1.000000000000000000e+00,1.000000000000000000e+00,1.000000000000000000e+00,1.000000000000000000e+00,1.000000000000000000e+00,1.000000000000000000e+00,1.000000000000000000e+00,1.000000000000000000e+00,1.000000000000000000e+00,1.000000000000000000e+00,1.000000000000000000e+00,1.000000000000000000e+00,1.000000000000000000e+00,1.000000000000000000e+00,1.000000000000000000e+00,1.000000000000000000e+00,9.687878608703612837e-01,9.371079444885254128e-01,9.074344635009765625e-01,8.795816421508788618e-01,8.533868789672851562e-01,8.287073135375976340e-01,8.054150581359863503e-01,7.833963394165038840e-01,7.625494480133057085e-01,7.427833557128906694e-01
6.197143554687499778e-01,6.354344844818115012e-01,6.519729137420654519e-01,6.693952560424805132e-01,6.877743244171142800e-01,7.071910858154296653e-01,7.277360439300537553e-01,7.495104312896728738e-01,7.726280212402343306e-01,7.972170829772948775e-01,8.234226226806640181e-01,8.514097213745117632e-01,8.813660621643066850e-01,9.135072708129883257e-01,9.480814933776855469e-01,9.853842735290527788e-01,1.000000000000000000e+00,1.000000000000000000e+00,1.000000000000000000e+00,1.000000000000000000e+00,1.000000000000000000e+00,1.000000000000000000e+00,1.000000000000000000e+00,1.000000000000000000e+00,1.000000000000000000e+00,1.000000000000000000e+00,1.000000000000000000e+00,1.000000000000000000e+00,1.000000000000000000e+00,3.174341917037963867e-01,3.138078927993774303e-01,2.553701162338256614e-01,2.527706861495971902e-01,2.512269973754882590e-01,2.511674642562866100e-01,2.585290908813476785e-01,1.000000000000000000e+00,1.000000000000000000e+00,1.000000000000000000e+00,1.000000000000000000e+00,1.000000000000000000e+00,1.000000000000000000e+00,1.000000000000000000e+00,1.000000000000000000e+00,1.000000000000000000e+00,1.000000000000000000e+00,1.000000000000000000e+00,1.000000000000000000e+00,1.000000000000000000e+00,1.000000000000000000e+00,1.000000000000000000e+00,1.000000000000000000e+00,1.000000000000000000e+00,1.000000000000000000e+00,1.000000000000000000e+00,1.000000000000000000e+00,1.000000000000000000e+00,1.000000000000000000e+00,1.000000000000000000e+00,1.000000000000000000e+00,1.000000000000000000e+00,1.000000000000000000e+00,1.000000000000000000e+00,1.000000000000000000e+00,1.000000000000000000e+00,1.000000000000000000e+00,1.000000000000000000e+00,1.000000000000000000e+00,1.000000000000000000e+00,1.000000000000000000e+00,9.688212394714355025e-01,9.371373176574706587e-01,9.074602127075195312e-01,8.796050071716308150e-01,8.534089088439941184e-01,8.287280082702637163e-01,8.054346084594726785e-01,7.834147930145263228e-01,7.625670433044433594e-01,7.428000450134277788e-01
6.197010040283202903e-01,6.354204654693603738e-01,6.519581794738769087e-01,6.693797111511230469e-01,6.877579212188720259e-01,7.071737289428711160e-01,7.277176856994629350e-01,7.494909286499022993e-01,7.726073265075683594e-01,7.971950054168701616e-01,8.233990669250488281e-01,8.513845443725586160e-01,8.813390731811523438e-01,9.134783744812011719e-01,9.480503082275391069e-01,9.853421211242675559e-01,1.000000000000000000e+00,1.000000000000000000e+00,1.000000000000000000e+00,1.000000000000000000e+00,1.000000000000000000e+00,1.000000000000000000e+00,1.000000000000000000e+00,1.000000000000000000e+00,1.000000000000000000e+00,1.000000000000000000e+00,1.000000000000000000e+00,1.000000000000000000e+00,3.288097381591796875e-01,3.176254272460937722e-01,3.154047966003418191e-01,2.558820962905883900e-01,2.532944440841674583e-01,2.514659166336059570e-01,2.511166810989379772e-01,2.580502033233642578e-01,1.000000000000000000e+00,1.000000000000000000e+00,1.000000000000000000e+00,1.000000000000000000e+00,1.000000000000000000e+00,1.000000000000000000e+00,1.000000000000000000e+00,1.000000000000000000e+00,1.000000000000000000e+00,1.000000000000000000e+00,1.000000000000000000e+00,1.000000000000000000e+00,1.000000000000000000e+00,1.000000000000000000e+00,1.000000000000000000e+00,1.000000000000000000e+00,1.000000000000000000e+00,1.000000000000000000e+00,1.000000000000000000e+00,1.000000000000000000e+00,1.000000000000000000e+00,1.000000000000000000e+00,1.000000000000000000e+00,1.000000000000000000e+00,1.000000000000000000e+00,1.000000000000000000e+00,1.000000000000000000e+00,1.000000000000000000e+00,1.000000000000000000e+00,1.000000000000000000e+00,1.000000000000000000e+00,1.000000000000000000e+00,1.000000000000000000e+00,1.000000000000000000e+00,9.688495635986328347e-01,9.371638298034667969e-01,9.074851036071777122e-01,8.796283721923827681e-01,8.534309387207030806e-01,8.287487983703613059e-01,8.054542541503906250e-01,7.834333896636962447e-01,7.625846385955810103e-01,7.428166389465331587e-01
6.196876525878906028e-01,6.354064464569091353e-01,6.519433975219726118e-01,6.693641662597655806e-01,6.877414703369140181e-01,7.071563720703124556e-01,7.276992797851562500e-01,7.494714260101318359e-01,7.725865840911865234e-01,7.971729278564453347e-01,8.233756065368652566e-01,8.513593673706054688e-01,8.813120841979980025e-01,9.134493827819823997e-01,9.480191230773925559e-01,9.853083610534667525e-01,1.000000000000000000e+00,1.000000000000000000e+00,1.000000000000000000e+00,1.000000000000000000e+00,1.000000000000000000e+00,1.000000000000000000e+00,1.000000000000000000e+00,1.000000000000000000e+00,1.000000000000000000e+00,1.000000000000000000e+00,1.000000000000000000e+00,1.000000000000000000e+00,3.244358301162719727e-01,3.180336475372314564e-01,3.170245885848999023e-01,2.563961029052734264e-01,2.538203477859496959e-01,2.517053127288818581e-01,2.510659217834472767e-01,2.575730562210082897e-01,1.000000000000000000e+00,1.000000000000000000e+00,1.000000000000000000e+00,1.000000000000000000e+00,1.000000000000000000e+00,1.000000000000000000e+00,1.000000000000000000e+00,1.000000000000000000e+00,1.000000000000000000e+00,1.000000000000000000e+00,1.000000000000000000e+00,1.000000000000000000e+00,1.000000000000000000e+00,1.000000000000000000e+00,1.000000000000000000e+00,1.000000000000000000e+00,1.000000000000000000e+00,1.000000000000000000e+00,1.000000000000000000e+00,1.000000000000000000e+00,1.000000000000000000e+00,1.000000000000000000e+00,1.000000000000000000e+00,1.000000000000000000e+00,1.000000000000000000e+00,1.000000000000000000e+00,1.000000000000000000e+00,1.000000000000000000e+00,1.000000000000000000e+00,1.000000000000000000e+00,1.000000000000000000e+00,1.000000000000000000e+00,1.000000000000000000e+00,1.000000000000000000e+00,9.688779830932616743e-01,9.371904373168945535e-01,9.075099945068358931e-01,8.796517372131347212e-01,8.534528732299804243e-01,8.287694931030273882e-01,8.054738044738769531e-01,7.834519386291504128e-01,7.626021385192871538e-01,7.428333282470702681e-01
6.196743488311767800e-01,6.353924274444580078e-01,6.519286632537841797e-01,6.693486213684082253e-01,6.877250671386718750e-01,7.071390151977539062e-01,7.276808738708495650e-01,7.494519233703613725e-01,7.725658416748046875e-01,7.971508502960205078e-01,8.233520507812499556e-01,8.513341903686523215e-01,8.812851905822753906e-01,9.134203910827636275e-01,9.479879379272461160e-01,9.852746963500976785e-01,1.000000000000000000e+00,1.000000000000000000e+00,1.000000000000000000e+00,1.000000000000000000e+00,1.000000000000000000e+00,1.000000000000000000e+00,1.000000000000000000e+00,1.000000000000000000e+00,1.000000000000000000e+00,1.000000000000000000e+00,1.000000000000000000e+00,1.000000000000000000e+00,3.219170808792114480e-01,3.184846878051758035e-01,3.186611175537109597e-01,2.569261312484741322e-01,2.543484687805175892e-01,2.520464420318603294e-01,2.513931751251220481e-01,2.572511196136474387e-01,1.000000000000000000e+00,1.000000000000000000e+00,1.000000000000000000e+00,1.000000000000000000e+00,1.000000000000000000e+00,1.000000000000000000e+00,1.000000000000000000e+00,1.000000000000000000e+00,1.000000000000000000e+00,1.000000000000000000e+00,1.000000000000000000e+00,1.000000000000000000e+00,1.000000000000000000e+00,1.000000000000000000e+00,1.000000000000000000e+00,1.000000000000000000e+00,1.000000000000000000e+00,1.000000000000000000e+00,1.000000000000000000e+00,1.000000000000000000e+00,1.000000000000000000e+00,1.000000000000000000e+00,1.000000000000000000e+00,1.000000000000000000e+00,1.000000000000000000e+00,1.000000000000000000e+00,1.000000000000000000e+00,1.000000000000000000e+00,1.000000000000000000e+00,1.000000000000000000e+00,1.000000000000000000e+00,1.000000000000000000e+00,1.000000000000000000e+00,1.000000000000000000e+00,9.689063072204590066e-01,9.372169494628905806e-01,9.075347900390624556e-01,8.796751022338866743e-01,8.534749031066894975e-01,8.287902832031249778e-01,8.054934501647948997e-01,7.834704875946044700e-01,7.626197338104248047e-01,7.428500175476073775e-01
6.196609973907470925e-01,6.353784084320068803e-01,6.519138813018798828e-01,6.693330287933350053e-01,6.877086162567138672e-01,7.071216106414794922e-01,7.276625156402587447e-01,7.494324207305907981e-01,7.725451469421387163e-01,7.971288204193115456e-01,8.233285903930663840e-01,8.513090133666991743e-01,8.812582015991210493e-01,9.133913993835449663e-01,9.479566574096679465e-01,9.852409362792968750e-01,1.000000000000000000e+00,1.000000000000000000e+00,1.000000000000000000e+00,1.000000000000000000e+00,1.000000000000000000e+00,1.000000000000000000e+00,1.000000000000000000e+00,1.000000000000000000e+00,1.000000000000000000e+00,1.000000000000000000e+00,1.000000000000000000e+00,1.000000000000000000e+00,3.228500127792358620e-01,3.191686391830444447e-01,3.203158378601074219e-01,2.575564861297607311e-01,2.550148725509643333e-01,2.525597810745239258e-01,2.523262500762939453e-01,2.570867538452148438e-01,1.000000000000000000e+00,1.000000000000000000e+00,1.000000000000000000e+00,1.000000000000000000e+00,1.000000000000000000e+00,1.000000000000000000e+00,1.000000000000000000e+00,1.000000000000000000e+00,1.000000000000000000e+00,1.000000000000000000e+00,1.000000000000000000e+00,1.000000000000000000e+00,1.000000000000000000e+00,1.000000000000000000e+00,1.000000000000000000e+00,1.000000000000000000e+00,1.000000000000000000e+00,1.000000000000000000e+00,1.000000000000000000e+00,1.000000000000000000e+00,1.000000000000000000e+00,1.000000000000000000e+00,1.000000000000000000e+00,1.000000000000000000e+00,1.000000000000000000e+00,1.000000000000000000e+00,1.000000000000000000e+00,1.000000000000000000e+00,1.000000000000000000e+00,1.000000000000000000e+00,1.000000000000000000e+00,1.000000000000000000e+00,1.000000000000000000e+00,1.000000000000000000e+00,9.689346313476562278e-01,9.372434616088867188e-01,9.075597763061523660e-01,8.796984672546386275e-01,8.534969329833984597e-01,8.288109779357910600e-01,8.055130004882812278e-01,7.834889888763427734e-01,7.626373291015624556e-01,7.428666591644287331e-01
6.196476459503174050e-01,6.353643894195556419e-01,6.518991470336914507e-01,6.693174839019775391e-01,6.876922130584717241e-01,7.071042537689209428e-01,7.276441097259521706e-01,7.494129180908203347e-01,7.725244045257568803e-01,7.971067428588867188e-01,8.233050346374511941e-01,8.512838363647461382e-01,8.812312126159668191e-01,9.133625030517578125e-01,9.479254722595215066e-01,9.852072715759276900e-01,1.000000000000000000e+00,1.000000000000000000e+00,1.000000000000000000e+00,1.000000000000000000e+00,1.000000000000000000e+00,1.000000000000000000e+00,1.000000000000000000e+00,1.000000000000000000e+00,1.000000000000000000e+00,1.000000000000000000e+00,1.000000000000000000e+00,1.000000000000000000e+00,3.237883806228637473e-01,3.209387779235839955e-01,3.221567392349243275e-01,2.584064483642578014e-01,2.557068824768066184e-01,2.532621145248413197e-01,2.532663345336914062e-01,2.569226026535034180e-01,1.000000000000000000e+00,1.000000000000000000e+00,1.000000000000000000e+00,1.000000000000000000e+00,1.000000000000000000e+00,1.000000000000000000e+00,1.000000000000000000e+00,1.000000000000000000e+00,1.000000000000000000e+00,1.000000000000000000e+00,1.000000000000000000e+00,1.000000000000000000e+00,1.000000000000000000e+00,1.000000000000000000e+00,1.000000000000000000e+00,1.000000000000000000e+00,1.000000000000000000e+00,1.000000000000000000e+00,1.000000000000000000e+00,1.000000000000000000e+00,1.000000000000000000e+00,1.000000000000000000e+00,1.000000000000000000e+00,1.000000000000000000e+00,1.000000000000000000e+00,1.000000000000000000e+00,1.000000000000000000e+00,1.000000000000000000e+00,1.000000000000000000e+00,1.000000000000000000e+00,1.000000000000000000e+00,1.000000000000000000e+00,1.000000000000000000e+00,1.000000000000000000e+00,9.689630508422851785e-01,9.372699737548828569e-01,9.075845718383789285e-01,8.797218322753905806e-01,8.535188674926758035e-01,8.288317680358886497e-01,8.055325508117675559e-01,7.835075378417968306e-01,7.626548290252685991e-01,7.428833484649658425e-01
6.196343421936034712e-01,6.353503704071045144e-01,6.518844127655029075e-01,6.693019390106200728e-01,6.876758098602294700e-01,7.070868968963622825e-01,7.276257514953613503e-01,7.493934154510497603e-01,7.725037097930907981e-01,7.970846652984618919e-01,8.232814788818358931e-01,8.512586593627929910e-01,8.812042236328124778e-01,9.133335113525390403e-01,9.478942871093749556e-01,9.709911346435546875e-01,9.707490921020507368e-01,9.705072402954101340e-01,9.702655792236327681e-01,9.700239181518555132e-01,9.697824478149413840e-01,9.695411682128906028e-01,9.692998886108398215e-01,9.690587997436523882e-01,9.688178062438964622e-01,9.685769081115722656e-01,9.683361053466796875e-01,3.366637945175171009e-01,3.247066497802734153e-01,3.227868795394897572e-01,3.240189313888549583e-01,2.617194890975952370e-01,2.564026594161987194e-01,2.539683580398559570e-01,2.542134046554565541e-01,2.567586660385131614e-01,9.659351348876953347e-01,9.656956672668457475e-01,9.654562950134277788e-01,9.652171134948730469e-01,9.649781227111816628e-01,9.647390365600585493e-01,9.645002365112305132e-01,9.642615318298339844e-01,9.640228271484374556e-01,9.637844085693358931e-01,9.635459899902343306e-01,9.633076667785644975e-01,9.630695343017577903e-01,9.628315925598144309e-01,9.625936508178710715e-01,9.623558044433593306e-01,9.621181488037109375e-01,9.618805885314941628e-01,9.616431236267090066e-01,9.614058494567870872e-01,9.611685752868652788e-01,9.609314918518065962e-01,9.606945991516113725e-01,9.604577064514160378e-01,9.602209091186523215e-01,9.599843978881835715e-01,9.597478866577148215e-01,9.595114707946776900e-01,9.592751502990722878e-01,9.590390205383301225e-01,9.588029861450195757e-01,9.585670471191406472e-01,9.583312988281249556e-01,9.580955505371093750e-01,9.578599929809570312e-01,9.372964859008788840e-01,9.076094627380371094e-01,8.797451972961425337e-01,8.535408973693847656e-01,8.288525581359863503e-01,8.055521965026855025e-01,7.835261344909667525e-01,7.626724243164062500e-01,7.429000377655029519e-01
6.196209907531737837e-01,6.353363513946532759e-01,6.518696308135986106e-01,6.692863941192627175e-01,6.876593589782714622e-01,7.070695400238037331e-01,7.276073455810546653e-01,7.493739128112792969e-01,7.542362213134765625e-01,7.540902137756347878e-01,7.539442539215087669e-01,7.537983894348144753e-01,7.536525249481200728e-01,7.535067558288573997e-01,7.533610820770263450e-01,7.532154083251952903e-01,7.530697822570801003e-01,7.529242515563965288e-01,7.527787685394287109e-01,7.526332855224608931e-01,7.524879455566406694e-01,7.523426055908203347e-01,7.521973133087158647e-01,7.520521640777587669e-01,7.519069671630859153e-01,7.517618656158446822e-01,7.516168594360351785e-01,3.299363136291503795e-01,3.255840063095092884e-01,3.246563911437988503e-01,3.302149772644042969e-01,2.641980409622192161e-01,2.571022510528564453e-01,2.546785831451415794e-01,2.544094085693359153e-01,2.565949440002441295e-01,7.501694679260253462e-01,7.500250816345215288e-01,7.498806953430176003e-01,7.497363567352295366e-01,7.495921611785888450e-01,7.494479179382323997e-01,7.493037223815918191e-01,7.491596698760986106e-01,7.490156173706055132e-01,7.488716125488281694e-01,7.487277030944824441e-01,7.485838413238525835e-01,7.484399795532226118e-01,7.482962608337402344e-01,7.481525421142578569e-01,7.480088710784912331e-01,7.478653430938720925e-01,7.477217674255370872e-01,7.475782394409179465e-01,7.474348545074462891e-01,7.472914218902587669e-01,7.471480846405029741e-01,7.470048904418945535e-01,7.468616485595702681e-01,7.467184543609619585e-01,7.465754032135010210e-01,7.464323520660400835e-01,7.462893009185791460e-01,7.461464405059814453e-01,7.460035324096679910e-01,7.458606719970702903e-01,7.457179069519043191e-01,7.455751895904541016e-01,7.454324722290038840e-01,7.452899456024170144e-01,7.451473236083984153e-01,7.450047969818115456e-01,7.448624134063720481e-01,7.447199821472167969e-01,7.445776462554931641e-01,7.444354057312011497e-01,7.442931175231933816e-01,7.441509246826172319e-01,7.429166316986084428e-01
6.166913509368896484e-01,6.165937423706054910e-01,6.164961338043213335e-01,6.163985729217529297e-01,6.163010120391845259e-01,6.162035942077637163e-01,6.161061286926269309e-01,6.160086631774902566e-01,6.159112930297852007e-01,6.158139228820800337e-01,6.157166004180908425e-01,6.156193256378174050e-01,6.155220508575439675e-01,6.154247760772705300e-01,6.153275966644287109e-01,6.152304172515868919e-01,6.151332378387450728e-01,6.150361537933349831e-01,6.149390697479247825e-01,6.148419857025146928e-01,6.147449970245361106e-01,6.146479606628417747e-01,6.145509719848633035e-01,6.144540786743164507e-01,6.143571853637694868e-01,6.142602920532226340e-01,6.141634941101073997e-01,3.350262641906738281e-01,3.264660835266113281e-01,3.265476703643798717e-01,6.137763977050780806e-01,6.136796951293945757e-01,2.578245639801025613e-01,2.553927659988403098e-01,2.545463800430297630e-01,2.564314365386962669e-01,6.131967544555664285e-01,6.131002902984619141e-01,6.130037784576416460e-01,6.129073143005371316e-01,6.128109455108642356e-01,6.127145290374755859e-01,6.126181602478026900e-01,6.125218868255615234e-01,6.124255657196044922e-01,6.123292922973633257e-01,6.122331142425536665e-01,6.121368885040283647e-01,6.120406627655029519e-01,6.119445800781250222e-01,6.118484497070312278e-01,6.117523670196532981e-01,6.116563320159912331e-01,6.115602970123290572e-01,6.114642620086669922e-01,6.113683700561522993e-01,6.112723827362060991e-01,6.111764907836914062e-01,6.110806465148925781e-01,6.109848022460937500e-01,6.108889579772949219e-01,6.107932090759277122e-01,6.106974601745605025e-01,6.106017112731934038e-01,6.105060577392578125e-01,6.104103565216064675e-01,6.103147029876708762e-01,6.102191448211670144e-01,6.101235866546630415e-01,6.100280284881591797e-01,6.099325180053710715e-01,6.098370552062988281e-01,6.097415447235107200e-01,6.096461772918700950e-01,6.095507621765137163e-01,6.094553947448730913e-01,6.093601226806640847e-01,6.092648029327392134e-01,6.091694831848144531e-01,6.090743064880370650e-01
5.210172176361084206e-01,5.209475040435791460e-01,5.208778381347656250e-01,5.208081722259521040e-01,5.207385540008544478e-01,5.206689357757567915e-01,5.205993652343750000e-01,5.205297946929932085e-01,5.204602241516113059e-01,5.203907012939452681e-01,5.203211784362793413e-01,5.202517509460449219e-01,5.201822757720947488e-01,5.201128005981445757e-01,5.200433731079101562e-01,5.199739456176757368e-01,5.199045658111571822e-01,5.198351860046386275e-01,5.197658061981200728e-01,5.196964740753173828e-01,5.196271896362304465e-01,5.195578575134277566e-01,5.194885730743408203e-01,5.194193363189697488e-01,5.193500518798828125e-01,5.192808151245117410e-01,5.192116260528564231e-01,3.322867155075073242e-01,3.299960374832153209e-01,5.190041065216064453e-01,5.189349651336669922e-01,5.188658237457275391e-01,2.585565567016601674e-01,2.561109542846679576e-01,2.546834945678710938e-01,2.564179420471191517e-01,5.185205459594726118e-01,5.184515476226806419e-01,5.183825492858886719e-01,5.183135986328124556e-01,5.182446479797363503e-01,5.181756973266601340e-01,5.181067943572997825e-01,5.180378913879394309e-01,5.179690361022949441e-01,5.179001331329345925e-01,5.178313255310058594e-01,5.177624702453613725e-01,5.176936626434326394e-01,5.176249027252197710e-01,5.175561428070067915e-01,5.174873828887939231e-01,5.174186706542969194e-01,5.173499107360839400e-01,5.172812461853026900e-01,5.172125816345214400e-01,5.171439170837401900e-01,5.170752525329589400e-01,5.170066356658935547e-01,5.169380187988281694e-01,5.168694496154785378e-01,5.168008804321289062e-01,5.167323112487792747e-01,5.166637897491455078e-01,5.165953159332274947e-01,5.165267944335937278e-01,5.164583206176758257e-01,5.163898468017578125e-01,5.163214206695556641e-01,5.162529945373535156e-01,5.161846160888672319e-01,5.161161899566650835e-01,5.160478115081786887e-01,5.159794807434081587e-01,5.159111499786377397e-01,5.158428192138672097e-01,5.157745361328125444e-01,5.157062530517577681e-01,5.156379699707031028e-01,5.155697345733643022e-01
4.510420322418212669e-01,4.509898185729980247e-01,4.509376049041747825e-01,4.508853912353515403e-01,4.508332252502441628e-01,4.507810592651367299e-01,4.507288932800292969e-01,4.506767272949218639e-01,4.506245613098144309e-01,4.505724430084228627e-01,4.505203247070312389e-01,4.504682540893554799e-01,4.504161834716796653e-01,4.503640651702880970e-01,4.503120422363281472e-01,4.502599716186523326e-01,4.502079486846923828e-01,4.501559257507324330e-01,4.501039028167724831e-01,4.500519275665283425e-01,4.499999523162842019e-01,4.499479770660400613e-01,4.498960018157959206e-01,4.498440742492675892e-01,4.497920989990234486e-01,4.497401714324951172e-01,3.427798032760620006e-01,3.299322128295898438e-01,3.257380247116088978e-01,3.316937446594238059e-01,4.494807243347168080e-01,4.494288444519042858e-01,4.493770599365234375e-01,2.584614753723144531e-01,2.571501970291137917e-01,4.492215633392334095e-01,4.491697788238525613e-01,4.491179943084716575e-01,4.490662097930908092e-01,4.490144729614257701e-01,4.489627361297607311e-01,4.489109992980956920e-01,4.488592624664306530e-01,4.488075733184814231e-01,4.487558364868163840e-01,4.487041473388672097e-01,4.486525058746337891e-01,4.486008167266845592e-01,4.485491752624511941e-01,4.484975337982177734e-01,4.484458923339843528e-01,4.483942508697509877e-01,4.483427047729492410e-01,4.482910633087158203e-01,4.482394695281982644e-01,4.481879234313964622e-01,4.481363773345947155e-01,4.480848312377929688e-01,4.480332851409912220e-01,4.479817867279052845e-01,4.479302406311035378e-01,4.478787899017334095e-01,4.478272914886474720e-01,4.477757930755615345e-01,4.477243423461914062e-01,4.476728916168212780e-01,4.476214408874511497e-01,4.475700378417968861e-01,4.475185871124267578e-01,4.474671840667724387e-01,4.474158287048339844e-01,4.473644256591796653e-01,4.473130702972412109e-01,4.472617149353027566e-01,4.472103595733642467e-01,4.471590042114257924e-01,4.471076965332031472e-01,4.470563888549804465e-01,4.470050811767578014e-01,4.469538211822509655e-01
3.976374149322509655e-01,3.975968122482299583e-01,3.975562572479248158e-01,3.975156545639038086e-01,3.974750995635986106e-01,3.974345207214355358e-01,3.973940134048462025e-01,3.973534345626831277e-01,3.973129272460937389e-01,3.972723722457885964e-01,3.972318887710571400e-01,3.971913576126098744e-01,3.971508741378784180e-01,3.971104145050048939e-01,3.970699071884155051e-01,3.970294475555419811e-01,3.969889640808105247e-01,3.969485282897949330e-01,3.969081163406372181e-01,3.968676328659057617e-01,3.968272209167480469e-01,3.967868089675903320e-01,3.967463731765746848e-01,3.967059850692749023e-01,3.966656208038329967e-01,3.966252088546752819e-01,3.965848445892333762e-01,3.303568363189697266e-01,3.195821285247802956e-01,3.216267347335815541e-01,3.964234352111816184e-01,3.963830709457397683e-01,3.963427543640136719e-01,2.579329013824462891e-01,2.552661418914795033e-01,2.548143863677978516e-01,3.961815357208252064e-01,3.961412668228149192e-01,3.961009502410888783e-01,3.960607051849365234e-01,3.960204601287841686e-01,3.959801673889160045e-01,3.959399223327636497e-01,3.958997011184692272e-01,3.958594560623168723e-01,3.958192348480224498e-01,3.957790374755859597e-01,3.957388162612914817e-01,3.956986188888549916e-01,3.956584453582763783e-01,3.956182479858398326e-01,3.955780744552612194e-01,3.955379247665405384e-01,3.954977512359619252e-01,3.954576015472411887e-01,3.954174757003784402e-01,3.953773260116577037e-01,3.953372240066528320e-01,3.952971220016479603e-01,3.952569723129272239e-01,3.952168941497802845e-01,3.951768159866332897e-01,3.951366901397704856e-01,3.950966358184814231e-01,3.950565814971923606e-01,3.950165033340454213e-01,3.949764728546142356e-01,3.949364423751831055e-01,3.948963642120361106e-01,3.948563575744629128e-01,3.948163509368896595e-01,3.947763204574584739e-01,3.947363376617431530e-01,3.946963548660278320e-01,3.946563243865967019e-01,3.946163654327392578e-01,3.945764064788818137e-01,3.945364236831664928e-01,3.944964885711669811e-01,3.944565534591674694e-01
3.555404424667358287e-01,3.555079698562622070e-01,3.554755449295043945e-01,3.554430961608886497e-01,3.554106712341308372e-01,3.553782701492309570e-01,3.553458213806152122e-01,3.553134202957153320e-01,3.552809953689575195e-01,3.552486181259155162e-01,3.552161931991577037e-01,3.551838159561157005e-01,3.551514148712158203e-01,3.551190614700317494e-01,3.550866603851318137e-01,3.550543069839477428e-01,3.550219297409057395e-01,3.549896001815796009e-01,3.549572229385375977e-01,3.549248933792114036e-01,3.548925638198852650e-01,3.548602104187011941e-01,3.548279047012329324e-01,3.547955989837646706e-01,3.547632694244384766e-01,3.547309875488281472e-01,3.546986818313598855e-01,3.546663761138916238e-01,3.140245676040649414e-01,3.108622550964355580e-01,3.172146081924438477e-01,3.545372724533081277e-01,3.545050144195556752e-01,2.558111429214477428e-01,2.513070344924926980e-01,2.496861934661865345e-01,2.510129451751709206e-01,3.543437719345092773e-01,3.543115615844726340e-01,3.542793273925781139e-01,3.542471170425415261e-01,3.542149066925048828e-01,3.541826963424682395e-01,3.541505098342895286e-01,3.541183233261108176e-01,3.540861129760742299e-01,3.540539264678955189e-01,3.540217638015746848e-01,3.539895772933959739e-01,3.539574384689331277e-01,3.539252758026122936e-01,3.538931131362915150e-01,3.538609743118286133e-01,3.538288354873657116e-01,3.537966728210449330e-01,3.537645578384399636e-01,3.537324666976928711e-01,3.537003278732299694e-01,3.536682128906250000e-01,3.536361217498779075e-01,3.536040067672729381e-01,3.535719156265259011e-01,3.535398483276367410e-01,3.535077333450317161e-01,3.534756660461425559e-01,3.534436225891113281e-01,3.534115314483642356e-01,3.533794879913330078e-01,3.533474445343017800e-01,3.533153772354126199e-01,3.532833337783813366e-01,3.532513141632079856e-01,3.532192707061767578e-01,3.531872510910034069e-01,3.531552553176879883e-01,3.531232118606567605e-01,3.530912160873412864e-01,3.530592441558838002e-01,3.530272245407104492e-01,3.529952526092529075e-01
3.215035915374755970e-01,3.214770555496215820e-01,3.214505195617675670e-01,3.214240074157714844e-01,3.213974714279174694e-01,3.213709592819213867e-01,3.213444471359253041e-01,3.213179349899292214e-01,3.212914228439330833e-01,3.212649345397949330e-01,3.212384223937988503e-01,3.212119340896606445e-01,3.211854457855224387e-01,3.211589813232421653e-01,3.211324691772460826e-01,3.211060285568237416e-01,3.210795402526855358e-01,3.210530757904052623e-01,3.210266113281249889e-01,3.210001707077026478e-01,3.209736824035644420e-01,3.209472656249999778e-01,3.209208011627197044e-01,3.208943843841552956e-01,3.208679437637328991e-01,3.208415031433105580e-01,3.208150863647460938e-01,3.207886934280395619e-01,3.207622528076171653e-01,3.061529159545898215e-01,3.106178283691406472e-01,3.206830501556396373e-01,3.206566572189331055e-01,2.519504070281982644e-01,2.475038290023803822e-01,2.452316999435424916e-01,2.446237564086914118e-01,2.450953006744384655e-01,3.204983711242676003e-01,3.204720020294189453e-01,3.204456567764282227e-01,3.204192876815795676e-01,3.203929424285888450e-01,3.203665971755981223e-01,3.203402519226073997e-01,3.203139066696166770e-01,3.202875852584838867e-01,3.202612400054931641e-01,3.202349185943603738e-01,3.202085971832275280e-01,3.201822757720947377e-01,3.201559782028198242e-01,3.201296806335449108e-01,3.201033353805541881e-01,3.200770616531372070e-01,3.200507640838622936e-01,3.200244665145873801e-01,3.199981689453125222e-01,3.199718952178954856e-01,3.199455976486206277e-01,3.199193239212035911e-01,3.198930740356445424e-01,3.198667764663696289e-01,3.198405265808105247e-01,3.198143005371093528e-01,3.197880268096923717e-01,3.197617769241333230e-01,3.197355508804321511e-01,3.197092771530151145e-01,3.196830511093139426e-01,3.196568250656127708e-01,3.196305990219115989e-01,3.196043729782104270e-01,3.195781707763671875e-01,3.195519447326660156e-01,3.195257425308227761e-01,3.194995403289794811e-01,3.194733142852783092e-01,3.194471359252929465e-01,3.194209575653076394e-01
2.934142351150512695e-01,2.933921575546264426e-01,2.933700323104858620e-01,2.933479547500610352e-01,2.933258533477783314e-01,2.933037757873535045e-01,2.932816743850708008e-01,2.932595968246459739e-01,2.932375192642212025e-01,2.932154417037963756e-01,2.931933641433716042e-01,2.931713104248047097e-01,2.931492328643798828e-01,2.931271791458129883e-01,2.931051015853881614e-01,2.930830717086791992e-01,2.930609941482543723e-01,2.930389642715454102e-01,2.930169105529785156e-01,2.929948806762695535e-01,2.929728269577026589e-01,2.929507970809936412e-01,2.929287433624267467e-01,2.929067373275756614e-01,2.928847074508666992e-01,2.928626775741577370e-01,2.928406476974487194e-01,2.928186416625976340e-01,2.927966594696044811e-01,2.927746534347533958e-01,2.927526473999023660e-01,2.927306413650512806e-01,2.927086591720581277e-01,2.470077991485595814e-01,2.415029287338256725e-01,2.399797439575195312e-01,2.367066383361816351e-01,2.357374668121337835e-01,2.345112085342407338e-01,2.925547599792480691e-01,2.925328016281127930e-01,2.925108432769775169e-01,2.924888849258422963e-01,2.924669265747070201e-01,2.924449682235717995e-01,2.924230098724365234e-01,2.924010753631591797e-01,2.923791408538818359e-01,2.923571825027465598e-01,2.923352479934692161e-01,2.923133134841918723e-01,2.922913789749145286e-01,2.922694444656371848e-01,2.922475337982177734e-01,2.922255992889404297e-01,2.922036886215210183e-01,2.921817779541015514e-01,2.921598434448242076e-01,2.921379327774047963e-01,2.921160459518432617e-01,2.920941352844238503e-01,2.920722246170043834e-01,2.920503377914428489e-01,2.920284271240234375e-01,2.920065641403198353e-01,2.919846773147583008e-01,2.919627904891967662e-01,2.919409036636352317e-01,2.919190406799316295e-01,2.918971538543700950e-01,2.918752908706664928e-01,2.918534278869628906e-01,2.918315410614013561e-01,2.918097019195556863e-01,2.917878389358520286e-01,2.917659759521484264e-01,2.917441368103027566e-01,2.917222976684570312e-01,2.917004346847534291e-01,2.916785955429077037e-01
2.698387622833252064e-01,2.698200941085815430e-01,2.698013782501220703e-01,2.697827100753784069e-01,2.697640180587768666e-01,2.697453260421752708e-01,2.697266578674316628e-01,2.697079896926879994e-01,2.696892976760864036e-01,2.696706295013427956e-01,2.696519613265991322e-01,2.696332931518554688e-01,2.696146249771118053e-01,2.695959568023681419e-01,2.695772886276245339e-01,2.695586442947387473e-01,2.695399761199951394e-01,2.695213556289672852e-01,2.695026874542236217e-01,2.694840431213378906e-01,2.694653987884521595e-01,2.694467782974243053e-01,2.694281339645385742e-01,2.694094896316528431e-01,2.693908452987671120e-01,2.693722248077392578e-01,2.693536043167114036e-01,2.693349838256836049e-01,2.693163394927978738e-01,2.692977428436279519e-01,2.692790985107421653e-01,2.692605018615722434e-01,2.692419052124023215e-01,2.692233085632323997e-01,2.387565851211547741e-01,2.348753690719604381e-01,2.382084369659423773e-01,2.332211971282958929e-01,2.346682786941528265e-01,2.691117048263549916e-01,2.690931320190429465e-01,2.690745353698730247e-01,2.690559625625610352e-01,2.690373659133911133e-01,2.690187931060791238e-01,2.690002202987670787e-01,2.689816474914550892e-01,2.689630508422851674e-01,2.689445018768310547e-01,2.689259529113769420e-01,2.689073562622070201e-01,2.688888072967529075e-01,2.688702583312988503e-01,2.688516855239868053e-01,2.688331365585326926e-01,2.688145875930786355e-01,2.687960386276245228e-01,2.687774896621704102e-01,2.687589645385742299e-01,2.687404155731201172e-01,2.687218666076660045e-01,2.687033414840698242e-01,2.686847925186157116e-01,2.686662673950195312e-01,2.686477661132812278e-01,2.686292171478271706e-01,2.686106920242309348e-01,2.685921907424926869e-01,2.685736656188965066e-01,2.685551404953002708e-01,2.685366392135620228e-01,2.685181140899658425e-01,2.684996128082275391e-01,2.684811115264892356e-01,2.684626102447509877e-01,2.684441089630126842e-01,2.684256315231323131e-01,2.684071063995361328e-01,2.683886289596557617e-01,2.683701515197753906e-01
2.497700452804565430e-01,2.497540473937988337e-01,2.497380256652831920e-01,2.497220277786254827e-01,2.497060060501098688e-01,2.496900081634521595e-01,2.496739864349365179e-01,2.496579885482788086e-01,2.496419906616210993e-01,2.496259927749633900e-01,2.496099948883056530e-01,2.495939970016479437e-01,2.495779991149902344e-01,2.495620250701904297e-01,2.495460271835327204e-01,2.495300531387329157e-01,2.495140552520752064e-01,2.494980812072754017e-01,2.494820833206176647e-01,2.494661092758178600e-01,2.494501352310180553e-01,2.494341611862182506e-01,2.494181871414184459e-01,2.494022130966186412e-01,2.493862390518188366e-01,2.493702888488769642e-01,2.493543148040771595e-01,2.493383407592773549e-01,2.493223905563354548e-01,2.493064403533935547e-01,2.492904663085937500e-01,2.492745161056518499e-01,2.492585659027099498e-01,2.492426156997680775e-01,2.492266893386840820e-01,2.492107391357421819e-01,2.491947889328002819e-01,2.491788625717163141e-01,2.491629123687744141e-01,2.491469860076904186e-01,2.491310358047485463e-01,2.491151332855224554e-01,2.490991830825805553e-01,2.490832567214965876e-01,2.490673303604125921e-01,2.490514039993286244e-01,2.490355014801025335e-01,2.490195751190185658e-01,2.490036487579345703e-01,2.489877462387085072e-01,2.489718437194824163e-01,2.489559173583984486e-01,2.489400148391723577e-01,2.489241123199462946e-01,2.489081859588622991e-01,2.488922834396362360e-01,2.488764047622680775e-01,2.488604784011840820e-01,2.488445997238159235e-01,2.488286972045898326e-01,2.488127946853637695e-01,2.487969160079956110e-01,2.487810373306274525e-01,2.487651348114013616e-01,2.487492561340332031e-01,2.487333774566650446e-01,2.487174987792968861e-01,2.487016201019286998e-01,2.486857414245605413e-01,2.486698627471923828e-01,2.486540079116821289e-01,2.486381292343139704e-01,2.486222505569458119e-01,2.486063957214355580e-01,2.485905408859253041e-01,2.485746622085571178e-01,2.485588073730468639e-01,2.485429525375366100e-01,2.485270977020263561e-01,2.485112428665161022e-01
2.324798583984374889e-01,2.324659824371337891e-01,2.324521064758300892e-01,2.324382305145263616e-01,2.324243545532226618e-01,2.324105024337768666e-01,2.323966264724731390e-01,2.323827743530273438e-01,2.323688983917236439e-01,2.323550462722778209e-01,2.323411703109741211e-01,2.323273181915283259e-01,2.323134422302245983e-01,2.322996139526367076e-01,2.322857379913330078e-01,2.322719097137451172e-01,2.322580337524414174e-01,2.322442054748535267e-01,2.322303533554077037e-01,2.322165012359619085e-01,2.322026491165161133e-01,2.321888208389282227e-01,2.321749687194824274e-01,2.321611404418945368e-01,2.321472883224487416e-01,2.321334600448608509e-01,2.321196317672729603e-01,2.321058034896850697e-01,2.320919513702392467e-01,2.320781469345092884e-01,2.320643186569213978e-01,2.320504903793335072e-01,2.320366621017456166e-01,2.320228338241577259e-01,2.320090293884277399e-01,2.319952011108398493e-01,2.319813728332519587e-01,2.319675683975219727e-01,2.319537401199340820e-01,2.319399356842040960e-01,2.319261312484741100e-01,2.319123268127441517e-01,2.318985223770141657e-01,2.318847179412841797e-01,2.318709135055541937e-01,2.318571090698242076e-01,2.318433284759521540e-01,2.318295240402221680e-01,2.318157196044921819e-01,2.318019390106201283e-01,2.317881345748901423e-01,2.317743539810180609e-01,2.317605733871460072e-01,2.317467689514160212e-01,2.317329883575439398e-01,2.317192077636718861e-01,2.317054033279419001e-01,2.316916465759277233e-01,2.316778659820556696e-01,2.316640853881835882e-01,2.316503047943115345e-01,2.316365480422973577e-01,2.316227674484253041e-01,2.316089868545532227e-01,2.315952301025390736e-01,2.315814495086669922e-01,2.315676927566528431e-01,2.315539360046386663e-01,2.315401554107666127e-01,2.315263986587524359e-01,2.315126419067382868e-01,2.314988851547241100e-01,2.314851284027099609e-01,2.314713954925537165e-01,2.314576148986816351e-01,2.314438819885253906e-01,2.314301252365112416e-01,2.314163684844970648e-01,2.314026355743408203e-01,2.313889026641845759e-01
2.174284696578979437e-01,2.174163341522216686e-01,2.174041986465454213e-01,2.173920631408691462e-01,2.173799276351928711e-01,2.173677921295165960e-01,2.173556566238403209e-01,2.173435449600219782e-01,2.173314094543457031e-01,2.173192739486694280e-01,2.173071622848510853e-01,2.172950267791748102e-01,2.172829151153564398e-01,2.172708034515380970e-01,2.172586679458618220e-01,2.172465562820434515e-01,2.172344207763671764e-01,2.172223329544067383e-01,2.172101974487304632e-01,2.171980857849121205e-01,2.171859741210937500e-01,2.171738862991333119e-01,2.171617746353149414e-01,2.171496629714965709e-01,2.171375513076782282e-01,2.171254396438598577e-01,2.171133518218994196e-01,2.171012401580810491e-01,2.170891523361206110e-01,2.170770406723022405e-01,2.170649528503418024e-01,2.170528411865234319e-01,2.170407533645629938e-01,2.170286655426025280e-01,2.170165777206420898e-01,2.170044898986816517e-01,2.169924020767211859e-01,2.169803142547607477e-01,2.169682264328002819e-01,2.169561386108398438e-01,2.169440507888794056e-01,2.169319629669189398e-01,2.169198751449585016e-01,2.169078111648559681e-01,2.168957471847534069e-01,2.168836593627929688e-01,2.168715953826904352e-01,2.168595075607299694e-01,2.168474435806274359e-01,2.168353796005249023e-01,2.168233156204223688e-01,2.168112277984619030e-01,2.167991638183593694e-01,2.167871236801147405e-01,2.167750358581543024e-01,2.167629718780517689e-01,2.167509317398071400e-01,2.167388677597045787e-01,2.167268037796020452e-01,2.167147636413574163e-01,2.167026996612548828e-01,2.166906356811523493e-01,2.166785955429077204e-01,2.166665315628051869e-01,2.166544914245605580e-01,2.166424512863159291e-01,2.166303873062133678e-01,2.166183471679687389e-01,2.166063070297241100e-01,2.165942430496215765e-01,2.165822267532348522e-01,2.165701866149902233e-01,2.165581226348876898e-01,2.165461063385009655e-01,2.165340662002563366e-01,2.165220260620117076e-01,2.165099859237670787e-01,2.164979696273803822e-01,2.164859294891357533e-01,2.164738893508911244e-01
2.042075157165527399e-01,2.041968107223510742e-01,2.041861057281494085e-01,2.041754007339477428e-01,2.041646957397461049e-01,2.041539907455444391e-01,2.041432857513427734e-01,2.041326045989990123e-01,2.041218996047973744e-01,2.041111946105957087e-01,2.041004896163940430e-01,2.040898084640502819e-01,2.040791034698486439e-01,2.040684223175048828e-01,2.040577411651611217e-01,2.040470361709594838e-01,2.040363550186157227e-01,2.040256738662719616e-01,2.040149927139282282e-01,2.040042877197265625e-01,2.039936065673828014e-01,2.039829254150390681e-01,2.039722442626953069e-01,2.039615631103515736e-01,2.039508819580078125e-01,2.039402008056640514e-01,2.039295196533203181e-01,2.039188385009765569e-01,2.039081811904907282e-01,2.038975000381469671e-01,2.038868188858032338e-01,2.038761615753173773e-01,2.038654804229736439e-01,2.038547992706298828e-01,2.038441419601440541e-01,2.038334846496581976e-01,2.038228034973144642e-01,2.038121461868286077e-01,2.038014888763427790e-01,2.037908077239990179e-01,2.037801504135131891e-01,2.037694931030273326e-01,2.037588357925415039e-01,2.037481784820556752e-01,2.037375211715698187e-01,2.037268638610839899e-01,2.037162303924560658e-01,2.037055492401123047e-01,2.036949157714843806e-01,2.036842584609985241e-01,2.036736011505126953e-01,2.036629676818847712e-01,2.036523103713989147e-01,2.036416769027709905e-01,2.036310195922851618e-01,2.036203861236572377e-01,2.036097288131713812e-01,2.035990953445434570e-01,2.035884618759155329e-01,2.035778284072876088e-01,2.035671710968017523e-01,2.035565614700317327e-01,2.035459041595459040e-01,2.035352706909179799e-01,2.035246372222900280e-01,2.035140037536621038e-01,2.035033702850341797e-01,2.034927606582641602e-01,2.034821033477783314e-01,2.034714937210083119e-01,2.034608602523803600e-01,2.034502267837524359e-01,2.034396171569824163e-01,2.034289836883544922e-01,2.034183740615844727e-01,2.034077405929565485e-01,2.033971309661865290e-01,2.033864974975586049e-01,2.033758878707885853e-01,2.033652782440185658e-01
1.925022363662719782e-01,1.924927115440368541e-01,1.924831986427307240e-01,1.924736976623535045e-01,1.924641728401184082e-01,1.924546599388122503e-01,1.924451708793640248e-01,1.924356579780578669e-01,1.924261450767517090e-01,1.924166321754455511e-01,1.924071431159973256e-01,1.923976302146911677e-01,1.923881292343139759e-01,1.923786163330078181e-01,1.923691272735595648e-01,1.923596262931823730e-01,1.923501253128051813e-01,1.923406243324279896e-01,1.923311352729797363e-01,1.923216342926025446e-01,1.923121333122253529e-01,1.923026323318481334e-01,1.922931551933288463e-01,1.922836542129516546e-01,1.922741651535034291e-01,1.922646641731262096e-01,1.922551870346069225e-01,1.922456979751586970e-01,1.922361969947815052e-01,1.922267079353332520e-01,1.922172427177429310e-01,1.922077417373657116e-01,1.921982526779174860e-01,1.921887636184692327e-01,1.921792984008789118e-01,1.921698093414306585e-01,1.921603322029113714e-01,1.921508431434631459e-01,1.921413779258727972e-01,1.921318888664245716e-01,1.921224117279052845e-01,1.921129345893859974e-01,1.921034693717956487e-01,1.920939922332763616e-01,1.920845150947570745e-01,1.920750379562377874e-01,1.920655846595764049e-01,1.920561075210571178e-01,1.920466303825378307e-01,1.920371770858764759e-01,1.920276999473571888e-01,1.920182347297668402e-01,1.920087814331054576e-01,1.919993042945861705e-01,1.919898390769958496e-01,1.919803977012634333e-01,1.919709205627441462e-01,1.919614553451537975e-01,1.919520139694213812e-01,1.919425487518310602e-01,1.919330835342407116e-01,1.919236421585082952e-01,1.919141769409179743e-01,1.919047236442565918e-01,1.918952822685241755e-01,1.918858170509338268e-01,1.918763637542724720e-01,1.918669223785400280e-01,1.918574690818786732e-01,1.918480157852172907e-01,1.918385863304138128e-01,1.918291211128234919e-01,1.918196797370910756e-01,1.918102383613586315e-01,1.918007969856262152e-01,1.917913436889648326e-01,1.917819142341613825e-01,1.917724609375000000e-01,1.917630195617675837e-01,1.917535901069641058e-01
1.820660948753357045e-01,1.820575833320617620e-01,1.820490837097167858e-01,1.820405721664428711e-01,1.820320606231689564e-01,1.820235490798950140e-01,1.820150613784790039e-01,1.820065498352050892e-01,1.819980382919311468e-01,1.819895267486572321e-01,1.819810390472412220e-01,1.819725275039672796e-01,1.819640278816223034e-01,1.819555163383483887e-01,1.819470286369323786e-01,1.819385290145874023e-01,1.819300293922424261e-01,1.819215297698974498e-01,1.819130420684814398e-01,1.819045424461364635e-01,1.818960428237915150e-01,1.818875432014465388e-01,1.818790674209594671e-01,1.818705677986144909e-01,1.818620681762695424e-01,1.818535685539245661e-01,1.818450927734374944e-01,1.818366050720214844e-01,1.818281054496765081e-01,1.818196177482604980e-01,1.818111419677734264e-01,1.818026542663574163e-01,1.817941665649414062e-01,1.817856669425964300e-01,1.817772030830383245e-01,1.817687153816223145e-01,1.817602276802063044e-01,1.817517399787902943e-01,1.817432761192321888e-01,1.817347884178161510e-01,1.817263007164001409e-01,1.817178249359130970e-01,1.817093610763549916e-01,1.817008733749389537e-01,1.816923975944519098e-01,1.816839218139648382e-01,1.816754579544067327e-01,1.816669821739196888e-01,1.816584944725036510e-01,1.816500186920166071e-01,1.816415667533874401e-01,1.816330909729003962e-01,1.816246151924133245e-01,1.816161632537841852e-01,1.816076874732971136e-01,1.815992355346679743e-01,1.815907597541809027e-01,1.815822958946227972e-01,1.815738439559936579e-01,1.815653800964355524e-01,1.815569043159484808e-01,1.815484523773193415e-01,1.815399885177612360e-01,1.815315246582031306e-01,1.815230846405029297e-01,1.815146207809448242e-01,1.815061569213867188e-01,1.814977049827575795e-01,1.814892411231994740e-01,1.814807891845703069e-01,1.814723491668701061e-01,1.814638853073120006e-01,1.814554214477538951e-01,1.814469933509826605e-01,1.814385294914245550e-01,1.814300775527954157e-01,1.814216375350952148e-01,1.814131855964660756e-01,1.814047336578369085e-01,1.813962936401367076e-01
1.727033257484436035e-01,1.726956605911254827e-01,1.726880192756652943e-01,1.726803541183471735e-01,1.726727008819580189e-01,1.726650357246398981e-01,1.726573944091796819e-01,1.726497411727905273e-01,1.726420879364013727e-01,1.726344227790832520e-01,1.726267814636230358e-01,1.726191282272338812e-01,1.726114749908447266e-01,1.726038217544555720e-01,1.725961923599243220e-01,1.725885391235351674e-01,1.725808858871459850e-01,1.725732326507568304e-01,1.725656032562255804e-01,1.725579500198364258e-01,1.725502967834472712e-01,1.725426554679870550e-01,1.725350260734558050e-01,1.725273728370666504e-01,1.725197315216064342e-01,1.725120902061462458e-01,1.725044608116149958e-01,1.724968075752258412e-01,1.724891662597656250e-01,1.724815249443054088e-01,1.724738955497741588e-01,1.724662542343139704e-01,1.724586248397827204e-01,1.724509835243225042e-01,1.724433541297912542e-01,1.724357128143310658e-01,1.724280834197998158e-01,1.724204421043395996e-01,1.724128246307373158e-01,1.724051833152770996e-01,1.723975539207458496e-01,1.723899126052856334e-01,1.723822951316833496e-01,1.723746657371520996e-01,1.723670363426208496e-01,1.723594069480895996e-01,1.723517894744873158e-01,1.723441600799560658e-01,1.723365306854248158e-01,1.723289012908935658e-01,1.723212838172912542e-01,1.723136544227600042e-01,1.723060250282287542e-01,1.722984075546264704e-01,1.722907900810241588e-01,1.722831726074218750e-01,1.722755432128906250e-01,1.722679376602172796e-01,1.722603201866149958e-01,1.722527146339416504e-01,1.722450852394104004e-01,1.722374677658081166e-01,1.722298622131347712e-01,1.722222447395324596e-01,1.722146272659301758e-01,1.722070217132568304e-01,1.721994042396545466e-01,1.721917867660522350e-01,1.721841931343078558e-01,1.721765756607055720e-01,1.721689581871032604e-01,1.721613645553588812e-01,1.721537470817565973e-01,1.721461296081542858e-01,1.721385359764099066e-01,1.721309304237365612e-01,1.721233129501342773e-01,1.721157193183898981e-01,1.721081137657165527e-01,1.721005082130432073e-01
1.642564177513122503e-01,1.642494797706604004e-01,1.642425656318664551e-01,1.642356395721435436e-01,1.642287135124206598e-01,1.642217874526977484e-01,1.642148733139038030e-01,1.642079472541809193e-01,1.642010211944580078e-01,1.641940951347350963e-01,1.641871809959411510e-01,1.641802549362182673e-01,1.641733288764953558e-01,1.641664147377014105e-01,1.641595005989074652e-01,1.641525745391845814e-01,1.641456604003906361e-01,1.641387343406677246e-01,1.641318321228027455e-01,1.641249179840088002e-01,1.641179919242858887e-01,1.641110777854919434e-01,1.641041755676269642e-01,1.640972495079040527e-01,1.640903353691101074e-01,1.640834212303161621e-01,1.640765190124511830e-01,1.640696048736572377e-01,1.640626907348632924e-01,1.640557765960693470e-01,1.640488743782043402e-01,1.640419602394103948e-01,1.640350461006164495e-01,1.640281438827514704e-01,1.640212416648864635e-01,1.640143275260925182e-01,1.640074253082275391e-01,1.640005111694335938e-01,1.639936208724975530e-01,1.639867067337036077e-01,1.639798045158386286e-01,1.639728903770446833e-01,1.639660000801086426e-01,1.639590978622436634e-01,1.639521956443786566e-01,1.639452815055847112e-01,1.639384031295776367e-01,1.639314889907836914e-01,1.639245867729187123e-01,1.639177083969116100e-01,1.639108061790466309e-01,1.639039039611816517e-01,1.638970017433166448e-01,1.638901114463806041e-01,1.638832092285156250e-01,1.638763189315795843e-01,1.638694167137146052e-01,1.638625383377075306e-01,1.638556361198425237e-01,1.638487339019775446e-01,1.638418555259704701e-01,1.638349652290344294e-01,1.638280630111694225e-01,1.638211846351623480e-01,1.638142943382263073e-01,1.638074040412902943e-01,1.638005256652831920e-01,1.637936353683471791e-01,1.637867450714111384e-01,1.637798666954040638e-01,1.637729763984680231e-01,1.637660861015319824e-01,1.637592077255249079e-01,1.637523174285888672e-01,1.637454271316528265e-01,1.637385606765747181e-01,1.637316703796386774e-01,1.637247920036316029e-01,1.637179136276245006e-01,1.637110352516174261e-01
1.565972566604614258e-01,1.565909624099731390e-01,1.565846681594848522e-01,1.565783739089965931e-01,1.565720796585083063e-01,1.565657734870910534e-01,1.565594911575317327e-01,1.565531969070434459e-01,1.565469026565551869e-01,1.565406084060669001e-01,1.565343260765075795e-01,1.565280318260192927e-01,1.565217375755310059e-01,1.565154433250427191e-01,1.565091729164123646e-01,1.565028786659240778e-01,1.564965844154357910e-01,1.564902901649475042e-01,1.564840197563171498e-01,1.564777255058288630e-01,1.564714312553405762e-01,1.564651489257812556e-01,1.564588665962219349e-01,1.564525842666625866e-01,1.564462900161743275e-01,1.564400076866149791e-01,1.564337372779846247e-01,1.564274430274963379e-01,1.564211606979370173e-01,1.564148783683776966e-01,1.564086079597473145e-01,1.564023256301879938e-01,1.563960433006286732e-01,1.563897490501403864e-01,1.563834905624389704e-01,1.563772082328796498e-01,1.563709259033203014e-01,1.563646435737609808e-01,1.563583731651306263e-01,1.563520908355712780e-01,1.563458085060119573e-01,1.563395500183105413e-01,1.563332676887512207e-01,1.563269972801208385e-01,1.563207149505615179e-01,1.563144445419311634e-01,1.563081741333007812e-01,1.563018918037414606e-01,1.562956213951110784e-01,1.562893629074096624e-01,1.562830805778503418e-01,1.562768101692199596e-01,1.562705397605896052e-01,1.562642812728881891e-01,1.562580108642578069e-01,1.562517285346984863e-01,1.562454581260681041e-01,1.562391996383666881e-01,1.562329292297363337e-01,1.562266588211059515e-01,1.562203884124755970e-01,1.562141418457031194e-01,1.562078714370727650e-01,1.562016010284423828e-01,1.561953544616699330e-01,1.561890840530395508e-01,1.561828136444091686e-01,1.561765670776367188e-01,1.561702966690063366e-01,1.561640381813049205e-01,1.561577796936035045e-01,1.561515212059020885e-01,1.561452507972717341e-01,1.561390042304992565e-01,1.561327457427978405e-01,1.561264753341674860e-01,1.561202287673950084e-01,1.561139702796935924e-01,1.561077117919921764e-01,1.561014652252197266e-01
1.496205568313598577e-01,1.496148109436035156e-01,1.496090650558471735e-01,1.496033191680908314e-01,1.495975732803344616e-01,1.495918154716491810e-01,1.495860815048217773e-01,1.495803356170654352e-01,1.495745897293090931e-01,1.495688438415527233e-01,1.495631098747253473e-01,1.495573639869690052e-01,1.495516180992126354e-01,1.495458722114562933e-01,1.495401382446289174e-01,1.495343923568725475e-01,1.495286464691162054e-01,1.495229125022888295e-01,1.495171785354614258e-01,1.495114326477050837e-01,1.495056867599487416e-01,1.494999527931213379e-01,1.494942188262939342e-01,1.494884848594665583e-01,1.494827389717102162e-01,1.494770050048828125e-01,1.494712710380554088e-01,1.494655370712280329e-01,1.494597911834716908e-01,1.494540691375732533e-01,1.494483351707458496e-01,1.494425892829895075e-01,1.494368553161621038e-01,1.494311332702636663e-01,1.494253993034362904e-01,1.494196653366088867e-01,1.494139313697814830e-01,1.494082093238830455e-01,1.494024753570556696e-01,1.493967413902282659e-01,1.493910074234008900e-01,1.493852853775024525e-01,1.493795514106750488e-01,1.493738174438476451e-01,1.493680834770202692e-01,1.493623733520507701e-01,1.493566393852233942e-01,1.493509054183959905e-01,1.493451714515686146e-01,1.493394613265991155e-01,1.493337273597717396e-01,1.493280053138733021e-01,1.493222713470458984e-01,1.493165612220764271e-01,1.493108272552490234e-01,1.493051052093505859e-01,1.492993831634521484e-01,1.492936611175537109e-01,1.492879390716552734e-01,1.492822170257568359e-01,1.492764949798583984e-01,1.492707729339599609e-01,1.492650508880615234e-01,1.492593288421630859e-01,1.492536067962646484e-01,1.492478966712951771e-01,1.492421746253967396e-01,1.492364525794983021e-01,1.492307424545288030e-01,1.492250204086303655e-01,1.492193222045898326e-01,1.492136001586913951e-01,1.492078781127929576e-01,1.492021679878234863e-01,1.491964578628540150e-01,1.491907358169555775e-01,1.491850376129150446e-01,1.491793155670166071e-01,1.491735935211181696e-01,1.491678953170776367e-01
1.432389855384826605e-01,1.432337164878845215e-01,1.432284593582153209e-01,1.432231903076171819e-01,1.432179212570190430e-01,1.432126522064209040e-01,1.432073950767517034e-01,1.432021260261535645e-01,1.431968569755554255e-01,1.431915879249572865e-01,1.431863307952880859e-01,1.431810736656188854e-01,1.431758046150207464e-01,1.431705355644226074e-01,1.431652903556823730e-01,1.431600213050842341e-01,1.431547522544860951e-01,1.431494951248168945e-01,1.431442379951476940e-01,1.431389689445495550e-01,1.431337118148803822e-01,1.431284546852111816e-01,1.431231975555419811e-01,1.431179404258728083e-01,1.431126713752746693e-01,1.431074261665344349e-01,1.431021690368652344e-01,1.430968999862670954e-01,1.430916428565978948e-01,1.430863976478576605e-01,1.430811405181884877e-01,1.430758833885192871e-01,1.430706143379211481e-01,1.430653691291809138e-01,1.430601119995117132e-01,1.430548548698425404e-01,1.430495977401733398e-01,1.430443525314331055e-01,1.430390954017639049e-01,1.430338382720947321e-01,1.430285930633544977e-01,1.430233478546142634e-01,1.430180907249450628e-01,1.430128335952758900e-01,1.430075883865356556e-01,1.430023431777954213e-01,1.429970860481262207e-01,1.429918408393859863e-01,1.429865837097167858e-01,1.429813385009765514e-01,1.429760932922363170e-01,1.429708361625671442e-01,1.429655909538269098e-01,1.429603457450866755e-01,1.429551005363464411e-01,1.429498553276062067e-01,1.429445981979370062e-01,1.429393649101257380e-01,1.429341197013855036e-01,1.429288625717163030e-01,1.429236173629760687e-01,1.429183840751648005e-01,1.429131388664245661e-01,1.429078936576843317e-01,1.429026484489440973e-01,1.428974151611328014e-01,1.428921699523925670e-01,1.428869247436523326e-01,1.428816795349120983e-01,1.428764462471008301e-01,1.428712010383605957e-01,1.428659677505493275e-01,1.428607225418090931e-01,1.428554773330688588e-01,1.428502559661865290e-01,1.428450107574462946e-01,1.428397655487060602e-01,1.428345441818237305e-01,1.428292989730834961e-01,1.428240537643432617e-01
1.373795270919799805e-01,1.373746752738952692e-01,1.373698353767394964e-01,1.373649954795837513e-01,1.373601436614990123e-01,1.373553037643432673e-01,1.373504638671874944e-01,1.373456120491027832e-01,1.373407721519470104e-01,1.373359203338622991e-01,1.373310923576354925e-01,1.373262524604797474e-01,1.373214006423950084e-01,1.373165726661682018e-01,1.373117208480834905e-01,1.373068809509277455e-01,1.373020410537719727e-01,1.372972130775451660e-01,1.372923612594604548e-01,1.372875213623046819e-01,1.372826814651489369e-01,1.372778534889221302e-01,1.372730135917663574e-01,1.372681736946105846e-01,1.372633337974548395e-01,1.372585058212280329e-01,1.372536659240722601e-01,1.372488260269165150e-01,1.372439861297607422e-01,1.372391581535339355e-01,1.372343182563781627e-01,1.372294783592224177e-01,1.372246384620666448e-01,1.372198104858398382e-01,1.372149825096130316e-01,1.372101426124572865e-01,1.372053027153015137e-01,1.372004747390747070e-01,1.371956467628479004e-01,1.371908068656921276e-01,1.371859788894653209e-01,1.371811509132385143e-01,1.371763110160827692e-01,1.371714830398559626e-01,1.371666431427001898e-01,1.371618270874023493e-01,1.371569871902465765e-01,1.371521592140197698e-01,1.371473312377929632e-01,1.371425032615661566e-01,1.371376752853393499e-01,1.371328473091125433e-01,1.371280193328857366e-01,1.371231913566589300e-01,1.371183633804321234e-01,1.371135354042053167e-01,1.371087074279785101e-01,1.371038913726806696e-01,1.370990633964538630e-01,1.370942234992980902e-01,1.370893955230712835e-01,1.370845794677734431e-01,1.370797634124755748e-01,1.370749354362487682e-01,1.370701074600219616e-01,1.370652914047241211e-01,1.370604634284973145e-01,1.370556354522705078e-01,1.370508074760437012e-01,1.370459914207458607e-01,1.370411753654479925e-01,1.370363473892211859e-01,1.370315194129943792e-01,1.370267152786254772e-01,1.370218873023986705e-01,1.370170712471008301e-01,1.370122551918029896e-01,1.370074272155761830e-01,1.370026230812072809e-01,1.369977951049804743e-01
1.319806098937988392e-01,1.319761276245117188e-01,1.319716691970825306e-01,1.319671988487243763e-01,1.319627165794372559e-01,1.319582581520080677e-01,1.319537878036499134e-01,1.319493055343627930e-01,1.319448351860046387e-01,1.319403767585754506e-01,1.319359064102172963e-01,1.319314360618591420e-01,1.319269657135009877e-01,1.319224953651428334e-01,1.319180250167846791e-01,1.319135546684265248e-01,1.319090962409973089e-01,1.319046258926391546e-01,1.319001555442810003e-01,1.318956971168518122e-01,1.318912267684936579e-01,1.318867683410644420e-01,1.318822979927062877e-01,1.318778276443481334e-01,1.318733572959899791e-01,1.318688988685607910e-01,1.318644404411316029e-01,1.318599700927734486e-01,1.318554997444152943e-01,1.318510532379150446e-01,1.318465828895568903e-01,1.318421125411987360e-01,1.318376541137695201e-01,1.318331956863403320e-01,1.318287372589111439e-01,1.318242669105529896e-01,1.318198084831237737e-01,1.318153500556945856e-01,1.318108916282653698e-01,1.318064212799072155e-01,1.318019628524780273e-01,1.317975044250488392e-01,1.317930459976196234e-01,1.317885875701904352e-01,1.317841172218322809e-01,1.317796707153320312e-01,1.317752122879028431e-01,1.317707538604736273e-01,1.317662835121154730e-01,1.317618370056152233e-01,1.317573785781860352e-01,1.317529201507568470e-01,1.317484617233276312e-01,1.317440152168273815e-01,1.317395567893981934e-01,1.317350983619690052e-01,1.317306399345397894e-01,1.317261934280395397e-01,1.317217350006103516e-01,1.317172765731811634e-01,1.317128181457519476e-01,1.317083716392516979e-01,1.317039132118225098e-01,1.316994547843933216e-01,1.316950082778930720e-01,1.316905617713928223e-01,1.316861033439636341e-01,1.316816449165344183e-01,1.316771984100341686e-01,1.316727519035339466e-01,1.316682934761047308e-01,1.316638469696044811e-01,1.316593885421752930e-01,1.316549420356750433e-01,1.316504955291747936e-01,1.316460371017456055e-01,1.316416025161743220e-01,1.316371440887451061e-01,1.316326975822448841e-01,1.316282510757446345e-01
1.269899845123290960e-01,1.269858479499816895e-01,1.269817113876342829e-01,1.269775629043579102e-01,1.269734263420105036e-01,1.269692897796630970e-01,1.269651532173156627e-01,1.269610166549682562e-01,1.269568681716918834e-01,1.269527435302734431e-01,1.269485950469970703e-01,1.269444584846496638e-01,1.269403219223022572e-01,1.269361853599548229e-01,1.269320487976074163e-01,1.269279122352600098e-01,1.269237756729126032e-01,1.269196391105651966e-01,1.269155025482177623e-01,1.269113659858703558e-01,1.269072294235229492e-01,1.269031047821044811e-01,1.268989682197570745e-01,1.268948316574096680e-01,1.268906950950622614e-01,1.268865704536437933e-01,1.268824338912963867e-01,1.268782973289489802e-01,1.268741607666015736e-01,1.268700361251831055e-01,1.268658995628356989e-01,1.268617630004882924e-01,1.268576264381408580e-01,1.268535017967224177e-01,1.268493771553039495e-01,1.268452405929565430e-01,1.268411040306091364e-01,1.268369793891906683e-01,1.268328547477722279e-01,1.268287181854247936e-01,1.268245816230773870e-01,1.268204569816589466e-01,1.268163323402404785e-01,1.268121957778930720e-01,1.268080711364746038e-01,1.268039464950561634e-01,1.267998218536376953e-01,1.267956852912902888e-01,1.267915606498718206e-01,1.267874360084533802e-01,1.267833113670349121e-01,1.267791748046875056e-01,1.267750501632690374e-01,1.267709255218505970e-01,1.267668008804321289e-01,1.267626762390136608e-01,1.267585515975952204e-01,1.267544269561767523e-01,1.267503023147583119e-01,1.267461776733398438e-01,1.267420530319213756e-01,1.267379283905029352e-01,1.267338037490844671e-01,1.267296791076660267e-01,1.267255544662475586e-01,1.267214298248290905e-01,1.267173051834106501e-01,1.267131805419921819e-01,1.267090678215026800e-01,1.267049431800842396e-01,1.267008185386657715e-01,1.266966938972473034e-01,1.266925811767578014e-01,1.266884565353393610e-01,1.266843318939208929e-01,1.266802191734313909e-01,1.266761064529418890e-01,1.266719818115234486e-01,1.266678571701049805e-01,1.266637325286865123e-01
1.223630428314208957e-01,1.223592042922973661e-01,1.223553657531738226e-01,1.223515152931213407e-01,1.223476648330688449e-01,1.223438262939453153e-01,1.223399877548217718e-01,1.223361372947692899e-01,1.223322987556457464e-01,1.223284602165222168e-01,1.223246216773986872e-01,1.223207712173461914e-01,1.223169326782226618e-01,1.223130941390991183e-01,1.223092555999755887e-01,1.223054051399230929e-01,1.223015666007995633e-01,1.222977280616760198e-01,1.222938895225524902e-01,1.222900509834289606e-01,1.222862124443054171e-01,1.222823739051818875e-01,1.222785353660583441e-01,1.222746968269348145e-01,1.222708463668823187e-01,1.222670197486877414e-01,1.222631812095642118e-01,1.222593426704406683e-01,1.222555041313171387e-01,1.222516655921936091e-01,1.222478270530700656e-01,1.222439885139465360e-01,1.222401499748229925e-01,1.222363233566284152e-01,1.222324848175048856e-01,1.222286462783813421e-01,1.222248077392578125e-01,1.222209811210632352e-01,1.222171425819396917e-01,1.222133040428161621e-01,1.222094655036926325e-01,1.222056388854980413e-01,1.222018003463745117e-01,1.221979618072509821e-01,1.221941351890563909e-01,1.221903085708618136e-01,1.221864700317382840e-01,1.221826314926147405e-01,1.221787929534912109e-01,1.221749782562255859e-01,1.221711397171020563e-01,1.221673011779785128e-01,1.221634745597839355e-01,1.221596479415893582e-01,1.221558094024658148e-01,1.221519827842712375e-01,1.221481561660766602e-01,1.221443176269531306e-01,1.221404910087585394e-01,1.221366524696350098e-01,1.221328377723693848e-01,1.221289992332458552e-01,1.221251726150512640e-01,1.221213340759277344e-01,1.221175193786621094e-01,1.221136808395385798e-01,1.221098542213439886e-01,1.221060276031494113e-01,1.221022009849548340e-01,1.220983743667602567e-01,1.220945477485656794e-01,1.220907092094421359e-01,1.220868945121765109e-01,1.220830678939819336e-01,1.220792293548584040e-01,1.220754027366638128e-01,1.220715880393981878e-01,1.220677614212036105e-01,1.220639348030090332e-01,1.220601081848144559e-01
1.180614113807678250e-01,1.180578351020813016e-01,1.180542588233947782e-01,1.180506825447082547e-01,1.180470943450927790e-01,1.180435299873352079e-01,1.180399417877197321e-01,1.180363655090332087e-01,1.180327892303466852e-01,1.180292129516601618e-01,1.180256366729736384e-01,1.180220603942871149e-01,1.180184841156005915e-01,1.180149078369140681e-01,1.180113315582275446e-01,1.180077552795410212e-01,1.180041790008544977e-01,1.180006146430969266e-01,1.179970383644104032e-01,1.179934620857238797e-01,1.179898858070373563e-01,1.179863095283508329e-01,1.179827332496643094e-01,1.179791569709777860e-01,1.179755806922912625e-01,1.179720163345336914e-01,1.179684519767761203e-01,1.179648756980895968e-01,1.179612994194030734e-01,1.179577350616455023e-01,1.179541587829589788e-01,1.179505825042724554e-01,1.179470062255859319e-01,1.179434418678283747e-01,1.179398655891418513e-01,1.179363012313842801e-01,1.179327249526977567e-01,1.179291605949401855e-01,1.179255843162536621e-01,1.179220080375671387e-01,1.179184436798095675e-01,1.179148793220519964e-01,1.179113030433654730e-01,1.179077386856079157e-01,1.179041624069213923e-01,1.179005980491638211e-01,1.178970336914062500e-01,1.178934574127197266e-01,1.178898930549621554e-01,1.178863286972045843e-01,1.178827524185180609e-01,1.178791880607605036e-01,1.178756237030029325e-01,1.178720593452453613e-01,1.178684830665588379e-01,1.178649187088012668e-01,1.178613543510436956e-01,1.178577899932861384e-01,1.178542256355285672e-01,1.178506493568420438e-01,1.178470969200134250e-01,1.178435206413269015e-01,1.178399562835693304e-01,1.178363919258117731e-01,1.178328275680542020e-01,1.178292632102966309e-01,1.178256988525390597e-01,1.178221344947814886e-01,1.178185701370239313e-01,1.178150057792663602e-01,1.178114414215087891e-01,1.178078770637512179e-01,1.178043246269226130e-01,1.178007602691650418e-01,1.177971959114074707e-01,1.177936315536498996e-01,1.177900671958923284e-01,1.177865028381347712e-01,1.177829384803772000e-01,1.177793741226196289e-01
