3.097448110580444336e+00,3.175992727279663086e+00,3.258624315261840820e+00,3.345670461654663086e+00,3.437494993209838867e+00,3.534501552581787109e+00,3.637133836746215820e+00,3.745903491973876953e+00,3.861378908157348633e+00,3.984200239181518555e+00,4.115091323852539062e+00,4.254875183105468750e+00,4.404489994049072266e+00,4.565009117126464844e+00,4.737671375274658203e+00,4.923908710479736328e+00,5.000000000000000000e+00,5.000000000000000000e+00,5.000000000000000000e+00,5.000000000000000000e+00,5.000000000000000000e+00,5.000000000000000000e+00,5.000000000000000000e+00,5.000000000000000000e+00,5.000000000000000000e+00,5.000000000000000000e+00,5.000000000000000000e+00,5.000000000000000000e+00,5.000000000000000000e+00,5.000000000000000000e+00,5.000000000000000000e+00,5.000000000000000000e+00,5.000000000000000000e+00,5.000000000000000000e+00,5.000000000000000000e+00,5.000000000000000000e+00,5.000000000000000000e+00,5.000000000000000000e+00,5.000000000000000000e+00,5.000000000000000000e+00,5.000000000000000000e+00,5.000000000000000000e+00,5.000000000000000000e+00,5.000000000000000000e+00,5.000000000000000000e+00,5.000000000000000000e+00,5.000000000000000000e+00,5.000000000000000000e+00,5.000000000000000000e+00,5.000000000000000000e+00,5.000000000000000000e+00,5.000000000000000000e+00,3.704374790191650391e+00,3.664690971374511719e+00,5.000000000000000000e+00,5.000000000000000000e+00,5.000000000000000000e+00,5.000000000000000000e+00,5.000000000000000000e+00,5.000000000000000000e+00,5.000000000000000000e+00,5.000000000000000000e+00,5.000000000000000000e+00,5.000000000000000000e+00,5.000000000000000000e+00,5.000000000000000000e+00,5.000000000000000000e+00,5.000000000000000000e+00,5.000000000000000000e+00,5.000000000000000000e+00,4.846338272094726562e+00,4.687780380249023438e+00,4.539269447326660156e+00,4.399878501892089844e+00,4.268794059753417969e+00,4.145294189453125000e+00,4.028738975524902344e+00,3.918559312820434570e+00,3.814250230789184570e+00,3.715351819992065430e+00
3.097382307052612305e+00,3.175923585891723633e+00,3.258551597595214844e+00,3.345593452453613281e+00,3.437413454055786133e+00,3.534415721893310547e+00,3.637051820755004883e+00,3.745817184448242188e+00,3.861287355422973633e+00,3.984102725982666016e+00,4.114987850189208984e+00,4.254764556884765625e+00,4.404370784759521484e+00,4.564881801605224609e+00,4.737534046173095703e+00,4.923759937286376953e+00,5.000000000000000000e+00,5.000000000000000000e+00,5.000000000000000000e+00,5.000000000000000000e+00,5.000000000000000000e+00,5.000000000000000000e+00,5.000000000000000000e+00,5.000000000000000000e+00,5.000000000000000000e+00,5.000000000000000000e+00,5.000000000000000000e+00,5.000000000000000000e+00,5.000000000000000000e+00,5.000000000000000000e+00,5.000000000000000000e+00,5.000000000000000000e+00,5.000000000000000000e+00,5.000000000000000000e+00,5.000000000000000000e+00,5.000000000000000000e+00,5.000000000000000000e+00,5.000000000000000000e+00,5.000000000000000000e+00,5.000000000000000000e+00,5.000000000000000000e+00,5.000000000000000000e+00,5.000000000000000000e+00,5.000000000000000000e+00,5.000000000000000000e+00,5.000000000000000000e+00,5.000000000000000000e+00,5.000000000000000000e+00,5.000000000000000000e+00,5.000000000000000000e+00,5.000000000000000000e+00,5.000000000000000000e+00,3.703236341476440430e+00,3.667685031890869141e+00,5.000000000000000000e+00,5.000000000000000000e+00,5.000000000000000000e+00,5.000000000000000000e+00,5.000000000000000000e+00,5.000000000000000000e+00,5.000000000000000000e+00,5.000000000000000000e+00,5.000000000000000000e+00,5.000000000000000000e+00,5.000000000000000000e+00,5.000000000000000000e+00,5.000000000000000000e+00,5.000000000000000000e+00,5.000000000000000000e+00,5.000000000000000000e+00,4.846479415893554688e+00,4.687912464141845703e+00,4.539392948150634766e+00,4.399994850158691406e+00,4.268903732299804688e+00,4.145399093627929688e+00,4.028845310211181641e+00,3.918666839599609375e+00,3.814353942871093750e+00,3.715450286865234375e+00
3.097316265106201172e+00,3.175853967666625977e+00,3.258478403091430664e+00,3.345516681671142578e+00,3.437332630157470703e+00,3.534329652786254883e+00,3.636960744857788086e+00,3.745730161666870117e+00,3.861196279525756836e+00,3.984005689620971680e+00,4.114884376525878906e+00,4.254653453826904297e+00,4.404252052307128906e+00,4.564754009246826172e+00,4.737396717071533203e+00,4.923611640930175781e+00,5.000000000000000000e+00,5.000000000000000000e+00,5.000000000000000000e+00,5.000000000000000000e+00,5.000000000000000000e+00,5.000000000000000000e+00,5.000000000000000000e+00,5.000000000000000000e+00,5.000000000000000000e+00,5.000000000000000000e+00,5.000000000000000000e+00,5.000000000000000000e+00,5.000000000000000000e+00,5.000000000000000000e+00,5.000000000000000000e+00,5.000000000000000000e+00,5.000000000000000000e+00,5.000000000000000000e+00,5.000000000000000000e+00,5.000000000000000000e+00,5.000000000000000000e+00,5.000000000000000000e+00,5.000000000000000000e+00,5.000000000000000000e+00,5.000000000000000000e+00,5.000000000000000000e+00,5.000000000000000000e+00,5.000000000000000000e+00,5.000000000000000000e+00,5.000000000000000000e+00,5.000000000000000000e+00,5.000000000000000000e+00,5.000000000000000000e+00,5.000000000000000000e+00,5.000000000000000000e+00,5.000000000000000000e+00,3.727040290832519531e+00,3.677199125289916992e+00,5.000000000000000000e+00,5.000000000000000000e+00,5.000000000000000000e+00,5.000000000000000000e+00,5.000000000000000000e+00,5.000000000000000000e+00,5.000000000000000000e+00,5.000000000000000000e+00,5.000000000000000000e+00,5.000000000000000000e+00,5.000000000000000000e+00,5.000000000000000000e+00,5.000000000000000000e+00,5.000000000000000000e+00,5.000000000000000000e+00,5.000000000000000000e+00,4.846620559692382812e+00,4.688044548034667969e+00,4.539516925811767578e+00,4.400118827819824219e+00,4.269027709960937500e+00,4.145521640777587891e+00,4.028961181640625000e+00,3.918776273727416992e+00,3.814457654953002930e+00,3.715548515319824219e+00
3.097250223159790039e+00,3.175784587860107422e+00,3.258405447006225586e+00,3.345439672470092773e+00,3.437251091003417969e+00,3.534244060516357422e+00,3.636869907379150391e+00,3.745634078979492188e+00,3.861103773117065430e+00,3.983908176422119141e+00,4.114780426025390625e+00,4.254542827606201172e+00,4.404133319854736328e+00,4.564626693725585938e+00,4.737258911132812500e+00,4.923463344573974609e+00,5.000000000000000000e+00,5.000000000000000000e+00,5.000000000000000000e+00,5.000000000000000000e+00,5.000000000000000000e+00,5.000000000000000000e+00,5.000000000000000000e+00,5.000000000000000000e+00,5.000000000000000000e+00,5.000000000000000000e+00,5.000000000000000000e+00,5.000000000000000000e+00,5.000000000000000000e+00,5.000000000000000000e+00,5.000000000000000000e+00,5.000000000000000000e+00,5.000000000000000000e+00,5.000000000000000000e+00,5.000000000000000000e+00,5.000000000000000000e+00,5.000000000000000000e+00,5.000000000000000000e+00,5.000000000000000000e+00,5.000000000000000000e+00,5.000000000000000000e+00,5.000000000000000000e+00,5.000000000000000000e+00,5.000000000000000000e+00,5.000000000000000000e+00,5.000000000000000000e+00,5.000000000000000000e+00,5.000000000000000000e+00,5.000000000000000000e+00,5.000000000000000000e+00,5.000000000000000000e+00,5.000000000000000000e+00,3.781973361968994141e+00,3.756524562835693359e+00,5.000000000000000000e+00,5.000000000000000000e+00,5.000000000000000000e+00,5.000000000000000000e+00,5.000000000000000000e+00,5.000000000000000000e+00,5.000000000000000000e+00,5.000000000000000000e+00,5.000000000000000000e+00,5.000000000000000000e+00,5.000000000000000000e+00,5.000000000000000000e+00,5.000000000000000000e+00,5.000000000000000000e+00,5.000000000000000000e+00,5.000000000000000000e+00,4.846766471862792969e+00,4.688190460205078125e+00,4.539662837982177734e+00,4.400257110595703125e+00,4.269157886505126953e+00,4.145644187927246094e+00,4.029077053070068359e+00,3.918885707855224609e+00,3.814561605453491211e+00,3.715647220611572266e+00
3.097184181213378906e+00,3.175715208053588867e+00,3.258332252502441406e+00,3.345362663269042969e+00,3.437169790267944336e+00,3.534157991409301758e+00,3.636779069900512695e+00,3.745537519454956055e+00,3.861001491546630859e+00,3.983810901641845703e+00,4.114676952362060547e+00,4.254431724548339844e+00,4.404014587402343750e+00,4.564498901367187500e+00,4.737121582031250000e+00,4.923314571380615234e+00,5.000000000000000000e+00,5.000000000000000000e+00,5.000000000000000000e+00,5.000000000000000000e+00,5.000000000000000000e+00,5.000000000000000000e+00,5.000000000000000000e+00,5.000000000000000000e+00,5.000000000000000000e+00,5.000000000000000000e+00,5.000000000000000000e+00,5.000000000000000000e+00,5.000000000000000000e+00,5.000000000000000000e+00,5.000000000000000000e+00,5.000000000000000000e+00,5.000000000000000000e+00,5.000000000000000000e+00,5.000000000000000000e+00,5.000000000000000000e+00,5.000000000000000000e+00,5.000000000000000000e+00,5.000000000000000000e+00,5.000000000000000000e+00,5.000000000000000000e+00,5.000000000000000000e+00,5.000000000000000000e+00,5.000000000000000000e+00,5.000000000000000000e+00,5.000000000000000000e+00,5.000000000000000000e+00,5.000000000000000000e+00,5.000000000000000000e+00,5.000000000000000000e+00,3.741784572601318359e+00,3.739367008209228516e+00,3.688434123992919922e+00,3.714034080505371094e+00,3.710508108139038086e+00,3.738875627517700195e+00,3.738045692443847656e+00,5.000000000000000000e+00,5.000000000000000000e+00,5.000000000000000000e+00,5.000000000000000000e+00,5.000000000000000000e+00,5.000000000000000000e+00,5.000000000000000000e+00,5.000000000000000000e+00,5.000000000000000000e+00,5.000000000000000000e+00,5.000000000000000000e+00,5.000000000000000000e+00,5.000000000000000000e+00,4.846934318542480469e+00,4.688347339630126953e+00,4.539809703826904297e+00,4.400394916534423828e+00,4.269287586212158203e+00,4.145767211914062500e+00,4.029192924499511719e+00,3.918995618820190430e+00,3.814665317535400391e+00,3.715745687484741211e+00
3.097118139266967773e+00,3.175645828247070312e+00,3.258259057998657227e+00,3.345285654067993164e+00,3.437088489532470703e+00,3.534072160720825195e+00,3.636687994003295898e+00,3.745440959930419922e+00,3.860898971557617188e+00,3.983701467514038086e+00,4.114572525024414062e+00,4.254321098327636719e+00,4.403895378112792969e+00,4.564371109008789062e+00,4.736984252929687500e+00,4.923166275024414062e+00,5.000000000000000000e+00,5.000000000000000000e+00,5.000000000000000000e+00,5.000000000000000000e+00,5.000000000000000000e+00,5.000000000000000000e+00,5.000000000000000000e+00,5.000000000000000000e+00,5.000000000000000000e+00,5.000000000000000000e+00,5.000000000000000000e+00,5.000000000000000000e+00,5.000000000000000000e+00,5.000000000000000000e+00,5.000000000000000000e+00,5.000000000000000000e+00,5.000000000000000000e+00,5.000000000000000000e+00,5.000000000000000000e+00,5.000000000000000000e+00,5.000000000000000000e+00,5.000000000000000000e+00,5.000000000000000000e+00,5.000000000000000000e+00,5.000000000000000000e+00,5.000000000000000000e+00,5.000000000000000000e+00,5.000000000000000000e+00,5.000000000000000000e+00,5.000000000000000000e+00,5.000000000000000000e+00,5.000000000000000000e+00,5.000000000000000000e+00,3.748287200927734375e+00,3.728917598724365234e+00,3.687583684921264648e+00,3.659575223922729492e+00,3.664916276931762695e+00,3.659392356872558594e+00,3.709532976150512695e+00,3.752744436264038086e+00,5.000000000000000000e+00,5.000000000000000000e+00,5.000000000000000000e+00,5.000000000000000000e+00,5.000000000000000000e+00,5.000000000000000000e+00,5.000000000000000000e+00,5.000000000000000000e+00,5.000000000000000000e+00,5.000000000000000000e+00,5.000000000000000000e+00,5.000000000000000000e+00,5.000000000000000000e+00,4.847101688385009766e+00,4.688504219055175781e+00,4.539957046508789062e+00,4.400533199310302734e+00,4.269417762756347656e+00,4.145889282226562500e+00,4.029308319091796875e+00,3.919104814529418945e+00,3.814769029617309570e+00,3.715843915939331055e+00
3.097052097320556641e+00,3.175576448440551758e+00,3.258186101913452148e+00,3.345208644866943359e+00,3.437007188796997070e+00,3.533986091613769531e+00,3.636596918106079102e+00,3.745344400405883789e+00,3.860796213150024414e+00,3.983592271804809570e+00,4.114456176757812500e+00,4.254209995269775391e+00,4.403776645660400391e+00,4.564243793487548828e+00,4.736846923828125000e+00,4.923017501831054688e+00,5.000000000000000000e+00,5.000000000000000000e+00,5.000000000000000000e+00,5.000000000000000000e+00,5.000000000000000000e+00,5.000000000000000000e+00,5.000000000000000000e+00,5.000000000000000000e+00,5.000000000000000000e+00,5.000000000000000000e+00,5.000000000000000000e+00,5.000000000000000000e+00,5.000000000000000000e+00,5.000000000000000000e+00,5.000000000000000000e+00,5.000000000000000000e+00,5.000000000000000000e+00,5.000000000000000000e+00,5.000000000000000000e+00,5.000000000000000000e+00,5.000000000000000000e+00,5.000000000000000000e+00,5.000000000000000000e+00,5.000000000000000000e+00,5.000000000000000000e+00,5.000000000000000000e+00,5.000000000000000000e+00,5.000000000000000000e+00,5.000000000000000000e+00,5.000000000000000000e+00,5.000000000000000000e+00,5.000000000000000000e+00,5.000000000000000000e+00,3.779004573822021484e+00,3.750008344650268555e+00,3.689812183380126953e+00,3.662333488464355469e+00,3.657180547714233398e+00,3.658864736557006836e+00,3.711959362030029297e+00,3.762135028839111328e+00,5.000000000000000000e+00,5.000000000000000000e+00,5.000000000000000000e+00,5.000000000000000000e+00,5.000000000000000000e+00,5.000000000000000000e+00,5.000000000000000000e+00,5.000000000000000000e+00,5.000000000000000000e+00,5.000000000000000000e+00,5.000000000000000000e+00,5.000000000000000000e+00,5.000000000000000000e+00,4.847269058227539062e+00,4.688661098480224609e+00,4.540103435516357422e+00,4.400671005249023438e+00,4.269547939300537109e+00,4.146012306213378906e+00,4.029424190521240234e+00,3.919214248657226562e+00,3.814872503280639648e+00,3.715942621231079102e+00
3.096986293792724609e+00,3.175507307052612305e+00,3.258112907409667969e+00,3.345131635665893555e+00,3.436925888061523438e+00,3.533900022506713867e+00,3.636505842208862305e+00,3.745247840881347656e+00,3.860693693161010742e+00,3.983483076095581055e+00,4.114339351654052734e+00,4.254085540771484375e+00,4.403657913208007812e+00,4.564116001129150391e+00,4.736709594726562500e+00,4.922868728637695312e+00,5.000000000000000000e+00,5.000000000000000000e+00,5.000000000000000000e+00,5.000000000000000000e+00,5.000000000000000000e+00,5.000000000000000000e+00,5.000000000000000000e+00,5.000000000000000000e+00,5.000000000000000000e+00,5.000000000000000000e+00,5.000000000000000000e+00,5.000000000000000000e+00,5.000000000000000000e+00,5.000000000000000000e+00,5.000000000000000000e+00,5.000000000000000000e+00,5.000000000000000000e+00,5.000000000000000000e+00,5.000000000000000000e+00,5.000000000000000000e+00,5.000000000000000000e+00,5.000000000000000000e+00,5.000000000000000000e+00,5.000000000000000000e+00,5.000000000000000000e+00,5.000000000000000000e+00,5.000000000000000000e+00,5.000000000000000000e+00,5.000000000000000000e+00,5.000000000000000000e+00,5.000000000000000000e+00,5.000000000000000000e+00,5.000000000000000000e+00,3.835020542144775391e+00,3.759991168975830078e+00,3.699583768844604492e+00,3.661288976669311523e+00,3.647582769393920898e+00,3.661191701889038086e+00,3.804929256439208984e+00,3.759559869766235352e+00,5.000000000000000000e+00,5.000000000000000000e+00,5.000000000000000000e+00,5.000000000000000000e+00,5.000000000000000000e+00,5.000000000000000000e+00,5.000000000000000000e+00,5.000000000000000000e+00,5.000000000000000000e+00,5.000000000000000000e+00,5.000000000000000000e+00,5.000000000000000000e+00,5.000000000000000000e+00,4.847436428070068359e+00,4.688817977905273438e+00,4.540250778198242188e+00,4.400809288024902344e+00,4.269677639007568359e+00,4.146134853363037109e+00,4.029540061950683594e+00,3.919324159622192383e+00,3.814976692199707031e+00,3.716041088104248047e+00
3.096920490264892578e+00,3.175437927246093750e+00,3.258040189743041992e+00,3.345054864883422852e+00,3.436844825744628906e+00,3.533814191818237305e+00,3.636414766311645508e+00,3.745151281356811523e+00,3.860591173171997070e+00,3.983373880386352539e+00,4.114223003387451172e+00,4.253961086273193359e+00,4.403524875640869141e+00,4.563988685607910156e+00,4.736571788787841797e+00,4.922720432281494141e+00,5.000000000000000000e+00,5.000000000000000000e+00,5.000000000000000000e+00,5.000000000000000000e+00,5.000000000000000000e+00,5.000000000000000000e+00,5.000000000000000000e+00,5.000000000000000000e+00,5.000000000000000000e+00,5.000000000000000000e+00,5.000000000000000000e+00,5.000000000000000000e+00,5.000000000000000000e+00,5.000000000000000000e+00,5.000000000000000000e+00,5.000000000000000000e+00,5.000000000000000000e+00,5.000000000000000000e+00,5.000000000000000000e+00,5.000000000000000000e+00,5.000000000000000000e+00,5.000000000000000000e+00,5.000000000000000000e+00,5.000000000000000000e+00,5.000000000000000000e+00,5.000000000000000000e+00,5.000000000000000000e+00,5.000000000000000000e+00,5.000000000000000000e+00,5.000000000000000000e+00,5.000000000000000000e+00,5.000000000000000000e+00,5.000000000000000000e+00,5.000000000000000000e+00,3.760400295257568359e+00,3.714018344879150391e+00,3.659989595413208008e+00,3.650483608245849609e+00,3.662755250930786133e+00,3.833146572113037109e+00,3.764298915863037109e+00,5.000000000000000000e+00,5.000000000000000000e+00,5.000000000000000000e+00,5.000000000000000000e+00,5.000000000000000000e+00,5.000000000000000000e+00,5.000000000000000000e+00,5.000000000000000000e+00,5.000000000000000000e+00,5.000000000000000000e+00,5.000000000000000000e+00,5.000000000000000000e+00,5.000000000000000000e+00,4.847604274749755859e+00,4.688974380493164062e+00,4.540397644042968750e+00,4.400947570800781250e+00,4.269807815551757812e+00,4.146257400512695312e+00,4.029655933380126953e+00,3.919433593750000000e+00,3.815080404281616211e+00,3.716139554977416992e+00
3.096854448318481445e+00,3.175368309020996094e+00,3.257967233657836914e+00,3.344977855682373047e+00,3.436763525009155273e+00,3.533728599548339844e+00,3.636324167251586914e+00,3.745054721832275391e+00,3.860488414764404297e+00,3.983264684677124023e+00,4.114106655120849609e+00,4.253836631774902344e+00,4.403391361236572266e+00,4.563845634460449219e+00,4.736434459686279297e+00,4.922572135925292969e+00,5.000000000000000000e+00,5.000000000000000000e+00,5.000000000000000000e+00,5.000000000000000000e+00,5.000000000000000000e+00,5.000000000000000000e+00,5.000000000000000000e+00,5.000000000000000000e+00,5.000000000000000000e+00,5.000000000000000000e+00,5.000000000000000000e+00,5.000000000000000000e+00,5.000000000000000000e+00,5.000000000000000000e+00,5.000000000000000000e+00,5.000000000000000000e+00,5.000000000000000000e+00,5.000000000000000000e+00,5.000000000000000000e+00,5.000000000000000000e+00,5.000000000000000000e+00,5.000000000000000000e+00,5.000000000000000000e+00,5.000000000000000000e+00,5.000000000000000000e+00,5.000000000000000000e+00,5.000000000000000000e+00,5.000000000000000000e+00,5.000000000000000000e+00,5.000000000000000000e+00,5.000000000000000000e+00,5.000000000000000000e+00,5.000000000000000000e+00,5.000000000000000000e+00,3.775048971176147461e+00,3.695839881896972656e+00,3.644157648086547852e+00,3.638337850570678711e+00,3.645754814147949219e+00,5.000000000000000000e+00,3.777595281600952148e+00,5.000000000000000000e+00,5.000000000000000000e+00,5.000000000000000000e+00,5.000000000000000000e+00,5.000000000000000000e+00,5.000000000000000000e+00,5.000000000000000000e+00,5.000000000000000000e+00,5.000000000000000000e+00,5.000000000000000000e+00,5.000000000000000000e+00,5.000000000000000000e+00,5.000000000000000000e+00,4.847772121429443359e+00,4.689131259918212891e+00,4.540544986724853516e+00,4.401085376739501953e+00,4.269937515258789062e+00,4.146379947662353516e+00,4.029771804809570312e+00,3.919543027877807617e+00,3.815184116363525391e+00,3.716237783432006836e+00
3.096749544143676758e+00,3.175280332565307617e+00,3.257894039154052734e+00,3.344900846481323242e+00,3.436682224273681641e+00,3.533642530441284180e+00,3.636233091354370117e+00,3.744958639144897461e+00,3.860386371612548828e+00,3.983155965805053711e+00,4.113990306854248047e+00,4.253711700439453125e+00,4.403257846832275391e+00,4.563702106475830078e+00,4.736280918121337891e+00,4.922423839569091797e+00,5.000000000000000000e+00,5.000000000000000000e+00,5.000000000000000000e+00,5.000000000000000000e+00,5.000000000000000000e+00,5.000000000000000000e+00,5.000000000000000000e+00,5.000000000000000000e+00,5.000000000000000000e+00,5.000000000000000000e+00,5.000000000000000000e+00,5.000000000000000000e+00,5.000000000000000000e+00,5.000000000000000000e+00,5.000000000000000000e+00,5.000000000000000000e+00,5.000000000000000000e+00,5.000000000000000000e+00,5.000000000000000000e+00,5.000000000000000000e+00,5.000000000000000000e+00,5.000000000000000000e+00,5.000000000000000000e+00,5.000000000000000000e+00,5.000000000000000000e+00,5.000000000000000000e+00,5.000000000000000000e+00,5.000000000000000000e+00,5.000000000000000000e+00,5.000000000000000000e+00,5.000000000000000000e+00,5.000000000000000000e+00,5.000000000000000000e+00,5.000000000000000000e+00,3.768761396408081055e+00,3.695901393890380859e+00,3.656925916671752930e+00,3.644799470901489258e+00,3.656222343444824219e+00,3.701212167739868164e+00,3.757974624633789062e+00,5.000000000000000000e+00,5.000000000000000000e+00,5.000000000000000000e+00,5.000000000000000000e+00,5.000000000000000000e+00,5.000000000000000000e+00,5.000000000000000000e+00,5.000000000000000000e+00,5.000000000000000000e+00,5.000000000000000000e+00,5.000000000000000000e+00,5.000000000000000000e+00,5.000000000000000000e+00,4.847939491271972656e+00,4.689288139343261719e+00,4.540691852569580078e+00,4.401223659515380859e+00,4.270067691802978516e+00,4.146502494812011719e+00,4.029887676239013672e+00,3.919652938842773438e+00,3.815288066864013672e+00,3.716336488723754883e+00
3.096634864807128906e+00,3.175159931182861328e+00,3.257771015167236328e+00,3.344795703887939453e+00,3.436597824096679688e+00,3.533556699752807617e+00,3.636142015457153320e+00,3.744862079620361328e+00,3.860283851623535156e+00,3.983046531677246094e+00,4.113873958587646484e+00,4.253587722778320312e+00,4.403124332427978516e+00,4.563558578491210938e+00,4.736126422882080078e+00,4.922257900238037109e+00,5.000000000000000000e+00,5.000000000000000000e+00,5.000000000000000000e+00,5.000000000000000000e+00,5.000000000000000000e+00,5.000000000000000000e+00,5.000000000000000000e+00,5.000000000000000000e+00,5.000000000000000000e+00,5.000000000000000000e+00,5.000000000000000000e+00,5.000000000000000000e+00,5.000000000000000000e+00,5.000000000000000000e+00,5.000000000000000000e+00,5.000000000000000000e+00,5.000000000000000000e+00,5.000000000000000000e+00,5.000000000000000000e+00,5.000000000000000000e+00,5.000000000000000000e+00,5.000000000000000000e+00,5.000000000000000000e+00,5.000000000000000000e+00,5.000000000000000000e+00,5.000000000000000000e+00,5.000000000000000000e+00,5.000000000000000000e+00,5.000000000000000000e+00,5.000000000000000000e+00,5.000000000000000000e+00,5.000000000000000000e+00,5.000000000000000000e+00,5.000000000000000000e+00,3.739650487899780273e+00,3.661162614822387695e+00,3.641020774841308594e+00,3.663619995117187500e+00,3.677249670028686523e+00,3.682118177413940430e+00,3.755621910095214844e+00,3.746523380279541016e+00,5.000000000000000000e+00,5.000000000000000000e+00,5.000000000000000000e+00,5.000000000000000000e+00,5.000000000000000000e+00,5.000000000000000000e+00,5.000000000000000000e+00,5.000000000000000000e+00,5.000000000000000000e+00,5.000000000000000000e+00,5.000000000000000000e+00,5.000000000000000000e+00,4.848107337951660156e+00,4.689445018768310547e+00,4.540838718414306641e+00,4.401361465454101562e+00,4.270197868347167969e+00,4.146625041961669922e+00,4.030003547668457031e+00,3.919762372970581055e+00,3.815391778945922852e+00,3.716434955596923828e+00
3.096532344818115234e+00,3.175039291381835938e+00,3.257644176483154297e+00,3.344662427902221680e+00,3.436456680297851562e+00,3.533431529998779297e+00,3.636038780212402344e+00,3.744765520095825195e+00,3.860181093215942383e+00,3.982937335968017578e+00,4.113757610321044922e+00,4.253463268280029297e+00,4.402991294860839844e+00,4.563415527343750000e+00,4.735972404479980469e+00,4.922091007232666016e+00,5.000000000000000000e+00,5.000000000000000000e+00,5.000000000000000000e+00,5.000000000000000000e+00,5.000000000000000000e+00,5.000000000000000000e+00,5.000000000000000000e+00,5.000000000000000000e+00,5.000000000000000000e+00,5.000000000000000000e+00,5.000000000000000000e+00,5.000000000000000000e+00,5.000000000000000000e+00,5.000000000000000000e+00,5.000000000000000000e+00,5.000000000000000000e+00,5.000000000000000000e+00,5.000000000000000000e+00,5.000000000000000000e+00,5.000000000000000000e+00,5.000000000000000000e+00,5.000000000000000000e+00,5.000000000000000000e+00,5.000000000000000000e+00,5.000000000000000000e+00,5.000000000000000000e+00,5.000000000000000000e+00,5.000000000000000000e+00,5.000000000000000000e+00,5.000000000000000000e+00,5.000000000000000000e+00,5.000000000000000000e+00,5.000000000000000000e+00,5.000000000000000000e+00,3.708155870437622070e+00,3.613511323928833008e+00,3.575361490249633789e+00,3.664483547210693359e+00,3.650625228881835938e+00,3.648392438888549805e+00,5.000000000000000000e+00,3.730037689208984375e+00,5.000000000000000000e+00,5.000000000000000000e+00,5.000000000000000000e+00,5.000000000000000000e+00,5.000000000000000000e+00,5.000000000000000000e+00,5.000000000000000000e+00,5.000000000000000000e+00,5.000000000000000000e+00,5.000000000000000000e+00,5.000000000000000000e+00,5.000000000000000000e+00,4.848274707794189453e+00,4.689601898193359375e+00,4.540986061096191406e+00,4.401499748229980469e+00,4.270328044891357422e+00,4.146747589111328125e+00,4.030119419097900391e+00,3.919871807098388672e+00,3.815495491027832031e+00,3.716533422470092773e+00
3.096466302871704102e+00,3.174960374832153320e+00,3.257537364959716797e+00,3.344528675079345703e+00,3.436315536499023438e+00,3.533282518386840820e+00,3.635880947113037109e+00,3.744615793228149414e+00,3.860055446624755859e+00,3.982828140258789062e+00,4.113640785217285156e+00,4.253338336944580078e+00,4.402857780456542969e+00,4.563272476196289062e+00,4.735817909240722656e+00,4.921924591064453125e+00,5.000000000000000000e+00,5.000000000000000000e+00,5.000000000000000000e+00,5.000000000000000000e+00,5.000000000000000000e+00,5.000000000000000000e+00,5.000000000000000000e+00,5.000000000000000000e+00,5.000000000000000000e+00,5.000000000000000000e+00,5.000000000000000000e+00,5.000000000000000000e+00,5.000000000000000000e+00,5.000000000000000000e+00,5.000000000000000000e+00,5.000000000000000000e+00,5.000000000000000000e+00,5.000000000000000000e+00,5.000000000000000000e+00,5.000000000000000000e+00,5.000000000000000000e+00,5.000000000000000000e+00,5.000000000000000000e+00,5.000000000000000000e+00,5.000000000000000000e+00,5.000000000000000000e+00,5.000000000000000000e+00,5.000000000000000000e+00,5.000000000000000000e+00,5.000000000000000000e+00,5.000000000000000000e+00,5.000000000000000000e+00,5.000000000000000000e+00,5.000000000000000000e+00,3.689675092697143555e+00,3.588948011398315430e+00,3.548761606216430664e+00,3.623273372650146484e+00,3.639838695526123047e+00,3.639380216598510742e+00,5.000000000000000000e+00,3.691775798797607422e+00,5.000000000000000000e+00,5.000000000000000000e+00,5.000000000000000000e+00,5.000000000000000000e+00,5.000000000000000000e+00,5.000000000000000000e+00,5.000000000000000000e+00,5.000000000000000000e+00,5.000000000000000000e+00,5.000000000000000000e+00,5.000000000000000000e+00,5.000000000000000000e+00,4.848442554473876953e+00,4.689758777618408203e+00,4.541132926940917969e+00,4.401638031005859375e+00,4.270458221435546875e+00,4.146870613098144531e+00,4.030234813690185547e+00,3.919981241226196289e+00,3.815599679946899414e+00,3.716632127761840820e+00
3.096400022506713867e+00,3.174890756607055664e+00,3.257464170455932617e+00,3.344447612762451172e+00,3.436203956604003906e+00,3.533136844635009766e+00,3.635722875595092773e+00,3.744448661804199219e+00,3.859877347946166992e+00,3.982649087905883789e+00,4.113487243652343750e+00,4.253214359283447266e+00,4.402724266052246094e+00,4.563128948211669922e+00,4.735663414001464844e+00,4.921758174896240234e+00,5.000000000000000000e+00,5.000000000000000000e+00,5.000000000000000000e+00,5.000000000000000000e+00,5.000000000000000000e+00,5.000000000000000000e+00,5.000000000000000000e+00,5.000000000000000000e+00,5.000000000000000000e+00,5.000000000000000000e+00,5.000000000000000000e+00,5.000000000000000000e+00,5.000000000000000000e+00,5.000000000000000000e+00,5.000000000000000000e+00,5.000000000000000000e+00,5.000000000000000000e+00,5.000000000000000000e+00,5.000000000000000000e+00,5.000000000000000000e+00,5.000000000000000000e+00,5.000000000000000000e+00,5.000000000000000000e+00,5.000000000000000000e+00,5.000000000000000000e+00,5.000000000000000000e+00,5.000000000000000000e+00,5.000000000000000000e+00,5.000000000000000000e+00,5.000000000000000000e+00,5.000000000000000000e+00,5.000000000000000000e+00,5.000000000000000000e+00,5.000000000000000000e+00,3.647164106369018555e+00,3.565715074539184570e+00,3.522129774093627930e+00,3.582307815551757812e+00,3.635622978210449219e+00,3.635376214981079102e+00,5.000000000000000000e+00,5.000000000000000000e+00,5.000000000000000000e+00,5.000000000000000000e+00,5.000000000000000000e+00,5.000000000000000000e+00,5.000000000000000000e+00,5.000000000000000000e+00,5.000000000000000000e+00,5.000000000000000000e+00,5.000000000000000000e+00,5.000000000000000000e+00,5.000000000000000000e+00,5.000000000000000000e+00,4.848609924316406250e+00,4.689915657043457031e+00,4.541279792785644531e+00,4.401776313781738281e+00,4.270587921142578125e+00,4.146993160247802734e+00,4.030351161956787109e+00,3.920091152191162109e+00,3.815703392028808594e+00,3.716730594635009766e+00
3.096333980560302734e+00,3.174821376800537109e+00,3.257390975952148438e+00,3.344370365142822266e+00,3.436122179031372070e+00,3.533050537109375000e+00,3.635606288909912109e+00,3.744293689727783203e+00,3.859699487686157227e+00,3.982459545135498047e+00,4.113285064697265625e+00,4.252997875213623047e+00,4.402535915374755859e+00,4.562972545623779297e+00,4.735508918762207031e+00,4.921591281890869141e+00,5.000000000000000000e+00,5.000000000000000000e+00,5.000000000000000000e+00,5.000000000000000000e+00,5.000000000000000000e+00,5.000000000000000000e+00,5.000000000000000000e+00,5.000000000000000000e+00,5.000000000000000000e+00,5.000000000000000000e+00,5.000000000000000000e+00,5.000000000000000000e+00,5.000000000000000000e+00,5.000000000000000000e+00,5.000000000000000000e+00,5.000000000000000000e+00,5.000000000000000000e+00,5.000000000000000000e+00,5.000000000000000000e+00,5.000000000000000000e+00,5.000000000000000000e+00,5.000000000000000000e+00,5.000000000000000000e+00,5.000000000000000000e+00,5.000000000000000000e+00,5.000000000000000000e+00,5.000000000000000000e+00,5.000000000000000000e+00,5.000000000000000000e+00,5.000000000000000000e+00,5.000000000000000000e+00,5.000000000000000000e+00,5.000000000000000000e+00,5.000000000000000000e+00,5.000000000000000000e+00,3.583864450454711914e+00,3.496186017990112305e+00,3.528653860092163086e+00,3.630036592483520508e+00,3.630994081497192383e+00,5.000000000000000000e+00,5.000000000000000000e+00,5.000000000000000000e+00,5.000000000000000000e+00,5.000000000000000000e+00,5.000000000000000000e+00,5.000000000000000000e+00,5.000000000000000000e+00,5.000000000000000000e+00,5.000000000000000000e+00,5.000000000000000000e+00,5.000000000000000000e+00,5.000000000000000000e+00,5.000000000000000000e+00,4.848777770996093750e+00,4.690072059631347656e+00,4.541427135467529297e+00,4.401914596557617188e+00,4.270718097686767578e+00,4.147115707397460938e+00,4.030466556549072266e+00,3.920200586318969727e+00,3.815804481506347656e+00,3.716820716857910156e+00
3.096267700195312500e+00,3.174751520156860352e+00,3.257317781448364258e+00,3.344293355941772461e+00,3.436041116714477539e+00,3.532964706420898438e+00,3.635515213012695312e+00,3.744196653366088867e+00,3.859576940536499023e+00,3.982294082641601562e+00,4.113082885742187500e+00,4.252782344818115234e+00,4.402304172515869141e+00,4.562723636627197266e+00,4.735276699066162109e+00,4.921393871307373047e+00,5.000000000000000000e+00,5.000000000000000000e+00,5.000000000000000000e+00,5.000000000000000000e+00,5.000000000000000000e+00,5.000000000000000000e+00,5.000000000000000000e+00,5.000000000000000000e+00,5.000000000000000000e+00,5.000000000000000000e+00,5.000000000000000000e+00,5.000000000000000000e+00,5.000000000000000000e+00,5.000000000000000000e+00,5.000000000000000000e+00,5.000000000000000000e+00,5.000000000000000000e+00,5.000000000000000000e+00,5.000000000000000000e+00,5.000000000000000000e+00,5.000000000000000000e+00,5.000000000000000000e+00,5.000000000000000000e+00,5.000000000000000000e+00,5.000000000000000000e+00,5.000000000000000000e+00,5.000000000000000000e+00,5.000000000000000000e+00,5.000000000000000000e+00,5.000000000000000000e+00,5.000000000000000000e+00,5.000000000000000000e+00,5.000000000000000000e+00,5.000000000000000000e+00,5.000000000000000000e+00,5.000000000000000000e+00,3.474796772003173828e+00,3.500187397003173828e+00,3.621630430221557617e+00,3.619746446609497070e+00,5.000000000000000000e+00,5.000000000000000000e+00,5.000000000000000000e+00,5.000000000000000000e+00,5.000000000000000000e+00,5.000000000000000000e+00,5.000000000000000000e+00,5.000000000000000000e+00,5.000000000000000000e+00,5.000000000000000000e+00,5.000000000000000000e+00,5.000000000000000000e+00,5.000000000000000000e+00,5.000000000000000000e+00,4.848945617675781250e+00,4.690229415893554688e+00,4.541574001312255859e+00,4.402052402496337891e+00,4.270848274230957031e+00,4.147238254547119141e+00,4.030575752258300781e+00,3.920297145843505859e+00,3.815891981124877930e+00,3.716903924942016602e+00
3.096201658248901367e+00,3.174682140350341797e+00,3.257244825363159180e+00,3.344216108322143555e+00,3.435959339141845703e+00,3.532878398895263672e+00,3.635423898696899414e+00,3.744100093841552734e+00,3.859474420547485352e+00,3.982184886932373047e+00,4.112954616546630859e+00,4.252604484558105469e+00,4.402072906494140625e+00,4.562475204467773438e+00,4.735008716583251953e+00,4.921104431152343750e+00,5.000000000000000000e+00,5.000000000000000000e+00,5.000000000000000000e+00,5.000000000000000000e+00,5.000000000000000000e+00,5.000000000000000000e+00,5.000000000000000000e+00,5.000000000000000000e+00,5.000000000000000000e+00,5.000000000000000000e+00,5.000000000000000000e+00,5.000000000000000000e+00,5.000000000000000000e+00,5.000000000000000000e+00,5.000000000000000000e+00,5.000000000000000000e+00,5.000000000000000000e+00,5.000000000000000000e+00,5.000000000000000000e+00,5.000000000000000000e+00,5.000000000000000000e+00,5.000000000000000000e+00,5.000000000000000000e+00,5.000000000000000000e+00,5.000000000000000000e+00,5.000000000000000000e+00,5.000000000000000000e+00,5.000000000000000000e+00,5.000000000000000000e+00,5.000000000000000000e+00,5.000000000000000000e+00,5.000000000000000000e+00,5.000000000000000000e+00,5.000000000000000000e+00,5.000000000000000000e+00,5.000000000000000000e+00,3.480315208435058594e+00,3.509534835815429688e+00,3.615429878234863281e+00,3.624556303024291992e+00,5.000000000000000000e+00,5.000000000000000000e+00,5.000000000000000000e+00,5.000000000000000000e+00,5.000000000000000000e+00,5.000000000000000000e+00,5.000000000000000000e+00,5.000000000000000000e+00,5.000000000000000000e+00,5.000000000000000000e+00,5.000000000000000000e+00,5.000000000000000000e+00,5.000000000000000000e+00,5.000000000000000000e+00,4.849113464355468750e+00,4.690386295318603516e+00,4.541721343994140625e+00,4.402186870574951172e+00,4.270966529846191406e+00,4.147342681884765625e+00,4.030673503875732422e+00,3.920389890670776367e+00,3.815979719161987305e+00,3.716987133026123047e+00
3.096135377883911133e+00,3.174612522125244141e+00,3.257171392440795898e+00,3.344139099121093750e+00,3.435878038406372070e+00,3.532792568206787109e+00,3.635332822799682617e+00,3.744003295898437500e+00,3.859371423721313477e+00,3.982075214385986328e+00,4.112837791442871094e+00,4.252480030059814453e+00,4.401937484741210938e+00,4.562283992767333984e+00,4.734753131866455078e+00,4.920815467834472656e+00,5.000000000000000000e+00,5.000000000000000000e+00,5.000000000000000000e+00,5.000000000000000000e+00,5.000000000000000000e+00,5.000000000000000000e+00,5.000000000000000000e+00,5.000000000000000000e+00,5.000000000000000000e+00,5.000000000000000000e+00,5.000000000000000000e+00,5.000000000000000000e+00,5.000000000000000000e+00,5.000000000000000000e+00,5.000000000000000000e+00,5.000000000000000000e+00,5.000000000000000000e+00,5.000000000000000000e+00,5.000000000000000000e+00,5.000000000000000000e+00,5.000000000000000000e+00,5.000000000000000000e+00,5.000000000000000000e+00,5.000000000000000000e+00,5.000000000000000000e+00,5.000000000000000000e+00,5.000000000000000000e+00,5.000000000000000000e+00,5.000000000000000000e+00,5.000000000000000000e+00,5.000000000000000000e+00,5.000000000000000000e+00,5.000000000000000000e+00,5.000000000000000000e+00,5.000000000000000000e+00,3.625940799713134766e+00,3.536957740783691406e+00,3.710938453674316406e+00,3.642366647720336914e+00,5.000000000000000000e+00,5.000000000000000000e+00,5.000000000000000000e+00,5.000000000000000000e+00,5.000000000000000000e+00,5.000000000000000000e+00,5.000000000000000000e+00,5.000000000000000000e+00,5.000000000000000000e+00,5.000000000000000000e+00,5.000000000000000000e+00,5.000000000000000000e+00,5.000000000000000000e+00,5.000000000000000000e+00,5.000000000000000000e+00,4.849280834197998047e+00,4.690533638000488281e+00,4.541850566864013672e+00,4.402303695678710938e+00,4.271076202392578125e+00,4.147446155548095703e+00,4.030771732330322266e+00,3.920482397079467773e+00,3.816067457199096680e+00,3.717070102691650391e+00
3.096069335937500000e+00,3.174543142318725586e+00,3.257098436355590820e+00,3.344061851501464844e+00,3.435796499252319336e+00,3.532706260681152344e+00,3.635241508483886719e+00,3.743906736373901367e+00,3.859268903732299805e+00,3.981966018676757812e+00,4.112721443176269531e+00,4.252355098724365234e+00,4.401803970336914062e+00,4.562140464782714844e+00,4.734598636627197266e+00,4.920607566833496094e+00,5.000000000000000000e+00,5.000000000000000000e+00,5.000000000000000000e+00,5.000000000000000000e+00,5.000000000000000000e+00,5.000000000000000000e+00,5.000000000000000000e+00,5.000000000000000000e+00,5.000000000000000000e+00,5.000000000000000000e+00,5.000000000000000000e+00,5.000000000000000000e+00,5.000000000000000000e+00,5.000000000000000000e+00,5.000000000000000000e+00,5.000000000000000000e+00,5.000000000000000000e+00,5.000000000000000000e+00,5.000000000000000000e+00,5.000000000000000000e+00,5.000000000000000000e+00,5.000000000000000000e+00,5.000000000000000000e+00,5.000000000000000000e+00,5.000000000000000000e+00,5.000000000000000000e+00,5.000000000000000000e+00,5.000000000000000000e+00,5.000000000000000000e+00,5.000000000000000000e+00,5.000000000000000000e+00,5.000000000000000000e+00,5.000000000000000000e+00,5.000000000000000000e+00,5.000000000000000000e+00,3.675220966339111328e+00,3.602284431457519531e+00,3.732343435287475586e+00,3.683835268020629883e+00,5.000000000000000000e+00,5.000000000000000000e+00,5.000000000000000000e+00,5.000000000000000000e+00,5.000000000000000000e+00,5.000000000000000000e+00,5.000000000000000000e+00,5.000000000000000000e+00,5.000000000000000000e+00,5.000000000000000000e+00,5.000000000000000000e+00,5.000000000000000000e+00,5.000000000000000000e+00,5.000000000000000000e+00,5.000000000000000000e+00,4.849422454833984375e+00,4.690665721893310547e+00,4.541974544525146484e+00,4.402420043945312500e+00,4.271186351776123047e+00,4.147549629211425781e+00,4.030869483947753906e+00,3.920574903488159180e+00,3.816155195236206055e+00,3.717153310775756836e+00
3.096003055572509766e+00,3.174473524093627930e+00,3.257025003433227539e+00,3.343984842300415039e+00,3.435715198516845703e+00,3.532620191574096680e+00,3.635150671005249023e+00,3.743809938430786133e+00,3.859165906906127930e+00,3.981856346130371094e+00,4.112604618072509766e+00,4.252230167388916016e+00,4.401670455932617188e+00,4.561996459960937500e+00,4.734444141387939453e+00,4.920440673828125000e+00,5.000000000000000000e+00,5.000000000000000000e+00,5.000000000000000000e+00,5.000000000000000000e+00,5.000000000000000000e+00,5.000000000000000000e+00,5.000000000000000000e+00,5.000000000000000000e+00,5.000000000000000000e+00,5.000000000000000000e+00,5.000000000000000000e+00,5.000000000000000000e+00,5.000000000000000000e+00,5.000000000000000000e+00,5.000000000000000000e+00,5.000000000000000000e+00,5.000000000000000000e+00,5.000000000000000000e+00,5.000000000000000000e+00,5.000000000000000000e+00,5.000000000000000000e+00,5.000000000000000000e+00,5.000000000000000000e+00,5.000000000000000000e+00,5.000000000000000000e+00,5.000000000000000000e+00,5.000000000000000000e+00,5.000000000000000000e+00,5.000000000000000000e+00,5.000000000000000000e+00,5.000000000000000000e+00,5.000000000000000000e+00,5.000000000000000000e+00,5.000000000000000000e+00,5.000000000000000000e+00,3.727524757385253906e+00,3.652816534042358398e+00,3.735023975372314453e+00,3.702975511550903320e+00,5.000000000000000000e+00,5.000000000000000000e+00,5.000000000000000000e+00,5.000000000000000000e+00,5.000000000000000000e+00,5.000000000000000000e+00,5.000000000000000000e+00,5.000000000000000000e+00,5.000000000000000000e+00,5.000000000000000000e+00,5.000000000000000000e+00,5.000000000000000000e+00,5.000000000000000000e+00,5.000000000000000000e+00,5.000000000000000000e+00,4.849564075469970703e+00,4.690798282623291016e+00,4.542098999023437500e+00,4.402536869049072266e+00,4.271296024322509766e+00,4.147653102874755859e+00,4.030967235565185547e+00,3.920667409896850586e+00,3.816242694854736328e+00,3.717236518859863281e+00
3.095937252044677734e+00,3.174404144287109375e+00,3.256952047348022461e+00,3.343907356262207031e+00,3.435633659362792969e+00,3.532533884048461914e+00,3.635059118270874023e+00,3.743713378906250000e+00,3.859063386917114258e+00,3.981747388839721680e+00,4.112487792968750000e+00,4.252105712890625000e+00,4.401536464691162109e+00,4.561852931976318359e+00,4.734289169311523438e+00,4.920273303985595703e+00,5.000000000000000000e+00,5.000000000000000000e+00,5.000000000000000000e+00,5.000000000000000000e+00,5.000000000000000000e+00,5.000000000000000000e+00,5.000000000000000000e+00,5.000000000000000000e+00,5.000000000000000000e+00,5.000000000000000000e+00,5.000000000000000000e+00,5.000000000000000000e+00,5.000000000000000000e+00,5.000000000000000000e+00,5.000000000000000000e+00,5.000000000000000000e+00,5.000000000000000000e+00,5.000000000000000000e+00,5.000000000000000000e+00,5.000000000000000000e+00,5.000000000000000000e+00,5.000000000000000000e+00,5.000000000000000000e+00,5.000000000000000000e+00,5.000000000000000000e+00,5.000000000000000000e+00,5.000000000000000000e+00,5.000000000000000000e+00,5.000000000000000000e+00,5.000000000000000000e+00,5.000000000000000000e+00,5.000000000000000000e+00,5.000000000000000000e+00,5.000000000000000000e+00,5.000000000000000000e+00,3.787624359130859375e+00,3.706208944320678711e+00,3.744986057281494141e+00,3.738787174224853516e+00,5.000000000000000000e+00,5.000000000000000000e+00,5.000000000000000000e+00,5.000000000000000000e+00,5.000000000000000000e+00,5.000000000000000000e+00,5.000000000000000000e+00,5.000000000000000000e+00,5.000000000000000000e+00,5.000000000000000000e+00,5.000000000000000000e+00,5.000000000000000000e+00,5.000000000000000000e+00,5.000000000000000000e+00,5.000000000000000000e+00,4.849705219268798828e+00,4.690930843353271484e+00,4.542222976684570312e+00,4.402653694152832031e+00,4.271405696868896484e+00,4.147756576538085938e+00,4.031064987182617188e+00,3.920759916305541992e+00,3.816330432891845703e+00,3.717319726943969727e+00
3.095870971679687500e+00,3.174334526062011719e+00,3.256878614425659180e+00,3.343830585479736328e+00,3.435552358627319336e+00,3.532448053359985352e+00,3.634968280792236328e+00,3.743616580963134766e+00,3.858960390090942383e+00,3.981637716293334961e+00,4.112371444702148438e+00,4.251980781555175781e+00,4.401402950286865234e+00,4.561709403991699219e+00,4.734134674072265625e+00,4.920106410980224609e+00,5.000000000000000000e+00,5.000000000000000000e+00,5.000000000000000000e+00,5.000000000000000000e+00,5.000000000000000000e+00,5.000000000000000000e+00,5.000000000000000000e+00,5.000000000000000000e+00,5.000000000000000000e+00,5.000000000000000000e+00,5.000000000000000000e+00,5.000000000000000000e+00,5.000000000000000000e+00,5.000000000000000000e+00,5.000000000000000000e+00,5.000000000000000000e+00,5.000000000000000000e+00,5.000000000000000000e+00,5.000000000000000000e+00,5.000000000000000000e+00,5.000000000000000000e+00,5.000000000000000000e+00,5.000000000000000000e+00,5.000000000000000000e+00,5.000000000000000000e+00,5.000000000000000000e+00,5.000000000000000000e+00,5.000000000000000000e+00,5.000000000000000000e+00,5.000000000000000000e+00,5.000000000000000000e+00,5.000000000000000000e+00,5.000000000000000000e+00,5.000000000000000000e+00,5.000000000000000000e+00,5.000000000000000000e+00,3.778918743133544922e+00,3.760966062545776367e+00,5.000000000000000000e+00,5.000000000000000000e+00,5.000000000000000000e+00,5.000000000000000000e+00,5.000000000000000000e+00,5.000000000000000000e+00,5.000000000000000000e+00,5.000000000000000000e+00,5.000000000000000000e+00,5.000000000000000000e+00,5.000000000000000000e+00,5.000000000000000000e+00,5.000000000000000000e+00,5.000000000000000000e+00,5.000000000000000000e+00,5.000000000000000000e+00,4.849846839904785156e+00,4.691063404083251953e+00,4.542347431182861328e+00,4.402770042419433594e+00,4.271515846252441406e+00,4.147860527038574219e+00,4.031162738800048828e+00,3.920852422714233398e+00,3.816418170928955078e+00,3.717402935028076172e+00
3.095804929733276367e+00,3.174265146255493164e+00,3.256805658340454102e+00,3.343753099441528320e+00,3.435470819473266602e+00,3.532361745834350586e+00,3.634876966476440430e+00,3.743520021438598633e+00,3.858857870101928711e+00,3.981528520584106445e+00,4.112254619598388672e+00,4.251855850219726562e+00,4.401269435882568359e+00,4.561565876007080078e+00,4.733980178833007812e+00,4.919939517974853516e+00,5.000000000000000000e+00,5.000000000000000000e+00,5.000000000000000000e+00,5.000000000000000000e+00,5.000000000000000000e+00,5.000000000000000000e+00,5.000000000000000000e+00,5.000000000000000000e+00,5.000000000000000000e+00,5.000000000000000000e+00,5.000000000000000000e+00,5.000000000000000000e+00,5.000000000000000000e+00,5.000000000000000000e+00,5.000000000000000000e+00,5.000000000000000000e+00,5.000000000000000000e+00,5.000000000000000000e+00,5.000000000000000000e+00,5.000000000000000000e+00,5.000000000000000000e+00,5.000000000000000000e+00,5.000000000000000000e+00,5.000000000000000000e+00,5.000000000000000000e+00,5.000000000000000000e+00,5.000000000000000000e+00,5.000000000000000000e+00,5.000000000000000000e+00,5.000000000000000000e+00,5.000000000000000000e+00,5.000000000000000000e+00,5.000000000000000000e+00,5.000000000000000000e+00,5.000000000000000000e+00,5.000000000000000000e+00,3.755816221237182617e+00,3.777787685394287109e+00,5.000000000000000000e+00,5.000000000000000000e+00,5.000000000000000000e+00,5.000000000000000000e+00,5.000000000000000000e+00,5.000000000000000000e+00,5.000000000000000000e+00,5.000000000000000000e+00,5.000000000000000000e+00,5.000000000000000000e+00,5.000000000000000000e+00,5.000000000000000000e+00,5.000000000000000000e+00,5.000000000000000000e+00,5.000000000000000000e+00,5.000000000000000000e+00,4.849988460540771484e+00,4.691195964813232422e+00,4.542471408843994141e+00,4.402886867523193359e+00,4.271625518798828125e+00,4.147964000701904297e+00,4.031260967254638672e+00,3.920944929122924805e+00,3.816505908966064453e+00,3.717486143112182617e+00
3.095738649368286133e+00,3.174195289611816406e+00,3.256732463836669922e+00,3.343676090240478516e+00,3.435389518737792969e+00,3.532275915145874023e+00,3.634785890579223633e+00,3.743423223495483398e+00,3.858754873275756836e+00,3.981418848037719727e+00,4.112137794494628906e+00,4.251731395721435547e+00,4.401135444641113281e+00,4.561422348022460938e+00,4.733825683593750000e+00,4.855228900909423828e+00,4.854028701782226562e+00,4.852828502655029297e+00,4.851629257202148438e+00,4.850430488586425781e+00,4.849232196807861328e+00,4.848034858703613281e+00,4.846837520599365234e+00,4.845641136169433594e+00,4.844445228576660156e+00,4.843249797821044922e+00,4.842055320739746094e+00,4.840860843658447266e+00,4.839667320251464844e+00,4.838474273681640625e+00,4.837282180786132812e+00,4.836090564727783203e+00,4.834898948669433594e+00,4.833708286285400391e+00,4.832518577575683594e+00,4.831328868865966797e+00,4.830140113830566406e+00,4.828951835632324219e+00,4.827764511108398438e+00,4.826577186584472656e+00,4.825390815734863281e+00,4.824204921722412109e+00,4.823019504547119141e+00,4.821835041046142578e+00,4.820650577545166016e+00,4.819467067718505859e+00,4.818284034729003906e+00,4.817101478576660156e+00,4.815919876098632812e+00,4.814738273620605469e+00,4.813557624816894531e+00,4.812377929687500000e+00,3.719539403915405273e+00,3.752624750137329102e+00,4.808840751647949219e+00,4.807662963867187500e+00,4.806486129760742188e+00,4.805309295654296875e+00,4.804132938385009766e+00,4.802957534790039062e+00,4.801782608032226562e+00,4.800608634948730469e+00,4.799434661865234375e+00,4.798261165618896484e+00,4.797088623046875000e+00,4.795916557312011719e+00,4.794744968414306641e+00,4.793574333190917969e+00,4.792404174804687500e+00,4.791234493255615234e+00,4.790065288543701172e+00,4.691328048706054688e+00,4.542595863342285156e+00,4.403003692626953125e+00,4.271735191345214844e+00,4.148067474365234375e+00,4.031358718872070312e+00,3.921037673950195312e+00,3.816593408584594727e+00,3.717569351196289062e+00
3.095672607421875000e+00,3.174125909805297852e+00,3.256659269332885742e+00,3.343598842620849609e+00,3.435307979583740234e+00,3.532189607620239258e+00,3.634694576263427734e+00,3.743326663970947266e+00,3.771304607391357422e+00,3.770580291748046875e+00,3.769856214523315430e+00,3.769132137298583984e+00,3.768408775329589844e+00,3.767685174942016602e+00,3.766962289810180664e+00,3.766239643096923828e+00,3.765516996383666992e+00,3.764795064926147461e+00,3.764072656631469727e+00,3.763351202011108398e+00,3.762629985809326172e+00,3.761908769607543945e+00,3.761188030242919922e+00,3.760467290878295898e+00,3.759747266769409180e+00,3.759027481079101562e+00,3.758307456970214844e+00,3.757588148117065430e+00,3.756868839263916016e+00,3.756150007247924805e+00,3.755431652069091797e+00,3.754713058471679688e+00,3.753995180130004883e+00,3.753277063369750977e+00,3.752559661865234375e+00,3.751842498779296875e+00,3.751125335693359375e+00,3.750408887863159180e+00,3.749692201614379883e+00,3.748976230621337891e+00,3.748260498046875000e+00,3.747544527053833008e+00,3.746829509735107422e+00,3.746114253997802734e+00,3.745399475097656250e+00,3.744685173034667969e+00,3.743970632553100586e+00,3.743256807327270508e+00,3.742542982101440430e+00,3.741829633712768555e+00,3.741116762161254883e+00,3.740403652191162109e+00,3.739691257476806641e+00,3.738978624343872070e+00,3.738266706466674805e+00,3.737555265426635742e+00,3.736843347549438477e+00,3.736132383346557617e+00,3.735421180725097656e+00,3.734710454940795898e+00,3.734000205993652344e+00,3.733289957046508789e+00,3.732580184936523438e+00,3.731870174407958984e+00,3.731161117553710938e+00,3.730452060699462891e+00,3.729743003845214844e+00,3.729034662246704102e+00,3.728326082229614258e+00,3.727618217468261719e+00,3.726910829544067383e+00,3.726202964782714844e+00,3.725496053695678711e+00,3.724788665771484375e+00,3.724082231521606445e+00,3.723376035690307617e+00,3.722669601440429688e+00,3.721963882446289062e+00,3.721258163452148438e+00,3.717652559280395508e+00
3.083508014678955078e+00,3.083023548126220703e+00,3.082539319992065430e+00,3.082055330276489258e+00,3.081571340560913086e+00,3.081087589263916016e+00,3.080604076385498047e+00,3.080120563507080078e+00,3.079637289047241211e+00,3.079154491424560547e+00,3.078671216964721680e+00,3.078188657760620117e+00,3.077705860137939453e+00,3.077223539352416992e+00,3.076741218566894531e+00,3.076258897781372070e+00,3.075777053833007812e+00,3.075294971466064453e+00,3.074813365936279297e+00,3.074331760406494141e+00,3.073850154876708984e+00,3.073369026184082031e+00,3.072887897491455078e+00,3.072407007217407227e+00,3.071926116943359375e+00,3.071445465087890625e+00,3.070965051651000977e+00,3.070484399795532227e+00,3.070004224777221680e+00,3.069524288177490234e+00,3.069044351577758789e+00,3.068564653396606445e+00,3.068084716796875000e+00,3.067605495452880859e+00,3.067126274108886719e+00,3.066646814346313477e+00,3.066168069839477539e+00,3.065689086914062500e+00,3.065210342407226562e+00,3.064732074737548828e+00,3.064253330230712891e+00,3.063775300979614258e+00,3.063297033309936523e+00,3.062819004058837891e+00,3.062341451644897461e+00,3.061863422393798828e+00,3.061386108398437500e+00,3.060908555984497070e+00,3.060431480407714844e+00,3.059954404830932617e+00,3.059477329254150391e+00,3.059000730514526367e+00,3.058523893356323242e+00,3.058047533035278320e+00,3.057571172714233398e+00,3.057094812393188477e+00,3.056618928909301758e+00,3.056143045425415039e+00,3.055667400360107422e+00,3.055191755294799805e+00,3.054716110229492188e+00,3.054240942001342773e+00,3.053765773773193359e+00,3.053290843963623047e+00,3.052815914154052734e+00,3.052341222763061523e+00,3.051866769790649414e+00,3.051392078399658203e+00,3.050917863845825195e+00,3.050443887710571289e+00,3.049969911575317383e+00,3.049496173858642578e+00,3.049022197723388672e+00,3.048548936843872070e+00,3.048075437545776367e+00,3.047602176666259766e+00,3.047129154205322266e+00,3.046656131744384766e+00,3.046183347702026367e+00,3.045710802078247070e+00
2.605121374130249023e+00,2.604775667190551758e+00,2.604429960250854492e+00,2.604084491729736328e+00,2.603739023208618164e+00,2.603393554687500000e+00,2.603048324584960938e+00,2.602703094482421875e+00,2.602358102798461914e+00,2.602012872695922852e+00,2.601668119430541992e+00,2.601323127746582031e+00,2.600978612899780273e+00,2.600634098052978516e+00,2.600289583206176758e+00,2.599945068359375000e+00,2.599600791931152344e+00,2.599256515502929688e+00,2.598912477493286133e+00,2.598568201065063477e+00,2.598224401473999023e+00,2.597880363464355469e+00,2.597536802291870117e+00,2.597193241119384766e+00,2.596849441528320312e+00,2.596506118774414062e+00,2.596162557601928711e+00,2.595819234848022461e+00,2.595476150512695312e+00,2.595132827758789062e+00,2.594789743423461914e+00,2.594446897506713867e+00,2.594104051589965820e+00,2.593761205673217773e+00,2.593418598175048828e+00,2.593075990676879883e+00,2.592733383178710938e+00,2.592391014099121094e+00,2.592048883438110352e+00,2.591706514358520508e+00,2.591364383697509766e+00,2.591022253036499023e+00,2.590680360794067383e+00,2.590338468551635742e+00,2.589996576309204102e+00,2.589654922485351562e+00,2.589313268661499023e+00,2.588971853256225586e+00,2.588630437850952148e+00,2.588289022445678711e+00,2.587947845458984375e+00,2.587606668472290039e+00,2.587265729904174805e+00,2.586924791336059570e+00,2.586583852767944336e+00,2.586243152618408203e+00,2.585902214050292969e+00,2.585561752319335938e+00,2.585221290588378906e+00,2.584880828857421875e+00,2.584540367126464844e+00,2.584200143814086914e+00,2.583859920501708984e+00,2.583519935607910156e+00,2.583179950714111328e+00,2.582840204238891602e+00,2.582500219345092773e+00,2.582160472869873047e+00,2.581820964813232422e+00,2.581481218338012695e+00,2.581141948699951172e+00,2.580802440643310547e+00,2.580463171005249023e+00,2.580124139785766602e+00,2.579784870147705078e+00,2.579446077346801758e+00,2.579107046127319336e+00,2.578768253326416016e+00,2.578429698944091797e+00,2.578090906143188477e+00
2.255235910415649414e+00,2.254976749420166016e+00,2.254717826843261719e+00,2.254458904266357422e+00,2.254199743270874023e+00,2.253941059112548828e+00,2.253682136535644531e+00,2.253423452377319336e+00,2.253164768218994141e+00,2.252906084060668945e+00,2.252647399902343750e+00,2.252389192581176758e+00,2.252130508422851562e+00,2.251872062683105469e+00,2.251613855361938477e+00,2.251355648040771484e+00,2.251097440719604492e+00,2.250839471817016602e+00,2.250581264495849609e+00,2.250323295593261719e+00,2.250065326690673828e+00,2.249807357788085938e+00,2.249549627304077148e+00,2.249291658401489258e+00,2.249034166336059570e+00,2.248776435852050781e+00,2.248518943786621094e+00,2.248261451721191406e+00,2.248003721237182617e+00,2.247746467590332031e+00,2.247488975524902344e+00,2.247231721878051758e+00,2.246974468231201172e+00,2.246717214584350586e+00,2.246460199356079102e+00,2.246203184127807617e+00,2.245946168899536133e+00,2.245689153671264648e+00,2.245432138442993164e+00,2.245175361633300781e+00,2.244918584823608398e+00,2.244662046432495117e+00,2.244405269622802734e+00,2.244148731231689453e+00,2.243892192840576172e+00,2.243635654449462891e+00,2.243379354476928711e+00,2.243123054504394531e+00,2.242866516113281250e+00,2.242610454559326172e+00,2.242354154586791992e+00,2.242098093032836914e+00,2.241842031478881836e+00,2.241585969924926758e+00,2.241330146789550781e+00,2.241074085235595703e+00,2.240818262100219727e+00,2.240562677383422852e+00,2.240306854248046875e+00,2.240051269531250000e+00,2.239795446395874023e+00,2.239540100097656250e+00,2.239284515380859375e+00,2.239029169082641602e+00,2.238773822784423828e+00,2.238518476486206055e+00,2.238263130187988281e+00,2.238008022308349609e+00,2.237752914428710938e+00,2.237497806549072266e+00,2.237242698669433594e+00,2.236987829208374023e+00,2.236732959747314453e+00,2.236478090286254883e+00,2.236223220825195312e+00,2.235968589782714844e+00,2.235713958740234375e+00,2.235459327697753906e+00,2.235204696655273438e+00,2.234950304031372070e+00
1.988206505775451660e+00,1.988005042076110840e+00,1.987803578376770020e+00,1.987602472305297852e+00,1.987401247024536133e+00,1.987199902534484863e+00,1.986998677253723145e+00,1.986797571182250977e+00,1.986596345901489258e+00,1.986395597457885742e+00,1.986194491386413574e+00,1.985993504524230957e+00,1.985792517662048340e+00,1.985591530799865723e+00,1.985390663146972656e+00,1.985190033912658691e+00,1.984989166259765625e+00,1.984788417816162109e+00,1.984587669372558594e+00,1.984387159347534180e+00,1.984186530113220215e+00,1.983985900878906250e+00,1.983785390853881836e+00,1.983585119247436523e+00,1.983384609222412109e+00,1.983184099197387695e+00,1.982983946800231934e+00,1.982783555984497070e+00,1.982583284378051758e+00,1.982383012771606445e+00,1.982182979583740234e+00,1.981982707977294922e+00,1.981782555580139160e+00,1.981582641601562500e+00,1.981382608413696289e+00,1.981182575225830078e+00,1.980982780456542969e+00,1.980782747268676758e+00,1.980582833290100098e+00,1.980382919311523438e+00,1.980183362960815430e+00,1.979983568191528320e+00,1.979783773422241211e+00,1.979584217071533203e+00,1.979384541511535645e+00,1.979184985160827637e+00,1.978985548019409180e+00,1.978785991668701172e+00,1.978586435317993164e+00,1.978386998176574707e+00,1.978187799453735352e+00,1.977988362312316895e+00,1.977788925170898438e+00,1.977589845657348633e+00,1.977390646934509277e+00,1.977191329002380371e+00,1.976992368698120117e+00,1.976793169975280762e+00,1.976594090461730957e+00,1.976395010948181152e+00,1.976196169853210449e+00,1.975997209548950195e+00,1.975798249244689941e+00,1.975599527359008789e+00,1.975400567054748535e+00,1.975201725959777832e+00,1.975003242492675781e+00,1.974804401397705078e+00,1.974605679512023926e+00,1.974407076835632324e+00,1.974208593368530273e+00,1.974009990692138672e+00,1.973811388015747070e+00,1.973613142967224121e+00,1.973414659500122070e+00,1.973216176033020020e+00,1.973018050193786621e+00,1.972819685935974121e+00,1.972621321678161621e+00,1.972423076629638672e+00
1.777717113494873047e+00,1.777556061744689941e+00,1.777395248413085938e+00,1.777234315872192383e+00,1.777073383331298828e+00,1.776912450790405273e+00,1.776751518249511719e+00,1.776590824127197266e+00,1.776430010795593262e+00,1.776269197463989258e+00,1.776108384132385254e+00,1.775947690010070801e+00,1.775786995887756348e+00,1.775626420974731445e+00,1.775465846061706543e+00,1.775305151939392090e+00,1.775144577026367188e+00,1.774984002113342285e+00,1.774823427200317383e+00,1.774663090705871582e+00,1.774502635002136230e+00,1.774342179298400879e+00,1.774181723594665527e+00,1.774021506309509277e+00,1.773861169815063477e+00,1.773700833320617676e+00,1.773540496826171875e+00,1.773380398750305176e+00,1.773220181465148926e+00,1.773059964179992676e+00,1.772899866104125977e+00,1.772739768028259277e+00,1.772579669952392578e+00,1.772419691085815430e+00,1.772259593009948730e+00,1.772099494934082031e+00,1.771939516067504883e+00,1.771779656410217285e+00,1.771619796752929688e+00,1.771459817886352539e+00,1.771300077438354492e+00,1.771140217781066895e+00,1.770980358123779297e+00,1.770820498466491699e+00,1.770660877227783203e+00,1.770501136779785156e+00,1.770341396331787109e+00,1.770181894302368164e+00,1.770022273063659668e+00,1.769862532615661621e+00,1.769703149795532227e+00,1.769543528556823730e+00,1.769384026527404785e+00,1.769224405288696289e+00,1.769065141677856445e+00,1.768905639648437500e+00,1.768746137619018555e+00,1.768586993217468262e+00,1.768427610397338867e+00,1.768268227577209473e+00,1.768109083175659180e+00,1.767949700355529785e+00,1.767790436744689941e+00,1.767631173133850098e+00,1.767472147941589355e+00,1.767313003540039062e+00,1.767153859138488770e+00,1.766994953155517578e+00,1.766835808753967285e+00,1.766676783561706543e+00,1.766517877578735352e+00,1.766358852386474609e+00,1.766199827194213867e+00,1.766040921211242676e+00,1.765882134437561035e+00,1.765723228454589844e+00,1.765564441680908203e+00,1.765405774116516113e+00,1.765246987342834473e+00,1.765088200569152832e+00
1.607529759407043457e+00,1.607398152351379395e+00,1.607266426086425781e+00,1.607134819030761719e+00,1.607003211975097656e+00,1.606871604919433594e+00,1.606740236282348633e+00,1.606608629226684570e+00,1.606477141380310059e+00,1.606345534324645996e+00,1.606214046478271484e+00,1.606082797050476074e+00,1.605951309204101562e+00,1.605819940567016602e+00,1.605688571929931641e+00,1.605557084083557129e+00,1.605425715446472168e+00,1.605294585227966309e+00,1.605163216590881348e+00,1.605031967163085938e+00,1.604900717735290527e+00,1.604769468307495117e+00,1.604638218879699707e+00,1.604506969451904297e+00,1.604375958442687988e+00,1.604244828224182129e+00,1.604113698005676270e+00,1.603982686996459961e+00,1.603851556777954102e+00,1.603720545768737793e+00,1.603589415550231934e+00,1.603458523750305176e+00,1.603327512741088867e+00,1.603196501731872559e+00,1.603065729141235352e+00,1.602934837341308594e+00,1.602803826332092285e+00,1.602673053741455078e+00,1.602542161941528320e+00,1.602411389350891113e+00,1.602280497550964355e+00,1.602149844169616699e+00,1.602019071578979492e+00,1.601888179779052734e+00,1.601757645606994629e+00,1.601626873016357422e+00,1.601496219635009766e+00,1.601365685462951660e+00,1.601234912872314453e+00,1.601104259490966797e+00,1.600973725318908691e+00,1.600843191146850586e+00,1.600712656974792480e+00,1.600582122802734375e+00,1.600451707839965820e+00,1.600321173667907715e+00,1.600190639495849609e+00,1.600060343742370605e+00,1.599929809570312500e+00,1.599799394607543945e+00,1.599668979644775391e+00,1.599538683891296387e+00,1.599408388137817383e+00,1.599277973175048828e+00,1.599147796630859375e+00,1.599017500877380371e+00,1.598887205123901367e+00,1.598756909370422363e+00,1.598626852035522461e+00,1.598496675491333008e+00,1.598366379737854004e+00,1.598236322402954102e+00,1.598106265068054199e+00,1.597976088523864746e+00,1.597846150398254395e+00,1.597715973854064941e+00,1.597585916519165039e+00,1.597455859184265137e+00,1.597325921058654785e+00,1.597195982933044434e+00
1.467080712318420410e+00,1.466971039772033691e+00,1.466861367225646973e+00,1.466751694679260254e+00,1.466642141342163086e+00,1.466532588005065918e+00,1.466423034667968750e+00,1.466313362121582031e+00,1.466203808784484863e+00,1.466094255447387695e+00,1.465984821319580078e+00,1.465875387191772461e+00,1.465765833854675293e+00,1.465656399726867676e+00,1.465546965599060059e+00,1.465437531471252441e+00,1.465328097343444824e+00,1.465218782424926758e+00,1.465109348297119141e+00,1.464999914169311523e+00,1.464890599250793457e+00,1.464781403541564941e+00,1.464671969413757324e+00,1.464562654495239258e+00,1.464453339576721191e+00,1.464344143867492676e+00,1.464234828948974609e+00,1.464125633239746094e+00,1.464016437530517578e+00,1.463907241821289062e+00,1.463798046112060547e+00,1.463688969612121582e+00,1.463579773902893066e+00,1.463470697402954102e+00,1.463361501693725586e+00,1.463252544403076172e+00,1.463143467903137207e+00,1.463034272193908691e+00,1.462925314903259277e+00,1.462816357612609863e+00,1.462707281112670898e+00,1.462598323822021484e+00,1.462489366531372070e+00,1.462380409240722656e+00,1.462271451950073242e+00,1.462162613868713379e+00,1.462053656578063965e+00,1.461944699287414551e+00,1.461835980415344238e+00,1.461727023124694824e+00,1.461618185043334961e+00,1.461509466171264648e+00,1.461400628089904785e+00,1.461291790008544922e+00,1.461182951927185059e+00,1.461074233055114746e+00,1.460965514183044434e+00,1.460856676101684570e+00,1.460748076438903809e+00,1.460639357566833496e+00,1.460530638694763184e+00,1.460422039031982422e+00,1.460313439369201660e+00,1.460204720497131348e+00,1.460096120834350586e+00,1.459987521171569824e+00,1.459878921508789062e+00,1.459770321846008301e+00,1.459661841392517090e+00,1.459553241729736328e+00,1.459444761276245117e+00,1.459336280822753906e+00,1.459227800369262695e+00,1.459119319915771484e+00,1.459010839462280273e+00,1.458902478218078613e+00,1.458793997764587402e+00,1.458685517311096191e+00,1.458577275276184082e+00,1.458468794822692871e+00
1.349201560020446777e+00,1.349108815193176270e+00,1.349016189575195312e+00,1.348923444747924805e+00,1.348830699920654297e+00,1.348737955093383789e+00,1.348645210266113281e+00,1.348552584648132324e+00,1.348459959030151367e+00,1.348367333412170410e+00,1.348274707794189453e+00,1.348182082176208496e+00,1.348089456558227539e+00,1.347996830940246582e+00,1.347904324531555176e+00,1.347811818122863770e+00,1.347719192504882812e+00,1.347626686096191406e+00,1.347534060478210449e+00,1.347441673278808594e+00,1.347349166870117188e+00,1.347256660461425781e+00,1.347164154052734375e+00,1.347071766853332520e+00,1.346979260444641113e+00,1.346886873245239258e+00,1.346794486045837402e+00,1.346701979637145996e+00,1.346609592437744141e+00,1.346517205238342285e+00,1.346424818038940430e+00,1.346332430839538574e+00,1.346240162849426270e+00,1.346147775650024414e+00,1.346055507659912109e+00,1.345963239669799805e+00,1.345870971679687500e+00,1.345778584480285645e+00,1.345686316490173340e+00,1.345594167709350586e+00,1.345501899719238281e+00,1.345409631729125977e+00,1.345317482948303223e+00,1.345225334167480469e+00,1.345133066177368164e+00,1.345040917396545410e+00,1.344948768615722656e+00,1.344856619834899902e+00,1.344764471054077148e+00,1.344672441482543945e+00,1.344580292701721191e+00,1.344488143920898438e+00,1.344396114349365234e+00,1.344303965568542480e+00,1.344211935997009277e+00,1.344119906425476074e+00,1.344027876853942871e+00,1.343935847282409668e+00,1.343843817710876465e+00,1.343751907348632812e+00,1.343659877777099609e+00,1.343567848205566406e+00,1.343475937843322754e+00,1.343384027481079102e+00,1.343291997909545898e+00,1.343200206756591797e+00,1.343108177185058594e+00,1.343016266822814941e+00,1.342924356460571289e+00,1.342832565307617188e+00,1.342740654945373535e+00,1.342648863792419434e+00,1.342557072639465332e+00,1.342465162277221680e+00,1.342373371124267578e+00,1.342281699180603027e+00,1.342189788818359375e+00,1.342097997665405273e+00,1.342006206512451172e+00,1.341914534568786621e+00
1.248856663703918457e+00,1.248777270317077637e+00,1.248697757720947266e+00,1.248618364334106445e+00,1.248538851737976074e+00,1.248459458351135254e+00,1.248380064964294434e+00,1.248300671577453613e+00,1.248221278190612793e+00,1.248141884803771973e+00,1.248062491416931152e+00,1.247983098030090332e+00,1.247903823852539062e+00,1.247824430465698242e+00,1.247745156288146973e+00,1.247665762901306152e+00,1.247586488723754883e+00,1.247507214546203613e+00,1.247427940368652344e+00,1.247348666191101074e+00,1.247269392013549805e+00,1.247190117835998535e+00,1.247110843658447266e+00,1.247031688690185547e+00,1.246952414512634277e+00,1.246873140335083008e+00,1.246793985366821289e+00,1.246714711189270020e+00,1.246635556221008301e+00,1.246556401252746582e+00,1.246477246284484863e+00,1.246398091316223145e+00,1.246318936347961426e+00,1.246239781379699707e+00,1.246160626411437988e+00,1.246081471443176270e+00,1.246002435684204102e+00,1.245923280715942383e+00,1.245844244956970215e+00,1.245765209197998047e+00,1.245686173439025879e+00,1.245607018470764160e+00,1.245527982711791992e+00,1.245449066162109375e+00,1.245370030403137207e+00,1.245290994644165039e+00,1.245211958885192871e+00,1.245133042335510254e+00,1.245054006576538086e+00,1.244975090026855469e+00,1.244896054267883301e+00,1.244817137718200684e+00,1.244738221168518066e+00,1.244659304618835449e+00,1.244580388069152832e+00,1.244501471519470215e+00,1.244422554969787598e+00,1.244343638420104980e+00,1.244264841079711914e+00,1.244185924530029297e+00,1.244107127189636230e+00,1.244028210639953613e+00,1.243949413299560547e+00,1.243870615959167480e+00,1.243791699409484863e+00,1.243712902069091797e+00,1.243634223937988281e+00,1.243555426597595215e+00,1.243476629257202148e+00,1.243397831916809082e+00,1.243319153785705566e+00,1.243240356445312500e+00,1.243161559104919434e+00,1.243082880973815918e+00,1.243004202842712402e+00,1.242925405502319336e+00,1.242846846580505371e+00,1.242768049240112305e+00,1.242689371109008789e+00,1.242610812187194824e+00
1.162404537200927734e+00,1.162335753440856934e+00,1.162266850471496582e+00,1.162198066711425781e+00,1.162129282951354980e+00,1.162060499191284180e+00,1.161991596221923828e+00,1.161922812461853027e+00,1.161854028701782227e+00,1.161785244941711426e+00,1.161716580390930176e+00,1.161647796630859375e+00,1.161579012870788574e+00,1.161510229110717773e+00,1.161441445350646973e+00,1.161372780799865723e+00,1.161304116249084473e+00,1.161235332489013672e+00,1.161166667938232422e+00,1.161098003387451172e+00,1.161029219627380371e+00,1.160960555076599121e+00,1.160892009735107422e+00,1.160823225975036621e+00,1.160754561424255371e+00,1.160685896873474121e+00,1.160617351531982422e+00,1.160548686981201172e+00,1.160480141639709473e+00,1.160411477088928223e+00,1.160342812538146973e+00,1.160274267196655273e+00,1.160205602645874023e+00,1.160137057304382324e+00,1.160068511962890625e+00,1.159999966621398926e+00,1.159931421279907227e+00,1.159862756729125977e+00,1.159794211387634277e+00,1.159725666046142578e+00,1.159657239913940430e+00,1.159588694572448730e+00,1.159520149230957031e+00,1.159451723098754883e+00,1.159383296966552734e+00,1.159314751625061035e+00,1.159246206283569336e+00,1.159177899360656738e+00,1.159109354019165039e+00,1.159040927886962891e+00,1.158972501754760742e+00,1.158904075622558594e+00,1.158835649490356445e+00,1.158767342567443848e+00,1.158698916435241699e+00,1.158630490303039551e+00,1.158562064170837402e+00,1.158493757247924805e+00,1.158425331115722656e+00,1.158356904983520508e+00,1.158288717269897461e+00,1.158220291137695312e+00,1.158151984214782715e+00,1.158083677291870117e+00,1.158015370368957520e+00,1.157946944236755371e+00,1.157878637313842773e+00,1.157810449600219727e+00,1.157742142677307129e+00,1.157673835754394531e+00,1.157605648040771484e+00,1.157537341117858887e+00,1.157469034194946289e+00,1.157400846481323242e+00,1.157332539558410645e+00,1.157264351844787598e+00,1.157196044921875000e+00,1.157127857208251953e+00,1.157059669494628906e+00,1.156991481781005859e+00
1.087146759033203125e+00,1.087086558341979980e+00,1.087026357650756836e+00,1.086966156959533691e+00,1.086905956268310547e+00,1.086845755577087402e+00,1.086785554885864258e+00,1.086725354194641113e+00,1.086665272712707520e+00,1.086605072021484375e+00,1.086544871330261230e+00,1.086484789848327637e+00,1.086424589157104492e+00,1.086364388465881348e+00,1.086304426193237305e+00,1.086244225502014160e+00,1.086184144020080566e+00,1.086123943328857422e+00,1.086063861846923828e+00,1.086003780364990234e+00,1.085943698883056641e+00,1.085883617401123047e+00,1.085823535919189453e+00,1.085763454437255859e+00,1.085703372955322266e+00,1.085643291473388672e+00,1.085583329200744629e+00,1.085523247718811035e+00,1.085463285446166992e+00,1.085403203964233398e+00,1.085343122482299805e+00,1.085283160209655762e+00,1.085223197937011719e+00,1.085163235664367676e+00,1.085103154182434082e+00,1.085043191909790039e+00,1.084983229637145996e+00,1.084923267364501953e+00,1.084863305091857910e+00,1.084803342819213867e+00,1.084743261337280273e+00,1.084683299064636230e+00,1.084623456001281738e+00,1.084563493728637695e+00,1.084503531455993652e+00,1.084443688392639160e+00,1.084383726119995117e+00,1.084323883056640625e+00,1.084263920783996582e+00,1.084204077720642090e+00,1.084144115447998047e+00,1.084084272384643555e+00,1.084024429321289062e+00,1.083964586257934570e+00,1.083904743194580078e+00,1.083844900131225586e+00,1.083785057067871094e+00,1.083725214004516602e+00,1.083665370941162109e+00,1.083605527877807617e+00,1.083545684814453125e+00,1.083485960960388184e+00,1.083426117897033691e+00,1.083366274833679199e+00,1.083306550979614258e+00,1.083246707916259766e+00,1.083186984062194824e+00,1.083127260208129883e+00,1.083067417144775391e+00,1.083007693290710449e+00,1.082947969436645508e+00,1.082888245582580566e+00,1.082828402519226074e+00,1.082768678665161133e+00,1.082709074020385742e+00,1.082649350166320801e+00,1.082589507102966309e+00,1.082529902458190918e+00,1.082470178604125977e+00,1.082410454750061035e+00
1.021041274070739746e+00,1.020988225936889648e+00,1.020935058593750000e+00,1.020882010459899902e+00,1.020828843116760254e+00,1.020775794982910156e+00,1.020722746849060059e+00,1.020669579505920410e+00,1.020616531372070312e+00,1.020563483238220215e+00,1.020510315895080566e+00,1.020457267761230469e+00,1.020404338836669922e+00,1.020351290702819824e+00,1.020298242568969727e+00,1.020245075225830078e+00,1.020192146301269531e+00,1.020139098167419434e+00,1.020086050033569336e+00,1.020033001899719238e+00,1.019980072975158691e+00,1.019927024841308594e+00,1.019873976707458496e+00,1.019821047782897949e+00,1.019768118858337402e+00,1.019715070724487305e+00,1.019662141799926758e+00,1.019609093666076660e+00,1.019556164741516113e+00,1.019503116607666016e+00,1.019450306892395020e+00,1.019397258758544922e+00,1.019344329833984375e+00,1.019291400909423828e+00,1.019238471984863281e+00,1.019185543060302734e+00,1.019132614135742188e+00,1.019079685211181641e+00,1.019026756286621094e+00,1.018973827362060547e+00,1.018921017646789551e+00,1.018868088722229004e+00,1.018815159797668457e+00,1.018762350082397461e+00,1.018709421157836914e+00,1.018656492233276367e+00,1.018603682518005371e+00,1.018550753593444824e+00,1.018497943878173828e+00,1.018445134162902832e+00,1.018392324447631836e+00,1.018339514732360840e+00,1.018286585807800293e+00,1.018233776092529297e+00,1.018180966377258301e+00,1.018128156661987305e+00,1.018075346946716309e+00,1.018022537231445312e+00,1.017969846725463867e+00,1.017917037010192871e+00,1.017864227294921875e+00,1.017811417579650879e+00,1.017758727073669434e+00,1.017705917358398438e+00,1.017653107643127441e+00,1.017600417137145996e+00,1.017547607421875000e+00,1.017494916915893555e+00,1.017442107200622559e+00,1.017389416694641113e+00,1.017336726188659668e+00,1.017284035682678223e+00,1.017231225967407227e+00,1.017178535461425781e+00,1.017125844955444336e+00,1.017073154449462891e+00,1.017020463943481445e+00,1.016967773437500000e+00,1.016915082931518555e+00,1.016862392425537109e+00
9.625143408775329590e-01,9.624670743942260742e-01,9.624199271202087402e-01,9.623726606369018555e-01,9.623255133628845215e-01,9.622783660888671875e-01,9.622311592102050781e-01,9.621840119361877441e-01,9.621368050575256348e-01,9.620896577835083008e-01,9.620425701141357422e-01,9.619953632354736328e-01,9.619482159614562988e-01,9.619010090827941895e-01,9.618539214134216309e-01,9.618067145347595215e-01,9.617596268653869629e-01,9.617125988006591797e-01,9.616653919219970703e-01,9.616183042526245117e-01,9.615711569786071777e-01,9.615240693092346191e-01,9.614770412445068359e-01,9.614298343658447266e-01,9.613828063011169434e-01,9.613356590270996094e-01,9.612886309623718262e-01,9.612414836883544922e-01,9.611944556236267090e-01,9.611474275588989258e-01,9.611002802848815918e-01,9.610532522201538086e-01,9.610061645507812500e-01,9.609591364860534668e-01,9.609121084213256836e-01,9.608650207519531250e-01,9.608180522918701172e-01,9.607709050178527832e-01,9.607239365577697754e-01,9.606769680976867676e-01,9.606298804283142090e-01,9.605829119682312012e-01,9.605358242988586426e-01,9.604888558387756348e-01,9.604418277740478516e-01,9.603948593139648438e-01,9.603478908538818359e-01,9.603008627891540527e-01,9.602538943290710449e-01,9.602068662643432617e-01,9.601599574089050293e-01,9.601129293441772461e-01,9.600659608840942383e-01,9.600190520286560059e-01,9.599720239639282227e-01,9.599251151084899902e-01,9.598782062530517578e-01,9.598312377929687500e-01,9.597843289375305176e-01,9.597374200820922852e-01,9.596904516220092773e-01,9.596436023712158203e-01,9.595966935157775879e-01,9.595497250556945801e-01,9.595028758049011230e-01,9.594559669494628906e-01,9.594089984893798828e-01,9.593621492385864258e-01,9.593152403831481934e-01,9.592683911323547363e-01,9.592215418815612793e-01,9.591745734214782715e-01,9.591277837753295898e-01,9.590809345245361328e-01,9.590340256690979004e-01,9.589871764183044434e-01,9.589403867721557617e-01,9.588934779167175293e-01,9.588466882705688477e-01,9.587998390197753906e-01
9.103331565856933594e-01,9.102909564971923828e-01,9.102486968040466309e-01,9.102064967155456543e-01,9.101643562316894531e-01,9.101220965385437012e-01,9.100798964500427246e-01,9.100376367568969727e-01,9.099954962730407715e-01,9.099533557891845703e-01,9.099110960960388184e-01,9.098689556121826172e-01,9.098267555236816406e-01,9.097846150398254395e-01,9.097424745559692383e-01,9.097002744674682617e-01,9.096581339836120605e-01,9.096158742904663086e-01,9.095737934112548828e-01,9.095315933227539062e-01,9.094894528388977051e-01,9.094473719596862793e-01,9.094051718711853027e-01,9.093630909919738770e-01,9.093208909034729004e-01,9.092788100242614746e-01,9.092367291450500488e-01,9.091945290565490723e-01,9.091524481773376465e-01,9.091103076934814453e-01,9.090682268142700195e-01,9.090260863304138184e-01,9.089840054512023926e-01,9.089419245719909668e-01,9.088997840881347656e-01,9.088577628135681152e-01,9.088156223297119141e-01,9.087735414505004883e-01,9.087315201759338379e-01,9.086893796920776367e-01,9.086473584175109863e-01,9.086052775382995605e-01,9.085632562637329102e-01,9.085212349891662598e-01,9.084790945053100586e-01,9.084370732307434082e-01,9.083949923515319824e-01,9.083529710769653320e-01,9.083108901977539062e-01,9.082688689231872559e-01,9.082269072532653809e-01,9.081848263740539551e-01,9.081428647041320801e-01,9.081007838249206543e-01,9.080588221549987793e-01,9.080167412757873535e-01,9.079747796058654785e-01,9.079328179359436035e-01,9.078907370567321777e-01,9.078487753868103027e-01,9.078068137168884277e-01,9.077647924423217773e-01,9.077228307723999023e-01,9.076809287071228027e-01,9.076388478279113770e-01,9.075969457626342773e-01,9.075549840927124023e-01,9.075129628181457520e-01,9.074710607528686523e-01,9.074291586875915527e-01,9.073871374130249023e-01,9.073452353477478027e-01,9.073032140731811523e-01,9.072613120079040527e-01,9.072194099426269531e-01,9.071774482727050781e-01,9.071355462074279785e-01,9.070936441421508789e-01,9.070516824722290039e-01,9.070098400115966797e-01
8.635189533233642578e-01,8.634809851646423340e-01,8.634429574012756348e-01,8.634049892425537109e-01,8.633669614791870117e-01,8.633289933204650879e-01,8.632909655570983887e-01,8.632530570030212402e-01,8.632151484489440918e-01,8.631771206855773926e-01,8.631391525268554688e-01,8.631011843681335449e-01,8.630632758140563965e-01,8.630253076553344727e-01,8.629873394966125488e-01,8.629494309425354004e-01,8.629114627838134766e-01,8.628735542297363281e-01,8.628356456756591797e-01,8.627976775169372559e-01,8.627597689628601074e-01,8.627218008041381836e-01,8.626838922500610352e-01,8.626459240913391113e-01,8.626080751419067383e-01,8.625701665878295898e-01,8.625321984291076660e-01,8.624943494796752930e-01,8.624563813209533691e-01,8.624185323715209961e-01,8.623806834220886230e-01,8.623427152633666992e-01,8.623048663139343262e-01,8.622669577598571777e-01,8.622291088104248047e-01,8.621911406517028809e-01,8.621533513069152832e-01,8.621155023574829102e-01,8.620775938034057617e-01,8.620397448539733887e-01,8.620018362998962402e-01,8.619639873504638672e-01,8.619261980056762695e-01,8.618882894515991211e-01,8.618505001068115234e-01,8.618125915527343750e-01,8.617748022079467773e-01,8.617369532585144043e-01,8.616991043090820312e-01,8.616613149642944336e-01,8.616234064102172852e-01,8.615856170654296875e-01,8.615477681159973145e-01,8.615099787712097168e-01,8.614721894264221191e-01,8.614343404769897461e-01,8.613965511322021484e-01,8.613587021827697754e-01,8.613209128379821777e-01,8.612830638885498047e-01,8.612453341484069824e-01,8.612076044082641602e-01,8.611697554588317871e-01,8.611319661140441895e-01,8.610942363739013672e-01,8.610563874244689941e-01,8.610186576843261719e-01,8.609809279441833496e-01,8.609431385993957520e-01,8.609054088592529297e-01,8.608676791191101074e-01,8.608298897743225098e-01,8.607921600341796875e-01,8.607544302940368652e-01,8.607166409492492676e-01,8.606789112091064453e-01,8.606411218643188477e-01,8.606033921241760254e-01,8.605657219886779785e-01,8.605279326438903809e-01
8.212840557098388672e-01,8.212496638298034668e-01,8.212153315544128418e-01,8.211809396743774414e-01,8.211466073989868164e-01,8.211122751235961914e-01,8.210778832435607910e-01,8.210435509681701660e-01,8.210091590881347656e-01,8.209748864173889160e-01,8.209404945373535156e-01,8.209061622619628906e-01,8.208718895912170410e-01,8.208374977111816406e-01,8.208032250404357910e-01,8.207688331604003906e-01,8.207345604896545410e-01,8.207002878189086914e-01,8.206658959388732910e-01,8.206316232681274414e-01,8.205972909927368164e-01,8.205630183219909668e-01,8.205287456512451172e-01,8.204943537712097168e-01,8.204600811004638672e-01,8.204257488250732422e-01,8.203914761543273926e-01,8.203571438789367676e-01,8.203229308128356934e-01,8.202886581420898438e-01,8.202543258666992188e-01,8.202201128005981445e-01,8.201857805252075195e-01,8.201515078544616699e-01,8.201172947883605957e-01,8.200829625129699707e-01,8.200487494468688965e-01,8.200144171714782715e-01,8.199802041053771973e-01,8.199458718299865723e-01,8.199116587638854980e-01,8.198774456977844238e-01,8.198431730270385742e-01,8.198089599609375000e-01,8.197746872901916504e-01,8.197404742240905762e-01,8.197062611579895020e-01,8.196719884872436523e-01,8.196377754211425781e-01,8.196035027503967285e-01,8.195692896842956543e-01,8.195351362228393555e-01,8.195008635520935059e-01,8.194666504859924316e-01,8.194323778152465820e-01,8.193982243537902832e-01,8.193639516830444336e-01,8.193297982215881348e-01,8.192956447601318359e-01,8.192613720893859863e-01,8.192272186279296875e-01,8.191930055618286133e-01,8.191587924957275391e-01,8.191245794296264648e-01,8.190904259681701660e-01,8.190562725067138672e-01,8.190220594406127930e-01,8.189879059791564941e-01,8.189537525177001953e-01,8.189195394515991211e-01,8.188853859901428223e-01,8.188512921333312988e-01,8.188170790672302246e-01,8.187829256057739258e-01,8.187488317489624023e-01,8.187146186828613281e-01,8.186805248260498047e-01,8.186463713645935059e-01,8.186122179031372070e-01,8.185780644416809082e-01
7.829879522323608398e-01,7.829567790031433105e-01,7.829254865646362305e-01,7.828942537307739258e-01,7.828630805015563965e-01,7.828318476676940918e-01,7.828006148338317871e-01,7.827693819999694824e-01,7.827381491661071777e-01,7.827069759368896484e-01,7.826757431030273438e-01,7.826445698738098145e-01,7.826132774353027344e-01,7.825821042060852051e-01,7.825508713722229004e-01,7.825196981430053711e-01,7.824885249137878418e-01,7.824572920799255371e-01,7.824261188507080078e-01,7.823948860168457031e-01,7.823637127876281738e-01,7.823325991630554199e-01,7.823013663291931152e-01,7.822701930999755859e-01,7.822389602661132812e-01,7.822078466415405273e-01,7.821766734123229980e-01,7.821455001831054688e-01,7.821143269538879395e-01,7.820831537246704102e-01,7.820519804954528809e-01,7.820208072662353516e-01,7.819896340370178223e-01,7.819585204124450684e-01,7.819273471832275391e-01,7.818962335586547852e-01,7.818650007247924805e-01,7.818338871002197266e-01,7.818027734756469727e-01,7.817716002464294434e-01,7.817404866218566895e-01,7.817093133926391602e-01,7.816781997680664062e-01,7.816470265388488770e-01,7.816159725189208984e-01,7.815848588943481445e-01,7.815536856651306152e-01,7.815225720405578613e-01,7.814914584159851074e-01,7.814603447914123535e-01,7.814292311668395996e-01,7.813981175422668457e-01,7.813670039176940918e-01,7.813358902931213379e-01,7.813047766685485840e-01,7.812737226486206055e-01,7.812426090240478516e-01,7.812114953994750977e-01,7.811803817749023438e-01,7.811493277549743652e-01,7.811182141304016113e-01,7.810871601104736328e-01,7.810561060905456543e-01,7.810249328613281250e-01,7.809938788414001465e-01,7.809627652168273926e-01,7.809317708015441895e-01,7.809005975723266602e-01,7.808696031570434570e-01,7.808385491371154785e-01,7.808074355125427246e-01,7.807763814926147461e-01,7.807453870773315430e-01,7.807142734527587891e-01,7.806832790374755859e-01,7.806522250175476074e-01,7.806211709976196289e-01,7.805901169776916504e-01,7.805591225624084473e-01,7.805280089378356934e-01
7.481042742729187012e-01,7.480757832527160645e-01,7.480472326278686523e-01,7.480187416076660156e-01,7.479901909828186035e-01,7.479616999626159668e-01,7.479331493377685547e-01,7.479046583175659180e-01,7.478762269020080566e-01,7.478476762771606445e-01,7.478191852569580078e-01,7.477906942367553711e-01,7.477622032165527344e-01,7.477337718009948730e-01,7.477052211761474609e-01,7.476767897605895996e-01,7.476482391357421875e-01,7.476198077201843262e-01,7.475912570953369141e-01,7.475628256797790527e-01,7.475343942642211914e-01,7.475059032440185547e-01,7.474774122238159180e-01,7.474489212036132812e-01,7.474204897880554199e-01,7.473920583724975586e-01,7.473635673522949219e-01,7.473351359367370605e-01,7.473066449165344238e-01,7.472782135009765625e-01,7.472497820854187012e-01,7.472212910652160645e-01,7.471928596496582031e-01,7.471643686294555664e-01,7.471359968185424805e-01,7.471075057983398438e-01,7.470790743827819824e-01,7.470506429672241211e-01,7.470222115516662598e-01,7.469937801361083984e-01,7.469653487205505371e-01,7.469369173049926758e-01,7.469085454940795898e-01,7.468800544738769531e-01,7.468516826629638672e-01,7.468231916427612305e-01,7.467948198318481445e-01,7.467663884162902832e-01,7.467379570007324219e-01,7.467095851898193359e-01,7.466811537742614746e-01,7.466527819633483887e-01,7.466243505477905273e-01,7.465959787368774414e-01,7.465676069259643555e-01,7.465391159057617188e-01,7.465108036994934082e-01,7.464823126792907715e-01,7.464540004730224609e-01,7.464256286621093750e-01,7.463971972465515137e-01,7.463688254356384277e-01,7.463403940200805664e-01,7.463120818138122559e-01,7.462836503982543945e-01,7.462552785873413086e-01,7.462269663810729980e-01,7.461985349655151367e-01,7.461702227592468262e-01,7.461417913436889648e-01,7.461134195327758789e-01,7.460850477218627930e-01,7.460567355155944824e-01,7.460283637046813965e-01,7.459999918937683105e-01,7.459716796875000000e-01,7.459433078765869141e-01,7.459149360656738281e-01,7.458866238594055176e-01,7.458583116531372070e-01
7.161962389945983887e-01,7.161700725555419922e-01,7.161439657211303711e-01,7.161177992820739746e-01,7.160916924476623535e-01,7.160655856132507324e-01,7.160394191741943359e-01,7.160133123397827148e-01,7.159871459007263184e-01,7.159610986709594727e-01,7.159349322319030762e-01,7.159088253974914551e-01,7.158827185630798340e-01,7.158566117286682129e-01,7.158305048942565918e-01,7.158043980598449707e-01,7.157782912254333496e-01,7.157521843910217285e-01,7.157260775566101074e-01,7.157000303268432617e-01,7.156738638877868652e-01,7.156478166580200195e-01,7.156216502189636230e-01,7.155956029891967773e-01,7.155695557594299316e-01,7.155433893203735352e-01,7.155173420906066895e-01,7.154912352561950684e-01,7.154651880264282227e-01,7.154391407966613770e-01,7.154129743576049805e-01,7.153869271278381348e-01,7.153608202934265137e-01,7.153347730636596680e-01,7.153087258338928223e-01,7.152826189994812012e-01,7.152565717697143555e-01,7.152305245399475098e-01,7.152044773101806641e-01,7.151783704757690430e-01,7.151523232460021973e-01,7.151262760162353516e-01,7.151002287864685059e-01,7.150741815567016602e-01,7.150480747222900391e-01,7.150220870971679688e-01,7.149960398674011230e-01,7.149699330329895020e-01,7.149439454078674316e-01,7.149178385734558105e-01,7.148918509483337402e-01,7.148657441139221191e-01,7.148397564888000488e-01,7.148137688636779785e-01,7.147876620292663574e-01,7.147616744041442871e-01,7.147356271743774414e-01,7.147095799446105957e-01,7.146835923194885254e-01,7.146575450897216797e-01,7.146315574645996094e-01,7.146055102348327637e-01,7.145795226097106934e-01,7.145535349845886230e-01,7.145274877548217773e-01,7.145015001296997070e-01,7.144754528999328613e-01,7.144494652748107910e-01,7.144234180450439453e-01,7.143974304199218750e-01,7.143714427947998047e-01,7.143453955650329590e-01,7.143194675445556641e-01,7.142934203147888184e-01,7.142674326896667480e-01,7.142413854598999023e-01,7.142154574394226074e-01,7.141894698143005371e-01,7.141634225845336914e-01,7.141374945640563965e-01
6.868987083435058594e-01,6.868746876716613770e-01,6.868506073951721191e-01,6.868265867233276367e-01,6.868025660514831543e-01,6.867785453796386719e-01,6.867545247077941895e-01,6.867304444313049316e-01,6.867064237594604492e-01,6.866824626922607422e-01,6.866583824157714844e-01,6.866343617439270020e-01,6.866103410720825195e-01,6.865863204002380371e-01,6.865622997283935547e-01,6.865382790565490723e-01,6.865143179893493652e-01,6.864902377128601074e-01,6.864662766456604004e-01,6.864421963691711426e-01,6.864182353019714355e-01,6.863942742347717285e-01,6.863701939582824707e-01,6.863462328910827637e-01,6.863222122192382812e-01,6.862982511520385742e-01,6.862741708755493164e-01,6.862502098083496094e-01,6.862262487411499023e-01,6.862022280693054199e-01,6.861782670021057129e-01,6.861542463302612305e-01,6.861302852630615234e-01,6.861063241958618164e-01,6.860823035240173340e-01,6.860583424568176270e-01,6.860343217849731445e-01,6.860103607177734375e-01,6.859863996505737305e-01,6.859623789787292480e-01,6.859384179115295410e-01,6.859144568443298340e-01,6.858904957771301270e-01,6.858664751052856445e-01,6.858425736427307129e-01,6.858186125755310059e-01,6.857945919036865234e-01,6.857706904411315918e-01,6.857466697692871094e-01,6.857227683067321777e-01,6.856988072395324707e-01,6.856747865676879883e-01,6.856508851051330566e-01,6.856269240379333496e-01,6.856029629707336426e-01,6.855790019035339355e-01,6.855550408363342285e-01,6.855311393737792969e-01,6.855071783065795898e-01,6.854832768440246582e-01,6.854592561721801758e-01,6.854353547096252441e-01,6.854114532470703125e-01,6.853874921798706055e-01,6.853635907173156738e-01,6.853395700454711914e-01,6.853156685829162598e-01,6.852917671203613281e-01,6.852678060531616211e-01,6.852439045906066895e-01,6.852199435234069824e-01,6.851960420608520508e-01,6.851721405982971191e-01,6.851482391357421875e-01,6.851243376731872559e-01,6.851003766059875488e-01,6.850764751434326172e-01,6.850525140762329102e-01,6.850286722183227539e-01,6.850047111511230469e-01
6.599039435386657715e-01,6.598817706108093262e-01,6.598595976829528809e-01,6.598374247550964355e-01,6.598151922225952148e-01,6.597930788993835449e-01,6.597708463668823242e-01,6.597486734390258789e-01,6.597265005111694336e-01,6.597043275833129883e-01,6.596821546554565430e-01,6.596599817276000977e-01,6.596378087997436523e-01,6.596156954765319824e-01,6.595934629440307617e-01,6.595713496208190918e-01,6.595491170883178711e-01,6.595270037651062012e-01,6.595047712326049805e-01,6.594826579093933105e-01,6.594605445861816406e-01,6.594383120536804199e-01,6.594161987304687500e-01,6.593940258026123047e-01,6.593719124794006348e-01,6.593497395515441895e-01,6.593275666236877441e-01,6.593054533004760742e-01,6.592832803726196289e-01,6.592611670494079590e-01,6.592389941215515137e-01,6.592168211936950684e-01,6.591947078704833984e-01,6.591725349426269531e-01,6.591504216194152832e-01,6.591282486915588379e-01,6.591061353683471680e-01,6.590840220451354980e-01,6.590619087219238281e-01,6.590397953987121582e-01,6.590176224708557129e-01,6.589955091476440430e-01,6.589733958244323730e-01,6.589512825012207031e-01,6.589291691780090332e-01,6.589069962501525879e-01,6.588848829269409180e-01,6.588627696037292480e-01,6.588406562805175781e-01,6.588185429573059082e-01,6.587964296340942383e-01,6.587743163108825684e-01,6.587522029876708984e-01,6.587300896644592285e-01,6.587080359458923340e-01,6.586858630180358887e-01,6.586638092994689941e-01,6.586416363716125488e-01,6.586195826530456543e-01,6.585974097251892090e-01,6.585753560066223145e-01,6.585533022880554199e-01,6.585311293601989746e-01,6.585090756416320801e-01,6.584869623184204102e-01,6.584649085998535156e-01,6.584427952766418457e-01,6.584206819534301758e-01,6.583986282348632812e-01,6.583765149116516113e-01,6.583544611930847168e-01,6.583324074745178223e-01,6.583102941513061523e-01,6.582882404327392578e-01,6.582661271095275879e-01,6.582440733909606934e-01,6.582219600677490234e-01,6.581999063491821289e-01,6.581778526306152344e-01,6.581557393074035645e-01
