4.894809246063232422e+00,5.000000000000000000e+00,5.000000000000000000e+00,5.000000000000000000e+00,5.000000000000000000e+00,5.000000000000000000e+00,5.000000000000000000e+00,5.000000000000000000e+00,5.000000000000000000e+00,5.000000000000000000e+00,5.000000000000000000e+00,5.000000000000000000e+00,5.000000000000000000e+00,5.000000000000000000e+00,5.000000000000000000e+00,5.000000000000000000e+00,5.000000000000000000e+00,5.000000000000000000e+00,5.000000000000000000e+00,5.000000000000000000e+00,5.000000000000000000e+00,5.000000000000000000e+00,5.000000000000000000e+00,5.000000000000000000e+00,5.000000000000000000e+00,5.000000000000000000e+00,5.000000000000000000e+00,5.000000000000000000e+00,5.000000000000000000e+00,2.294628858566284180e+00,2.284170389175415039e+00,2.188269376754760742e+00,2.123933076858520508e+00,2.090008974075317383e+00,2.060792684555053711e+00,1.982542991638183594e+00,1.978743195533752441e+00,1.999609827995300293e+00,2.121192216873168945e+00,5.000000000000000000e+00,5.000000000000000000e+00,5.000000000000000000e+00,5.000000000000000000e+00,5.000000000000000000e+00,5.000000000000000000e+00,5.000000000000000000e+00,5.000000000000000000e+00,5.000000000000000000e+00,5.000000000000000000e+00,5.000000000000000000e+00,5.000000000000000000e+00,5.000000000000000000e+00,5.000000000000000000e+00,5.000000000000000000e+00,5.000000000000000000e+00,4.985020637512207031e+00,4.784747600555419922e+00,4.599945068359375000e+00,4.428886890411376953e+00,4.270134449005126953e+00,4.122387886047363281e+00,3.984523296356201172e+00,3.855581521987915039e+00,3.734723329544067383e+00,3.621212005615234375e+00,3.514396905899047852e+00,3.413702726364135742e+00,3.318618297576904297e+00,3.228686809539794922e+00,3.143501043319702148e+00,3.062695026397705078e+00,2.985939025878906250e+00,2.912936210632324219e+00,2.843417882919311523e+00,2.777140378952026367e+00,2.713882207870483398e+00,2.653441905975341797e+00,2.595634698867797852e+00,2.540292739868164062e+00,2.487261295318603516e+00
4.894693374633789062e+00,5.000000000000000000e+00,5.000000000000000000e+00,5.000000000000000000e+00,5.000000000000000000e+00,5.000000000000000000e+00,5.000000000000000000e+00,5.000000000000000000e+00,5.000000000000000000e+00,5.000000000000000000e+00,5.000000000000000000e+00,5.000000000000000000e+00,5.000000000000000000e+00,5.000000000000000000e+00,5.000000000000000000e+00,5.000000000000000000e+00,5.000000000000000000e+00,5.000000000000000000e+00,5.000000000000000000e+00,5.000000000000000000e+00,5.000000000000000000e+00,5.000000000000000000e+00,5.000000000000000000e+00,5.000000000000000000e+00,5.000000000000000000e+00,5.000000000000000000e+00,5.000000000000000000e+00,5.000000000000000000e+00,5.000000000000000000e+00,2.298854112625122070e+00,2.286915540695190430e+00,2.161587715148925781e+00,2.107205867767333984e+00,2.077292442321777344e+00,2.051677465438842773e+00,1.990694880485534668e+00,1.979938626289367676e+00,1.988907575607299805e+00,2.126738548278808594e+00,5.000000000000000000e+00,5.000000000000000000e+00,5.000000000000000000e+00,5.000000000000000000e+00,5.000000000000000000e+00,5.000000000000000000e+00,5.000000000000000000e+00,5.000000000000000000e+00,5.000000000000000000e+00,5.000000000000000000e+00,5.000000000000000000e+00,5.000000000000000000e+00,5.000000000000000000e+00,5.000000000000000000e+00,5.000000000000000000e+00,5.000000000000000000e+00,4.985021114349365234e+00,4.784748077392578125e+00,4.599996089935302734e+00,4.428998470306396484e+00,4.270258426666259766e+00,4.122503280639648438e+00,3.984631061553955078e+00,3.855682611465454102e+00,3.734818220138549805e+00,3.621301174163818359e+00,3.514480829238891602e+00,3.413782119750976562e+00,3.318692922592163086e+00,3.228757619857788086e+00,3.143568277359008789e+00,3.062758684158325195e+00,2.985999584197998047e+00,2.912993907928466797e+00,2.843472719192504883e+00,2.777192831039428711e+00,2.713932275772094727e+00,2.653489589691162109e+00,2.595680475234985352e+00,2.540336608886718750e+00,2.487303495407104492e+00
4.894579887390136719e+00,5.000000000000000000e+00,5.000000000000000000e+00,5.000000000000000000e+00,5.000000000000000000e+00,5.000000000000000000e+00,5.000000000000000000e+00,5.000000000000000000e+00,5.000000000000000000e+00,5.000000000000000000e+00,5.000000000000000000e+00,5.000000000000000000e+00,5.000000000000000000e+00,5.000000000000000000e+00,5.000000000000000000e+00,5.000000000000000000e+00,5.000000000000000000e+00,5.000000000000000000e+00,5.000000000000000000e+00,5.000000000000000000e+00,5.000000000000000000e+00,5.000000000000000000e+00,5.000000000000000000e+00,5.000000000000000000e+00,5.000000000000000000e+00,5.000000000000000000e+00,5.000000000000000000e+00,5.000000000000000000e+00,5.000000000000000000e+00,2.330091953277587891e+00,2.302771806716918945e+00,2.112903594970703125e+00,2.096401691436767578e+00,2.062050104141235352e+00,2.045906782150268555e+00,2.006420373916625977e+00,1.986906409263610840e+00,1.991837382316589355e+00,2.143112182617187500e+00,5.000000000000000000e+00,5.000000000000000000e+00,5.000000000000000000e+00,5.000000000000000000e+00,5.000000000000000000e+00,5.000000000000000000e+00,5.000000000000000000e+00,5.000000000000000000e+00,5.000000000000000000e+00,5.000000000000000000e+00,5.000000000000000000e+00,5.000000000000000000e+00,5.000000000000000000e+00,5.000000000000000000e+00,5.000000000000000000e+00,5.000000000000000000e+00,4.985087871551513672e+00,4.784884452819824219e+00,4.600140571594238281e+00,4.429131984710693359e+00,4.270382404327392578e+00,4.122618675231933594e+00,3.984739065170288086e+00,3.855783462524414062e+00,3.734912872314453125e+00,3.621390104293823242e+00,3.514564752578735352e+00,3.413861274719238281e+00,3.318767786026000977e+00,3.228828668594360352e+00,3.143635511398315430e+00,3.062822580337524414e+00,2.986060142517089844e+00,2.913051605224609375e+00,2.843527793884277344e+00,2.777245283126831055e+00,2.713982343673706055e+00,2.653537511825561523e+00,2.595726251602172852e+00,2.540380477905273438e+00,2.487345457077026367e+00
4.894466400146484375e+00,5.000000000000000000e+00,5.000000000000000000e+00,5.000000000000000000e+00,5.000000000000000000e+00,5.000000000000000000e+00,5.000000000000000000e+00,5.000000000000000000e+00,5.000000000000000000e+00,5.000000000000000000e+00,5.000000000000000000e+00,5.000000000000000000e+00,5.000000000000000000e+00,5.000000000000000000e+00,5.000000000000000000e+00,5.000000000000000000e+00,5.000000000000000000e+00,5.000000000000000000e+00,5.000000000000000000e+00,5.000000000000000000e+00,5.000000000000000000e+00,5.000000000000000000e+00,5.000000000000000000e+00,5.000000000000000000e+00,5.000000000000000000e+00,5.000000000000000000e+00,5.000000000000000000e+00,5.000000000000000000e+00,5.000000000000000000e+00,5.000000000000000000e+00,2.328005075454711914e+00,2.110710620880126953e+00,2.096510410308837891e+00,2.051327705383300781e+00,2.041301250457763672e+00,2.039657831192016602e+00,1.995530724525451660e+00,1.995871543884277344e+00,2.135236501693725586e+00,5.000000000000000000e+00,5.000000000000000000e+00,5.000000000000000000e+00,5.000000000000000000e+00,5.000000000000000000e+00,5.000000000000000000e+00,5.000000000000000000e+00,5.000000000000000000e+00,5.000000000000000000e+00,5.000000000000000000e+00,5.000000000000000000e+00,5.000000000000000000e+00,5.000000000000000000e+00,5.000000000000000000e+00,5.000000000000000000e+00,5.000000000000000000e+00,4.985257148742675781e+00,4.785040378570556641e+00,4.600284576416015625e+00,4.429265975952148438e+00,4.270506858825683594e+00,4.122734546661376953e+00,3.984847307205200195e+00,3.855885028839111328e+00,3.735008239746093750e+00,3.621479749679565430e+00,3.514649152755737305e+00,3.413940668106079102e+00,3.318843126296997070e+00,3.228899717330932617e+00,3.143702745437622070e+00,3.062886476516723633e+00,2.986120939254760742e+00,2.913109540939331055e+00,2.843582868576049805e+00,2.777297973632812500e+00,2.714032649993896484e+00,2.653585433959960938e+00,2.595772266387939453e+00,2.540424346923828125e+00,2.487387657165527344e+00
4.894352912902832031e+00,5.000000000000000000e+00,5.000000000000000000e+00,5.000000000000000000e+00,5.000000000000000000e+00,5.000000000000000000e+00,5.000000000000000000e+00,5.000000000000000000e+00,5.000000000000000000e+00,5.000000000000000000e+00,5.000000000000000000e+00,5.000000000000000000e+00,5.000000000000000000e+00,5.000000000000000000e+00,5.000000000000000000e+00,5.000000000000000000e+00,5.000000000000000000e+00,5.000000000000000000e+00,5.000000000000000000e+00,5.000000000000000000e+00,5.000000000000000000e+00,5.000000000000000000e+00,5.000000000000000000e+00,5.000000000000000000e+00,5.000000000000000000e+00,5.000000000000000000e+00,5.000000000000000000e+00,5.000000000000000000e+00,5.000000000000000000e+00,5.000000000000000000e+00,2.156029939651489258e+00,2.108246088027954102e+00,2.096843242645263672e+00,2.060674905776977539e+00,2.045255899429321289e+00,2.043593168258666992e+00,2.004062891006469727e+00,1.999905586242675781e+00,2.113704919815063477e+00,5.000000000000000000e+00,5.000000000000000000e+00,5.000000000000000000e+00,5.000000000000000000e+00,5.000000000000000000e+00,5.000000000000000000e+00,5.000000000000000000e+00,5.000000000000000000e+00,5.000000000000000000e+00,5.000000000000000000e+00,5.000000000000000000e+00,5.000000000000000000e+00,5.000000000000000000e+00,5.000000000000000000e+00,5.000000000000000000e+00,5.000000000000000000e+00,4.985425949096679688e+00,4.785195827484130859e+00,4.600428104400634766e+00,4.429399013519287109e+00,4.270630359649658203e+00,4.122849941253662109e+00,3.984955310821533203e+00,3.855986118316650391e+00,3.735102891921997070e+00,3.621568918228149414e+00,3.514733076095581055e+00,3.414020061492919922e+00,3.318917989730834961e+00,3.228970527648925781e+00,3.143769979476928711e+00,3.062950134277343750e+00,2.986181497573852539e+00,2.913166999816894531e+00,2.843637943267822266e+00,2.777350425720214844e+00,2.714082717895507812e+00,2.653633356094360352e+00,2.595818042755126953e+00,2.540468215942382812e+00,2.487429618835449219e+00
4.894238948822021484e+00,5.000000000000000000e+00,5.000000000000000000e+00,5.000000000000000000e+00,5.000000000000000000e+00,5.000000000000000000e+00,5.000000000000000000e+00,5.000000000000000000e+00,5.000000000000000000e+00,5.000000000000000000e+00,5.000000000000000000e+00,5.000000000000000000e+00,5.000000000000000000e+00,5.000000000000000000e+00,5.000000000000000000e+00,5.000000000000000000e+00,5.000000000000000000e+00,5.000000000000000000e+00,5.000000000000000000e+00,5.000000000000000000e+00,5.000000000000000000e+00,5.000000000000000000e+00,5.000000000000000000e+00,5.000000000000000000e+00,5.000000000000000000e+00,5.000000000000000000e+00,5.000000000000000000e+00,5.000000000000000000e+00,5.000000000000000000e+00,5.000000000000000000e+00,2.172121763229370117e+00,2.113915205001831055e+00,2.103782653808593750e+00,2.084351301193237305e+00,2.055921316146850586e+00,2.053301334381103516e+00,2.007167577743530273e+00,1.997662425041198730e+00,2.036439180374145508e+00,2.161311864852905273e+00,5.000000000000000000e+00,5.000000000000000000e+00,5.000000000000000000e+00,5.000000000000000000e+00,5.000000000000000000e+00,5.000000000000000000e+00,5.000000000000000000e+00,5.000000000000000000e+00,5.000000000000000000e+00,5.000000000000000000e+00,5.000000000000000000e+00,5.000000000000000000e+00,5.000000000000000000e+00,5.000000000000000000e+00,5.000000000000000000e+00,4.985595226287841797e+00,4.785351753234863281e+00,4.600572586059570312e+00,4.429532527923583984e+00,4.270754814147949219e+00,4.122965812683105469e+00,3.985063314437866211e+00,3.856086969375610352e+00,3.735197782516479492e+00,3.621657848358154297e+00,3.514816999435424805e+00,3.414099216461181641e+00,3.318992853164672852e+00,3.229041337966918945e+00,3.143837213516235352e+00,3.063014030456542969e+00,2.986242055892944336e+00,2.913224697113037109e+00,2.843692779541015625e+00,2.777402639389038086e+00,2.714132785797119141e+00,2.653681278228759766e+00,2.595863819122314453e+00,2.540512084960937500e+00,2.487471818923950195e+00
4.894125461578369141e+00,5.000000000000000000e+00,5.000000000000000000e+00,5.000000000000000000e+00,5.000000000000000000e+00,5.000000000000000000e+00,5.000000000000000000e+00,5.000000000000000000e+00,5.000000000000000000e+00,5.000000000000000000e+00,5.000000000000000000e+00,5.000000000000000000e+00,5.000000000000000000e+00,5.000000000000000000e+00,5.000000000000000000e+00,5.000000000000000000e+00,5.000000000000000000e+00,5.000000000000000000e+00,5.000000000000000000e+00,5.000000000000000000e+00,5.000000000000000000e+00,5.000000000000000000e+00,5.000000000000000000e+00,5.000000000000000000e+00,5.000000000000000000e+00,5.000000000000000000e+00,5.000000000000000000e+00,5.000000000000000000e+00,5.000000000000000000e+00,5.000000000000000000e+00,2.183989763259887695e+00,2.126839160919189453e+00,2.112454175949096680e+00,2.133122205734252930e+00,2.066698074340820312e+00,2.071467399597167969e+00,2.076256036758422852e+00,1.999592185020446777e+00,2.029936552047729492e+00,2.149444580078125000e+00,5.000000000000000000e+00,5.000000000000000000e+00,5.000000000000000000e+00,5.000000000000000000e+00,5.000000000000000000e+00,5.000000000000000000e+00,5.000000000000000000e+00,5.000000000000000000e+00,5.000000000000000000e+00,5.000000000000000000e+00,5.000000000000000000e+00,5.000000000000000000e+00,5.000000000000000000e+00,5.000000000000000000e+00,5.000000000000000000e+00,4.985764503479003906e+00,4.785508155822753906e+00,4.600716590881347656e+00,4.429666519165039062e+00,4.270878791809082031e+00,4.123081684112548828e+00,3.985171556472778320e+00,3.856188535690307617e+00,3.735292911529541016e+00,3.621747493743896484e+00,3.514901161193847656e+00,3.414178609848022461e+00,3.319067955017089844e+00,3.229112625122070312e+00,3.143904685974121094e+00,3.063077926635742188e+00,2.986303091049194336e+00,2.913282632827758789e+00,2.843748092651367188e+00,2.777455329895019531e+00,2.714183092117309570e+00,2.653729200363159180e+00,2.595909833908081055e+00,2.540556192398071289e+00,2.487514019012451172e+00
4.894011974334716797e+00,5.000000000000000000e+00,5.000000000000000000e+00,5.000000000000000000e+00,5.000000000000000000e+00,5.000000000000000000e+00,5.000000000000000000e+00,5.000000000000000000e+00,5.000000000000000000e+00,5.000000000000000000e+00,5.000000000000000000e+00,5.000000000000000000e+00,5.000000000000000000e+00,5.000000000000000000e+00,5.000000000000000000e+00,5.000000000000000000e+00,5.000000000000000000e+00,5.000000000000000000e+00,5.000000000000000000e+00,5.000000000000000000e+00,5.000000000000000000e+00,5.000000000000000000e+00,5.000000000000000000e+00,5.000000000000000000e+00,5.000000000000000000e+00,5.000000000000000000e+00,5.000000000000000000e+00,5.000000000000000000e+00,5.000000000000000000e+00,5.000000000000000000e+00,2.193453311920166016e+00,2.134163379669189453e+00,2.119783639907836914e+00,2.133299350738525391e+00,2.140875101089477539e+00,2.095180749893188477e+00,2.098677158355712891e+00,2.005531549453735352e+00,2.032374143600463867e+00,2.147574663162231445e+00,5.000000000000000000e+00,5.000000000000000000e+00,5.000000000000000000e+00,5.000000000000000000e+00,5.000000000000000000e+00,5.000000000000000000e+00,5.000000000000000000e+00,5.000000000000000000e+00,5.000000000000000000e+00,5.000000000000000000e+00,5.000000000000000000e+00,5.000000000000000000e+00,5.000000000000000000e+00,5.000000000000000000e+00,5.000000000000000000e+00,4.985933303833007812e+00,4.785663604736328125e+00,4.600860595703125000e+00,4.429799556732177734e+00,4.271002769470214844e+00,4.123197078704833984e+00,3.985279560089111328e+00,3.856289625167846680e+00,3.735387802124023438e+00,3.621836662292480469e+00,3.514985322952270508e+00,3.414258003234863281e+00,3.319142818450927734e+00,3.229183435440063477e+00,3.143971681594848633e+00,3.063141822814941406e+00,2.986363649368286133e+00,2.913340330123901367e+00,2.843802928924560547e+00,2.777507781982421875e+00,2.714233160018920898e+00,2.653777122497558594e+00,2.595955610275268555e+00,2.540600061416625977e+00,2.487555980682373047e+00
4.893898487091064453e+00,5.000000000000000000e+00,5.000000000000000000e+00,5.000000000000000000e+00,5.000000000000000000e+00,5.000000000000000000e+00,5.000000000000000000e+00,5.000000000000000000e+00,5.000000000000000000e+00,5.000000000000000000e+00,5.000000000000000000e+00,5.000000000000000000e+00,5.000000000000000000e+00,5.000000000000000000e+00,5.000000000000000000e+00,5.000000000000000000e+00,5.000000000000000000e+00,5.000000000000000000e+00,5.000000000000000000e+00,5.000000000000000000e+00,5.000000000000000000e+00,5.000000000000000000e+00,5.000000000000000000e+00,5.000000000000000000e+00,5.000000000000000000e+00,5.000000000000000000e+00,5.000000000000000000e+00,5.000000000000000000e+00,5.000000000000000000e+00,5.000000000000000000e+00,2.180362224578857422e+00,2.128803253173828125e+00,2.115855693817138672e+00,2.130957603454589844e+00,2.167548179626464844e+00,2.171009540557861328e+00,2.126629114151000977e+00,1.999019384384155273e+00,2.019143342971801758e+00,2.158723592758178711e+00,2.217042207717895508e+00,5.000000000000000000e+00,5.000000000000000000e+00,5.000000000000000000e+00,5.000000000000000000e+00,5.000000000000000000e+00,5.000000000000000000e+00,5.000000000000000000e+00,5.000000000000000000e+00,5.000000000000000000e+00,5.000000000000000000e+00,5.000000000000000000e+00,5.000000000000000000e+00,5.000000000000000000e+00,5.000000000000000000e+00,4.986093521118164062e+00,4.785812854766845703e+00,4.600999832153320312e+00,4.429930686950683594e+00,4.271126270294189453e+00,4.123312950134277344e+00,3.985387563705444336e+00,3.856390714645385742e+00,3.735482692718505859e+00,3.621925830841064453e+00,3.515069246292114258e+00,3.414337158203125000e+00,3.319217681884765625e+00,3.229254245758056641e+00,3.144038915634155273e+00,3.063205480575561523e+00,2.986424207687377930e+00,2.913398027420043945e+00,2.843858003616333008e+00,2.777560234069824219e+00,2.714283227920532227e+00,2.653825044631958008e+00,2.596001386642456055e+00,2.540643930435180664e+00,2.487598180770874023e+00
4.893784999847412109e+00,5.000000000000000000e+00,5.000000000000000000e+00,5.000000000000000000e+00,5.000000000000000000e+00,5.000000000000000000e+00,5.000000000000000000e+00,5.000000000000000000e+00,5.000000000000000000e+00,5.000000000000000000e+00,5.000000000000000000e+00,5.000000000000000000e+00,5.000000000000000000e+00,5.000000000000000000e+00,5.000000000000000000e+00,5.000000000000000000e+00,5.000000000000000000e+00,5.000000000000000000e+00,5.000000000000000000e+00,5.000000000000000000e+00,5.000000000000000000e+00,5.000000000000000000e+00,5.000000000000000000e+00,5.000000000000000000e+00,5.000000000000000000e+00,5.000000000000000000e+00,5.000000000000000000e+00,5.000000000000000000e+00,5.000000000000000000e+00,5.000000000000000000e+00,2.164170742034912109e+00,2.119295358657836914e+00,2.107883453369140625e+00,2.128768205642700195e+00,2.174446105957031250e+00,5.000000000000000000e+00,2.174762964248657227e+00,1.998031377792358398e+00,2.012383222579956055e+00,2.169988870620727539e+00,2.224162340164184570e+00,5.000000000000000000e+00,5.000000000000000000e+00,5.000000000000000000e+00,5.000000000000000000e+00,5.000000000000000000e+00,5.000000000000000000e+00,5.000000000000000000e+00,5.000000000000000000e+00,5.000000000000000000e+00,5.000000000000000000e+00,5.000000000000000000e+00,5.000000000000000000e+00,5.000000000000000000e+00,5.000000000000000000e+00,4.986249446868896484e+00,4.785956382751464844e+00,4.601132869720458984e+00,4.430053710937500000e+00,4.271240711212158203e+00,4.123420238494873047e+00,3.985488653182983398e+00,3.856486797332763672e+00,3.735574007034301758e+00,3.622012615203857422e+00,3.515151977539062500e+00,3.414416551589965820e+00,3.319292783737182617e+00,3.229325532913208008e+00,3.144106388092041016e+00,3.063269615173339844e+00,2.986485004425048828e+00,2.913455963134765625e+00,2.843913078308105469e+00,2.777612924575805664e+00,2.714333295822143555e+00,2.653872966766357422e+00,2.596047401428222656e+00,2.540688037872314453e+00,2.487640380859375000e+00
4.893671512603759766e+00,5.000000000000000000e+00,5.000000000000000000e+00,5.000000000000000000e+00,5.000000000000000000e+00,5.000000000000000000e+00,5.000000000000000000e+00,5.000000000000000000e+00,5.000000000000000000e+00,5.000000000000000000e+00,5.000000000000000000e+00,5.000000000000000000e+00,5.000000000000000000e+00,5.000000000000000000e+00,5.000000000000000000e+00,5.000000000000000000e+00,5.000000000000000000e+00,5.000000000000000000e+00,5.000000000000000000e+00,5.000000000000000000e+00,5.000000000000000000e+00,5.000000000000000000e+00,5.000000000000000000e+00,5.000000000000000000e+00,5.000000000000000000e+00,5.000000000000000000e+00,5.000000000000000000e+00,5.000000000000000000e+00,5.000000000000000000e+00,5.000000000000000000e+00,2.149353027343750000e+00,2.109428644180297852e+00,2.099970817565917969e+00,2.127516984939575195e+00,2.181135892868041992e+00,5.000000000000000000e+00,2.217203855514526367e+00,2.166644811630249023e+00,2.012298822402954102e+00,2.180385351181030273e+00,2.231778144836425781e+00,5.000000000000000000e+00,5.000000000000000000e+00,5.000000000000000000e+00,5.000000000000000000e+00,5.000000000000000000e+00,5.000000000000000000e+00,5.000000000000000000e+00,5.000000000000000000e+00,5.000000000000000000e+00,5.000000000000000000e+00,5.000000000000000000e+00,5.000000000000000000e+00,5.000000000000000000e+00,5.000000000000000000e+00,4.986405372619628906e+00,4.786099910736083984e+00,4.601265907287597656e+00,4.430176734924316406e+00,4.271355152130126953e+00,4.123526573181152344e+00,3.985588550567626953e+00,3.856580257415771484e+00,3.735661506652832031e+00,3.622095108032226562e+00,3.515229701995849609e+00,3.414489269256591797e+00,3.319362401962280273e+00,3.229392290115356445e+00,3.144170284271240234e+00,3.063331127166748047e+00,2.986544370651245117e+00,2.913512945175170898e+00,2.843968152999877930e+00,2.777665376663208008e+00,2.714383363723754883e+00,2.653920888900756836e+00,2.596093177795410156e+00,2.540731906890869141e+00,2.487682342529296875e+00
4.893558025360107422e+00,5.000000000000000000e+00,5.000000000000000000e+00,5.000000000000000000e+00,5.000000000000000000e+00,5.000000000000000000e+00,5.000000000000000000e+00,5.000000000000000000e+00,5.000000000000000000e+00,5.000000000000000000e+00,5.000000000000000000e+00,5.000000000000000000e+00,5.000000000000000000e+00,5.000000000000000000e+00,5.000000000000000000e+00,5.000000000000000000e+00,5.000000000000000000e+00,5.000000000000000000e+00,5.000000000000000000e+00,5.000000000000000000e+00,5.000000000000000000e+00,5.000000000000000000e+00,5.000000000000000000e+00,5.000000000000000000e+00,5.000000000000000000e+00,5.000000000000000000e+00,5.000000000000000000e+00,5.000000000000000000e+00,5.000000000000000000e+00,5.000000000000000000e+00,2.126281023025512695e+00,2.101472139358520508e+00,2.099722146987915039e+00,2.125926733016967773e+00,2.187534809112548828e+00,5.000000000000000000e+00,5.000000000000000000e+00,2.187031269073486328e+00,2.013421773910522461e+00,2.068616390228271484e+00,2.240864753723144531e+00,5.000000000000000000e+00,5.000000000000000000e+00,5.000000000000000000e+00,5.000000000000000000e+00,5.000000000000000000e+00,5.000000000000000000e+00,5.000000000000000000e+00,5.000000000000000000e+00,5.000000000000000000e+00,5.000000000000000000e+00,5.000000000000000000e+00,5.000000000000000000e+00,5.000000000000000000e+00,5.000000000000000000e+00,4.986561298370361328e+00,4.786243915557861328e+00,4.601398468017578125e+00,4.430300235748291016e+00,4.271469593048095703e+00,4.123633384704589844e+00,3.985688447952270508e+00,3.856673479080200195e+00,3.735749244689941406e+00,3.622177600860595703e+00,3.515307188034057617e+00,3.414562702178955078e+00,3.319431781768798828e+00,3.229457616806030273e+00,3.144232511520385742e+00,3.063390016555786133e+00,2.986600160598754883e+00,2.913566350936889648e+00,2.844018936157226562e+00,2.777714252471923828e+00,2.714430809020996094e+00,2.653966903686523438e+00,2.596137762069702148e+00,2.540775060653686523e+00,2.487724304199218750e+00
4.893444538116455078e+00,5.000000000000000000e+00,5.000000000000000000e+00,5.000000000000000000e+00,5.000000000000000000e+00,5.000000000000000000e+00,5.000000000000000000e+00,5.000000000000000000e+00,5.000000000000000000e+00,5.000000000000000000e+00,5.000000000000000000e+00,5.000000000000000000e+00,5.000000000000000000e+00,5.000000000000000000e+00,5.000000000000000000e+00,5.000000000000000000e+00,5.000000000000000000e+00,5.000000000000000000e+00,5.000000000000000000e+00,5.000000000000000000e+00,5.000000000000000000e+00,5.000000000000000000e+00,5.000000000000000000e+00,5.000000000000000000e+00,5.000000000000000000e+00,5.000000000000000000e+00,5.000000000000000000e+00,5.000000000000000000e+00,5.000000000000000000e+00,5.000000000000000000e+00,2.106035470962524414e+00,2.093712806701660156e+00,2.100208044052124023e+00,2.123555660247802734e+00,5.000000000000000000e+00,5.000000000000000000e+00,5.000000000000000000e+00,2.227481126785278320e+00,2.201867103576660156e+00,2.200995683670043945e+00,2.250025510787963867e+00,5.000000000000000000e+00,5.000000000000000000e+00,5.000000000000000000e+00,5.000000000000000000e+00,5.000000000000000000e+00,5.000000000000000000e+00,5.000000000000000000e+00,5.000000000000000000e+00,5.000000000000000000e+00,5.000000000000000000e+00,5.000000000000000000e+00,5.000000000000000000e+00,5.000000000000000000e+00,5.000000000000000000e+00,4.986717700958251953e+00,4.786387920379638672e+00,4.601531505584716797e+00,4.430423259735107422e+00,4.271584033966064453e+00,4.123740196228027344e+00,3.985787868499755859e+00,3.856766939163208008e+00,3.735836982727050781e+00,3.622259616851806641e+00,3.515384674072265625e+00,3.414635896682739258e+00,3.319500684738159180e+00,3.229523181915283203e+00,3.144294738769531250e+00,3.063448905944824219e+00,2.986656188964843750e+00,2.913619756698608398e+00,2.844069480895996094e+00,2.777762889862060547e+00,2.714477300643920898e+00,2.654011249542236328e+00,2.596179962158203125e+00,2.540815591812133789e+00,2.487763166427612305e+00
4.893331050872802734e+00,5.000000000000000000e+00,5.000000000000000000e+00,5.000000000000000000e+00,5.000000000000000000e+00,5.000000000000000000e+00,5.000000000000000000e+00,5.000000000000000000e+00,5.000000000000000000e+00,5.000000000000000000e+00,5.000000000000000000e+00,5.000000000000000000e+00,5.000000000000000000e+00,5.000000000000000000e+00,5.000000000000000000e+00,5.000000000000000000e+00,5.000000000000000000e+00,5.000000000000000000e+00,5.000000000000000000e+00,5.000000000000000000e+00,5.000000000000000000e+00,5.000000000000000000e+00,5.000000000000000000e+00,5.000000000000000000e+00,5.000000000000000000e+00,5.000000000000000000e+00,5.000000000000000000e+00,5.000000000000000000e+00,5.000000000000000000e+00,5.000000000000000000e+00,2.099192380905151367e+00,2.086179494857788086e+00,2.100693941116333008e+00,2.121190071105957031e+00,5.000000000000000000e+00,5.000000000000000000e+00,5.000000000000000000e+00,5.000000000000000000e+00,2.221662759780883789e+00,2.219452381134033203e+00,2.262247562408447266e+00,5.000000000000000000e+00,5.000000000000000000e+00,5.000000000000000000e+00,5.000000000000000000e+00,5.000000000000000000e+00,5.000000000000000000e+00,5.000000000000000000e+00,5.000000000000000000e+00,5.000000000000000000e+00,5.000000000000000000e+00,5.000000000000000000e+00,5.000000000000000000e+00,5.000000000000000000e+00,5.000000000000000000e+00,4.986873626708984375e+00,4.786531448364257812e+00,4.601664543151855469e+00,4.430546760559082031e+00,4.271698474884033203e+00,4.123847007751464844e+00,3.985887765884399414e+00,3.856860399246215820e+00,3.735924243927001953e+00,3.622342109680175781e+00,3.515462398529052734e+00,3.414708852767944336e+00,3.319570064544677734e+00,3.229588747024536133e+00,3.144356489181518555e+00,3.063507795333862305e+00,2.986712455749511719e+00,2.913672685623168945e+00,2.844120502471923828e+00,2.777811288833618164e+00,2.714523315429687500e+00,2.654055356979370117e+00,2.596222400665283203e+00,2.540856122970581055e+00,2.487801790237426758e+00
4.893217563629150391e+00,5.000000000000000000e+00,5.000000000000000000e+00,5.000000000000000000e+00,5.000000000000000000e+00,5.000000000000000000e+00,5.000000000000000000e+00,5.000000000000000000e+00,5.000000000000000000e+00,5.000000000000000000e+00,5.000000000000000000e+00,5.000000000000000000e+00,5.000000000000000000e+00,5.000000000000000000e+00,5.000000000000000000e+00,5.000000000000000000e+00,5.000000000000000000e+00,5.000000000000000000e+00,5.000000000000000000e+00,5.000000000000000000e+00,5.000000000000000000e+00,5.000000000000000000e+00,5.000000000000000000e+00,5.000000000000000000e+00,5.000000000000000000e+00,5.000000000000000000e+00,5.000000000000000000e+00,5.000000000000000000e+00,5.000000000000000000e+00,5.000000000000000000e+00,2.073484897613525391e+00,2.075404882431030273e+00,2.097234964370727539e+00,2.128622531890869141e+00,5.000000000000000000e+00,5.000000000000000000e+00,5.000000000000000000e+00,5.000000000000000000e+00,2.254328966140747070e+00,2.239000082015991211e+00,2.272212266921997070e+00,5.000000000000000000e+00,5.000000000000000000e+00,5.000000000000000000e+00,5.000000000000000000e+00,5.000000000000000000e+00,5.000000000000000000e+00,5.000000000000000000e+00,5.000000000000000000e+00,5.000000000000000000e+00,5.000000000000000000e+00,5.000000000000000000e+00,5.000000000000000000e+00,5.000000000000000000e+00,5.000000000000000000e+00,4.987030029296875000e+00,4.786675453186035156e+00,4.601797580718994141e+00,4.430669784545898438e+00,4.271813392639160156e+00,4.123953819274902344e+00,3.985987186431884766e+00,3.856953620910644531e+00,3.736011981964111328e+00,3.622424602508544922e+00,3.515539884567260742e+00,3.414782285690307617e+00,3.319639205932617188e+00,3.229654073715209961e+00,3.144418716430664062e+00,3.063566923141479492e+00,2.986768245697021484e+00,2.913726091384887695e+00,2.844171285629272461e+00,2.777859687805175781e+00,2.714569807052612305e+00,2.654099464416503906e+00,2.596264600753784180e+00,2.540896654129028320e+00,2.487840890884399414e+00
4.893104076385498047e+00,5.000000000000000000e+00,5.000000000000000000e+00,5.000000000000000000e+00,5.000000000000000000e+00,5.000000000000000000e+00,5.000000000000000000e+00,5.000000000000000000e+00,5.000000000000000000e+00,5.000000000000000000e+00,5.000000000000000000e+00,5.000000000000000000e+00,5.000000000000000000e+00,5.000000000000000000e+00,5.000000000000000000e+00,5.000000000000000000e+00,5.000000000000000000e+00,5.000000000000000000e+00,5.000000000000000000e+00,5.000000000000000000e+00,5.000000000000000000e+00,5.000000000000000000e+00,5.000000000000000000e+00,5.000000000000000000e+00,5.000000000000000000e+00,5.000000000000000000e+00,5.000000000000000000e+00,5.000000000000000000e+00,5.000000000000000000e+00,2.044159889221191406e+00,2.036096572875976562e+00,2.060574531555175781e+00,2.083637237548828125e+00,2.150424242019653320e+00,5.000000000000000000e+00,5.000000000000000000e+00,5.000000000000000000e+00,5.000000000000000000e+00,2.260634899139404297e+00,2.241904497146606445e+00,2.265515804290771484e+00,5.000000000000000000e+00,5.000000000000000000e+00,5.000000000000000000e+00,5.000000000000000000e+00,5.000000000000000000e+00,5.000000000000000000e+00,5.000000000000000000e+00,5.000000000000000000e+00,5.000000000000000000e+00,5.000000000000000000e+00,5.000000000000000000e+00,5.000000000000000000e+00,5.000000000000000000e+00,5.000000000000000000e+00,4.987185955047607422e+00,4.786819458007812500e+00,4.601930141448974609e+00,4.430793285369873047e+00,4.271927833557128906e+00,4.124060630798339844e+00,3.986087083816528320e+00,3.857047080993652344e+00,3.736099481582641602e+00,3.622506856918334961e+00,3.515617609024047852e+00,3.414855480194091797e+00,3.319708347320556641e+00,3.229719638824462891e+00,3.144480943679809570e+00,3.063625574111938477e+00,2.986824274063110352e+00,2.913779497146606445e+00,2.844221830368041992e+00,2.777908086776733398e+00,2.714616060256958008e+00,2.654143571853637695e+00,2.596306800842285156e+00,2.540937185287475586e+00,2.487879514694213867e+00
4.892990589141845703e+00,5.000000000000000000e+00,5.000000000000000000e+00,5.000000000000000000e+00,5.000000000000000000e+00,5.000000000000000000e+00,5.000000000000000000e+00,5.000000000000000000e+00,5.000000000000000000e+00,5.000000000000000000e+00,5.000000000000000000e+00,5.000000000000000000e+00,5.000000000000000000e+00,5.000000000000000000e+00,5.000000000000000000e+00,5.000000000000000000e+00,5.000000000000000000e+00,5.000000000000000000e+00,5.000000000000000000e+00,5.000000000000000000e+00,5.000000000000000000e+00,5.000000000000000000e+00,5.000000000000000000e+00,5.000000000000000000e+00,5.000000000000000000e+00,5.000000000000000000e+00,5.000000000000000000e+00,5.000000000000000000e+00,2.035491466522216797e+00,2.010930538177490234e+00,2.021721839904785156e+00,2.046252965927124023e+00,2.106932640075683594e+00,5.000000000000000000e+00,5.000000000000000000e+00,5.000000000000000000e+00,5.000000000000000000e+00,5.000000000000000000e+00,2.252191305160522461e+00,2.240326166152954102e+00,2.258158922195434570e+00,5.000000000000000000e+00,5.000000000000000000e+00,5.000000000000000000e+00,5.000000000000000000e+00,5.000000000000000000e+00,5.000000000000000000e+00,5.000000000000000000e+00,5.000000000000000000e+00,5.000000000000000000e+00,5.000000000000000000e+00,5.000000000000000000e+00,5.000000000000000000e+00,5.000000000000000000e+00,5.000000000000000000e+00,4.987342357635498047e+00,4.786962985992431641e+00,4.602063655853271484e+00,4.430916309356689453e+00,4.272042274475097656e+00,4.124167442321777344e+00,3.986187219619750977e+00,3.857140302658081055e+00,3.736187219619750977e+00,3.622589349746704102e+00,3.515695333480834961e+00,3.414928436279296875e+00,3.319777488708496094e+00,3.229785203933715820e+00,3.144542694091796875e+00,3.063684701919555664e+00,2.986880302429199219e+00,2.913832664489746094e+00,2.844272851943969727e+00,2.777956724166870117e+00,2.714662075042724609e+00,2.654187917709350586e+00,2.596349239349365234e+00,2.540977478027343750e+00,2.487918376922607422e+00
4.892867565155029297e+00,5.000000000000000000e+00,5.000000000000000000e+00,5.000000000000000000e+00,5.000000000000000000e+00,5.000000000000000000e+00,5.000000000000000000e+00,5.000000000000000000e+00,5.000000000000000000e+00,5.000000000000000000e+00,5.000000000000000000e+00,5.000000000000000000e+00,5.000000000000000000e+00,5.000000000000000000e+00,5.000000000000000000e+00,5.000000000000000000e+00,5.000000000000000000e+00,5.000000000000000000e+00,5.000000000000000000e+00,5.000000000000000000e+00,5.000000000000000000e+00,5.000000000000000000e+00,5.000000000000000000e+00,5.000000000000000000e+00,5.000000000000000000e+00,5.000000000000000000e+00,5.000000000000000000e+00,5.000000000000000000e+00,2.003130197525024414e+00,1.993106603622436523e+00,2.013938665390014648e+00,2.059154510498046875e+00,5.000000000000000000e+00,5.000000000000000000e+00,5.000000000000000000e+00,5.000000000000000000e+00,5.000000000000000000e+00,5.000000000000000000e+00,2.245606184005737305e+00,2.236545085906982422e+00,2.253631830215454102e+00,5.000000000000000000e+00,5.000000000000000000e+00,5.000000000000000000e+00,5.000000000000000000e+00,5.000000000000000000e+00,5.000000000000000000e+00,5.000000000000000000e+00,5.000000000000000000e+00,5.000000000000000000e+00,5.000000000000000000e+00,5.000000000000000000e+00,5.000000000000000000e+00,5.000000000000000000e+00,5.000000000000000000e+00,4.987498283386230469e+00,4.787106990814208984e+00,4.602196216583251953e+00,4.431039333343505859e+00,4.272157192230224609e+00,4.124274253845214844e+00,3.986286640167236328e+00,3.857233762741088867e+00,3.736274957656860352e+00,3.622671365737915039e+00,3.515772581100463867e+00,3.415001869201660156e+00,3.319846868515014648e+00,3.229850530624389648e+00,3.144604921340942383e+00,3.063743591308593750e+00,2.986936330795288086e+00,2.913886070251464844e+00,2.844323635101318359e+00,2.778004884719848633e+00,2.714708566665649414e+00,2.654232263565063477e+00,2.596391439437866211e+00,2.541018247604370117e+00,2.487957477569580078e+00
4.892741203308105469e+00,5.000000000000000000e+00,5.000000000000000000e+00,5.000000000000000000e+00,5.000000000000000000e+00,5.000000000000000000e+00,5.000000000000000000e+00,5.000000000000000000e+00,5.000000000000000000e+00,5.000000000000000000e+00,5.000000000000000000e+00,5.000000000000000000e+00,5.000000000000000000e+00,5.000000000000000000e+00,5.000000000000000000e+00,5.000000000000000000e+00,5.000000000000000000e+00,5.000000000000000000e+00,5.000000000000000000e+00,5.000000000000000000e+00,5.000000000000000000e+00,5.000000000000000000e+00,5.000000000000000000e+00,5.000000000000000000e+00,5.000000000000000000e+00,5.000000000000000000e+00,5.000000000000000000e+00,5.000000000000000000e+00,1.983786582946777344e+00,1.985821366310119629e+00,2.006494522094726562e+00,5.000000000000000000e+00,5.000000000000000000e+00,5.000000000000000000e+00,5.000000000000000000e+00,5.000000000000000000e+00,5.000000000000000000e+00,5.000000000000000000e+00,2.253438949584960938e+00,2.241527318954467773e+00,2.259323358535766602e+00,5.000000000000000000e+00,5.000000000000000000e+00,5.000000000000000000e+00,5.000000000000000000e+00,5.000000000000000000e+00,5.000000000000000000e+00,5.000000000000000000e+00,5.000000000000000000e+00,5.000000000000000000e+00,5.000000000000000000e+00,5.000000000000000000e+00,5.000000000000000000e+00,5.000000000000000000e+00,5.000000000000000000e+00,4.987654209136962891e+00,4.787250995635986328e+00,4.602329254150390625e+00,4.431162834167480469e+00,4.272271633148193359e+00,4.124380588531494141e+00,3.986386537551879883e+00,3.857327461242675781e+00,3.736362457275390625e+00,3.622753858566284180e+00,3.515850305557250977e+00,3.415074825286865234e+00,3.319915771484375000e+00,3.229916095733642578e+00,3.144667148590087891e+00,3.063802480697631836e+00,2.986992359161376953e+00,2.913939476013183594e+00,2.844374418258666992e+00,2.778053522109985352e+00,2.714754819869995117e+00,2.654276371002197266e+00,2.596433877944946289e+00,2.541058778762817383e+00,2.487996101379394531e+00
4.892615318298339844e+00,5.000000000000000000e+00,5.000000000000000000e+00,5.000000000000000000e+00,5.000000000000000000e+00,5.000000000000000000e+00,5.000000000000000000e+00,5.000000000000000000e+00,5.000000000000000000e+00,5.000000000000000000e+00,5.000000000000000000e+00,5.000000000000000000e+00,5.000000000000000000e+00,5.000000000000000000e+00,5.000000000000000000e+00,5.000000000000000000e+00,5.000000000000000000e+00,5.000000000000000000e+00,5.000000000000000000e+00,5.000000000000000000e+00,5.000000000000000000e+00,5.000000000000000000e+00,5.000000000000000000e+00,5.000000000000000000e+00,5.000000000000000000e+00,5.000000000000000000e+00,5.000000000000000000e+00,1.966437220573425293e+00,1.964812636375427246e+00,1.978589296340942383e+00,2.006338119506835938e+00,5.000000000000000000e+00,5.000000000000000000e+00,5.000000000000000000e+00,5.000000000000000000e+00,5.000000000000000000e+00,5.000000000000000000e+00,5.000000000000000000e+00,2.265192031860351562e+00,2.249062538146972656e+00,2.267232656478881836e+00,5.000000000000000000e+00,5.000000000000000000e+00,5.000000000000000000e+00,5.000000000000000000e+00,5.000000000000000000e+00,5.000000000000000000e+00,5.000000000000000000e+00,5.000000000000000000e+00,5.000000000000000000e+00,5.000000000000000000e+00,5.000000000000000000e+00,5.000000000000000000e+00,5.000000000000000000e+00,5.000000000000000000e+00,4.987810611724853516e+00,4.787394523620605469e+00,4.602462291717529297e+00,4.431286334991455078e+00,4.272386074066162109e+00,4.124487400054931641e+00,3.986486434936523438e+00,3.857420444488525391e+00,3.736450195312500000e+00,3.622836589813232422e+00,3.515927791595458984e+00,3.415148258209228516e+00,3.319985151290893555e+00,3.229981422424316406e+00,3.144729137420654297e+00,3.063861370086669922e+00,2.987048387527465820e+00,2.913992643356323242e+00,2.844425201416015625e+00,2.778101921081542969e+00,2.714801073074340820e+00,2.654320716857910156e+00,2.596476316452026367e+00,2.541099071502685547e+00,2.488034963607788086e+00
4.892488956451416016e+00,5.000000000000000000e+00,5.000000000000000000e+00,5.000000000000000000e+00,5.000000000000000000e+00,5.000000000000000000e+00,5.000000000000000000e+00,5.000000000000000000e+00,5.000000000000000000e+00,5.000000000000000000e+00,5.000000000000000000e+00,5.000000000000000000e+00,5.000000000000000000e+00,5.000000000000000000e+00,5.000000000000000000e+00,5.000000000000000000e+00,5.000000000000000000e+00,5.000000000000000000e+00,5.000000000000000000e+00,5.000000000000000000e+00,5.000000000000000000e+00,5.000000000000000000e+00,5.000000000000000000e+00,5.000000000000000000e+00,5.000000000000000000e+00,5.000000000000000000e+00,5.000000000000000000e+00,1.949752926826477051e+00,1.952418923377990723e+00,1.971732616424560547e+00,2.013720989227294922e+00,5.000000000000000000e+00,5.000000000000000000e+00,5.000000000000000000e+00,5.000000000000000000e+00,5.000000000000000000e+00,5.000000000000000000e+00,5.000000000000000000e+00,2.277068376541137695e+00,2.256648540496826172e+00,2.274945020675659180e+00,5.000000000000000000e+00,5.000000000000000000e+00,5.000000000000000000e+00,5.000000000000000000e+00,5.000000000000000000e+00,5.000000000000000000e+00,5.000000000000000000e+00,5.000000000000000000e+00,5.000000000000000000e+00,5.000000000000000000e+00,5.000000000000000000e+00,5.000000000000000000e+00,5.000000000000000000e+00,5.000000000000000000e+00,4.987967014312744141e+00,4.787538528442382812e+00,4.602595329284667969e+00,4.431409358978271484e+00,4.272500514984130859e+00,4.124594688415527344e+00,3.986585855484008789e+00,3.857514142990112305e+00,3.736537933349609375e+00,3.622918605804443359e+00,3.516005516052246094e+00,3.415221452713012695e+00,3.320054054260253906e+00,3.230046987533569336e+00,3.144791126251220703e+00,3.063920497894287109e+00,2.987104177474975586e+00,2.914046049118041992e+00,2.844475984573364258e+00,2.778150320053100586e+00,2.714847326278686523e+00,2.654364824295043945e+00,2.596518516540527344e+00,2.541139841079711914e+00,2.488074064254760742e+00
4.892362594604492188e+00,5.000000000000000000e+00,5.000000000000000000e+00,5.000000000000000000e+00,5.000000000000000000e+00,5.000000000000000000e+00,5.000000000000000000e+00,5.000000000000000000e+00,5.000000000000000000e+00,5.000000000000000000e+00,5.000000000000000000e+00,5.000000000000000000e+00,5.000000000000000000e+00,5.000000000000000000e+00,5.000000000000000000e+00,5.000000000000000000e+00,5.000000000000000000e+00,5.000000000000000000e+00,5.000000000000000000e+00,5.000000000000000000e+00,5.000000000000000000e+00,5.000000000000000000e+00,5.000000000000000000e+00,5.000000000000000000e+00,5.000000000000000000e+00,5.000000000000000000e+00,5.000000000000000000e+00,1.933349609375000000e+00,1.945695161819458008e+00,1.965132355690002441e+00,5.000000000000000000e+00,5.000000000000000000e+00,5.000000000000000000e+00,5.000000000000000000e+00,5.000000000000000000e+00,5.000000000000000000e+00,5.000000000000000000e+00,5.000000000000000000e+00,2.292152881622314453e+00,2.264262437820434570e+00,2.282131910324096680e+00,5.000000000000000000e+00,5.000000000000000000e+00,5.000000000000000000e+00,5.000000000000000000e+00,5.000000000000000000e+00,5.000000000000000000e+00,5.000000000000000000e+00,5.000000000000000000e+00,5.000000000000000000e+00,5.000000000000000000e+00,5.000000000000000000e+00,5.000000000000000000e+00,5.000000000000000000e+00,5.000000000000000000e+00,4.988122940063476562e+00,4.787682533264160156e+00,4.602728366851806641e+00,4.431532382965087891e+00,4.272615432739257812e+00,4.124701023101806641e+00,3.986685752868652344e+00,3.857607603073120117e+00,3.736625194549560547e+00,3.623001098632812500e+00,3.516083240509033203e+00,3.415294408798217773e+00,3.320123434066772461e+00,3.230112552642822266e+00,3.144853115081787109e+00,3.063979148864746094e+00,2.987160444259643555e+00,2.914099454879760742e+00,2.844526529312133789e+00,2.778198957443237305e+00,2.714893579483032227e+00,2.654408931732177734e+00,2.596560955047607422e+00,2.541180372238159180e+00,2.488112688064575195e+00
4.892077922821044922e+00,5.000000000000000000e+00,5.000000000000000000e+00,5.000000000000000000e+00,5.000000000000000000e+00,5.000000000000000000e+00,5.000000000000000000e+00,5.000000000000000000e+00,5.000000000000000000e+00,5.000000000000000000e+00,5.000000000000000000e+00,5.000000000000000000e+00,5.000000000000000000e+00,5.000000000000000000e+00,5.000000000000000000e+00,5.000000000000000000e+00,5.000000000000000000e+00,5.000000000000000000e+00,5.000000000000000000e+00,5.000000000000000000e+00,5.000000000000000000e+00,5.000000000000000000e+00,5.000000000000000000e+00,5.000000000000000000e+00,5.000000000000000000e+00,5.000000000000000000e+00,1.929201960563659668e+00,1.923257470130920410e+00,1.939051151275634766e+00,1.975163578987121582e+00,5.000000000000000000e+00,5.000000000000000000e+00,5.000000000000000000e+00,5.000000000000000000e+00,5.000000000000000000e+00,5.000000000000000000e+00,5.000000000000000000e+00,5.000000000000000000e+00,5.000000000000000000e+00,2.271879673004150391e+00,2.291728258132934570e+00,5.000000000000000000e+00,5.000000000000000000e+00,5.000000000000000000e+00,5.000000000000000000e+00,5.000000000000000000e+00,5.000000000000000000e+00,5.000000000000000000e+00,5.000000000000000000e+00,5.000000000000000000e+00,5.000000000000000000e+00,5.000000000000000000e+00,5.000000000000000000e+00,5.000000000000000000e+00,5.000000000000000000e+00,4.988278865814208984e+00,4.787826538085937500e+00,4.602860927581787109e+00,4.431655883789062500e+00,4.272729873657226562e+00,4.124807834625244141e+00,3.986785888671875000e+00,3.857700824737548828e+00,3.736713171005249023e+00,3.623083829879760742e+00,3.516160488128662109e+00,3.415367841720581055e+00,3.320192813873291016e+00,3.230177879333496094e+00,3.144915342330932617e+00,3.064038276672363281e+00,2.987216234207153320e+00,2.914152622222900391e+00,2.844577550888061523e+00,2.778247356414794922e+00,2.714939832687377930e+00,2.654453277587890625e+00,2.596603155136108398e+00,2.541220903396606445e+00,2.488151550292968750e+00
4.872779846191406250e+00,4.871563911437988281e+00,4.870347976684570312e+00,4.869132995605468750e+00,4.867918491363525391e+00,4.866704940795898438e+00,4.865491390228271484e+00,4.864279270172119141e+00,4.863067150115966797e+00,4.861855983734130859e+00,4.860644817352294922e+00,4.859435081481933594e+00,4.858225345611572266e+00,4.857016563415527344e+00,4.855807781219482422e+00,4.854600429534912109e+00,4.853393554687500000e+00,4.852187156677246094e+00,4.850980758666992188e+00,4.849775314331054688e+00,4.848570823669433594e+00,4.847366809844970703e+00,4.846163272857666016e+00,4.844960212707519531e+00,4.843758106231689453e+00,4.842556476593017578e+00,1.944936394691467285e+00,1.916732668876647949e+00,1.932667493820190430e+00,4.837755203247070312e+00,4.836555957794189453e+00,4.835358142852783203e+00,4.834160327911376953e+00,4.832963466644287109e+00,4.831767082214355469e+00,4.830571174621582031e+00,4.829376220703125000e+00,4.828181266784667969e+00,4.826987266540527344e+00,2.279655694961547852e+00,2.301405668258666992e+00,4.823409080505371094e+00,4.822216987609863281e+00,4.821025848388671875e+00,4.819835662841796875e+00,4.818645954132080078e+00,4.817456245422363281e+00,4.816267490386962891e+00,4.815079212188720703e+00,4.813891887664794922e+00,4.812704563140869141e+00,4.811518192291259766e+00,4.810332775115966797e+00,4.809147357940673828e+00,4.807962417602539062e+00,4.806778430938720703e+00,4.787970066070556641e+00,4.602993965148925781e+00,4.431779384613037109e+00,4.272844791412353516e+00,4.124915122985839844e+00,3.986885309219360352e+00,3.857794284820556641e+00,3.736800909042358398e+00,3.623165845870971680e+00,3.516238451004028320e+00,3.415441274642944336e+00,3.320261716842651367e+00,3.230243444442749023e+00,3.144977569580078125e+00,3.064096927642822266e+00,2.987272262573242188e+00,2.914206027984619141e+00,2.844628095626831055e+00,2.778295755386352539e+00,2.714986085891723633e+00,2.654497623443603516e+00,2.596645355224609375e+00,2.541261434555053711e+00,2.488190650939941406e+00
3.776796579360961914e+00,3.776066064834594727e+00,3.775335073471069336e+00,3.774605035781860352e+00,3.773875236511230469e+00,3.773145914077758789e+00,3.772416591644287109e+00,3.771687746047973633e+00,3.770959138870239258e+00,3.770230770111083984e+00,3.769502162933349609e+00,3.768774509429931641e+00,3.768046855926513672e+00,3.767319679260253906e+00,3.766592741012573242e+00,3.765866041183471680e+00,3.765139818191528320e+00,3.764413595199584961e+00,3.763687372207641602e+00,3.762961864471435547e+00,3.762236595153808594e+00,3.761511564254760742e+00,3.760786771774291992e+00,3.760062456130981445e+00,3.759338140487670898e+00,3.758614301681518555e+00,1.899622559547424316e+00,1.911900758743286133e+00,1.965756297111511230e+00,3.755721092224121094e+00,3.754998683929443359e+00,3.754276514053344727e+00,3.753554582595825195e+00,3.752832889556884766e+00,3.752111196517944336e+00,3.751389980316162109e+00,3.750669240951538086e+00,3.749948740005493164e+00,3.749228239059448242e+00,2.312876462936401367e+00,2.329552888870239258e+00,3.747069120407104492e+00,3.746349573135375977e+00,3.745630741119384766e+00,3.744912147521972656e+00,3.744193792343139648e+00,3.743475675582885742e+00,3.742758035659790039e+00,3.742040395736694336e+00,3.741323232650756836e+00,3.740605831146240234e+00,3.739889144897460938e+00,3.739172935485839844e+00,3.738456726074218750e+00,3.737740993499755859e+00,3.737025260925292969e+00,3.736310005187988281e+00,3.735594987869262695e+00,3.734879732131958008e+00,3.734165191650390625e+00,3.733451128005981445e+00,3.732737064361572266e+00,3.732023477554321289e+00,3.731310129165649414e+00,3.623248338699340820e+00,3.516316175460815430e+00,3.415514230728149414e+00,3.320331096649169922e+00,3.230309009552001953e+00,3.145039319992065430e+00,3.064156055450439453e+00,2.987328529357910156e+00,2.914259195327758789e+00,2.844679117202758789e+00,2.778344154357910156e+00,2.715032577514648438e+00,2.654541730880737305e+00,2.596687793731689453e+00,2.541301965713500977e+00,2.488229274749755859e+00
3.083301544189453125e+00,3.082814455032348633e+00,3.082327842712402344e+00,3.081840991973876953e+00,3.081354618072509766e+00,3.080868244171142578e+00,3.080382108688354492e+00,3.079895973205566406e+00,3.079409837722778320e+00,3.078924179077148438e+00,3.078438520431518555e+00,3.077953100204467773e+00,3.077467918395996094e+00,3.076982736587524414e+00,3.076497793197631836e+00,3.076013088226318359e+00,3.075528144836425781e+00,3.075043439865112305e+00,3.074559211730957031e+00,3.074074983596801758e+00,3.073590993881225586e+00,3.073107004165649414e+00,3.072623252868652344e+00,3.072139739990234375e+00,3.071655988693237305e+00,3.071172714233398438e+00,1.884907007217407227e+00,1.906333327293395996e+00,1.946433782577514648e+00,3.069241046905517578e+00,3.068758487701416016e+00,3.068276166915893555e+00,3.067793607711791992e+00,3.067311525344848633e+00,3.066829681396484375e+00,3.066347837448120117e+00,3.065866470336914062e+00,3.065384864807128906e+00,3.064903497695922852e+00,2.315720081329345703e+00,2.334009408950805664e+00,2.390243291854858398e+00,2.459974288940429688e+00,3.062499046325683594e+00,3.062018632888793945e+00,3.061538457870483398e+00,3.061058282852172852e+00,3.060578346252441406e+00,3.060098171234130859e+00,3.059618473052978516e+00,3.059139013290405273e+00,3.058659791946411133e+00,3.058180570602416992e+00,3.057701349258422852e+00,3.057222604751586914e+00,3.056743621826171875e+00,3.056264877319335938e+00,3.055786371231079102e+00,3.055308103561401367e+00,3.054829835891723633e+00,3.054351806640625000e+00,3.053874015808105469e+00,3.053396463394165039e+00,3.052918672561645508e+00,3.052441358566284180e+00,3.051963806152343750e+00,3.051486730575561523e+00,3.051009654998779297e+00,3.050533056259155273e+00,3.050056219100952148e+00,3.049579858779907227e+00,2.987384319305419922e+00,2.914312601089477539e+00,2.844729900360107422e+00,2.778392553329467773e+00,2.715078592300415039e+00,2.654586076736450195e+00,2.596730232238769531e+00,2.541342496871948242e+00,2.488268375396728516e+00
2.604976177215576172e+00,2.604628562927246094e+00,2.604280948638916016e+00,2.603933572769165039e+00,2.603586435317993164e+00,2.603239059448242188e+00,2.602891921997070312e+00,2.602545022964477539e+00,2.602197647094726562e+00,2.601850986480712891e+00,2.601504087448120117e+00,2.601157426834106445e+00,2.600811004638671875e+00,2.600464344024658203e+00,2.600117921829223633e+00,2.599771738052368164e+00,2.599425315856933594e+00,2.599079132080078125e+00,2.598733186721801758e+00,2.598387241363525391e+00,2.598041296005249023e+00,2.597695589065551758e+00,2.597349882125854492e+00,2.597004413604736328e+00,2.596658706665039062e+00,1.870428085327148438e+00,1.875579118728637695e+00,1.902317404747009277e+00,1.930930972099304199e+00,1.960183978080749512e+00,2.594587802886962891e+00,2.594243049621582031e+00,2.593898057937622070e+00,2.593553304672241211e+00,2.593208789825439453e+00,2.592864274978637695e+00,2.592519998550415039e+00,2.592175722122192383e+00,2.591831445693969727e+00,2.315545797348022461e+00,2.337722301483154297e+00,2.377638101577758789e+00,2.590455532073974609e+00,2.590111732482910156e+00,2.589768171310424805e+00,2.589424610137939453e+00,2.589081048965454102e+00,2.588737726211547852e+00,2.588394165039062500e+00,2.588051080703735352e+00,2.587707996368408203e+00,2.587364912033081055e+00,2.587022066116333008e+00,2.586679220199584961e+00,2.586336612701416016e+00,2.585994005203247070e+00,2.585651159286499023e+00,2.585308790206909180e+00,2.584966421127319336e+00,2.584624052047729492e+00,2.584281921386718750e+00,2.583939790725708008e+00,2.583597898483276367e+00,2.583256006240844727e+00,2.582913875579833984e+00,2.582572221755981445e+00,2.582230567932128906e+00,2.581888914108276367e+00,2.581547498703002930e+00,2.581206083297729492e+00,2.580864906311035156e+00,2.580523729324340820e+00,2.580182313919067383e+00,2.579841375350952148e+00,2.579500436782836914e+00,2.579159498214721680e+00,2.578818798065185547e+00,2.578478097915649414e+00,2.541383028030395508e+00,2.488307237625122070e+00
2.255128622055053711e+00,2.254868268966674805e+00,2.254607677459716797e+00,2.254347324371337891e+00,2.254086971282958984e+00,2.253826856613159180e+00,2.253566503524780273e+00,2.253306388854980469e+00,2.253046274185180664e+00,2.252786159515380859e+00,2.252526283264160156e+00,2.252266407012939453e+00,2.252006530761718750e+00,2.251746654510498047e+00,2.251486778259277344e+00,2.251227140426635742e+00,2.250967502593994141e+00,2.250708103179931641e+00,2.250448465347290039e+00,2.250189065933227539e+00,2.249929666519165039e+00,2.249670505523681641e+00,2.249411106109619141e+00,2.249151945114135742e+00,2.248892784118652344e+00,2.248633623123168945e+00,2.248374700546264648e+00,1.952002763748168945e+00,1.958251357078552246e+00,1.954496622085571289e+00,1.974948048591613770e+00,2.018069744110107422e+00,2.246821641921997070e+00,2.246563196182250977e+00,2.246304512023925781e+00,2.246046066284179688e+00,2.245787620544433594e+00,2.245529413223266602e+00,2.245270967483520508e+00,2.245012521743774414e+00,2.244754552841186523e+00,2.244496345520019531e+00,2.244238376617431641e+00,2.243980407714843750e+00,2.243722438812255859e+00,2.243464469909667969e+00,2.243206501007080078e+00,2.242948770523071289e+00,2.242691040039062500e+00,2.242433309555053711e+00,2.242175817489624023e+00,2.241918325424194336e+00,2.241660833358764648e+00,2.241403341293334961e+00,2.241145849227905273e+00,2.240888595581054688e+00,2.240631341934204102e+00,2.240374326705932617e+00,2.240117073059082031e+00,2.239860057830810547e+00,2.239603042602539062e+00,2.239346265792846680e+00,2.239089250564575195e+00,2.238832235336303711e+00,2.238575696945190430e+00,2.238318920135498047e+00,2.238062143325805664e+00,2.237805604934692383e+00,2.237549066543579102e+00,2.237292766571044922e+00,2.237036228179931641e+00,2.236779689788818359e+00,2.236523628234863281e+00,2.236267328262329102e+00,2.236011028289794922e+00,2.235754966735839844e+00,2.235498905181884766e+00,2.235242843627929688e+00,2.234987020492553711e+00,2.234730958938598633e+00
1.988124251365661621e+00,1.987921833992004395e+00,1.987719297409057617e+00,1.987516999244689941e+00,1.987314581871032715e+00,1.987112402915954590e+00,1.986909985542297363e+00,1.986707687377929688e+00,1.986505627632141113e+00,1.986303329467773438e+00,1.986101388931274414e+00,1.985899209976196289e+00,1.985697269439697266e+00,1.985495209693908691e+00,1.985293149948120117e+00,1.985091328620910645e+00,1.984889388084411621e+00,1.984687685966491699e+00,1.984485745429992676e+00,1.984284162521362305e+00,1.984082341194152832e+00,1.983880877494812012e+00,1.983679175376892090e+00,1.983477473258972168e+00,1.983276009559631348e+00,1.983074426651000977e+00,1.982873082160949707e+00,1.982671618461608887e+00,1.982470393180847168e+00,1.982268929481506348e+00,1.982067465782165527e+00,1.981866359710693359e+00,1.981665015220642090e+00,1.981464028358459473e+00,1.981262803077697754e+00,1.981061816215515137e+00,1.980860710144042969e+00,1.980659723281860352e+00,1.980458736419677734e+00,1.980257630348205566e+00,1.980056881904602051e+00,1.979856014251708984e+00,1.979655265808105469e+00,1.979454398155212402e+00,1.979253768920898438e+00,1.979053020477294922e+00,1.978852272033691406e+00,1.978651762008666992e+00,1.978451132774353027e+00,1.978250741958618164e+00,1.978050112724304199e+00,1.977849841117858887e+00,1.977649331092834473e+00,1.977449059486389160e+00,1.977248668670654297e+00,1.977048277854919434e+00,1.976848125457763672e+00,1.976647853851318359e+00,1.976447820663452148e+00,1.976247668266296387e+00,1.976047635078430176e+00,1.975847482681274414e+00,1.975647449493408203e+00,1.975447654724121094e+00,1.975247621536254883e+00,1.975047826766967773e+00,1.974847912788391113e+00,1.974648237228393555e+00,1.974448442459106445e+00,1.974248766899108887e+00,1.974048972129821777e+00,1.973849296569824219e+00,1.973649859428405762e+00,1.973450183868408203e+00,1.973250746726989746e+00,1.973051190376281738e+00,1.972851872444152832e+00,1.972652435302734375e+00,1.972452998161315918e+00,1.972253799438476562e+00
1.777652502059936523e+00,1.777490496635437012e+00,1.777328848838806152e+00,1.777166843414306641e+00,1.777004957199096680e+00,1.776843309402465820e+00,1.776681542396545410e+00,1.776519894599914551e+00,1.776358127593994141e+00,1.776196599006652832e+00,1.776034951210021973e+00,1.775873422622680664e+00,1.775711774826049805e+00,1.775550127029418945e+00,1.775388717651367188e+00,1.775227189064025879e+00,1.775065898895263672e+00,1.774904370307922363e+00,1.774743080139160156e+00,1.774581670761108398e+00,1.774420261383056641e+00,1.774259090423583984e+00,1.774097681045532227e+00,1.773936510086059570e+00,1.773775219917297363e+00,1.773614168167114258e+00,1.773452997207641602e+00,1.773291945457458496e+00,1.773130774497985840e+00,1.772969603538513184e+00,1.772808670997619629e+00,1.772647619247436523e+00,1.772486686706542969e+00,1.772325634956359863e+00,1.772164821624755859e+00,1.772003889083862305e+00,1.771842956542968750e+00,1.771682262420654297e+00,1.771521329879760742e+00,1.771360635757446289e+00,1.771199822425842285e+00,1.771039247512817383e+00,1.770878434181213379e+00,1.770717978477478027e+00,1.770557165145874023e+00,1.770396471023559570e+00,1.770236015319824219e+00,1.770075440406799316e+00,1.769914984703063965e+00,1.769754528999328613e+00,1.769594073295593262e+00,1.769433617591857910e+00,1.769273161888122559e+00,1.769112825393676758e+00,1.768952488899230957e+00,1.768792271614074707e+00,1.768631935119628906e+00,1.768471717834472656e+00,1.768311500549316406e+00,1.768151402473449707e+00,1.767991065979003906e+00,1.767830848693847656e+00,1.767670869827270508e+00,1.767510771751403809e+00,1.767350792884826660e+00,1.767190694808959961e+00,1.767030835151672363e+00,1.766870737075805664e+00,1.766710996627807617e+00,1.766551017761230469e+00,1.766391038894653320e+00,1.766231298446655273e+00,1.766071438789367676e+00,1.765911698341369629e+00,1.765751838684082031e+00,1.765592217445373535e+00,1.765432476997375488e+00,1.765272736549377441e+00,1.765113234519958496e+00,1.764953613281250000e+00
1.607477545738220215e+00,1.607345342636108398e+00,1.607212901115417480e+00,1.607080578804016113e+00,1.606948256492614746e+00,1.606815934181213379e+00,1.606683731079101562e+00,1.606551408767700195e+00,1.606419205665588379e+00,1.606287002563476562e+00,1.606154918670654297e+00,1.606022715568542480e+00,1.605890512466430664e+00,1.605758428573608398e+00,1.605626225471496582e+00,1.605494260787963867e+00,1.605362176895141602e+00,1.605230212211608887e+00,1.605098128318786621e+00,1.604966282844543457e+00,1.604834198951721191e+00,1.604702234268188477e+00,1.604570388793945312e+00,1.604438424110412598e+00,1.604306578636169434e+00,1.604174733161926270e+00,1.604043006896972656e+00,1.603911042213439941e+00,1.603779196739196777e+00,1.603647589683532715e+00,1.603515744209289551e+00,1.603384137153625488e+00,1.603252291679382324e+00,1.603120684623718262e+00,1.602988958358764648e+00,1.602857470512390137e+00,1.602725744247436523e+00,1.602594137191772461e+00,1.602462649345397949e+00,1.602331042289733887e+00,1.602199554443359375e+00,1.602067947387695312e+00,1.601936578750610352e+00,1.601805090904235840e+00,1.601673483848571777e+00,1.601542234420776367e+00,1.601410746574401855e+00,1.601279377937316895e+00,1.601148009300231934e+00,1.601016759872436523e+00,1.600885391235351562e+00,1.600754141807556152e+00,1.600622892379760742e+00,1.600491523742675781e+00,1.600360393524169922e+00,1.600229144096374512e+00,1.600098013877868652e+00,1.599966764450073242e+00,1.599835634231567383e+00,1.599704504013061523e+00,1.599573373794555664e+00,1.599442362785339355e+00,1.599311232566833496e+00,1.599180221557617188e+00,1.599049210548400879e+00,1.598918318748474121e+00,1.598787307739257812e+00,1.598656415939331055e+00,1.598525404930114746e+00,1.598394393920898438e+00,1.598263621330261230e+00,1.598132729530334473e+00,1.598001956939697266e+00,1.597871065139770508e+00,1.597740292549133301e+00,1.597609519958496094e+00,1.597478628158569336e+00,1.597347974777221680e+00,1.597217202186584473e+00,1.597086668014526367e+00
1.467037916183471680e+00,1.466927647590637207e+00,1.466817378997802734e+00,1.466707229614257812e+00,1.466596961021423340e+00,1.466486811637878418e+00,1.466376543045043945e+00,1.466266512870788574e+00,1.466156244277954102e+00,1.466046214103698730e+00,1.465936064720153809e+00,1.465825915336608887e+00,1.465715885162353516e+00,1.465605854988098145e+00,1.465495824813842773e+00,1.465385794639587402e+00,1.465275764465332031e+00,1.465165734291076660e+00,1.465055704116821289e+00,1.464945793151855469e+00,1.464835882186889648e+00,1.464725971221923828e+00,1.464616060256958008e+00,1.464506149291992188e+00,1.464396238327026367e+00,1.464286446571350098e+00,1.464176535606384277e+00,1.464066624641418457e+00,1.463956952095031738e+00,1.463847041130065918e+00,1.463737368583679199e+00,1.463627576828002930e+00,1.463517904281616211e+00,1.463408112525939941e+00,1.463298320770263672e+00,1.463188767433166504e+00,1.463078975677490234e+00,1.462969422340393066e+00,1.462859630584716797e+00,1.462750077247619629e+00,1.462640404701232910e+00,1.462530970573425293e+00,1.462421298027038574e+00,1.462311744689941406e+00,1.462202191352844238e+00,1.462092638015747070e+00,1.461983203887939453e+00,1.461873650550842285e+00,1.461764216423034668e+00,1.461654663085937500e+00,1.461545228958129883e+00,1.461435794830322266e+00,1.461326360702514648e+00,1.461217045783996582e+00,1.461107611656188965e+00,1.460998296737670898e+00,1.460888862609863281e+00,1.460779666900634766e+00,1.460670232772827148e+00,1.460560917854309082e+00,1.460451722145080566e+00,1.460342407226562500e+00,1.460233211517333984e+00,1.460123896598815918e+00,1.460014700889587402e+00,1.459905505180358887e+00,1.459796309471130371e+00,1.459687113761901855e+00,1.459577918052673340e+00,1.459468841552734375e+00,1.459359645843505859e+00,1.459250688552856445e+00,1.459141492843627930e+00,1.459032535552978516e+00,1.458923339843750000e+00,1.458814263343811035e+00,1.458705306053161621e+00,1.458596229553222656e+00,1.458487391471862793e+00,1.458378314971923828e+00
1.349165916442871094e+00,1.349072813987731934e+00,1.348979473114013672e+00,1.348886251449584961e+00,1.348793029785156250e+00,1.348699808120727539e+00,1.348606705665588379e+00,1.348513484001159668e+00,1.348420381546020508e+00,1.348327159881591797e+00,1.348233938217163086e+00,1.348140954971313477e+00,1.348047733306884766e+00,1.347954750061035156e+00,1.347861528396606445e+00,1.347768545150756836e+00,1.347675442695617676e+00,1.347582459449768066e+00,1.347489356994628906e+00,1.347396373748779297e+00,1.347303390502929688e+00,1.347210407257080078e+00,1.347117424011230469e+00,1.347024440765380859e+00,1.346931576728820801e+00,1.346838593482971191e+00,1.346745610237121582e+00,1.346652746200561523e+00,1.346559762954711914e+00,1.346466898918151855e+00,1.346374034881591797e+00,1.346281170845031738e+00,1.346188306808471680e+00,1.346095561981201172e+00,1.346002697944641113e+00,1.345909833908081055e+00,1.345817089080810547e+00,1.345724225044250488e+00,1.345631480216979980e+00,1.345538735389709473e+00,1.345445990562438965e+00,1.345353245735168457e+00,1.345260500907897949e+00,1.345167756080627441e+00,1.345075011253356934e+00,1.344982385635375977e+00,1.344889640808105469e+00,1.344797134399414062e+00,1.344704389572143555e+00,1.344611763954162598e+00,1.344519138336181641e+00,1.344426512718200684e+00,1.344334006309509277e+00,1.344241261482238770e+00,1.344148755073547363e+00,1.344056248664855957e+00,1.343963742256164551e+00,1.343871116638183594e+00,1.343778610229492188e+00,1.343686103820800781e+00,1.343593597412109375e+00,1.343501091003417969e+00,1.343408584594726562e+00,1.343316197395324707e+00,1.343223690986633301e+00,1.343131303787231445e+00,1.343038916587829590e+00,1.342946410179138184e+00,1.342854142189025879e+00,1.342761635780334473e+00,1.342669367790222168e+00,1.342576980590820312e+00,1.342484712600708008e+00,1.342392325401306152e+00,1.342299938201904297e+00,1.342207670211791992e+00,1.342115283012390137e+00,1.342023134231567383e+00,1.341930747032165527e+00,1.341838598251342773e+00
1.248826622962951660e+00,1.248746752738952637e+00,1.248666882514953613e+00,1.248587012290954590e+00,1.248507142066955566e+00,1.248427271842956543e+00,1.248347401618957520e+00,1.248267650604248047e+00,1.248187780380249023e+00,1.248107910156250000e+00,1.248028159141540527e+00,1.247948288917541504e+00,1.247868537902832031e+00,1.247788786888122559e+00,1.247709035873413086e+00,1.247629284858703613e+00,1.247549414634704590e+00,1.247469782829284668e+00,1.247390031814575195e+00,1.247310400009155273e+00,1.247230648994445801e+00,1.247151017189025879e+00,1.247071266174316406e+00,1.246991634368896484e+00,1.246911883354187012e+00,1.246832251548767090e+00,1.246752619743347168e+00,1.246672987937927246e+00,1.246593356132507324e+00,1.246513724327087402e+00,1.246434211730957031e+00,1.246354579925537109e+00,1.246274948120117188e+00,1.246195435523986816e+00,1.246115803718566895e+00,1.246036291122436523e+00,1.245956778526306152e+00,1.245877265930175781e+00,1.245797634124755859e+00,1.245718240737915039e+00,1.245638728141784668e+00,1.245559096336364746e+00,1.245479702949523926e+00,1.245400190353393555e+00,1.245320796966552734e+00,1.245241284370422363e+00,1.245161890983581543e+00,1.245082497596740723e+00,1.245002985000610352e+00,1.244923591613769531e+00,1.244844198226928711e+00,1.244764804840087891e+00,1.244685411453247070e+00,1.244606137275695801e+00,1.244526743888854980e+00,1.244447469711303711e+00,1.244368076324462891e+00,1.244288682937622070e+00,1.244209408760070801e+00,1.244130015373229980e+00,1.244050860404968262e+00,1.243971467018127441e+00,1.243892312049865723e+00,1.243812918663024902e+00,1.243733763694763184e+00,1.243654489517211914e+00,1.243575215339660645e+00,1.243496060371398926e+00,1.243416786193847656e+00,1.243337631225585938e+00,1.243258357048034668e+00,1.243179202079772949e+00,1.243100047111511230e+00,1.243020772933959961e+00,1.242941737174987793e+00,1.242862582206726074e+00,1.242783427238464355e+00,1.242704272270202637e+00,1.242625236511230469e+00,1.242546081542968750e+00
1.162378907203674316e+00,1.162309646606445312e+00,1.162240505218505859e+00,1.162171244621276855e+00,1.162102103233337402e+00,1.162032961845397949e+00,1.161963820457458496e+00,1.161894559860229492e+00,1.161825418472290039e+00,1.161756277084350586e+00,1.161687135696411133e+00,1.161617994308471680e+00,1.161548852920532227e+00,1.161479711532592773e+00,1.161410570144653320e+00,1.161341547966003418e+00,1.161272406578063965e+00,1.161203265190124512e+00,1.161134243011474609e+00,1.161065220832824707e+00,1.160996198654174805e+00,1.160927057266235352e+00,1.160858035087585449e+00,1.160789012908935547e+00,1.160719871520996094e+00,1.160650968551635742e+00,1.160581946372985840e+00,1.160512924194335938e+00,1.160443902015686035e+00,1.160374999046325684e+00,1.160305976867675781e+00,1.160236954689025879e+00,1.160168051719665527e+00,1.160099029541015625e+00,1.160030126571655273e+00,1.159961104393005371e+00,1.159892201423645020e+00,1.159823298454284668e+00,1.159754395484924316e+00,1.159685492515563965e+00,1.159616470336914062e+00,1.159547686576843262e+00,1.159478783607482910e+00,1.159409880638122559e+00,1.159340977668762207e+00,1.159272193908691406e+00,1.159203290939331055e+00,1.159134507179260254e+00,1.159065604209899902e+00,1.158996820449829102e+00,1.158928036689758301e+00,1.158859133720397949e+00,1.158790469169616699e+00,1.158721566200256348e+00,1.158652901649475098e+00,1.158583998680114746e+00,1.158515214920043945e+00,1.158446550369262695e+00,1.158377766609191895e+00,1.158309102058410645e+00,1.158240318298339844e+00,1.158171653747558594e+00,1.158102869987487793e+00,1.158034205436706543e+00,1.157965421676635742e+00,1.157896757125854492e+00,1.157828092575073242e+00,1.157759428024291992e+00,1.157690763473510742e+00,1.157622098922729492e+00,1.157553434371948242e+00,1.157484769821166992e+00,1.157416105270385742e+00,1.157347559928894043e+00,1.157278895378112793e+00,1.157210230827331543e+00,1.157141685485839844e+00,1.157073140144348145e+00,1.157004475593566895e+00,1.156935930252075195e+00
1.087124705314636230e+00,1.087064146995544434e+00,1.087003588676452637e+00,1.086943149566650391e+00,1.086882591247558594e+00,1.086822032928466797e+00,1.086761593818664551e+00,1.086701035499572754e+00,1.086640596389770508e+00,1.086580038070678711e+00,1.086519598960876465e+00,1.086459040641784668e+00,1.086398601531982422e+00,1.086338162422180176e+00,1.086277604103088379e+00,1.086217284202575684e+00,1.086156725883483887e+00,1.086096405982971191e+00,1.086035847663879395e+00,1.085975527763366699e+00,1.085915088653564453e+00,1.085854649543762207e+00,1.085794210433959961e+00,1.085733771324157715e+00,1.085673451423645020e+00,1.085613012313842773e+00,1.085552692413330078e+00,1.085492372512817383e+00,1.085432052612304688e+00,1.085371613502502441e+00,1.085311174392700195e+00,1.085250973701477051e+00,1.085190534591674805e+00,1.085130214691162109e+00,1.085069894790649414e+00,1.085009574890136719e+00,1.084949254989624023e+00,1.084889054298400879e+00,1.084828734397888184e+00,1.084768414497375488e+00,1.084708094596862793e+00,1.084647774696350098e+00,1.084587574005126953e+00,1.084527254104614258e+00,1.084467053413391113e+00,1.084406733512878418e+00,1.084346532821655273e+00,1.084286332130432129e+00,1.084226012229919434e+00,1.084165811538696289e+00,1.084105610847473145e+00,1.084045410156250000e+00,1.083985209465026855e+00,1.083925008773803711e+00,1.083864808082580566e+00,1.083804607391357422e+00,1.083744525909423828e+00,1.083684325218200684e+00,1.083624124526977539e+00,1.083563923835754395e+00,1.083503842353820801e+00,1.083443641662597656e+00,1.083383560180664062e+00,1.083323478698730469e+00,1.083263278007507324e+00,1.083203196525573730e+00,1.083142995834350586e+00,1.083083033561706543e+00,1.083022832870483398e+00,1.082962751388549805e+00,1.082902669906616211e+00,1.082842588424682617e+00,1.082782506942749023e+00,1.082722425460815430e+00,1.082662463188171387e+00,1.082602381706237793e+00,1.082542300224304199e+00,1.082482218742370605e+00,1.082422256469726562e+00,1.082362174987792969e+00
1.021022200584411621e+00,1.020968794822692871e+00,1.020915389060974121e+00,1.020861983299255371e+00,1.020808577537536621e+00,1.020755171775817871e+00,1.020701766014099121e+00,1.020648479461669922e+00,1.020595073699951172e+00,1.020541667938232422e+00,1.020488381385803223e+00,1.020434975624084473e+00,1.020381689071655273e+00,1.020328283309936523e+00,1.020274996757507324e+00,1.020221590995788574e+00,1.020168304443359375e+00,1.020115017890930176e+00,1.020061731338500977e+00,1.020008325576782227e+00,1.019955158233642578e+00,1.019901752471923828e+00,1.019848465919494629e+00,1.019795179367065430e+00,1.019741892814636230e+00,1.019688725471496582e+00,1.019635438919067383e+00,1.019582152366638184e+00,1.019528865814208984e+00,1.019475698471069336e+00,1.019422411918640137e+00,1.019369125366210938e+00,1.019315958023071289e+00,1.019262671470642090e+00,1.019209504127502441e+00,1.019156217575073242e+00,1.019103050231933594e+00,1.019049763679504395e+00,1.018996596336364746e+00,1.018943428993225098e+00,1.018890261650085449e+00,1.018837094306945801e+00,1.018783807754516602e+00,1.018730759620666504e+00,1.018677473068237305e+00,1.018624424934387207e+00,1.018571257591247559e+00,1.018517971038818359e+00,1.018464922904968262e+00,1.018411755561828613e+00,1.018358588218688965e+00,1.018305540084838867e+00,1.018252372741699219e+00,1.018199205398559570e+00,1.018146157264709473e+00,1.018092989921569824e+00,1.018039941787719727e+00,1.017986893653869629e+00,1.017933726310729980e+00,1.017880678176879883e+00,1.017827630043029785e+00,1.017774581909179688e+00,1.017721414566040039e+00,1.017668366432189941e+00,1.017615318298339844e+00,1.017562270164489746e+00,1.017509222030639648e+00,1.017456173896789551e+00,1.017403125762939453e+00,1.017350077629089355e+00,1.017297029495239258e+00,1.017244100570678711e+00,1.017191052436828613e+00,1.017138123512268066e+00,1.017085075378417969e+00,1.017032027244567871e+00,1.016979098320007324e+00,1.016926050186157227e+00,1.016873121261596680e+00,1.016820073127746582e+00
9.624975919723510742e-01,9.624502062797546387e-01,9.624027013778686523e-01,9.623551964759826660e-01,9.623077511787414551e-01,9.622603058815002441e-01,9.622129201889038086e-01,9.621654748916625977e-01,9.621180295944213867e-01,9.620705842971801758e-01,9.620232582092285156e-01,9.619758129119873047e-01,9.619283676147460938e-01,9.618809819221496582e-01,9.618335366249084473e-01,9.617862105369567871e-01,9.617388248443603516e-01,9.616913795471191406e-01,9.616439938545227051e-01,9.615967273712158203e-01,9.615493416786193848e-01,9.615018963813781738e-01,9.614545106887817383e-01,9.614071846008300781e-01,9.613599181175231934e-01,9.613125324249267578e-01,9.612651467323303223e-01,9.612177610397338867e-01,9.611704349517822266e-01,9.611231684684753418e-01,9.610758423805236816e-01,9.610285162925720215e-01,9.609811305999755859e-01,9.609339237213134766e-01,9.608865976333618164e-01,9.608392715454101562e-01,9.607919454574584961e-01,9.607446193695068359e-01,9.606974124908447266e-01,9.606501460075378418e-01,9.606028199195861816e-01,9.605554938316345215e-01,9.605083465576171875e-01,9.604610204696655273e-01,9.604137539863586426e-01,9.603664875030517578e-01,9.603192210197448730e-01,9.602720737457275391e-01,9.602248072624206543e-01,9.601775407791137695e-01,9.601302742958068848e-01,9.600831270217895508e-01,9.600358605384826660e-01,9.599886536598205566e-01,9.599413871765136719e-01,9.598941802978515625e-01,9.598470330238342285e-01,9.597998261451721191e-01,9.597526192665100098e-01,9.597053527832031250e-01,9.596581459045410156e-01,9.596110582351684570e-01,9.595638513565063477e-01,9.595167040824890137e-01,9.594694972038269043e-01,9.594224095344543457e-01,9.593752026557922363e-01,9.593280553817749023e-01,9.592808485031127930e-01,9.592337012290954590e-01,9.591866731643676758e-01,9.591394662857055664e-01,9.590923190116882324e-01,9.590451717376708984e-01,9.589981436729431152e-01,9.589509963989257812e-01,9.589038491249084473e-01,9.588567614555358887e-01,9.588096141815185547e-01,9.587625861167907715e-01
9.103185534477233887e-01,9.102760553359985352e-01,9.102335572242736816e-01,9.101911187171936035e-01,9.101486206054687500e-01,9.101063013076782227e-01,9.100638031959533691e-01,9.100213646888732910e-01,9.099789261817932129e-01,9.099366068840026855e-01,9.098941683769226074e-01,9.098517298698425293e-01,9.098092913627624512e-01,9.097668528556823730e-01,9.097245335578918457e-01,9.096820950508117676e-01,9.096396565437316895e-01,9.095972776412963867e-01,9.095549583435058594e-01,9.095125794410705566e-01,9.094701409339904785e-01,9.094277620315551758e-01,9.093853831291198730e-01,9.093430638313293457e-01,9.093006849288940430e-01,9.092583060264587402e-01,9.092159271240234375e-01,9.091736674308776855e-01,9.091312885284423828e-01,9.090889096260070801e-01,9.090465307235717773e-01,9.090042114257812500e-01,9.089619517326354980e-01,9.089195728302001953e-01,9.088772535324096680e-01,9.088349342346191406e-01,9.087925553321838379e-01,9.087503552436828613e-01,9.087079763412475586e-01,9.086656570434570312e-01,9.086233377456665039e-01,9.085811376571655273e-01,9.085388183593750000e-01,9.084964990615844727e-01,9.084542393684387207e-01,9.084119200706481934e-01,9.083697199821472168e-01,9.083274006843566895e-01,9.082851409912109375e-01,9.082428216934204102e-01,9.082006812095642090e-01,9.081583619117736816e-01,9.081161022186279297e-01,9.080738425254821777e-01,9.080315828323364258e-01,9.079893827438354492e-01,9.079471230506896973e-01,9.079048633575439453e-01,9.078626632690429688e-01,9.078204631805419922e-01,9.077782630920410156e-01,9.077360033988952637e-01,9.076937437057495117e-01,9.076515436172485352e-01,9.076094031333923340e-01,9.075672030448913574e-01,9.075249433517456055e-01,9.074827432632446289e-01,9.074405431747436523e-01,9.073984026908874512e-01,9.073562026023864746e-01,9.073140025138854980e-01,9.072718024253845215e-01,9.072297215461730957e-01,9.071875214576721191e-01,9.071453809738159180e-01,9.071031808853149414e-01,9.070609807968139648e-01,9.070189595222473145e-01,9.069767594337463379e-01
8.635059595108032227e-01,8.634677529335021973e-01,8.634294867515563965e-01,8.633912801742553711e-01,8.633531928062438965e-01,8.633149862289428711e-01,8.632767796516418457e-01,8.632385730743408203e-01,8.632004857063293457e-01,8.631622791290283203e-01,8.631240725517272949e-01,8.630858659744262695e-01,8.630477190017700195e-01,8.630096316337585449e-01,8.629714250564575195e-01,8.629332780838012695e-01,8.628950715065002441e-01,8.628570437431335449e-01,8.628188371658325195e-01,8.627806901931762695e-01,8.627425432205200195e-01,8.627043962478637695e-01,8.626663088798522949e-01,8.626281619071960449e-01,8.625900149345397949e-01,8.625519275665283203e-01,8.625137805938720703e-01,8.624757528305053711e-01,8.624376058578491211e-01,8.623994588851928711e-01,8.623613715171813965e-01,8.623233437538146973e-01,8.622851967811584473e-01,8.622471094131469727e-01,8.622089624404907227e-01,8.621708750724792480e-01,8.621328473091125488e-01,8.620947599411010742e-01,8.620566725730895996e-01,8.620185852050781250e-01,8.619805574417114258e-01,8.619424700736999512e-01,8.619044423103332520e-01,8.618663549423217773e-01,8.618282675743103027e-01,8.617902994155883789e-01,8.617522120475769043e-01,8.617141246795654297e-01,8.616760969161987305e-01,8.616381287574768066e-01,8.616000413894653320e-01,8.615620136260986328e-01,8.615239858627319336e-01,8.614858984947204590e-01,8.614479899406433105e-01,8.614099025726318359e-01,8.613718748092651367e-01,8.613338470458984375e-01,8.612958192825317383e-01,8.612579107284545898e-01,8.612198829650878906e-01,8.611818552017211914e-01,8.611438274383544922e-01,8.611059188842773438e-01,8.610678911209106445e-01,8.610299229621887207e-01,8.609918951988220215e-01,8.609539270401000977e-01,8.609160184860229492e-01,8.608779907226562500e-01,8.608400225639343262e-01,8.608020544052124023e-01,8.607641458511352539e-01,8.607261776924133301e-01,8.606882095336914062e-01,8.606502413749694824e-01,8.606122732162475586e-01,8.605743646621704102e-01,8.605363965034484863e-01,8.604984879493713379e-01
8.212724924087524414e-01,8.212379217147827148e-01,8.212033510208129883e-01,8.211688995361328125e-01,8.211343288421630859e-01,8.210997581481933594e-01,8.210651874542236328e-01,8.210307359695434570e-01,8.209961652755737305e-01,8.209615945816040039e-01,8.209270834922790527e-01,8.208925127983093262e-01,8.208580613136291504e-01,8.208235502243041992e-01,8.207889795303344727e-01,8.207544684410095215e-01,8.207200169563293457e-01,8.206855058670043945e-01,8.206509947776794434e-01,8.206164240837097168e-01,8.205819129943847656e-01,8.205475211143493652e-01,8.205130100250244141e-01,8.204784989356994629e-01,8.204439878463745117e-01,8.204095363616943359e-01,8.203750848770141602e-01,8.203405737876892090e-01,8.203060626983642578e-01,8.202715516090393066e-01,8.202371597290039062e-01,8.202027082443237305e-01,8.201681971549987793e-01,8.201337456703186035e-01,8.200992345809936523e-01,8.200648427009582520e-01,8.200303912162780762e-01,8.199958801269531250e-01,8.199614286422729492e-01,8.199270367622375488e-01,8.198925852775573730e-01,8.198581337928771973e-01,8.198236823081970215e-01,8.197892308235168457e-01,8.197548985481262207e-01,8.197204470634460449e-01,8.196859955787658691e-01,8.196515440940856934e-01,8.196172118186950684e-01,8.195827603340148926e-01,8.195483088493347168e-01,8.195139169692993164e-01,8.194794654846191406e-01,8.194451332092285156e-01,8.194106817245483398e-01,8.193762898445129395e-01,8.193418979644775391e-01,8.193075656890869141e-01,8.192731142044067383e-01,8.192387223243713379e-01,8.192043304443359375e-01,8.191699385643005371e-01,8.191356062889099121e-01,8.191012144088745117e-01,8.190668225288391113e-01,8.190324306488037109e-01,8.189980387687683105e-01,8.189637660980224609e-01,8.189293742179870605e-01,8.188949823379516602e-01,8.188606500625610352e-01,8.188263177871704102e-01,8.187919855117797852e-01,8.187575936317443848e-01,8.187232613563537598e-01,8.186888694763183594e-01,8.186545968055725098e-01,8.186202645301818848e-01,8.185859322547912598e-01,8.185515403747558594e-01
7.829776406288146973e-01,7.829462289810180664e-01,7.829148769378662109e-01,7.828834652900695801e-01,7.828520536422729492e-01,7.828206419944763184e-01,7.827892899513244629e-01,7.827578783035278320e-01,7.827264666557312012e-01,7.826950550079345703e-01,7.826637029647827148e-01,7.826323509216308594e-01,7.826009392738342285e-01,7.825695872306823730e-01,7.825381755828857422e-01,7.825068831443786621e-01,7.824754714965820312e-01,7.824440598487854004e-01,7.824127078056335449e-01,7.823812961578369141e-01,7.823500037193298340e-01,7.823186516761779785e-01,7.822872996330261230e-01,7.822558879852294922e-01,7.822245359420776367e-01,7.821932435035705566e-01,7.821618914604187012e-01,7.821305394172668457e-01,7.820991873741149902e-01,7.820678949356079102e-01,7.820365428924560547e-01,7.820051908493041992e-01,7.819738388061523438e-01,7.819424867630004883e-01,7.819112539291381836e-01,7.818799018859863281e-01,7.818485498428344727e-01,7.818171977996826172e-01,7.817859649658203125e-01,7.817546129226684570e-01,7.817233204841613770e-01,7.816919684410095215e-01,7.816606760025024414e-01,7.816294431686401367e-01,7.815980911254882812e-01,7.815667986869812012e-01,7.815355062484741211e-01,7.815042734146118164e-01,7.814729213714599609e-01,7.814416289329528809e-01,7.814103364944458008e-01,7.813790440559387207e-01,7.813478112220764160e-01,7.813165187835693359e-01,7.812852263450622559e-01,7.812539339065551758e-01,7.812226414680480957e-01,7.811914682388305664e-01,7.811601758003234863e-01,7.811288833618164062e-01,7.810975909233093262e-01,7.810664176940917969e-01,7.810351252555847168e-01,7.810038924217224121e-01,7.809725999832153320e-01,7.809413075447082520e-01,7.809101343154907227e-01,7.808789014816284180e-01,7.808476090431213379e-01,7.808163762092590332e-01,7.807852029800415039e-01,7.807539701461791992e-01,7.807227373123168945e-01,7.806914448738098145e-01,7.806602120399475098e-01,7.806290388107299805e-01,7.805978059768676758e-01,7.805665731430053711e-01,7.805353403091430664e-01,7.805042266845703125e-01
7.480949759483337402e-01,7.480663657188415527e-01,7.480376958847045898e-01,7.480089664459228516e-01,7.479802966117858887e-01,7.479516863822937012e-01,7.479230165481567383e-01,7.478943467140197754e-01,7.478656768798828125e-01,7.478370070457458496e-01,7.478083968162536621e-01,7.477797269821166992e-01,7.477510571479797363e-01,7.477224469184875488e-01,7.476938366889953613e-01,7.476651668548583984e-01,7.476364970207214355e-01,7.476078867912292480e-01,7.475792169570922852e-01,7.475506663322448730e-01,7.475219964981079102e-01,7.474933266639709473e-01,7.474647164344787598e-01,7.474361658096313477e-01,7.474074959754943848e-01,7.473788857460021973e-01,7.473502159118652344e-01,7.473216056823730469e-01,7.472930550575256348e-01,7.472644448280334473e-01,7.472357749938964844e-01,7.472071647644042969e-01,7.471785545349121094e-01,7.471500039100646973e-01,7.471213936805725098e-01,7.470927834510803223e-01,7.470641732215881348e-01,7.470356225967407227e-01,7.470070123672485352e-01,7.469784021377563477e-01,7.469498515129089355e-01,7.469212412834167480e-01,7.468926906585693359e-01,7.468640804290771484e-01,7.468355298042297363e-01,7.468069195747375488e-01,7.467783689498901367e-01,7.467498183250427246e-01,7.467212080955505371e-01,7.466926574707031250e-01,7.466640472412109375e-01,7.466355562210083008e-01,7.466070055961608887e-01,7.465783953666687012e-01,7.465498447418212891e-01,7.465213537216186523e-01,7.464927434921264648e-01,7.464641928672790527e-01,7.464356422424316406e-01,7.464070916175842285e-01,7.463786005973815918e-01,7.463500499725341797e-01,7.463214993476867676e-01,7.462929487228393555e-01,7.462643980979919434e-01,7.462359070777893066e-01,7.462073564529418945e-01,7.461788058280944824e-01,7.461502552032470703e-01,7.461218237876892090e-01,7.460932731628417969e-01,7.460647225379943848e-01,7.460362315177917480e-01,7.460076808929443359e-01,7.459792494773864746e-01,7.459506988525390625e-01,7.459221482276916504e-01,7.458936572074890137e-01,7.458652257919311523e-01,7.458366751670837402e-01
7.161878943443298340e-01,7.161616086959838867e-01,7.161353230476379395e-01,7.161090373992919922e-01,7.160828113555908203e-01,7.160565257072448730e-01,7.160302400588989258e-01,7.160039544105529785e-01,7.159776687622070312e-01,7.159515023231506348e-01,7.159252166748046875e-01,7.158989310264587402e-01,7.158726453781127930e-01,7.158464789390563965e-01,7.158201932907104492e-01,7.157939076423645020e-01,7.157676815986633301e-01,7.157413959503173828e-01,7.157152295112609863e-01,7.156889438629150391e-01,7.156627178192138672e-01,7.156364321708679199e-01,7.156102061271667480e-01,7.155839800834655762e-01,7.155577540397644043e-01,7.155315279960632324e-01,7.155052423477172852e-01,7.154790759086608887e-01,7.154528498649597168e-01,7.154266238212585449e-01,7.154003977775573730e-01,7.153741121292114258e-01,7.153479456901550293e-01,7.153217196464538574e-01,7.152954936027526855e-01,7.152692675590515137e-01,7.152431011199951172e-01,7.152168750762939453e-01,7.151907086372375488e-01,7.151644825935363770e-01,7.151382565498352051e-01,7.151120901107788086e-01,7.150858640670776367e-01,7.150596976280212402e-01,7.150334715843200684e-01,7.150073051452636719e-01,7.149811387062072754e-01,7.149549126625061035e-01,7.149286866188049316e-01,7.149025201797485352e-01,7.148763537406921387e-01,7.148501873016357422e-01,7.148239612579345703e-01,7.147977948188781738e-01,7.147716283798217773e-01,7.147454619407653809e-01,7.147192955017089844e-01,7.146931290626525879e-01,7.146669030189514160e-01,7.146407961845397949e-01,7.146146297454833984e-01,7.145884633064270020e-01,7.145622968673706055e-01,7.145361304283142090e-01,7.145100235939025879e-01,7.144838571548461914e-01,7.144576907157897949e-01,7.144315242767333984e-01,7.144054174423217773e-01,7.143792510032653809e-01,7.143530845642089844e-01,7.143269181251525879e-01,7.143007516860961914e-01,7.142746448516845703e-01,7.142485380172729492e-01,7.142223715782165527e-01,7.141962051391601562e-01,7.141701579093933105e-01,7.141439914703369141e-01,7.141178250312805176e-01
6.868911981582641602e-01,6.868670582771301270e-01,6.868428587913513184e-01,6.868187189102172852e-01,6.867945194244384766e-01,6.867703795433044434e-01,6.867461800575256348e-01,6.867220401763916016e-01,6.866979002952575684e-01,6.866737008094787598e-01,6.866495609283447266e-01,6.866253614425659180e-01,6.866012811660766602e-01,6.865771412849426270e-01,6.865529417991638184e-01,6.865288019180297852e-01,6.865046024322509766e-01,6.864805221557617188e-01,6.864563822746276855e-01,6.864322423934936523e-01,6.864080429077148438e-01,6.863839626312255859e-01,6.863598227500915527e-01,6.863356828689575195e-01,6.863115429878234863e-01,6.862874031066894531e-01,6.862633228302001953e-01,6.862391829490661621e-01,6.862150430679321289e-01,6.861909031867980957e-01,6.861667633056640625e-01,6.861426830291748047e-01,6.861185431480407715e-01,6.860944032669067383e-01,6.860702633857727051e-01,6.860461831092834473e-01,6.860221028327941895e-01,6.859979629516601562e-01,6.859738230705261230e-01,6.859497427940368652e-01,6.859256625175476074e-01,6.859015226364135742e-01,6.858774423599243164e-01,6.858533024787902832e-01,6.858292818069458008e-01,6.858051419258117676e-01,6.857810616493225098e-01,6.857569217681884766e-01,6.857328414916992188e-01,6.857087612152099609e-01,6.856846809387207031e-01,6.856606006622314453e-01,6.856364607810974121e-01,6.856124401092529297e-01,6.855883598327636719e-01,6.855642795562744141e-01,6.855401396751403809e-01,6.855160593986511230e-01,6.854920387268066406e-01,6.854679584503173828e-01,6.854438781738281250e-01,6.854197978973388672e-01,6.853957176208496094e-01,6.853716969490051270e-01,6.853476166725158691e-01,6.853235363960266113e-01,6.852994561195373535e-01,6.852754354476928711e-01,6.852513551712036133e-01,6.852272748947143555e-01,6.852032542228698730e-01,6.851791739463806152e-01,6.851551532745361328e-01,6.851310729980468750e-01,6.851070523262023926e-01,6.850829720497131348e-01,6.850589513778686523e-01,6.850349307060241699e-01,6.850108504295349121e-01,6.849868297576904297e-01
6.598971486091613770e-01,6.598748564720153809e-01,6.598525643348693848e-01,6.598302721977233887e-01,6.598079204559326172e-01,6.597856283187866211e-01,6.597633361816406250e-01,6.597410440444946289e-01,6.597187519073486328e-01,6.596964597702026367e-01,6.596741080284118652e-01,6.596518754959106445e-01,6.596295833587646484e-01,6.596072912216186523e-01,6.595849394798278809e-01,6.595626473426818848e-01,6.595404148101806641e-01,6.595181226730346680e-01,6.594958305358886719e-01,6.594735383987426758e-01,6.594512462615966797e-01,6.594290137290954590e-01,6.594067215919494629e-01,6.593844294548034668e-01,6.593621373176574707e-01,6.593399047851562500e-01,6.593176126480102539e-01,6.592953205108642578e-01,6.592730879783630371e-01,6.592507958412170410e-01,6.592285633087158203e-01,6.592062711715698242e-01,6.591839790344238281e-01,6.591617465019226074e-01,6.591395139694213867e-01,6.591172218322753906e-01,6.590949892997741699e-01,6.590726971626281738e-01,6.590504646301269531e-01,6.590282320976257324e-01,6.590059995651245117e-01,6.589837074279785156e-01,6.589614748954772949e-01,6.589392423629760742e-01,6.589170098304748535e-01,6.588947176933288574e-01,6.588724851608276367e-01,6.588502526283264160e-01,6.588280200958251953e-01,6.588057875633239746e-01,6.587835550308227539e-01,6.587612628936767578e-01,6.587390303611755371e-01,6.587168574333190918e-01,6.586946249008178711e-01,6.586723923683166504e-01,6.586501598358154297e-01,6.586279273033142090e-01,6.586056947708129883e-01,6.585834622383117676e-01,6.585612297058105469e-01,6.585389971733093262e-01,6.585168242454528809e-01,6.584945917129516602e-01,6.584723591804504395e-01,6.584501862525939941e-01,6.584280133247375488e-01,6.584057807922363281e-01,6.583835482597351074e-01,6.583613157272338867e-01,6.583390831947326660e-01,6.583169102668762207e-01,6.582947373390197754e-01,6.582725048065185547e-01,6.582502722740173340e-01,6.582281589508056641e-01,6.582059264183044434e-01,6.581837534904479980e-01,6.581615209579467773e-01,6.581392884254455566e-01
6.349445581436157227e-01,6.349239349365234375e-01,6.349032521247863770e-01,6.348826289176940918e-01,6.348619461059570312e-01,6.348412632942199707e-01,6.348206996917724609e-01,6.348000168800354004e-01,6.347793340682983398e-01,6.347587108612060547e-01,6.347380876541137695e-01,6.347174644470214844e-01,6.346967816352844238e-01,6.346761584281921387e-01,6.346554756164550781e-01,6.346349120140075684e-01,6.346142292022705078e-01,6.345936059951782227e-01,6.345729827880859375e-01,6.345523595809936523e-01,6.345317363739013672e-01,6.345111131668090820e-01,6.344904899597167969e-01,6.344698071479797363e-01,6.344492435455322266e-01,6.344286203384399414e-01,6.344079971313476562e-01,6.343873739242553711e-01,6.343667507171630859e-01,6.343461275100708008e-01,6.343255043029785156e-01,6.343048810958862305e-01,6.342842578887939453e-01,6.342636942863464355e-01,6.342430710792541504e-01,6.342224478721618652e-01,6.342018246650695801e-01,6.341812014579772949e-01,6.341606378555297852e-01,6.341400146484375000e-01,6.341194510459899902e-01,6.340988278388977051e-01,6.340782642364501953e-01,6.340576410293579102e-01,6.340370178222656250e-01,6.340164542198181152e-01,6.339958310127258301e-01,6.339752674102783203e-01,6.339546442031860352e-01,6.339340806007385254e-01,6.339134573936462402e-01,6.338928937911987305e-01,6.338723301887512207e-01,6.338517069816589355e-01,6.338311433792114258e-01,6.338105201721191406e-01,6.337900161743164062e-01,6.337693929672241211e-01,6.337488293647766113e-01,6.337282657623291016e-01,6.337076425552368164e-01,6.336871385574340820e-01,6.336665153503417969e-01,6.336459517478942871e-01,6.336253285408020020e-01,6.336048245429992676e-01,6.335842609405517578e-01,6.335636973381042480e-01,6.335430741310119629e-01,6.335225105285644531e-01,6.335020065307617188e-01,6.334814429283142090e-01,6.334608793258666992e-01,6.334403157234191895e-01,6.334197521209716797e-01,6.333991885185241699e-01,6.333786249160766602e-01,6.333580613136291504e-01,6.333374977111816406e-01,6.333169937133789062e-01
