3.102272987365722656e+00,3.181055307388305664e+00,3.263943195343017578e+00,3.351266384124755859e+00,3.443390369415283203e+00,3.540722370147705078e+00,3.643717288970947266e+00,3.752883195877075195e+00,3.868792533874511719e+00,3.992089748382568359e+00,4.123504638671875000e+00,4.263865947723388672e+00,5.000000000000000000e+00,5.000000000000000000e+00,5.000000000000000000e+00,5.000000000000000000e+00,5.000000000000000000e+00,5.000000000000000000e+00,5.000000000000000000e+00,5.000000000000000000e+00,5.000000000000000000e+00,5.000000000000000000e+00,5.000000000000000000e+00,5.000000000000000000e+00,5.000000000000000000e+00,5.000000000000000000e+00,5.000000000000000000e+00,5.000000000000000000e+00,5.000000000000000000e+00,5.000000000000000000e+00,5.000000000000000000e+00,5.000000000000000000e+00,5.000000000000000000e+00,5.000000000000000000e+00,5.000000000000000000e+00,5.000000000000000000e+00,5.000000000000000000e+00,5.000000000000000000e+00,5.000000000000000000e+00,5.000000000000000000e+00,5.000000000000000000e+00,5.000000000000000000e+00,5.000000000000000000e+00,5.000000000000000000e+00,5.000000000000000000e+00,5.000000000000000000e+00,5.000000000000000000e+00,5.000000000000000000e+00,5.000000000000000000e+00,5.000000000000000000e+00,5.000000000000000000e+00,5.000000000000000000e+00,5.000000000000000000e+00,5.000000000000000000e+00,5.000000000000000000e+00,5.000000000000000000e+00,5.000000000000000000e+00,2.609418392181396484e+00,2.607916116714477539e+00,5.000000000000000000e+00,5.000000000000000000e+00,5.000000000000000000e+00,5.000000000000000000e+00,5.000000000000000000e+00,5.000000000000000000e+00,5.000000000000000000e+00,5.000000000000000000e+00,5.000000000000000000e+00,5.000000000000000000e+00,5.000000000000000000e+00,5.000000000000000000e+00,5.000000000000000000e+00,5.000000000000000000e+00,5.000000000000000000e+00,4.260563850402832031e+00,4.137595653533935547e+00,4.021526813507080078e+00,3.911776781082153320e+00,3.807812929153442383e+00,3.709232091903686523e+00
3.102213859558105469e+00,3.180993318557739258e+00,3.263878107070922852e+00,3.351197481155395508e+00,3.443317651748657227e+00,3.540645837783813477e+00,3.643635988235473633e+00,3.752796888351440430e+00,3.868700742721557617e+00,3.991992235183715820e+00,4.123400688171386719e+00,4.263754844665527344e+00,4.414000511169433594e+00,5.000000000000000000e+00,5.000000000000000000e+00,5.000000000000000000e+00,5.000000000000000000e+00,5.000000000000000000e+00,5.000000000000000000e+00,5.000000000000000000e+00,5.000000000000000000e+00,5.000000000000000000e+00,5.000000000000000000e+00,5.000000000000000000e+00,5.000000000000000000e+00,5.000000000000000000e+00,5.000000000000000000e+00,5.000000000000000000e+00,5.000000000000000000e+00,5.000000000000000000e+00,5.000000000000000000e+00,5.000000000000000000e+00,5.000000000000000000e+00,5.000000000000000000e+00,5.000000000000000000e+00,5.000000000000000000e+00,5.000000000000000000e+00,5.000000000000000000e+00,5.000000000000000000e+00,5.000000000000000000e+00,5.000000000000000000e+00,5.000000000000000000e+00,5.000000000000000000e+00,5.000000000000000000e+00,5.000000000000000000e+00,5.000000000000000000e+00,5.000000000000000000e+00,5.000000000000000000e+00,5.000000000000000000e+00,5.000000000000000000e+00,5.000000000000000000e+00,5.000000000000000000e+00,5.000000000000000000e+00,5.000000000000000000e+00,5.000000000000000000e+00,5.000000000000000000e+00,2.638935089111328125e+00,2.597930431365966797e+00,2.594541072845458984e+00,5.000000000000000000e+00,5.000000000000000000e+00,5.000000000000000000e+00,5.000000000000000000e+00,5.000000000000000000e+00,5.000000000000000000e+00,5.000000000000000000e+00,5.000000000000000000e+00,5.000000000000000000e+00,5.000000000000000000e+00,5.000000000000000000e+00,5.000000000000000000e+00,5.000000000000000000e+00,5.000000000000000000e+00,4.391270160675048828e+00,4.260757446289062500e+00,4.137777805328369141e+00,4.021673679351806641e+00,3.911868572235107422e+00,3.807899713516235352e+00,3.709314346313476562e+00
3.102154970169067383e+00,3.180931329727172852e+00,3.263812541961669922e+00,3.351128578186035156e+00,3.443245172500610352e+00,3.540568828582763672e+00,3.643554449081420898e+00,3.752710819244384766e+00,3.868609189987182617e+00,3.991894483566284180e+00,4.123296260833740234e+00,4.263643264770507812e+00,4.413881301879882812e+00,4.575093746185302734e+00,5.000000000000000000e+00,5.000000000000000000e+00,5.000000000000000000e+00,5.000000000000000000e+00,5.000000000000000000e+00,5.000000000000000000e+00,5.000000000000000000e+00,5.000000000000000000e+00,5.000000000000000000e+00,5.000000000000000000e+00,5.000000000000000000e+00,5.000000000000000000e+00,5.000000000000000000e+00,5.000000000000000000e+00,5.000000000000000000e+00,5.000000000000000000e+00,5.000000000000000000e+00,5.000000000000000000e+00,5.000000000000000000e+00,5.000000000000000000e+00,5.000000000000000000e+00,5.000000000000000000e+00,5.000000000000000000e+00,5.000000000000000000e+00,5.000000000000000000e+00,5.000000000000000000e+00,5.000000000000000000e+00,5.000000000000000000e+00,5.000000000000000000e+00,5.000000000000000000e+00,5.000000000000000000e+00,5.000000000000000000e+00,5.000000000000000000e+00,5.000000000000000000e+00,5.000000000000000000e+00,5.000000000000000000e+00,5.000000000000000000e+00,5.000000000000000000e+00,5.000000000000000000e+00,5.000000000000000000e+00,5.000000000000000000e+00,5.000000000000000000e+00,2.644824504852294922e+00,2.611295223236083984e+00,2.612146377563476562e+00,5.000000000000000000e+00,5.000000000000000000e+00,5.000000000000000000e+00,5.000000000000000000e+00,5.000000000000000000e+00,5.000000000000000000e+00,5.000000000000000000e+00,5.000000000000000000e+00,5.000000000000000000e+00,5.000000000000000000e+00,5.000000000000000000e+00,5.000000000000000000e+00,5.000000000000000000e+00,4.530250072479248047e+00,4.391475200653076172e+00,4.260950565338134766e+00,4.137924194335937500e+00,4.021770954132080078e+00,3.911960124969482422e+00,3.807986736297607422e+00,3.709397315979003906e+00
3.102096080780029297e+00,3.180869102478027344e+00,3.263747453689575195e+00,3.351059913635253906e+00,3.443172454833984375e+00,3.540491819381713867e+00,3.643473148345947266e+00,3.752624273300170898e+00,3.868517398834228516e+00,3.991797208786010742e+00,4.123192310333251953e+00,4.263532161712646484e+00,4.413761615753173828e+00,4.574965476989746094e+00,5.000000000000000000e+00,5.000000000000000000e+00,5.000000000000000000e+00,5.000000000000000000e+00,5.000000000000000000e+00,5.000000000000000000e+00,5.000000000000000000e+00,5.000000000000000000e+00,5.000000000000000000e+00,5.000000000000000000e+00,5.000000000000000000e+00,5.000000000000000000e+00,5.000000000000000000e+00,5.000000000000000000e+00,5.000000000000000000e+00,5.000000000000000000e+00,5.000000000000000000e+00,5.000000000000000000e+00,5.000000000000000000e+00,5.000000000000000000e+00,5.000000000000000000e+00,5.000000000000000000e+00,5.000000000000000000e+00,5.000000000000000000e+00,5.000000000000000000e+00,5.000000000000000000e+00,5.000000000000000000e+00,5.000000000000000000e+00,5.000000000000000000e+00,5.000000000000000000e+00,5.000000000000000000e+00,5.000000000000000000e+00,5.000000000000000000e+00,5.000000000000000000e+00,5.000000000000000000e+00,5.000000000000000000e+00,5.000000000000000000e+00,5.000000000000000000e+00,5.000000000000000000e+00,5.000000000000000000e+00,5.000000000000000000e+00,5.000000000000000000e+00,2.657485485076904297e+00,2.617964982986450195e+00,2.609105110168457031e+00,5.000000000000000000e+00,5.000000000000000000e+00,5.000000000000000000e+00,5.000000000000000000e+00,5.000000000000000000e+00,5.000000000000000000e+00,5.000000000000000000e+00,5.000000000000000000e+00,5.000000000000000000e+00,5.000000000000000000e+00,5.000000000000000000e+00,5.000000000000000000e+00,4.678314685821533203e+00,4.530468463897705078e+00,4.391680717468261719e+00,4.261095523834228516e+00,4.138026714324951172e+00,4.021867752075195312e+00,3.912051916122436523e+00,3.808073520660400391e+00,3.709479570388793945e+00
3.102035999298095703e+00,3.180807352066040039e+00,3.263682126998901367e+00,3.350991010665893555e+00,3.443099737167358398e+00,3.540415287017822266e+00,3.643391847610473633e+00,3.752537965774536133e+00,3.868425846099853516e+00,3.991699218750000000e+00,4.123087882995605469e+00,4.263420581817626953e+00,4.413642406463623047e+00,4.574837207794189453e+00,4.748252391815185547e+00,5.000000000000000000e+00,5.000000000000000000e+00,5.000000000000000000e+00,5.000000000000000000e+00,5.000000000000000000e+00,5.000000000000000000e+00,5.000000000000000000e+00,5.000000000000000000e+00,5.000000000000000000e+00,5.000000000000000000e+00,5.000000000000000000e+00,5.000000000000000000e+00,5.000000000000000000e+00,5.000000000000000000e+00,5.000000000000000000e+00,5.000000000000000000e+00,5.000000000000000000e+00,5.000000000000000000e+00,5.000000000000000000e+00,5.000000000000000000e+00,5.000000000000000000e+00,5.000000000000000000e+00,5.000000000000000000e+00,5.000000000000000000e+00,5.000000000000000000e+00,5.000000000000000000e+00,5.000000000000000000e+00,5.000000000000000000e+00,5.000000000000000000e+00,5.000000000000000000e+00,5.000000000000000000e+00,5.000000000000000000e+00,5.000000000000000000e+00,5.000000000000000000e+00,5.000000000000000000e+00,5.000000000000000000e+00,5.000000000000000000e+00,5.000000000000000000e+00,5.000000000000000000e+00,5.000000000000000000e+00,5.000000000000000000e+00,2.688942432403564453e+00,2.632966041564941406e+00,2.625977516174316406e+00,5.000000000000000000e+00,5.000000000000000000e+00,5.000000000000000000e+00,5.000000000000000000e+00,5.000000000000000000e+00,5.000000000000000000e+00,5.000000000000000000e+00,5.000000000000000000e+00,5.000000000000000000e+00,5.000000000000000000e+00,5.000000000000000000e+00,4.836384773254394531e+00,4.678547382354736328e+00,4.530686855316162109e+00,4.391824245452880859e+00,4.261204242706298828e+00,4.138129711151123047e+00,4.021964550018310547e+00,3.912143468856811523e+00,3.808160781860351562e+00,3.709562063217163086e+00
3.101969718933105469e+00,3.180744409561157227e+00,3.263616800308227539e+00,3.350922346115112305e+00,3.443027257919311523e+00,3.540338277816772461e+00,3.643310308456420898e+00,3.752451896667480469e+00,3.868334054946899414e+00,3.991601467132568359e+00,4.122983932495117188e+00,4.263309001922607422e+00,4.413523197174072266e+00,4.574708461761474609e+00,4.748114109039306641e+00,4.935183525085449219e+00,5.000000000000000000e+00,5.000000000000000000e+00,5.000000000000000000e+00,5.000000000000000000e+00,5.000000000000000000e+00,5.000000000000000000e+00,5.000000000000000000e+00,5.000000000000000000e+00,5.000000000000000000e+00,5.000000000000000000e+00,5.000000000000000000e+00,5.000000000000000000e+00,5.000000000000000000e+00,5.000000000000000000e+00,5.000000000000000000e+00,5.000000000000000000e+00,5.000000000000000000e+00,5.000000000000000000e+00,5.000000000000000000e+00,5.000000000000000000e+00,5.000000000000000000e+00,5.000000000000000000e+00,5.000000000000000000e+00,5.000000000000000000e+00,5.000000000000000000e+00,5.000000000000000000e+00,5.000000000000000000e+00,5.000000000000000000e+00,5.000000000000000000e+00,5.000000000000000000e+00,5.000000000000000000e+00,5.000000000000000000e+00,5.000000000000000000e+00,5.000000000000000000e+00,5.000000000000000000e+00,5.000000000000000000e+00,5.000000000000000000e+00,5.000000000000000000e+00,5.000000000000000000e+00,5.000000000000000000e+00,2.711596727371215820e+00,2.686028957366943359e+00,2.724227666854858398e+00,5.000000000000000000e+00,5.000000000000000000e+00,5.000000000000000000e+00,5.000000000000000000e+00,5.000000000000000000e+00,5.000000000000000000e+00,5.000000000000000000e+00,5.000000000000000000e+00,5.000000000000000000e+00,5.000000000000000000e+00,5.000000000000000000e+00,4.836633682250976562e+00,4.678780555725097656e+00,4.530828952789306641e+00,4.391939640045166016e+00,4.261313438415527344e+00,4.138232231140136719e+00,4.022061824798583984e+00,3.912235260009765625e+00,3.808247566223144531e+00,3.709644556045532227e+00
3.101903915405273438e+00,3.180675029754638672e+00,3.263550758361816406e+00,3.350853443145751953e+00,3.442954540252685547e+00,3.540261745452880859e+00,3.643229246139526367e+00,3.752365350723266602e+00,3.868242263793945312e+00,3.991504192352294922e+00,4.122879505157470703e+00,4.263197898864746094e+00,4.413403987884521484e+00,4.574580669403076172e+00,4.747976303100585938e+00,4.935034275054931641e+00,5.000000000000000000e+00,5.000000000000000000e+00,5.000000000000000000e+00,5.000000000000000000e+00,5.000000000000000000e+00,5.000000000000000000e+00,5.000000000000000000e+00,5.000000000000000000e+00,5.000000000000000000e+00,5.000000000000000000e+00,5.000000000000000000e+00,5.000000000000000000e+00,5.000000000000000000e+00,5.000000000000000000e+00,5.000000000000000000e+00,5.000000000000000000e+00,5.000000000000000000e+00,5.000000000000000000e+00,5.000000000000000000e+00,5.000000000000000000e+00,5.000000000000000000e+00,5.000000000000000000e+00,5.000000000000000000e+00,5.000000000000000000e+00,5.000000000000000000e+00,5.000000000000000000e+00,5.000000000000000000e+00,5.000000000000000000e+00,5.000000000000000000e+00,5.000000000000000000e+00,5.000000000000000000e+00,5.000000000000000000e+00,5.000000000000000000e+00,5.000000000000000000e+00,5.000000000000000000e+00,5.000000000000000000e+00,5.000000000000000000e+00,2.666435241699218750e+00,2.670748472213745117e+00,2.661114692687988281e+00,2.638190269470214844e+00,2.652981281280517578e+00,2.634694099426269531e+00,2.644293308258056641e+00,2.675274848937988281e+00,2.677734136581420898e+00,5.000000000000000000e+00,5.000000000000000000e+00,5.000000000000000000e+00,5.000000000000000000e+00,5.000000000000000000e+00,5.000000000000000000e+00,5.000000000000000000e+00,5.000000000000000000e+00,4.836878776550292969e+00,4.678919792175292969e+00,4.530951976776123047e+00,4.392055511474609375e+00,4.261422157287597656e+00,4.138334751129150391e+00,4.022158622741699219e+00,3.912327289581298828e+00,3.808334589004516602e+00,3.709727048873901367e+00
3.101837873458862305e+00,3.180605411529541016e+00,3.263477802276611328e+00,3.350783824920654297e+00,3.442882061004638672e+00,3.540184974670410156e+00,3.643147706985473633e+00,3.752279043197631836e+00,3.868150711059570312e+00,3.991406440734863281e+00,4.122775554656982422e+00,4.263086318969726562e+00,4.413284301757812500e+00,4.574452400207519531e+00,4.747838020324707031e+00,4.934885025024414062e+00,5.000000000000000000e+00,5.000000000000000000e+00,5.000000000000000000e+00,5.000000000000000000e+00,5.000000000000000000e+00,5.000000000000000000e+00,5.000000000000000000e+00,5.000000000000000000e+00,5.000000000000000000e+00,5.000000000000000000e+00,5.000000000000000000e+00,5.000000000000000000e+00,5.000000000000000000e+00,5.000000000000000000e+00,5.000000000000000000e+00,5.000000000000000000e+00,5.000000000000000000e+00,5.000000000000000000e+00,5.000000000000000000e+00,5.000000000000000000e+00,5.000000000000000000e+00,5.000000000000000000e+00,5.000000000000000000e+00,5.000000000000000000e+00,5.000000000000000000e+00,5.000000000000000000e+00,5.000000000000000000e+00,5.000000000000000000e+00,5.000000000000000000e+00,5.000000000000000000e+00,5.000000000000000000e+00,5.000000000000000000e+00,5.000000000000000000e+00,5.000000000000000000e+00,5.000000000000000000e+00,5.000000000000000000e+00,2.663704872131347656e+00,2.644273281097412109e+00,2.631772756576538086e+00,2.617970466613769531e+00,2.609278440475463867e+00,2.602520704269409180e+00,2.603826761245727539e+00,2.606347799301147461e+00,2.622930288314819336e+00,2.682307958602905273e+00,2.683454036712646484e+00,5.000000000000000000e+00,5.000000000000000000e+00,5.000000000000000000e+00,5.000000000000000000e+00,5.000000000000000000e+00,5.000000000000000000e+00,5.000000000000000000e+00,4.837018489837646484e+00,4.679050922393798828e+00,4.531074523925781250e+00,4.392171382904052734e+00,4.261530876159667969e+00,4.138437747955322266e+00,4.022255420684814453e+00,3.912419080734252930e+00,3.808421373367309570e+00,3.709809303283691406e+00
3.101772069931030273e+00,3.180536031723022461e+00,3.263404846191406250e+00,3.350706815719604492e+00,3.442808628082275391e+00,3.540107965469360352e+00,3.643066644668579102e+00,3.752192974090576172e+00,3.868058919906616211e+00,3.991308450698852539e+00,4.122671127319335938e+00,4.262975215911865234e+00,4.413165092468261719e+00,4.574324131011962891e+00,4.747699737548828125e+00,4.934735774993896484e+00,5.000000000000000000e+00,5.000000000000000000e+00,5.000000000000000000e+00,5.000000000000000000e+00,5.000000000000000000e+00,5.000000000000000000e+00,5.000000000000000000e+00,5.000000000000000000e+00,5.000000000000000000e+00,5.000000000000000000e+00,5.000000000000000000e+00,5.000000000000000000e+00,5.000000000000000000e+00,5.000000000000000000e+00,5.000000000000000000e+00,5.000000000000000000e+00,5.000000000000000000e+00,5.000000000000000000e+00,5.000000000000000000e+00,5.000000000000000000e+00,5.000000000000000000e+00,5.000000000000000000e+00,5.000000000000000000e+00,5.000000000000000000e+00,5.000000000000000000e+00,5.000000000000000000e+00,5.000000000000000000e+00,5.000000000000000000e+00,5.000000000000000000e+00,5.000000000000000000e+00,5.000000000000000000e+00,5.000000000000000000e+00,5.000000000000000000e+00,5.000000000000000000e+00,5.000000000000000000e+00,5.000000000000000000e+00,2.669724702835083008e+00,2.661889076232910156e+00,2.635448455810546875e+00,2.606187820434570312e+00,2.588805198669433594e+00,2.583611965179443359e+00,2.583288192749023438e+00,2.589324712753295898e+00,2.613467931747436523e+00,2.705332756042480469e+00,2.702230453491210938e+00,5.000000000000000000e+00,5.000000000000000000e+00,5.000000000000000000e+00,5.000000000000000000e+00,5.000000000000000000e+00,5.000000000000000000e+00,5.000000000000000000e+00,4.837158679962158203e+00,4.679182052612304688e+00,4.531198024749755859e+00,4.392286777496337891e+00,4.261640071868896484e+00,4.138540267944335938e+00,4.022352695465087891e+00,3.912510633468627930e+00,3.808508396148681641e+00,3.709892272949218750e+00
3.101706027984619141e+00,3.180466651916503906e+00,3.263331413269042969e+00,3.350630044937133789e+00,3.442727327346801758e+00,3.540030717849731445e+00,3.642985105514526367e+00,3.752106428146362305e+00,3.867967367172241211e+00,3.991211175918579102e+00,4.122567176818847656e+00,4.262863636016845703e+00,4.413045883178710938e+00,4.574195861816406250e+00,4.747561931610107422e+00,4.934587001800537109e+00,5.000000000000000000e+00,5.000000000000000000e+00,5.000000000000000000e+00,5.000000000000000000e+00,5.000000000000000000e+00,5.000000000000000000e+00,5.000000000000000000e+00,5.000000000000000000e+00,5.000000000000000000e+00,5.000000000000000000e+00,5.000000000000000000e+00,5.000000000000000000e+00,5.000000000000000000e+00,5.000000000000000000e+00,5.000000000000000000e+00,5.000000000000000000e+00,5.000000000000000000e+00,5.000000000000000000e+00,5.000000000000000000e+00,5.000000000000000000e+00,5.000000000000000000e+00,5.000000000000000000e+00,5.000000000000000000e+00,5.000000000000000000e+00,5.000000000000000000e+00,5.000000000000000000e+00,5.000000000000000000e+00,5.000000000000000000e+00,5.000000000000000000e+00,5.000000000000000000e+00,5.000000000000000000e+00,5.000000000000000000e+00,5.000000000000000000e+00,5.000000000000000000e+00,5.000000000000000000e+00,5.000000000000000000e+00,2.691059827804565430e+00,2.668925762176513672e+00,2.649085283279418945e+00,2.607343673706054688e+00,2.593763828277587891e+00,2.576082944869995117e+00,2.582444429397583008e+00,2.585395574569702148e+00,2.621163845062255859e+00,2.698974609375000000e+00,2.723905086517333984e+00,5.000000000000000000e+00,5.000000000000000000e+00,5.000000000000000000e+00,5.000000000000000000e+00,5.000000000000000000e+00,5.000000000000000000e+00,5.000000000000000000e+00,4.837299346923828125e+00,4.679313182830810547e+00,4.531321048736572266e+00,4.392402648925781250e+00,4.261748790740966797e+00,4.138642787933349609e+00,4.022449493408203125e+00,3.912602424621582031e+00,3.808592557907104492e+00,3.709968566894531250e+00
3.101639986038208008e+00,3.180397272109985352e+00,3.263258457183837891e+00,3.350553035736083984e+00,3.442646026611328125e+00,3.539944648742675781e+00,3.642903327941894531e+00,3.752020359039306641e+00,3.867875576019287109e+00,3.991113424301147461e+00,4.122462749481201172e+00,4.262752532958984375e+00,4.412926673889160156e+00,4.574067592620849609e+00,4.747423648834228516e+00,4.934437274932861328e+00,5.000000000000000000e+00,5.000000000000000000e+00,5.000000000000000000e+00,5.000000000000000000e+00,5.000000000000000000e+00,5.000000000000000000e+00,5.000000000000000000e+00,5.000000000000000000e+00,5.000000000000000000e+00,5.000000000000000000e+00,5.000000000000000000e+00,5.000000000000000000e+00,5.000000000000000000e+00,5.000000000000000000e+00,5.000000000000000000e+00,5.000000000000000000e+00,5.000000000000000000e+00,5.000000000000000000e+00,5.000000000000000000e+00,5.000000000000000000e+00,5.000000000000000000e+00,5.000000000000000000e+00,5.000000000000000000e+00,5.000000000000000000e+00,5.000000000000000000e+00,5.000000000000000000e+00,5.000000000000000000e+00,5.000000000000000000e+00,5.000000000000000000e+00,5.000000000000000000e+00,5.000000000000000000e+00,5.000000000000000000e+00,5.000000000000000000e+00,5.000000000000000000e+00,5.000000000000000000e+00,5.000000000000000000e+00,2.705121755599975586e+00,2.674211740493774414e+00,2.668499469757080078e+00,2.621011972427368164e+00,2.595426797866821289e+00,2.579535722732543945e+00,2.577106237411499023e+00,2.589085817337036133e+00,2.633576393127441406e+00,2.698520421981811523e+00,2.730360746383666992e+00,5.000000000000000000e+00,5.000000000000000000e+00,5.000000000000000000e+00,5.000000000000000000e+00,5.000000000000000000e+00,5.000000000000000000e+00,5.000000000000000000e+00,4.837439537048339844e+00,4.679444789886474609e+00,4.531444072723388672e+00,4.392518043518066406e+00,4.261857509613037109e+00,4.138743877410888672e+00,4.022541046142578125e+00,3.912684917449951172e+00,3.808670043945312500e+00,3.710041999816894531e+00
3.101574182510375977e+00,3.180327892303466797e+00,3.263185501098632812e+00,3.350475788116455078e+00,3.442564964294433594e+00,3.539858818054199219e+00,3.642812252044677734e+00,3.751933574676513672e+00,3.867783784866333008e+00,3.991016149520874023e+00,4.122358798980712891e+00,4.262640953063964844e+00,4.412806987762451172e+00,4.573939323425292969e+00,4.747285842895507812e+00,4.934288024902343750e+00,5.000000000000000000e+00,5.000000000000000000e+00,5.000000000000000000e+00,5.000000000000000000e+00,5.000000000000000000e+00,5.000000000000000000e+00,5.000000000000000000e+00,5.000000000000000000e+00,5.000000000000000000e+00,5.000000000000000000e+00,5.000000000000000000e+00,5.000000000000000000e+00,5.000000000000000000e+00,5.000000000000000000e+00,5.000000000000000000e+00,5.000000000000000000e+00,5.000000000000000000e+00,5.000000000000000000e+00,5.000000000000000000e+00,5.000000000000000000e+00,5.000000000000000000e+00,5.000000000000000000e+00,5.000000000000000000e+00,5.000000000000000000e+00,5.000000000000000000e+00,5.000000000000000000e+00,5.000000000000000000e+00,5.000000000000000000e+00,5.000000000000000000e+00,5.000000000000000000e+00,5.000000000000000000e+00,5.000000000000000000e+00,5.000000000000000000e+00,5.000000000000000000e+00,5.000000000000000000e+00,5.000000000000000000e+00,2.718807935714721680e+00,2.677825450897216797e+00,2.669162273406982422e+00,2.623997926712036133e+00,2.592961072921752930e+00,2.578900575637817383e+00,2.576689243316650391e+00,2.586332559585571289e+00,2.625492572784423828e+00,2.699848413467407227e+00,2.736721992492675781e+00,5.000000000000000000e+00,5.000000000000000000e+00,5.000000000000000000e+00,5.000000000000000000e+00,5.000000000000000000e+00,5.000000000000000000e+00,5.000000000000000000e+00,4.837579727172851562e+00,4.679575920104980469e+00,4.531567096710205078e+00,4.392629146575927734e+00,4.261957645416259766e+00,4.138835430145263672e+00,4.022627353668212891e+00,3.912767171859741211e+00,3.808747768402099609e+00,3.710115909576416016e+00
3.101508140563964844e+00,3.180258750915527344e+00,3.263112545013427734e+00,3.350398778915405273e+00,3.442483186721801758e+00,3.539772987365722656e+00,3.642721414566040039e+00,3.751837015151977539e+00,3.867692470550537109e+00,3.990918397903442383e+00,4.122254848480224609e+00,4.262529850006103516e+00,4.412687778472900391e+00,4.573811531066894531e+00,4.747147560119628906e+00,4.934139251708984375e+00,5.000000000000000000e+00,5.000000000000000000e+00,5.000000000000000000e+00,5.000000000000000000e+00,5.000000000000000000e+00,5.000000000000000000e+00,5.000000000000000000e+00,5.000000000000000000e+00,5.000000000000000000e+00,5.000000000000000000e+00,5.000000000000000000e+00,5.000000000000000000e+00,5.000000000000000000e+00,5.000000000000000000e+00,5.000000000000000000e+00,5.000000000000000000e+00,5.000000000000000000e+00,5.000000000000000000e+00,5.000000000000000000e+00,5.000000000000000000e+00,5.000000000000000000e+00,5.000000000000000000e+00,5.000000000000000000e+00,5.000000000000000000e+00,5.000000000000000000e+00,5.000000000000000000e+00,5.000000000000000000e+00,5.000000000000000000e+00,5.000000000000000000e+00,5.000000000000000000e+00,5.000000000000000000e+00,5.000000000000000000e+00,5.000000000000000000e+00,5.000000000000000000e+00,5.000000000000000000e+00,5.000000000000000000e+00,2.736820936203002930e+00,2.679954290390014648e+00,2.674463272094726562e+00,2.624700069427490234e+00,2.586762905120849609e+00,2.574404478073120117e+00,2.582340240478515625e+00,2.581646919250488281e+00,2.615967512130737305e+00,2.713087797164916992e+00,2.749659538269042969e+00,5.000000000000000000e+00,5.000000000000000000e+00,5.000000000000000000e+00,5.000000000000000000e+00,5.000000000000000000e+00,5.000000000000000000e+00,5.000000000000000000e+00,4.837716579437255859e+00,4.679698944091796875e+00,4.531677246093750000e+00,4.392732620239257812e+00,4.262054920196533203e+00,4.138926982879638672e+00,4.022714138031005859e+00,3.912848711013793945e+00,3.808825254440307617e+00,3.710189342498779297e+00
3.101442337036132812e+00,3.180189371109008789e+00,3.263039588928222656e+00,3.350321769714355469e+00,3.442402124404907227e+00,3.539687156677246094e+00,3.642630338668823242e+00,3.751740694046020508e+00,3.867589473724365234e+00,3.990820407867431641e+00,4.122150421142578125e+00,4.262418270111083984e+00,4.412568569183349609e+00,4.573682785034179688e+00,4.747009277343750000e+00,4.933990001678466797e+00,5.000000000000000000e+00,5.000000000000000000e+00,5.000000000000000000e+00,5.000000000000000000e+00,5.000000000000000000e+00,5.000000000000000000e+00,5.000000000000000000e+00,5.000000000000000000e+00,5.000000000000000000e+00,5.000000000000000000e+00,5.000000000000000000e+00,5.000000000000000000e+00,5.000000000000000000e+00,5.000000000000000000e+00,5.000000000000000000e+00,5.000000000000000000e+00,5.000000000000000000e+00,5.000000000000000000e+00,5.000000000000000000e+00,5.000000000000000000e+00,5.000000000000000000e+00,5.000000000000000000e+00,5.000000000000000000e+00,5.000000000000000000e+00,5.000000000000000000e+00,5.000000000000000000e+00,5.000000000000000000e+00,5.000000000000000000e+00,5.000000000000000000e+00,5.000000000000000000e+00,5.000000000000000000e+00,5.000000000000000000e+00,5.000000000000000000e+00,5.000000000000000000e+00,5.000000000000000000e+00,5.000000000000000000e+00,5.000000000000000000e+00,2.686280012130737305e+00,2.675969123840332031e+00,2.612868547439575195e+00,2.577633142471313477e+00,2.566815614700317383e+00,2.569104909896850586e+00,2.570772409439086914e+00,2.596434593200683594e+00,2.728435039520263672e+00,5.000000000000000000e+00,5.000000000000000000e+00,5.000000000000000000e+00,5.000000000000000000e+00,5.000000000000000000e+00,5.000000000000000000e+00,5.000000000000000000e+00,5.000000000000000000e+00,4.837841987609863281e+00,4.679815769195556641e+00,4.531786918640136719e+00,4.392835617065429688e+00,4.262151718139648438e+00,4.139018535614013672e+00,4.022800445556640625e+00,3.912930965423583984e+00,3.808902978897094727e+00,3.710263252258300781e+00
3.101376295089721680e+00,3.180119991302490234e+00,3.262966394424438477e+00,3.350244998931884766e+00,3.442320823669433594e+00,3.539600849151611328e+00,3.642539501190185547e+00,3.751644134521484375e+00,3.867486953735351562e+00,3.990711450576782227e+00,4.122046470642089844e+00,4.262307167053222656e+00,4.412449359893798828e+00,4.573554992675781250e+00,4.746871471405029297e+00,4.933840751647949219e+00,5.000000000000000000e+00,5.000000000000000000e+00,5.000000000000000000e+00,5.000000000000000000e+00,5.000000000000000000e+00,5.000000000000000000e+00,5.000000000000000000e+00,5.000000000000000000e+00,5.000000000000000000e+00,5.000000000000000000e+00,5.000000000000000000e+00,5.000000000000000000e+00,5.000000000000000000e+00,5.000000000000000000e+00,5.000000000000000000e+00,5.000000000000000000e+00,5.000000000000000000e+00,5.000000000000000000e+00,5.000000000000000000e+00,5.000000000000000000e+00,5.000000000000000000e+00,5.000000000000000000e+00,5.000000000000000000e+00,5.000000000000000000e+00,5.000000000000000000e+00,5.000000000000000000e+00,5.000000000000000000e+00,5.000000000000000000e+00,5.000000000000000000e+00,5.000000000000000000e+00,5.000000000000000000e+00,5.000000000000000000e+00,5.000000000000000000e+00,5.000000000000000000e+00,5.000000000000000000e+00,5.000000000000000000e+00,5.000000000000000000e+00,2.687857627868652344e+00,2.669419527053833008e+00,2.617005109786987305e+00,2.590321540832519531e+00,2.575201749801635742e+00,2.568179130554199219e+00,2.580390930175781250e+00,2.612878084182739258e+00,2.727094173431396484e+00,2.749051332473754883e+00,5.000000000000000000e+00,5.000000000000000000e+00,5.000000000000000000e+00,5.000000000000000000e+00,5.000000000000000000e+00,5.000000000000000000e+00,5.000000000000000000e+00,4.837967395782470703e+00,4.679933071136474609e+00,4.531896591186523438e+00,4.392939090728759766e+00,4.262248992919921875e+00,4.139110565185546875e+00,4.022887229919433594e+00,3.913012742996215820e+00,3.808980464935302734e+00,3.710336923599243164e+00
3.101310014724731445e+00,3.180050611495971680e+00,3.262893438339233398e+00,3.350167989730834961e+00,3.442239522933959961e+00,3.539515018463134766e+00,3.642448425292968750e+00,3.751547813415527344e+00,3.867384433746337891e+00,3.990602254867553711e+00,4.121930122375488281e+00,4.262195587158203125e+00,4.412329673767089844e+00,4.573426723480224609e+00,4.746733188629150391e+00,4.933691501617431641e+00,5.000000000000000000e+00,5.000000000000000000e+00,5.000000000000000000e+00,5.000000000000000000e+00,5.000000000000000000e+00,5.000000000000000000e+00,5.000000000000000000e+00,5.000000000000000000e+00,5.000000000000000000e+00,5.000000000000000000e+00,5.000000000000000000e+00,5.000000000000000000e+00,5.000000000000000000e+00,5.000000000000000000e+00,5.000000000000000000e+00,5.000000000000000000e+00,5.000000000000000000e+00,5.000000000000000000e+00,5.000000000000000000e+00,5.000000000000000000e+00,5.000000000000000000e+00,5.000000000000000000e+00,5.000000000000000000e+00,5.000000000000000000e+00,5.000000000000000000e+00,5.000000000000000000e+00,5.000000000000000000e+00,5.000000000000000000e+00,5.000000000000000000e+00,5.000000000000000000e+00,5.000000000000000000e+00,5.000000000000000000e+00,5.000000000000000000e+00,5.000000000000000000e+00,5.000000000000000000e+00,5.000000000000000000e+00,5.000000000000000000e+00,2.657751083374023438e+00,2.659286499023437500e+00,2.616980314254760742e+00,2.588951826095581055e+00,2.580913305282592773e+00,2.571923255920410156e+00,2.585948228836059570e+00,2.603391647338867188e+00,2.721302986145019531e+00,2.718097686767578125e+00,5.000000000000000000e+00,5.000000000000000000e+00,5.000000000000000000e+00,5.000000000000000000e+00,5.000000000000000000e+00,5.000000000000000000e+00,5.000000000000000000e+00,4.838092327117919922e+00,4.680050373077392578e+00,4.532006740570068359e+00,4.393042087554931641e+00,4.262346267700195312e+00,4.139202117919921875e+00,4.022974014282226562e+00,3.913094758987426758e+00,3.809058189392089844e+00,3.710410356521606445e+00
3.101244211196899414e+00,3.179980993270874023e+00,3.262820482254028320e+00,3.350090980529785156e+00,3.442158460617065430e+00,3.539428949356079102e+00,3.642357110977172852e+00,3.751451253890991211e+00,3.867281913757324219e+00,3.990493059158325195e+00,4.121813774108886719e+00,4.262071609497070312e+00,4.412210464477539062e+00,4.573298454284667969e+00,4.746594905853271484e+00,4.933542251586914062e+00,5.000000000000000000e+00,5.000000000000000000e+00,5.000000000000000000e+00,5.000000000000000000e+00,5.000000000000000000e+00,5.000000000000000000e+00,5.000000000000000000e+00,5.000000000000000000e+00,5.000000000000000000e+00,5.000000000000000000e+00,5.000000000000000000e+00,5.000000000000000000e+00,5.000000000000000000e+00,5.000000000000000000e+00,5.000000000000000000e+00,5.000000000000000000e+00,5.000000000000000000e+00,5.000000000000000000e+00,5.000000000000000000e+00,5.000000000000000000e+00,5.000000000000000000e+00,5.000000000000000000e+00,5.000000000000000000e+00,5.000000000000000000e+00,5.000000000000000000e+00,5.000000000000000000e+00,5.000000000000000000e+00,5.000000000000000000e+00,5.000000000000000000e+00,5.000000000000000000e+00,5.000000000000000000e+00,5.000000000000000000e+00,5.000000000000000000e+00,5.000000000000000000e+00,5.000000000000000000e+00,5.000000000000000000e+00,5.000000000000000000e+00,2.642017126083374023e+00,2.636898994445800781e+00,2.590966939926147461e+00,2.570397615432739258e+00,2.600286483764648438e+00,2.594642162322998047e+00,2.598244190216064453e+00,2.583727836608886719e+00,2.721330881118774414e+00,2.708587646484375000e+00,5.000000000000000000e+00,5.000000000000000000e+00,5.000000000000000000e+00,5.000000000000000000e+00,5.000000000000000000e+00,5.000000000000000000e+00,5.000000000000000000e+00,4.838217735290527344e+00,4.680167198181152344e+00,4.532116413116455078e+00,4.393145561218261719e+00,4.262443542480468750e+00,4.139293670654296875e+00,4.023060321807861328e+00,3.913176536560058594e+00,3.809136152267456055e+00,3.710484266281127930e+00
3.101178169250488281e+00,3.179911851882934570e+00,3.262747526168823242e+00,3.350014209747314453e+00,3.442077159881591797e+00,3.539343118667602539e+00,3.642266273498535156e+00,3.751354217529296875e+00,3.867179393768310547e+00,3.990383863449096680e+00,4.121697425842285156e+00,4.261947154998779297e+00,4.412077426910400391e+00,4.573170661926269531e+00,4.746457099914550781e+00,4.933393478393554688e+00,5.000000000000000000e+00,5.000000000000000000e+00,5.000000000000000000e+00,5.000000000000000000e+00,5.000000000000000000e+00,5.000000000000000000e+00,5.000000000000000000e+00,5.000000000000000000e+00,5.000000000000000000e+00,5.000000000000000000e+00,5.000000000000000000e+00,5.000000000000000000e+00,5.000000000000000000e+00,5.000000000000000000e+00,5.000000000000000000e+00,5.000000000000000000e+00,5.000000000000000000e+00,5.000000000000000000e+00,5.000000000000000000e+00,5.000000000000000000e+00,5.000000000000000000e+00,5.000000000000000000e+00,5.000000000000000000e+00,5.000000000000000000e+00,5.000000000000000000e+00,5.000000000000000000e+00,5.000000000000000000e+00,5.000000000000000000e+00,5.000000000000000000e+00,5.000000000000000000e+00,5.000000000000000000e+00,5.000000000000000000e+00,5.000000000000000000e+00,5.000000000000000000e+00,5.000000000000000000e+00,5.000000000000000000e+00,5.000000000000000000e+00,2.621555566787719727e+00,2.612731218338012695e+00,2.560058355331420898e+00,2.533007383346557617e+00,2.550648450851440430e+00,2.615536212921142578e+00,2.578029394149780273e+00,2.556246042251586914e+00,2.589665174484252930e+00,2.690470933914184570e+00,5.000000000000000000e+00,5.000000000000000000e+00,5.000000000000000000e+00,5.000000000000000000e+00,5.000000000000000000e+00,5.000000000000000000e+00,5.000000000000000000e+00,4.838342666625976562e+00,4.680284500122070312e+00,4.532226562500000000e+00,4.393248558044433594e+00,4.262540817260742188e+00,4.139385223388671875e+00,4.023147106170654297e+00,3.913258552551269531e+00,3.809213638305664062e+00,3.710557699203491211e+00
3.101112365722656250e+00,3.179842472076416016e+00,3.262674331665039062e+00,3.349937200546264648e+00,3.441995859146118164e+00,3.539257287979125977e+00,3.642175197601318359e+00,3.751257896423339844e+00,3.867076873779296875e+00,3.990274667739868164e+00,4.121580600738525391e+00,4.261822700500488281e+00,4.411943912506103516e+00,4.573028087615966797e+00,4.746319293975830078e+00,4.933243751525878906e+00,5.000000000000000000e+00,5.000000000000000000e+00,5.000000000000000000e+00,5.000000000000000000e+00,5.000000000000000000e+00,5.000000000000000000e+00,5.000000000000000000e+00,5.000000000000000000e+00,5.000000000000000000e+00,5.000000000000000000e+00,5.000000000000000000e+00,5.000000000000000000e+00,5.000000000000000000e+00,5.000000000000000000e+00,5.000000000000000000e+00,5.000000000000000000e+00,5.000000000000000000e+00,5.000000000000000000e+00,5.000000000000000000e+00,5.000000000000000000e+00,5.000000000000000000e+00,5.000000000000000000e+00,5.000000000000000000e+00,5.000000000000000000e+00,5.000000000000000000e+00,5.000000000000000000e+00,5.000000000000000000e+00,5.000000000000000000e+00,5.000000000000000000e+00,5.000000000000000000e+00,5.000000000000000000e+00,5.000000000000000000e+00,5.000000000000000000e+00,5.000000000000000000e+00,5.000000000000000000e+00,5.000000000000000000e+00,5.000000000000000000e+00,2.612645626068115234e+00,2.603099346160888672e+00,2.545924901962280273e+00,2.519097805023193359e+00,2.529174566268920898e+00,2.604319095611572266e+00,2.564241170883178711e+00,2.546622037887573242e+00,2.577740430831909180e+00,2.699379920959472656e+00,5.000000000000000000e+00,5.000000000000000000e+00,5.000000000000000000e+00,5.000000000000000000e+00,5.000000000000000000e+00,5.000000000000000000e+00,5.000000000000000000e+00,4.838468074798583984e+00,4.680401802062988281e+00,4.532336235046386719e+00,4.393352031707763672e+00,4.262638092041015625e+00,4.139476776123046875e+00,4.023233890533447266e+00,3.913340806961059570e+00,3.809291362762451172e+00,3.710631608963012695e+00
3.101097106933593750e+00,3.179796457290649414e+00,3.262601375579833984e+00,3.349860191345214844e+00,3.441914796829223633e+00,3.539171457290649414e+00,3.642084360122680664e+00,3.751161336898803711e+00,3.866973876953125000e+00,3.990165710449218750e+00,4.121464252471923828e+00,4.261698246002197266e+00,4.411810874938964844e+00,4.572884559631347656e+00,4.746166229248046875e+00,4.933094978332519531e+00,5.000000000000000000e+00,5.000000000000000000e+00,5.000000000000000000e+00,5.000000000000000000e+00,5.000000000000000000e+00,5.000000000000000000e+00,5.000000000000000000e+00,5.000000000000000000e+00,5.000000000000000000e+00,5.000000000000000000e+00,5.000000000000000000e+00,5.000000000000000000e+00,5.000000000000000000e+00,5.000000000000000000e+00,5.000000000000000000e+00,5.000000000000000000e+00,5.000000000000000000e+00,5.000000000000000000e+00,5.000000000000000000e+00,5.000000000000000000e+00,5.000000000000000000e+00,5.000000000000000000e+00,5.000000000000000000e+00,5.000000000000000000e+00,5.000000000000000000e+00,5.000000000000000000e+00,5.000000000000000000e+00,5.000000000000000000e+00,5.000000000000000000e+00,5.000000000000000000e+00,5.000000000000000000e+00,5.000000000000000000e+00,5.000000000000000000e+00,5.000000000000000000e+00,5.000000000000000000e+00,5.000000000000000000e+00,5.000000000000000000e+00,2.587199211120605469e+00,2.557066917419433594e+00,2.535157203674316406e+00,2.508014917373657227e+00,2.517555236816406250e+00,2.603992938995361328e+00,2.559687376022338867e+00,2.543131113052368164e+00,2.571269989013671875e+00,2.671963214874267578e+00,5.000000000000000000e+00,5.000000000000000000e+00,5.000000000000000000e+00,5.000000000000000000e+00,5.000000000000000000e+00,5.000000000000000000e+00,5.000000000000000000e+00,4.838593482971191406e+00,4.680519104003906250e+00,4.532446384429931641e+00,4.393455028533935547e+00,4.262734889984130859e+00,4.139568805694580078e+00,4.023320198059082031e+00,3.913422346115112305e+00,3.809368848800659180e+00,3.710705041885375977e+00
3.101096868515014648e+00,3.179795980453491211e+00,3.262593746185302734e+00,3.349818706512451172e+00,3.441835641860961914e+00,3.539085626602172852e+00,3.641993522644042969e+00,3.751065015792846680e+00,3.866871356964111328e+00,3.990056514739990234e+00,4.121347427368164062e+00,4.261573314666748047e+00,4.411677360534667969e+00,4.572741031646728516e+00,4.746011257171630859e+00,4.932929992675781250e+00,5.000000000000000000e+00,5.000000000000000000e+00,5.000000000000000000e+00,5.000000000000000000e+00,5.000000000000000000e+00,5.000000000000000000e+00,5.000000000000000000e+00,5.000000000000000000e+00,5.000000000000000000e+00,5.000000000000000000e+00,5.000000000000000000e+00,5.000000000000000000e+00,5.000000000000000000e+00,5.000000000000000000e+00,5.000000000000000000e+00,5.000000000000000000e+00,5.000000000000000000e+00,5.000000000000000000e+00,5.000000000000000000e+00,5.000000000000000000e+00,5.000000000000000000e+00,5.000000000000000000e+00,5.000000000000000000e+00,5.000000000000000000e+00,5.000000000000000000e+00,5.000000000000000000e+00,5.000000000000000000e+00,5.000000000000000000e+00,5.000000000000000000e+00,5.000000000000000000e+00,5.000000000000000000e+00,5.000000000000000000e+00,5.000000000000000000e+00,5.000000000000000000e+00,5.000000000000000000e+00,5.000000000000000000e+00,5.000000000000000000e+00,2.564296007156372070e+00,2.656109333038330078e+00,2.525816440582275391e+00,2.497287511825561523e+00,2.503405094146728516e+00,2.601645946502685547e+00,2.553673744201660156e+00,2.539760351181030273e+00,2.567908048629760742e+00,2.657089710235595703e+00,5.000000000000000000e+00,5.000000000000000000e+00,5.000000000000000000e+00,5.000000000000000000e+00,5.000000000000000000e+00,5.000000000000000000e+00,5.000000000000000000e+00,4.838718414306640625e+00,4.680635929107666016e+00,4.532556056976318359e+00,4.393558502197265625e+00,4.262832641601562500e+00,4.139660358428955078e+00,4.023406982421875000e+00,3.913504600524902344e+00,3.809446573257446289e+00,3.710778951644897461e+00
3.101081609725952148e+00,3.179795742034912109e+00,3.262593507766723633e+00,3.349818229675292969e+00,3.441834926605224609e+00,3.539050102233886719e+00,3.641916275024414062e+00,3.750968456268310547e+00,3.866768836975097656e+00,3.989946842193603516e+00,4.121231079101562500e+00,4.261448860168457031e+00,4.411543369293212891e+00,4.572597980499267578e+00,4.745856761932373047e+00,4.932763099670410156e+00,5.000000000000000000e+00,5.000000000000000000e+00,5.000000000000000000e+00,5.000000000000000000e+00,5.000000000000000000e+00,5.000000000000000000e+00,5.000000000000000000e+00,5.000000000000000000e+00,5.000000000000000000e+00,5.000000000000000000e+00,5.000000000000000000e+00,5.000000000000000000e+00,5.000000000000000000e+00,5.000000000000000000e+00,5.000000000000000000e+00,5.000000000000000000e+00,5.000000000000000000e+00,5.000000000000000000e+00,5.000000000000000000e+00,5.000000000000000000e+00,5.000000000000000000e+00,5.000000000000000000e+00,5.000000000000000000e+00,5.000000000000000000e+00,5.000000000000000000e+00,5.000000000000000000e+00,5.000000000000000000e+00,5.000000000000000000e+00,5.000000000000000000e+00,5.000000000000000000e+00,5.000000000000000000e+00,5.000000000000000000e+00,5.000000000000000000e+00,5.000000000000000000e+00,5.000000000000000000e+00,5.000000000000000000e+00,5.000000000000000000e+00,2.566137552261352539e+00,5.000000000000000000e+00,2.515017032623291016e+00,2.486164569854736328e+00,2.491128444671630859e+00,2.599145412445068359e+00,2.547746658325195312e+00,2.534872531890869141e+00,2.563077449798583984e+00,5.000000000000000000e+00,2.646065473556518555e+00,5.000000000000000000e+00,5.000000000000000000e+00,5.000000000000000000e+00,5.000000000000000000e+00,5.000000000000000000e+00,5.000000000000000000e+00,4.838843822479248047e+00,4.680753231048583984e+00,4.532666206359863281e+00,4.393661975860595703e+00,4.262929916381835938e+00,4.139752388000488281e+00,4.023493766784667969e+00,3.913586378097534180e+00,3.809524059295654297e+00,3.710852384567260742e+00
3.101015567779541016e+00,3.179740905761718750e+00,3.262567758560180664e+00,3.349817752838134766e+00,3.441834688186645508e+00,3.539049386978149414e+00,3.641916036605834961e+00,3.750940799713134766e+00,3.866694927215576172e+00,3.989837646484375000e+00,4.121114730834960938e+00,4.261324405670166016e+00,4.411410331726074219e+00,4.572454452514648438e+00,4.745702266693115234e+00,4.932595729827880859e+00,5.000000000000000000e+00,5.000000000000000000e+00,5.000000000000000000e+00,5.000000000000000000e+00,5.000000000000000000e+00,5.000000000000000000e+00,5.000000000000000000e+00,5.000000000000000000e+00,5.000000000000000000e+00,5.000000000000000000e+00,5.000000000000000000e+00,5.000000000000000000e+00,5.000000000000000000e+00,5.000000000000000000e+00,5.000000000000000000e+00,5.000000000000000000e+00,5.000000000000000000e+00,5.000000000000000000e+00,5.000000000000000000e+00,5.000000000000000000e+00,5.000000000000000000e+00,5.000000000000000000e+00,5.000000000000000000e+00,5.000000000000000000e+00,5.000000000000000000e+00,5.000000000000000000e+00,5.000000000000000000e+00,5.000000000000000000e+00,5.000000000000000000e+00,5.000000000000000000e+00,5.000000000000000000e+00,5.000000000000000000e+00,5.000000000000000000e+00,5.000000000000000000e+00,5.000000000000000000e+00,5.000000000000000000e+00,5.000000000000000000e+00,5.000000000000000000e+00,5.000000000000000000e+00,2.513706922531127930e+00,2.474547624588012695e+00,2.479529380798339844e+00,2.593163490295410156e+00,2.540069103240966797e+00,2.530297756195068359e+00,2.552928686141967773e+00,5.000000000000000000e+00,5.000000000000000000e+00,5.000000000000000000e+00,5.000000000000000000e+00,5.000000000000000000e+00,5.000000000000000000e+00,5.000000000000000000e+00,5.000000000000000000e+00,4.838969230651855469e+00,4.680870532989501953e+00,4.532776355743408203e+00,4.393764972686767578e+00,4.263027191162109375e+00,4.139843940734863281e+00,4.023580074310302734e+00,3.913668394088745117e+00,3.809601783752441406e+00,3.710926294326782227e+00
3.100949287414550781e+00,3.179671287536621094e+00,3.262494325637817383e+00,3.349747657775878906e+00,3.441796064376831055e+00,3.539046287536621094e+00,3.641915082931518555e+00,3.750940322875976562e+00,3.866694450378417969e+00,3.989820241928100586e+00,4.121045589447021484e+00,4.261199951171875000e+00,4.411276817321777344e+00,4.572310924530029297e+00,4.745548248291015625e+00,4.932429313659667969e+00,5.000000000000000000e+00,5.000000000000000000e+00,5.000000000000000000e+00,5.000000000000000000e+00,5.000000000000000000e+00,5.000000000000000000e+00,5.000000000000000000e+00,5.000000000000000000e+00,5.000000000000000000e+00,5.000000000000000000e+00,5.000000000000000000e+00,5.000000000000000000e+00,5.000000000000000000e+00,5.000000000000000000e+00,5.000000000000000000e+00,5.000000000000000000e+00,5.000000000000000000e+00,5.000000000000000000e+00,5.000000000000000000e+00,5.000000000000000000e+00,5.000000000000000000e+00,5.000000000000000000e+00,5.000000000000000000e+00,5.000000000000000000e+00,5.000000000000000000e+00,5.000000000000000000e+00,5.000000000000000000e+00,5.000000000000000000e+00,5.000000000000000000e+00,5.000000000000000000e+00,5.000000000000000000e+00,5.000000000000000000e+00,5.000000000000000000e+00,5.000000000000000000e+00,5.000000000000000000e+00,5.000000000000000000e+00,5.000000000000000000e+00,5.000000000000000000e+00,5.000000000000000000e+00,2.530830144882202148e+00,2.463177680969238281e+00,2.465073585510253906e+00,2.586251735687255859e+00,2.535222053527832031e+00,2.524113178253173828e+00,2.556875228881835938e+00,5.000000000000000000e+00,5.000000000000000000e+00,5.000000000000000000e+00,5.000000000000000000e+00,5.000000000000000000e+00,5.000000000000000000e+00,5.000000000000000000e+00,5.000000000000000000e+00,4.839094161987304688e+00,4.680987834930419922e+00,4.532886028289794922e+00,4.393868446350097656e+00,4.263123989105224609e+00,4.139935493469238281e+00,4.023666858673095703e+00,3.913750171661376953e+00,3.809679269790649414e+00,3.710999727249145508e+00
3.100883007049560547e+00,3.179601669311523438e+00,3.262421131134033203e+00,3.349670410156250000e+00,3.441714525222778320e+00,3.538960218429565430e+00,3.641860961914062500e+00,3.750924825668334961e+00,3.866693973541259766e+00,3.989819765090942383e+00,4.121044635772705078e+00,4.261195659637451172e+00,4.411214351654052734e+00,4.572181701660156250e+00,4.745393753051757812e+00,4.932262420654296875e+00,5.000000000000000000e+00,5.000000000000000000e+00,5.000000000000000000e+00,5.000000000000000000e+00,5.000000000000000000e+00,5.000000000000000000e+00,5.000000000000000000e+00,5.000000000000000000e+00,5.000000000000000000e+00,5.000000000000000000e+00,5.000000000000000000e+00,5.000000000000000000e+00,5.000000000000000000e+00,5.000000000000000000e+00,5.000000000000000000e+00,5.000000000000000000e+00,5.000000000000000000e+00,5.000000000000000000e+00,5.000000000000000000e+00,5.000000000000000000e+00,5.000000000000000000e+00,5.000000000000000000e+00,5.000000000000000000e+00,5.000000000000000000e+00,5.000000000000000000e+00,5.000000000000000000e+00,5.000000000000000000e+00,5.000000000000000000e+00,5.000000000000000000e+00,5.000000000000000000e+00,5.000000000000000000e+00,5.000000000000000000e+00,5.000000000000000000e+00,5.000000000000000000e+00,5.000000000000000000e+00,5.000000000000000000e+00,5.000000000000000000e+00,5.000000000000000000e+00,5.000000000000000000e+00,2.556570291519165039e+00,2.460807561874389648e+00,2.460361242294311523e+00,2.581013917922973633e+00,2.533468723297119141e+00,2.519169092178344727e+00,5.000000000000000000e+00,5.000000000000000000e+00,5.000000000000000000e+00,5.000000000000000000e+00,5.000000000000000000e+00,5.000000000000000000e+00,5.000000000000000000e+00,5.000000000000000000e+00,5.000000000000000000e+00,4.839219570159912109e+00,4.681105136871337891e+00,4.532996177673339844e+00,4.393971920013427734e+00,4.263221263885498047e+00,4.140027523040771484e+00,4.023753166198730469e+00,3.913832426071166992e+00,3.809758424758911133e+00,3.711078405380249023e+00
3.100816965103149414e+00,3.179532051086425781e+00,3.262347936630249023e+00,3.349593162536621094e+00,3.441632986068725586e+00,3.538873910903930664e+00,3.641769647598266602e+00,3.750828027725219727e+00,3.866620063781738281e+00,3.989788770675659180e+00,4.121044158935546875e+00,4.261194705963134766e+00,4.411213397979736328e+00,4.572180747985839844e+00,4.745340824127197266e+00,4.932133197784423828e+00,5.000000000000000000e+00,5.000000000000000000e+00,5.000000000000000000e+00,5.000000000000000000e+00,5.000000000000000000e+00,5.000000000000000000e+00,5.000000000000000000e+00,5.000000000000000000e+00,5.000000000000000000e+00,5.000000000000000000e+00,5.000000000000000000e+00,5.000000000000000000e+00,5.000000000000000000e+00,5.000000000000000000e+00,5.000000000000000000e+00,5.000000000000000000e+00,5.000000000000000000e+00,5.000000000000000000e+00,5.000000000000000000e+00,5.000000000000000000e+00,5.000000000000000000e+00,5.000000000000000000e+00,5.000000000000000000e+00,5.000000000000000000e+00,5.000000000000000000e+00,5.000000000000000000e+00,5.000000000000000000e+00,5.000000000000000000e+00,5.000000000000000000e+00,5.000000000000000000e+00,5.000000000000000000e+00,5.000000000000000000e+00,5.000000000000000000e+00,5.000000000000000000e+00,5.000000000000000000e+00,5.000000000000000000e+00,5.000000000000000000e+00,5.000000000000000000e+00,5.000000000000000000e+00,2.544221162796020508e+00,2.468528509140014648e+00,2.470751047134399414e+00,2.589975595474243164e+00,2.538809299468994141e+00,2.527303695678710938e+00,5.000000000000000000e+00,5.000000000000000000e+00,5.000000000000000000e+00,5.000000000000000000e+00,5.000000000000000000e+00,5.000000000000000000e+00,5.000000000000000000e+00,5.000000000000000000e+00,5.000000000000000000e+00,4.839345455169677734e+00,4.681222438812255859e+00,4.533105850219726562e+00,4.394074916839599609e+00,4.263318538665771484e+00,4.140119075775146484e+00,4.023843765258789062e+00,3.913921833038330078e+00,3.809845924377441406e+00,3.711160898208618164e+00
3.100750684738159180e+00,3.179462432861328125e+00,3.262274742126464844e+00,3.349515914916992188e+00,3.441551446914672852e+00,3.538787841796875000e+00,3.641678333282470703e+00,3.750731229782104492e+00,3.866517066955566406e+00,3.989679336547851562e+00,4.120945930480957031e+00,4.261144161224365234e+00,4.411212921142578125e+00,4.572180271148681641e+00,4.745339870452880859e+00,4.932131767272949219e+00,5.000000000000000000e+00,5.000000000000000000e+00,5.000000000000000000e+00,5.000000000000000000e+00,5.000000000000000000e+00,5.000000000000000000e+00,5.000000000000000000e+00,5.000000000000000000e+00,5.000000000000000000e+00,5.000000000000000000e+00,5.000000000000000000e+00,5.000000000000000000e+00,5.000000000000000000e+00,5.000000000000000000e+00,5.000000000000000000e+00,5.000000000000000000e+00,5.000000000000000000e+00,5.000000000000000000e+00,5.000000000000000000e+00,5.000000000000000000e+00,5.000000000000000000e+00,5.000000000000000000e+00,5.000000000000000000e+00,5.000000000000000000e+00,5.000000000000000000e+00,5.000000000000000000e+00,5.000000000000000000e+00,5.000000000000000000e+00,5.000000000000000000e+00,5.000000000000000000e+00,5.000000000000000000e+00,5.000000000000000000e+00,5.000000000000000000e+00,5.000000000000000000e+00,5.000000000000000000e+00,5.000000000000000000e+00,5.000000000000000000e+00,5.000000000000000000e+00,5.000000000000000000e+00,2.568363904953002930e+00,2.509287357330322266e+00,2.545962333679199219e+00,2.607213735580444336e+00,2.561673641204833984e+00,2.548752784729003906e+00,5.000000000000000000e+00,5.000000000000000000e+00,5.000000000000000000e+00,5.000000000000000000e+00,5.000000000000000000e+00,5.000000000000000000e+00,5.000000000000000000e+00,5.000000000000000000e+00,5.000000000000000000e+00,4.839470386505126953e+00,4.681339740753173828e+00,4.533215999603271484e+00,4.394180774688720703e+00,4.263422489166259766e+00,4.140221595764160156e+00,4.023941040039062500e+00,3.914013624191284180e+00,3.809932708740234375e+00,3.711243391036987305e+00
3.100684404373168945e+00,3.179392814636230469e+00,3.262201309204101562e+00,3.349438667297363281e+00,3.441469907760620117e+00,3.538701534271240234e+00,3.641587018966674805e+00,3.750634431838989258e+00,3.866414308547973633e+00,3.989569664001464844e+00,4.120829105377197266e+00,4.261019229888916016e+00,4.411084175109863281e+00,4.572104454040527344e+00,4.745326042175292969e+00,4.932130813598632812e+00,5.000000000000000000e+00,5.000000000000000000e+00,5.000000000000000000e+00,5.000000000000000000e+00,5.000000000000000000e+00,5.000000000000000000e+00,5.000000000000000000e+00,5.000000000000000000e+00,5.000000000000000000e+00,5.000000000000000000e+00,5.000000000000000000e+00,5.000000000000000000e+00,5.000000000000000000e+00,5.000000000000000000e+00,5.000000000000000000e+00,5.000000000000000000e+00,5.000000000000000000e+00,5.000000000000000000e+00,5.000000000000000000e+00,5.000000000000000000e+00,5.000000000000000000e+00,5.000000000000000000e+00,5.000000000000000000e+00,5.000000000000000000e+00,5.000000000000000000e+00,5.000000000000000000e+00,5.000000000000000000e+00,5.000000000000000000e+00,5.000000000000000000e+00,5.000000000000000000e+00,5.000000000000000000e+00,5.000000000000000000e+00,5.000000000000000000e+00,5.000000000000000000e+00,5.000000000000000000e+00,5.000000000000000000e+00,5.000000000000000000e+00,5.000000000000000000e+00,5.000000000000000000e+00,2.615917682647705078e+00,2.598741531372070312e+00,5.000000000000000000e+00,2.616469621658325195e+00,2.586576938629150391e+00,2.598668575286865234e+00,5.000000000000000000e+00,5.000000000000000000e+00,5.000000000000000000e+00,5.000000000000000000e+00,5.000000000000000000e+00,5.000000000000000000e+00,5.000000000000000000e+00,5.000000000000000000e+00,5.000000000000000000e+00,4.839595794677734375e+00,4.681462764739990234e+00,4.533336162567138672e+00,4.394296646118164062e+00,4.263531684875488281e+00,4.140324592590332031e+00,4.024037837982177734e+00,3.914105415344238281e+00,3.810019731521606445e+00,3.711325883865356445e+00
3.100618600845336914e+00,3.179323673248291016e+00,3.262128353118896484e+00,3.349361658096313477e+00,3.441388845443725586e+00,3.538615703582763672e+00,3.641496181488037109e+00,3.750537872314453125e+00,3.866311788558959961e+00,3.989460706710815430e+00,4.120712280273437500e+00,4.260894775390625000e+00,4.410950183868408203e+00,4.571960926055908203e+00,4.745171070098876953e+00,4.932023048400878906e+00,5.000000000000000000e+00,5.000000000000000000e+00,5.000000000000000000e+00,5.000000000000000000e+00,5.000000000000000000e+00,5.000000000000000000e+00,5.000000000000000000e+00,5.000000000000000000e+00,5.000000000000000000e+00,5.000000000000000000e+00,5.000000000000000000e+00,5.000000000000000000e+00,5.000000000000000000e+00,5.000000000000000000e+00,5.000000000000000000e+00,5.000000000000000000e+00,5.000000000000000000e+00,5.000000000000000000e+00,5.000000000000000000e+00,5.000000000000000000e+00,5.000000000000000000e+00,5.000000000000000000e+00,5.000000000000000000e+00,5.000000000000000000e+00,5.000000000000000000e+00,5.000000000000000000e+00,5.000000000000000000e+00,5.000000000000000000e+00,5.000000000000000000e+00,5.000000000000000000e+00,5.000000000000000000e+00,5.000000000000000000e+00,5.000000000000000000e+00,5.000000000000000000e+00,5.000000000000000000e+00,5.000000000000000000e+00,5.000000000000000000e+00,5.000000000000000000e+00,2.750383138656616211e+00,2.656948804855346680e+00,2.663571357727050781e+00,5.000000000000000000e+00,2.616274833679199219e+00,2.595956087112426758e+00,5.000000000000000000e+00,5.000000000000000000e+00,5.000000000000000000e+00,5.000000000000000000e+00,5.000000000000000000e+00,5.000000000000000000e+00,5.000000000000000000e+00,5.000000000000000000e+00,5.000000000000000000e+00,5.000000000000000000e+00,4.839735984802246094e+00,4.681594371795654297e+00,4.533459663391113281e+00,4.394412040710449219e+00,4.263640880584716797e+00,4.140427112579345703e+00,4.024135112762451172e+00,3.914197206497192383e+00,3.810106754302978516e+00,3.711408853530883789e+00
3.100552320480346680e+00,3.179254055023193359e+00,3.262055158615112305e+00,3.349284410476684570e+00,3.441307306289672852e+00,3.538529396057128906e+00,3.641404867172241211e+00,3.750441074371337891e+00,3.866208791732788086e+00,3.989351034164428711e+00,4.120595455169677734e+00,4.260769844055175781e+00,4.410816192626953125e+00,4.571816921234130859e+00,4.745016098022460938e+00,4.931855201721191406e+00,5.000000000000000000e+00,5.000000000000000000e+00,5.000000000000000000e+00,5.000000000000000000e+00,5.000000000000000000e+00,5.000000000000000000e+00,5.000000000000000000e+00,5.000000000000000000e+00,5.000000000000000000e+00,5.000000000000000000e+00,5.000000000000000000e+00,5.000000000000000000e+00,5.000000000000000000e+00,5.000000000000000000e+00,5.000000000000000000e+00,5.000000000000000000e+00,5.000000000000000000e+00,5.000000000000000000e+00,5.000000000000000000e+00,5.000000000000000000e+00,5.000000000000000000e+00,5.000000000000000000e+00,5.000000000000000000e+00,5.000000000000000000e+00,5.000000000000000000e+00,5.000000000000000000e+00,5.000000000000000000e+00,5.000000000000000000e+00,5.000000000000000000e+00,5.000000000000000000e+00,5.000000000000000000e+00,5.000000000000000000e+00,5.000000000000000000e+00,5.000000000000000000e+00,5.000000000000000000e+00,5.000000000000000000e+00,5.000000000000000000e+00,5.000000000000000000e+00,2.798892498016357422e+00,2.705288887023925781e+00,5.000000000000000000e+00,5.000000000000000000e+00,2.619844913482666016e+00,2.602057695388793945e+00,5.000000000000000000e+00,5.000000000000000000e+00,5.000000000000000000e+00,5.000000000000000000e+00,5.000000000000000000e+00,5.000000000000000000e+00,5.000000000000000000e+00,5.000000000000000000e+00,5.000000000000000000e+00,5.000000000000000000e+00,4.839876651763916016e+00,4.681725502014160156e+00,4.533582687377929688e+00,4.394527912139892578e+00,4.263749599456787109e+00,4.140529632568359375e+00,4.024231910705566406e+00,3.914289474487304688e+00,3.810193777084350586e+00,3.711491346359252930e+00
3.100486278533935547e+00,3.179184436798095703e+00,3.261981964111328125e+00,3.349207162857055664e+00,3.441225767135620117e+00,3.538443326950073242e+00,3.641313552856445312e+00,3.750344276428222656e+00,3.866106033325195312e+00,3.989241600036621094e+00,4.120478630065917969e+00,4.260644912719726562e+00,4.410682678222656250e+00,4.571672916412353516e+00,4.744861125946044922e+00,4.931687831878662109e+00,5.000000000000000000e+00,5.000000000000000000e+00,5.000000000000000000e+00,5.000000000000000000e+00,5.000000000000000000e+00,5.000000000000000000e+00,5.000000000000000000e+00,5.000000000000000000e+00,5.000000000000000000e+00,5.000000000000000000e+00,5.000000000000000000e+00,5.000000000000000000e+00,5.000000000000000000e+00,5.000000000000000000e+00,5.000000000000000000e+00,5.000000000000000000e+00,5.000000000000000000e+00,5.000000000000000000e+00,5.000000000000000000e+00,5.000000000000000000e+00,5.000000000000000000e+00,5.000000000000000000e+00,5.000000000000000000e+00,5.000000000000000000e+00,5.000000000000000000e+00,5.000000000000000000e+00,5.000000000000000000e+00,5.000000000000000000e+00,5.000000000000000000e+00,5.000000000000000000e+00,5.000000000000000000e+00,5.000000000000000000e+00,5.000000000000000000e+00,5.000000000000000000e+00,5.000000000000000000e+00,5.000000000000000000e+00,5.000000000000000000e+00,5.000000000000000000e+00,5.000000000000000000e+00,2.773880481719970703e+00,5.000000000000000000e+00,5.000000000000000000e+00,2.625373125076293945e+00,2.607877731323242188e+00,5.000000000000000000e+00,5.000000000000000000e+00,5.000000000000000000e+00,5.000000000000000000e+00,5.000000000000000000e+00,5.000000000000000000e+00,5.000000000000000000e+00,5.000000000000000000e+00,5.000000000000000000e+00,5.000000000000000000e+00,4.840017318725585938e+00,4.681856632232666016e+00,4.533706188201904297e+00,4.394643783569335938e+00,4.263858318328857422e+00,4.140632629394531250e+00,4.024329185485839844e+00,3.914381027221679688e+00,3.810280561447143555e+00,3.711573839187622070e+00
3.100419998168945312e+00,3.179114818572998047e+00,3.261908769607543945e+00,3.349130153656005859e+00,3.441144227981567383e+00,3.538357019424438477e+00,3.641222476959228516e+00,3.750247478485107422e+00,3.866003036499023438e+00,3.989131927490234375e+00,4.120361804962158203e+00,4.260519981384277344e+00,4.410548686981201172e+00,4.571529388427734375e+00,4.744706630706787109e+00,4.931520938873291016e+00,5.000000000000000000e+00,5.000000000000000000e+00,5.000000000000000000e+00,5.000000000000000000e+00,5.000000000000000000e+00,5.000000000000000000e+00,5.000000000000000000e+00,5.000000000000000000e+00,5.000000000000000000e+00,5.000000000000000000e+00,5.000000000000000000e+00,5.000000000000000000e+00,5.000000000000000000e+00,5.000000000000000000e+00,5.000000000000000000e+00,5.000000000000000000e+00,5.000000000000000000e+00,5.000000000000000000e+00,5.000000000000000000e+00,5.000000000000000000e+00,5.000000000000000000e+00,5.000000000000000000e+00,5.000000000000000000e+00,5.000000000000000000e+00,5.000000000000000000e+00,5.000000000000000000e+00,5.000000000000000000e+00,5.000000000000000000e+00,5.000000000000000000e+00,5.000000000000000000e+00,5.000000000000000000e+00,5.000000000000000000e+00,5.000000000000000000e+00,5.000000000000000000e+00,5.000000000000000000e+00,5.000000000000000000e+00,5.000000000000000000e+00,5.000000000000000000e+00,2.876326560974121094e+00,2.838119268417358398e+00,5.000000000000000000e+00,5.000000000000000000e+00,2.632058620452880859e+00,2.631894826889038086e+00,5.000000000000000000e+00,5.000000000000000000e+00,5.000000000000000000e+00,5.000000000000000000e+00,5.000000000000000000e+00,5.000000000000000000e+00,5.000000000000000000e+00,5.000000000000000000e+00,5.000000000000000000e+00,5.000000000000000000e+00,4.840157508850097656e+00,4.681988239288330078e+00,4.533829212188720703e+00,4.394759654998779297e+00,4.263967514038085938e+00,4.140735626220703125e+00,4.024426460266113281e+00,3.914472818374633789e+00,3.810367584228515625e+00,3.711656332015991211e+00
3.100353956222534180e+00,3.179045200347900391e+00,3.261835336685180664e+00,3.349052906036376953e+00,3.441062688827514648e+00,3.538270950317382812e+00,3.641131162643432617e+00,3.750150680541992188e+00,3.865900039672851562e+00,3.989022493362426758e+00,4.120244979858398438e+00,4.260395050048828125e+00,4.410414695739746094e+00,4.571385383605957031e+00,4.744551658630371094e+00,4.931353569030761719e+00,5.000000000000000000e+00,5.000000000000000000e+00,5.000000000000000000e+00,5.000000000000000000e+00,5.000000000000000000e+00,5.000000000000000000e+00,5.000000000000000000e+00,5.000000000000000000e+00,5.000000000000000000e+00,5.000000000000000000e+00,5.000000000000000000e+00,5.000000000000000000e+00,5.000000000000000000e+00,5.000000000000000000e+00,5.000000000000000000e+00,5.000000000000000000e+00,5.000000000000000000e+00,5.000000000000000000e+00,5.000000000000000000e+00,5.000000000000000000e+00,5.000000000000000000e+00,5.000000000000000000e+00,5.000000000000000000e+00,5.000000000000000000e+00,5.000000000000000000e+00,5.000000000000000000e+00,5.000000000000000000e+00,5.000000000000000000e+00,5.000000000000000000e+00,5.000000000000000000e+00,5.000000000000000000e+00,5.000000000000000000e+00,5.000000000000000000e+00,5.000000000000000000e+00,5.000000000000000000e+00,5.000000000000000000e+00,5.000000000000000000e+00,5.000000000000000000e+00,2.862504243850708008e+00,2.837520360946655273e+00,5.000000000000000000e+00,5.000000000000000000e+00,2.638826131820678711e+00,5.000000000000000000e+00,5.000000000000000000e+00,5.000000000000000000e+00,5.000000000000000000e+00,5.000000000000000000e+00,5.000000000000000000e+00,5.000000000000000000e+00,5.000000000000000000e+00,5.000000000000000000e+00,5.000000000000000000e+00,5.000000000000000000e+00,4.840297698974609375e+00,4.682119846343994141e+00,4.533952713012695312e+00,4.394875526428222656e+00,4.264076709747314453e+00,4.140838146209716797e+00,4.024523258209228516e+00,3.914564847946166992e+00,3.810454607009887695e+00,3.711739063262939453e+00
3.100287675857543945e+00,3.178975820541381836e+00,3.261762142181396484e+00,3.348975658416748047e+00,3.440981149673461914e+00,3.538184642791748047e+00,3.641039848327636719e+00,3.750053882598876953e+00,3.865797281265258789e+00,3.988912820816040039e+00,4.120128154754638672e+00,4.260270118713378906e+00,4.410281181335449219e+00,4.571241855621337891e+00,4.744396686553955078e+00,4.855199813842773438e+00,4.854001045227050781e+00,4.852803230285644531e+00,4.851605415344238281e+00,4.850408077239990234e+00,4.849211692810058594e+00,4.848015785217285156e+00,4.846820354461669922e+00,4.845625877380371094e+00,4.844431877136230469e+00,4.843237876892089844e+00,4.842045307159423828e+00,4.840852737426757812e+00,4.839661121368408203e+00,4.838469982147216797e+00,4.837279319763183594e+00,4.836089134216308594e+00,4.834899425506591797e+00,4.833710670471191406e+00,4.832522392272949219e+00,4.831334590911865234e+00,4.830147743225097656e+00,4.828960895538330078e+00,4.827775001525878906e+00,4.826589584350585938e+00,4.825405120849609375e+00,4.824221134185791016e+00,4.823037147521972656e+00,4.821854114532470703e+00,4.820671558380126953e+00,4.819489955902099609e+00,4.818308830261230469e+00,4.817128181457519531e+00,4.815948009490966797e+00,4.814768314361572266e+00,4.813589096069335938e+00,4.812410831451416016e+00,4.811233043670654297e+00,4.810055732727050781e+00,2.859406709671020508e+00,2.831912994384765625e+00,4.806527137756347656e+00,4.805352687835693359e+00,2.646277666091918945e+00,4.803004264831542969e+00,4.801831245422363281e+00,4.800658226013183594e+00,4.799486160278320312e+00,4.798315048217773438e+00,4.797143936157226562e+00,4.795973300933837891e+00,4.794803619384765625e+00,4.793634414672851562e+00,4.792466163635253906e+00,4.791297912597656250e+00,4.790130615234375000e+00,4.682250976562500000e+00,4.534075736999511719e+00,4.394990921020507812e+00,4.264185428619384766e+00,4.140940666198730469e+00,4.024620532989501953e+00,3.914656639099121094e+00,3.810542106628417969e+00,3.711821556091308594e+00
3.100221872329711914e+00,3.178906440734863281e+00,3.261689186096191406e+00,3.348898649215698242e+00,3.440900087356567383e+00,3.538098812103271484e+00,3.640949010848999023e+00,3.749957323074340820e+00,3.771298646926879883e+00,3.770575284957885742e+00,3.769852161407470703e+00,3.769129276275634766e+00,3.768406629562377930e+00,3.767684459686279297e+00,3.766962289810180664e+00,3.766240596771240234e+00,3.765519142150878906e+00,3.764798402786254883e+00,3.764077425003051758e+00,3.763356685638427734e+00,3.762636423110961914e+00,3.761916399002075195e+00,3.761196613311767578e+00,3.760477066040039062e+00,3.759757757186889648e+00,3.759038686752319336e+00,3.758320093154907227e+00,3.757601737976074219e+00,3.756883859634399414e+00,3.756165981292724609e+00,3.755448341369628906e+00,3.754730939865112305e+00,3.754014015197753906e+00,3.753297090530395508e+00,3.752580642700195312e+00,3.751864433288574219e+00,3.751148462295532227e+00,3.750432729721069336e+00,3.749717235565185547e+00,3.749002218246459961e+00,3.748287677764892578e+00,3.747573137283325195e+00,3.746858835220336914e+00,3.746144771575927734e+00,3.745430946350097656e+00,3.744717359542846680e+00,3.744004249572753906e+00,3.743291139602661133e+00,3.742578506469726562e+00,3.741866111755371094e+00,3.741153955459594727e+00,3.740442514419555664e+00,3.739730834960937500e+00,3.739019393920898438e+00,3.738308429718017578e+00,2.823363304138183594e+00,3.736886978149414062e+00,2.700586557388305664e+00,2.644287109375000000e+00,3.734757184982299805e+00,3.734047651290893555e+00,3.733338356018066406e+00,3.732629537582397461e+00,3.731921195983886719e+00,3.731212854385375977e+00,3.730504751205444336e+00,3.729796886444091797e+00,3.729089498519897461e+00,3.728382110595703125e+00,3.727674961090087891e+00,3.726968288421630859e+00,3.726261854171752930e+00,3.725555419921875000e+00,3.724849462509155273e+00,3.724144220352172852e+00,3.723438739776611328e+00,3.722733736038208008e+00,3.722028732299804688e+00,3.721324205398559570e+00,3.711904048919677734e+00
3.083509922027587891e+00,3.083026409149169922e+00,3.082543134689331055e+00,3.082059860229492188e+00,3.081576824188232422e+00,3.081093788146972656e+00,3.080611228942871094e+00,3.080128431320190430e+00,3.079645872116088867e+00,3.079163551330566406e+00,3.078681230545043945e+00,3.078199148178100586e+00,3.077717065811157227e+00,3.077235221862792969e+00,3.076753616333007812e+00,3.076272249221801758e+00,3.075790882110595703e+00,3.075309753417968750e+00,3.074828863143920898e+00,3.074347972869873047e+00,3.073867082595825195e+00,3.073386430740356445e+00,3.072906017303466797e+00,3.072425842285156250e+00,3.071945667266845703e+00,3.071465730667114258e+00,3.070985794067382812e+00,3.070506095886230469e+00,3.070026874542236328e+00,3.069547414779663086e+00,3.069068193435668945e+00,3.068588972091674805e+00,3.068109989166259766e+00,3.067631244659423828e+00,3.067152500152587891e+00,3.066674232482910156e+00,3.066195726394653320e+00,3.065717697143554688e+00,3.065239667892456055e+00,3.064761638641357422e+00,3.064284086227416992e+00,3.063806533813476562e+00,3.063329219818115234e+00,3.062851905822753906e+00,3.062374591827392578e+00,3.061897516250610352e+00,3.061420679092407227e+00,3.060944080352783203e+00,3.060467481613159180e+00,3.059991121292114258e+00,3.059514760971069336e+00,3.059038877487182617e+00,3.058562994003295898e+00,3.058087110519409180e+00,3.057611465454101562e+00,3.057135820388793945e+00,3.056660413742065430e+00,2.722231149673461914e+00,2.582299709320068359e+00,3.055235147476196289e+00,3.054760456085205078e+00,3.054285764694213867e+00,3.053811311721801758e+00,3.053337097167968750e+00,3.052862882614135742e+00,3.052388906478881836e+00,3.051914930343627930e+00,3.051441192626953125e+00,3.050967693328857422e+00,3.050494194030761719e+00,3.050020694732666016e+00,3.049547672271728516e+00,3.049074649810791016e+00,3.048601627349853516e+00,3.048129320144653320e+00,3.047656774520874023e+00,3.047184228897094727e+00,3.046711921691894531e+00,3.046239852905273438e+00,3.045767784118652344e+00
2.605131387710571289e+00,2.604786396026611328e+00,2.604441404342651367e+00,2.604096412658691406e+00,2.603751659393310547e+00,2.603406667709350586e+00,2.603061914443969727e+00,2.602717399597167969e+00,2.602372884750366211e+00,2.602028369903564453e+00,2.601684093475341797e+00,2.601339817047119141e+00,2.600995540618896484e+00,2.600651502609252930e+00,2.600307464599609375e+00,2.599963426589965820e+00,2.599619626998901367e+00,2.599276065826416016e+00,2.598932504653930664e+00,2.598588705062866211e+00,2.598245382308959961e+00,2.597902059555053711e+00,2.597558736801147461e+00,2.597215414047241211e+00,2.596872329711914062e+00,2.596529245376586914e+00,2.596186399459838867e+00,2.595843553543090820e+00,2.595500946044921875e+00,2.595158338546752930e+00,2.594815731048583984e+00,2.594473361968994141e+00,2.594130754470825195e+00,2.593788623809814453e+00,2.593446254730224609e+00,2.593104124069213867e+00,2.592762231826782227e+00,2.592420339584350586e+00,2.592078447341918945e+00,2.591736555099487305e+00,2.591395139694213867e+00,2.591053485870361328e+00,2.590712070465087891e+00,2.590370655059814453e+00,2.590029478073120117e+00,2.589688062667846680e+00,2.589347124099731445e+00,2.589005947113037109e+00,2.588665008544921875e+00,2.588324069976806641e+00,2.587983369827270508e+00,2.587642908096313477e+00,2.587302446365356445e+00,2.586961746215820312e+00,2.586621522903442383e+00,2.586281061172485352e+00,2.585940837860107422e+00,2.585600852966308594e+00,2.585260629653930664e+00,2.584920644760131836e+00,2.584580898284912109e+00,2.584241151809692383e+00,2.583901405334472656e+00,2.583561897277832031e+00,2.583222389221191406e+00,2.582883119583129883e+00,2.582543611526489258e+00,2.582204341888427734e+00,2.581865310668945312e+00,2.581526279449462891e+00,2.581187248229980469e+00,2.580848217010498047e+00,2.580509424209594727e+00,2.580170869827270508e+00,2.579832315444946289e+00,2.579493761062622070e+00,2.579155445098876953e+00,2.578817129135131836e+00,2.578478813171386719e+00,2.578140497207641602e+00
2.255249977111816406e+00,2.254991292953491211e+00,2.254732847213745117e+00,2.254474163055419922e+00,2.254215717315673828e+00,2.253957271575927734e+00,2.253698825836181641e+00,2.253440618515014648e+00,2.253182411193847656e+00,2.252924203872680664e+00,2.252665996551513672e+00,2.252408027648925781e+00,2.252149820327758789e+00,2.251891851425170898e+00,2.251633882522583008e+00,2.251376152038574219e+00,2.251118183135986328e+00,2.250860691070556641e+00,2.250602960586547852e+00,2.250345230102539062e+00,2.250087738037109375e+00,2.249830245971679688e+00,2.249572753906250000e+00,2.249315261840820312e+00,2.249058008193969727e+00,2.248800516128540039e+00,2.248543500900268555e+00,2.248286247253417969e+00,2.248029232025146484e+00,2.247772216796875000e+00,2.247515201568603516e+00,2.247258186340332031e+00,2.247001409530639648e+00,2.246744632720947266e+00,2.246487855911254883e+00,2.246231079101562500e+00,2.245974302291870117e+00,2.245717763900756836e+00,2.245461225509643555e+00,2.245204687118530273e+00,2.244948387145996094e+00,2.244692087173461914e+00,2.244435787200927734e+00,2.244179487228393555e+00,2.243923425674438477e+00,2.243667364120483398e+00,2.243411302566528320e+00,2.243155241012573242e+00,2.242899179458618164e+00,2.242643356323242188e+00,2.242387533187866211e+00,2.242131948471069336e+00,2.241876125335693359e+00,2.241620540618896484e+00,2.241364955902099609e+00,2.241109371185302734e+00,2.240854024887084961e+00,2.240598440170288086e+00,2.240343093872070312e+00,2.240087747573852539e+00,2.239832639694213867e+00,2.239577293395996094e+00,2.239322185516357422e+00,2.239067316055297852e+00,2.238812208175659180e+00,2.238557338714599609e+00,2.238302469253540039e+00,2.238047599792480469e+00,2.237792730331420898e+00,2.237538099288940430e+00,2.237283468246459961e+00,2.237028837203979492e+00,2.236774206161499023e+00,2.236519813537597656e+00,2.236265420913696289e+00,2.236011028289794922e+00,2.235756635665893555e+00,2.235502481460571289e+00,2.235248327255249023e+00,2.234994173049926758e+00
1.988222241401672363e+00,1.988021254539489746e+00,1.987820386886596680e+00,1.987619519233703613e+00,1.987418413162231445e+00,1.987217545509338379e+00,1.987016797065734863e+00,1.986815929412841797e+00,1.986615180969238281e+00,1.986414551734924316e+00,1.986213803291320801e+00,1.986013174057006836e+00,1.985812664031982422e+00,1.985612034797668457e+00,1.985411524772644043e+00,1.985211133956909180e+00,1.985010623931884766e+00,1.984810233116149902e+00,1.984609842300415039e+00,1.984409451484680176e+00,1.984209060668945312e+00,1.984008908271789551e+00,1.983808636665344238e+00,1.983608484268188477e+00,1.983408212661743164e+00,1.983208298683166504e+00,1.983008146286010742e+00,1.982808232307434082e+00,1.982608318328857422e+00,1.982408285140991211e+00,1.982208490371704102e+00,1.982008457183837891e+00,1.981808781623840332e+00,1.981608867645263672e+00,1.981409311294555664e+00,1.981209397315979004e+00,1.981009840965270996e+00,1.980810165405273438e+00,1.980610728263854980e+00,1.980411052703857422e+00,1.980211615562438965e+00,1.980012297630310059e+00,1.979812741279602051e+00,1.979613423347473145e+00,1.979413986206054688e+00,1.979214787483215332e+00,1.979015469551086426e+00,1.978816270828247070e+00,1.978617072105407715e+00,1.978417992591857910e+00,1.978218793869018555e+00,1.978019833564758301e+00,1.977820873260498047e+00,1.977621793746948242e+00,1.977422952651977539e+00,1.977223992347717285e+00,1.977025270462036133e+00,1.976826310157775879e+00,1.976627588272094727e+00,1.976428747177124023e+00,1.976230144500732422e+00,1.976031422615051270e+00,1.975832819938659668e+00,1.975634455680847168e+00,1.975435733795166016e+00,1.975237369537353516e+00,1.975038766860961914e+00,1.974840521812438965e+00,1.974641919136047363e+00,1.974443793296813965e+00,1.974245309829711914e+00,1.974047183990478516e+00,1.973848819732666016e+00,1.973650813102722168e+00,1.973452687263488770e+00,1.973254561424255371e+00,1.973056554794311523e+00,1.972858428955078125e+00,1.972660541534423828e+00,1.972462534904479980e+00
1.777733922004699707e+00,1.777573227882385254e+00,1.777412414550781250e+00,1.777251839637756348e+00,1.777091264724731445e+00,1.776930451393127441e+00,1.776769995689392090e+00,1.776609420776367188e+00,1.776448845863342285e+00,1.776288390159606934e+00,1.776127934455871582e+00,1.775967478752136230e+00,1.775807142257690430e+00,1.775646805763244629e+00,1.775486230850219727e+00,1.775326013565063477e+00,1.775165796279907227e+00,1.775005578994750977e+00,1.774845242500305176e+00,1.774685144424438477e+00,1.774524807929992676e+00,1.774364709854125977e+00,1.774204492568969727e+00,1.774044394493103027e+00,1.773884296417236328e+00,1.773724317550659180e+00,1.773564100265502930e+00,1.773404240608215332e+00,1.773244380950927734e+00,1.773084282875061035e+00,1.772924423217773438e+00,1.772764444351196289e+00,1.772604703903198242e+00,1.772444725036621094e+00,1.772285103797912598e+00,1.772125244140625000e+00,1.771965503692626953e+00,1.771805763244628906e+00,1.771646142005920410e+00,1.771486401557922363e+00,1.771326780319213867e+00,1.771167278289794922e+00,1.771007657051086426e+00,1.770848155021667480e+00,1.770688533782958984e+00,1.770529150962829590e+00,1.770369648933410645e+00,1.770210266113281250e+00,1.770050764083862305e+00,1.769891500473022461e+00,1.769732117652893066e+00,1.769572854042053223e+00,1.769413709640502930e+00,1.769254326820373535e+00,1.769095182418823242e+00,1.768935918807983398e+00,1.768776774406433105e+00,1.768617510795593262e+00,1.768458485603332520e+00,1.768299341201782227e+00,1.768140316009521484e+00,1.767981290817260742e+00,1.767822384834289551e+00,1.767663478851318359e+00,1.767504453659057617e+00,1.767345547676086426e+00,1.767186641693115234e+00,1.767027854919433594e+00,1.766868948936462402e+00,1.766710162162780762e+00,1.766551375389099121e+00,1.766392707824707031e+00,1.766233921051025391e+00,1.766075253486633301e+00,1.765916705131530762e+00,1.765758037567138672e+00,1.765599489212036133e+00,1.765440940856933594e+00,1.765282392501831055e+00,1.765123844146728516e+00
1.607546687126159668e+00,1.607415199279785156e+00,1.607283830642700195e+00,1.607152462005615234e+00,1.607021093368530273e+00,1.606889724731445312e+00,1.606758475303649902e+00,1.606627106666564941e+00,1.606495857238769531e+00,1.606364607810974121e+00,1.606233358383178711e+00,1.606102108955383301e+00,1.605970978736877441e+00,1.605839729309082031e+00,1.605708599090576172e+00,1.605577588081359863e+00,1.605446338653564453e+00,1.605315327644348145e+00,1.605184316635131836e+00,1.605053186416625977e+00,1.604922175407409668e+00,1.604791283607482910e+00,1.604660153388977051e+00,1.604529261589050293e+00,1.604398250579833984e+00,1.604267358779907227e+00,1.604136347770690918e+00,1.604005575180053711e+00,1.603874683380126953e+00,1.603743791580200195e+00,1.603613018989562988e+00,1.603482127189636230e+00,1.603351473808288574e+00,1.603220582008361816e+00,1.603089928627014160e+00,1.602959156036376953e+00,1.602828502655029297e+00,1.602697730064392090e+00,1.602567195892333984e+00,1.602436423301696777e+00,1.602305889129638672e+00,1.602175354957580566e+00,1.602044701576232910e+00,1.601914286613464355e+00,1.601783633232116699e+00,1.601653218269348145e+00,1.601522684097290039e+00,1.601392269134521484e+00,1.601261734962463379e+00,1.601131319999694824e+00,1.601000905036926270e+00,1.600870609283447266e+00,1.600740313529968262e+00,1.600609898567199707e+00,1.600479602813720703e+00,1.600349307060241699e+00,1.600219011306762695e+00,1.600088715553283691e+00,1.599958539009094238e+00,1.599828243255615234e+00,1.599698066711425781e+00,1.599567890167236328e+00,1.599437713623046875e+00,1.599307656288146973e+00,1.599177479743957520e+00,1.599047541618347168e+00,1.598917365074157715e+00,1.598787426948547363e+00,1.598657250404357910e+00,1.598527431488037109e+00,1.598397374153137207e+00,1.598267436027526855e+00,1.598137378692626953e+00,1.598007559776306152e+00,1.597877740859985352e+00,1.597747802734375000e+00,1.597617983818054199e+00,1.597488164901733398e+00,1.597358345985412598e+00,1.597228527069091797e+00
1.467097520828247070e+00,1.466988086700439453e+00,1.466878652572631836e+00,1.466769099235534668e+00,1.466659784317016602e+00,1.466550350189208984e+00,1.466440916061401367e+00,1.466331601142883301e+00,1.466222286224365234e+00,1.466112852096557617e+00,1.466003537178039551e+00,1.465894341468811035e+00,1.465784907341003418e+00,1.465675711631774902e+00,1.465566515922546387e+00,1.465457201004028320e+00,1.465348005294799805e+00,1.465238809585571289e+00,1.465129494667053223e+00,1.465020418167114258e+00,1.464911341667175293e+00,1.464802026748657227e+00,1.464692950248718262e+00,1.464583873748779297e+00,1.464474797248840332e+00,1.464365720748901367e+00,1.464256644248962402e+00,1.464147567749023438e+00,1.464038610458374023e+00,1.463929533958435059e+00,1.463820576667785645e+00,1.463711500167846680e+00,1.463602542877197266e+00,1.463493466377258301e+00,1.463384628295898438e+00,1.463275671005249023e+00,1.463166713714599609e+00,1.463057756423950195e+00,1.462948918342590332e+00,1.462840080261230469e+00,1.462731242179870605e+00,1.462622523307800293e+00,1.462513566017150879e+00,1.462404847145080566e+00,1.462296009063720703e+00,1.462187290191650391e+00,1.462078452110290527e+00,1.461969852447509766e+00,1.461861014366149902e+00,1.461752414703369141e+00,1.461643576622009277e+00,1.461534976959228516e+00,1.461426377296447754e+00,1.461317658424377441e+00,1.461209177970886230e+00,1.461100459098815918e+00,1.460991978645324707e+00,1.460883259773254395e+00,1.460774779319763184e+00,1.460666179656982422e+00,1.460557699203491211e+00,1.460449099540710449e+00,1.460340738296508789e+00,1.460232257843017578e+00,1.460123777389526367e+00,1.460015416145324707e+00,1.459906935691833496e+00,1.459798574447631836e+00,1.459690093994140625e+00,1.459581732749938965e+00,1.459473252296447754e+00,1.459365010261535645e+00,1.459256649017333984e+00,1.459148406982421875e+00,1.459040164947509766e+00,1.458931803703308105e+00,1.458823561668395996e+00,1.458715200424194336e+00,1.458607077598571777e+00,1.458498716354370117e+00
1.349218130111694336e+00,1.349125504493713379e+00,1.349032998085021973e+00,1.348940372467041016e+00,1.348847866058349609e+00,1.348755359649658203e+00,1.348662853240966797e+00,1.348570227622985840e+00,1.348477840423583984e+00,1.348385334014892578e+00,1.348292827606201172e+00,1.348200440406799316e+00,1.348107933998107910e+00,1.348015546798706055e+00,1.347923040390014648e+00,1.347830772399902344e+00,1.347738385200500488e+00,1.347645878791809082e+00,1.347553610801696777e+00,1.347461223602294922e+00,1.347368836402893066e+00,1.347276568412780762e+00,1.347184300422668457e+00,1.347091913223266602e+00,1.346999645233154297e+00,1.346907496452331543e+00,1.346815109252929688e+00,1.346722841262817383e+00,1.346630692481994629e+00,1.346538424491882324e+00,1.346446156501770020e+00,1.346353888511657715e+00,1.346261739730834961e+00,1.346169471740722656e+00,1.346077442169189453e+00,1.345985174179077148e+00,1.345893025398254395e+00,1.345800876617431641e+00,1.345708727836608887e+00,1.345616579055786133e+00,1.345524549484252930e+00,1.345432519912719727e+00,1.345340371131896973e+00,1.345248341560363770e+00,1.345156192779541016e+00,1.345064282417297363e+00,1.344972133636474609e+00,1.344880223274230957e+00,1.344788193702697754e+00,1.344696164131164551e+00,1.344604134559631348e+00,1.344512224197387695e+00,1.344420313835144043e+00,1.344328403472900391e+00,1.344236493110656738e+00,1.344144463539123535e+00,1.344052672386169434e+00,1.343960642814636230e+00,1.343868851661682129e+00,1.343776941299438477e+00,1.343685150146484375e+00,1.343593239784240723e+00,1.343501448631286621e+00,1.343409657478332520e+00,1.343317866325378418e+00,1.343226075172424316e+00,1.343134284019470215e+00,1.343042492866516113e+00,1.342950701713562012e+00,1.342859029769897461e+00,1.342767238616943359e+00,1.342675566673278809e+00,1.342583775520324707e+00,1.342492222785949707e+00,1.342400550842285156e+00,1.342308878898620605e+00,1.342217206954956055e+00,1.342125535011291504e+00,1.342033982276916504e+00,1.341942310333251953e+00
1.248872756958007812e+00,1.248793482780456543e+00,1.248714208602905273e+00,1.248634815216064453e+00,1.248555541038513184e+00,1.248476386070251465e+00,1.248396992683410645e+00,1.248317718505859375e+00,1.248238563537597656e+00,1.248159289360046387e+00,1.248080015182495117e+00,1.248000860214233398e+00,1.247921586036682129e+00,1.247842431068420410e+00,1.247763276100158691e+00,1.247684001922607422e+00,1.247604846954345703e+00,1.247525691986083984e+00,1.247446537017822266e+00,1.247367382049560547e+00,1.247288227081298828e+00,1.247209072113037109e+00,1.247130036354064941e+00,1.247051000595092773e+00,1.246971726417541504e+00,1.246892690658569336e+00,1.246813654899597168e+00,1.246734619140625000e+00,1.246655583381652832e+00,1.246576547622680664e+00,1.246497392654418945e+00,1.246418476104736328e+00,1.246339440345764160e+00,1.246260523796081543e+00,1.246181488037109375e+00,1.246102333068847656e+00,1.246023416519165039e+00,1.245944380760192871e+00,1.245865464210510254e+00,1.245786547660827637e+00,1.245707631111145020e+00,1.245628714561462402e+00,1.245549678802490234e+00,1.245470881462097168e+00,1.245391845703125000e+00,1.245313048362731934e+00,1.245234131813049316e+00,1.245155215263366699e+00,1.245076417922973633e+00,1.244997501373291016e+00,1.244918704032897949e+00,1.244839906692504883e+00,1.244761109352111816e+00,1.244682192802429199e+00,1.244603395462036133e+00,1.244524598121643066e+00,1.244445919990539551e+00,1.244367003440856934e+00,1.244288325309753418e+00,1.244209527969360352e+00,1.244130849838256836e+00,1.244052052497863770e+00,1.243973374366760254e+00,1.243894696235656738e+00,1.243815898895263672e+00,1.243737220764160156e+00,1.243658542633056641e+00,1.243579864501953125e+00,1.243501186370849609e+00,1.243422627449035645e+00,1.243343830108642578e+00,1.243265271186828613e+00,1.243186593055725098e+00,1.243108034133911133e+00,1.243029475212097168e+00,1.242950797080993652e+00,1.242872238159179688e+00,1.242793679237365723e+00,1.242715120315551758e+00,1.242636561393737793e+00
1.162420272827148438e+00,1.162351608276367188e+00,1.162282824516296387e+00,1.162214159965515137e+00,1.162145495414733887e+00,1.162076711654663086e+00,1.162008047103881836e+00,1.161939382553100586e+00,1.161870718002319336e+00,1.161802053451538086e+00,1.161733388900756836e+00,1.161664724349975586e+00,1.161596179008483887e+00,1.161527514457702637e+00,1.161458849906921387e+00,1.161390304565429688e+00,1.161321759223937988e+00,1.161253094673156738e+00,1.161184549331665039e+00,1.161116003990173340e+00,1.161047339439392090e+00,1.160978794097900391e+00,1.160910248756408691e+00,1.160841703414916992e+00,1.160773158073425293e+00,1.160704612731933594e+00,1.160636067390441895e+00,1.160567641258239746e+00,1.160499095916748047e+00,1.160430550575256348e+00,1.160362124443054199e+00,1.160293698310852051e+00,1.160225152969360352e+00,1.160156726837158203e+00,1.160088300704956055e+00,1.160019755363464355e+00,1.159951329231262207e+00,1.159882903099060059e+00,1.159814476966857910e+00,1.159745931625366211e+00,1.159677624702453613e+00,1.159609198570251465e+00,1.159540772438049316e+00,1.159472465515136719e+00,1.159404039382934570e+00,1.159335613250732422e+00,1.159267306327819824e+00,1.159198880195617676e+00,1.159130573272705078e+00,1.159062266349792480e+00,1.158993840217590332e+00,1.158925533294677734e+00,1.158857226371765137e+00,1.158788919448852539e+00,1.158720612525939941e+00,1.158652305603027344e+00,1.158583998680114746e+00,1.158515691757202148e+00,1.158447504043579102e+00,1.158379197120666504e+00,1.158311009407043457e+00,1.158242702484130859e+00,1.158174514770507812e+00,1.158106327056884766e+00,1.158038020133972168e+00,1.157969832420349121e+00,1.157901644706726074e+00,1.157833456993103027e+00,1.157765150070190430e+00,1.157697081565856934e+00,1.157628893852233887e+00,1.157560706138610840e+00,1.157492518424987793e+00,1.157424449920654297e+00,1.157356262207031250e+00,1.157288074493408203e+00,1.157220005989074707e+00,1.157151818275451660e+00,1.157083749771118164e+00,1.157015681266784668e+00
1.087162017822265625e+00,1.087101817131042480e+00,1.087041735649108887e+00,1.086981654167175293e+00,1.086921572685241699e+00,1.086861491203308105e+00,1.086801409721374512e+00,1.086741328239440918e+00,1.086681246757507324e+00,1.086621165275573730e+00,1.086561203002929688e+00,1.086501121520996094e+00,1.086441159248352051e+00,1.086381077766418457e+00,1.086320996284484863e+00,1.086261034011840820e+00,1.086200952529907227e+00,1.086140990257263184e+00,1.086081027984619141e+00,1.086020946502685547e+00,1.085960984230041504e+00,1.085901021957397461e+00,1.085841059684753418e+00,1.085781097412109375e+00,1.085721135139465332e+00,1.085661172866821289e+00,1.085601210594177246e+00,1.085541367530822754e+00,1.085481405258178711e+00,1.085421442985534668e+00,1.085361599922180176e+00,1.085301637649536133e+00,1.085241675376892090e+00,1.085181832313537598e+00,1.085121870040893555e+00,1.085062026977539062e+00,1.085002183914184570e+00,1.084942221641540527e+00,1.084882378578186035e+00,1.084822654724121094e+00,1.084762692451477051e+00,1.084702849388122559e+00,1.084643006324768066e+00,1.084583163261413574e+00,1.084523320198059082e+00,1.084463477134704590e+00,1.084403634071350098e+00,1.084343791007995605e+00,1.084283947944641113e+00,1.084224224090576172e+00,1.084164381027221680e+00,1.084104657173156738e+00,1.084044933319091797e+00,1.083985090255737305e+00,1.083925366401672363e+00,1.083865523338317871e+00,1.083805799484252930e+00,1.083746075630187988e+00,1.083686351776123047e+00,1.083626508712768555e+00,1.083566784858703613e+00,1.083507061004638672e+00,1.083447337150573730e+00,1.083387732505798340e+00,1.083328008651733398e+00,1.083268284797668457e+00,1.083208560943603516e+00,1.083148956298828125e+00,1.083089232444763184e+00,1.083029508590698242e+00,1.082969903945922852e+00,1.082910180091857910e+00,1.082850575447082520e+00,1.082790970802307129e+00,1.082731366157531738e+00,1.082671642303466797e+00,1.082612037658691406e+00,1.082552433013916016e+00,1.082492828369140625e+00,1.082433223724365234e+00
1.021056056022644043e+00,1.021003007888793945e+00,1.020949959754943848e+00,1.020897030830383301e+00,1.020843982696533203e+00,1.020790934562683105e+00,1.020738005638122559e+00,1.020684957504272461e+00,1.020632028579711914e+00,1.020578980445861816e+00,1.020526051521301270e+00,1.020473122596740723e+00,1.020420074462890625e+00,1.020367145538330078e+00,1.020314216613769531e+00,1.020261287689208984e+00,1.020208358764648438e+00,1.020155310630798340e+00,1.020102500915527344e+00,1.020049571990966797e+00,1.019996643066406250e+00,1.019943714141845703e+00,1.019890785217285156e+00,1.019837856292724609e+00,1.019785046577453613e+00,1.019732117652893066e+00,1.019679188728332520e+00,1.019626379013061523e+00,1.019573450088500977e+00,1.019520640373229980e+00,1.019467711448669434e+00,1.019414901733398438e+00,1.019362092018127441e+00,1.019309163093566895e+00,1.019256353378295898e+00,1.019203543663024902e+00,1.019150614738464355e+00,1.019097805023193359e+00,1.019044995307922363e+00,1.018992185592651367e+00,1.018939375877380371e+00,1.018886566162109375e+00,1.018833756446838379e+00,1.018780946731567383e+00,1.018728256225585938e+00,1.018675446510314941e+00,1.018622636795043945e+00,1.018569827079772949e+00,1.018517017364501953e+00,1.018464326858520508e+00,1.018411517143249512e+00,1.018358826637268066e+00,1.018306016921997070e+00,1.018253207206726074e+00,1.018200516700744629e+00,1.018147826194763184e+00,1.018095135688781738e+00,1.018042325973510742e+00,1.017989635467529297e+00,1.017936825752258301e+00,1.017884254455566406e+00,1.017831444740295410e+00,1.017778754234313965e+00,1.017726182937622070e+00,1.017673373222351074e+00,1.017620801925659180e+00,1.017568111419677734e+00,1.017515420913696289e+00,1.017462730407714844e+00,1.017410039901733398e+00,1.017357349395751953e+00,1.017304778099060059e+00,1.017252087593078613e+00,1.017199516296386719e+00,1.017146825790405273e+00,1.017094254493713379e+00,1.017041683197021484e+00,1.016988992691040039e+00,1.016936421394348145e+00,1.016883730888366699e+00
