3.794385671615600586e+00,3.753524303436279297e+00,3.713533639907836914e+00,3.674386262893676758e+00,3.636054992675781250e+00,3.598515748977661133e+00,3.561743497848510742e+00,3.525715589523315430e+00,3.490408897399902344e+00,3.455802202224731445e+00,3.421875238418579102e+00,3.388607978820800781e+00,3.355981111526489258e+00,3.323976516723632812e+00,3.292576789855957031e+00,3.261764764785766602e+00,3.231523990631103516e+00,3.201838970184326172e+00,3.172693729400634766e+00,3.144074916839599609e+00,3.115967750549316406e+00,3.088358640670776367e+00,3.061234474182128906e+00,3.034582138061523438e+00,3.008390426635742188e+00,2.982646942138671875e+00,2.957340240478515625e+00,2.932459115982055664e+00,2.907993555068969727e+00,2.883932590484619141e+00,2.860266685485839844e+00,2.836986064910888672e+00,2.814080953598022461e+00,2.791543006896972656e+00,2.769363403320312500e+00,2.747533321380615234e+00,2.726044416427612305e+00,2.704889535903930664e+00,2.684060096740722656e+00,2.663549184799194336e+00,2.643349409103393555e+00,2.623453617095947266e+00,2.603855133056640625e+00,2.584547281265258789e+00,2.565523624420166016e+00,2.546777725219726562e+00,2.528304100036621094e+00,2.510096788406372070e+00,2.492149353027343750e+00,2.474457025527954102e+00,2.457013845443725586e+00,2.439815282821655273e+00,2.422855615615844727e+00,2.406130075454711914e+00,2.389633893966674805e+00,2.373362302780151367e+00,2.357310771942138672e+00,2.341475009918212891e+00,2.325850486755371094e+00,2.310433149337768555e+00,2.295218944549560547e+00,2.280203819274902344e+00,2.265383958816528320e+00,2.250755310058593750e+00,2.236314296722412109e+00,2.222057580947875977e+00,2.207981348037719727e+00,2.194082498550415039e+00,2.180357456207275391e+00,2.166803121566772461e+00,2.153416156768798828e+00,2.140193700790405273e+00,2.127132654190063477e+00,2.114229917526245117e+00,2.101482868194580078e+00,2.088888645172119141e+00,2.076444149017333984e+00,2.064147233963012695e+00,2.051995277404785156e+00,2.039985418319702148e+00
3.794387340545654297e+00,3.753525972366333008e+00,3.713535308837890625e+00,3.674387454986572266e+00,3.636056661605834961e+00,3.598517417907714844e+00,3.561745166778564453e+00,3.525717020034790039e+00,3.490410089492797852e+00,3.455803632736206055e+00,3.421876668930053711e+00,3.388609170913696289e+00,3.355982065200805664e+00,3.323977708816528320e+00,3.292577981948852539e+00,3.261765956878662109e+00,3.231525182723999023e+00,3.201839923858642578e+00,3.172694921493530273e+00,3.144076108932495117e+00,3.115968942642211914e+00,3.088359594345092773e+00,3.061235427856445312e+00,3.034583330154418945e+00,3.008391618728637695e+00,2.982647895812988281e+00,2.957340955734252930e+00,2.932460308074951172e+00,2.907994508743286133e+00,2.883933544158935547e+00,2.860267639160156250e+00,2.836986780166625977e+00,2.814081907272338867e+00,2.791543960571289062e+00,2.769364356994628906e+00,2.747534036636352539e+00,2.726045370101928711e+00,2.704890251159667969e+00,2.684060811996459961e+00,2.663549900054931641e+00,2.643350124359130859e+00,2.623454332351684570e+00,2.603855848312377930e+00,2.584547758102416992e+00,2.565524101257324219e+00,2.546778678894042969e+00,2.528305053710937500e+00,2.510097503662109375e+00,2.492150068283081055e+00,2.474457740783691406e+00,2.457014799118041992e+00,2.439815998077392578e+00,2.422856569290161133e+00,2.406130790710449219e+00,2.389634609222412109e+00,2.373363256454467773e+00,2.357311725616455078e+00,2.341475963592529297e+00,2.325851678848266602e+00,2.310434341430664062e+00,2.295220136642456055e+00,2.280204772949218750e+00,2.265384912490844727e+00,2.250756263732910156e+00,2.236315250396728516e+00,2.222058534622192383e+00,2.207982301712036133e+00,2.194083452224731445e+00,2.180358409881591797e+00,2.166804075241088867e+00,2.153417110443115234e+00,2.140194654464721680e+00,2.127133607864379883e+00,2.114230871200561523e+00,2.101483583450317383e+00,2.088889360427856445e+00,2.076444864273071289e+00,2.064148187637329102e+00,2.051995992660522461e+00,2.039986133575439453e+00
3.794389247894287109e+00,3.753527641296386719e+00,3.713536500930786133e+00,3.674388885498046875e+00,3.636058092117309570e+00,3.598518848419189453e+00,3.561746597290039062e+00,3.525718212127685547e+00,3.490411520004272461e+00,3.455804824829101562e+00,3.421877861022949219e+00,3.388610363006591797e+00,3.355983495712280273e+00,3.323979139328002930e+00,3.292579174041748047e+00,3.261766910552978516e+00,3.231526136398315430e+00,3.201841115951538086e+00,3.172696113586425781e+00,3.144077301025390625e+00,3.115969657897949219e+00,3.088360548019409180e+00,3.061236381530761719e+00,3.034584522247314453e+00,3.008392572402954102e+00,2.982649087905883789e+00,2.957342386245727539e+00,2.932461500167846680e+00,2.907995700836181641e+00,2.883934974670410156e+00,2.860268592834472656e+00,2.836987972259521484e+00,2.814083099365234375e+00,2.791545152664184570e+00,2.769365549087524414e+00,2.747535467147827148e+00,2.726046800613403320e+00,2.704891681671142578e+00,2.684062242507934570e+00,2.663551330566406250e+00,2.643351316452026367e+00,2.623455524444580078e+00,2.603857040405273438e+00,2.584549188613891602e+00,2.565525531768798828e+00,2.546779870986938477e+00,2.528306245803833008e+00,2.510098695755004883e+00,2.492151498794555664e+00,2.474458932876586914e+00,2.457015991210937500e+00,2.439817190170288086e+00,2.422857522964477539e+00,2.406131982803344727e+00,2.389635801315307617e+00,2.373364210128784180e+00,2.357312917709350586e+00,2.341477155685424805e+00,2.325852632522583008e+00,2.310435295104980469e+00,2.295220851898193359e+00,2.280205726623535156e+00,2.265385866165161133e+00,2.250757217407226562e+00,2.236316442489624023e+00,2.222059488296508789e+00,2.207983493804931641e+00,2.194084405899047852e+00,2.180359601974487305e+00,2.166805028915405273e+00,2.153418064117431641e+00,2.140195608139038086e+00,2.127134323120117188e+00,2.114231586456298828e+00,2.101484537124633789e+00,2.088890314102172852e+00,2.076445817947387695e+00,2.064148902893066406e+00,2.051996946334838867e+00,2.039987087249755859e+00
3.794390916824340820e+00,3.753529310226440430e+00,3.713538646697998047e+00,3.674391031265258789e+00,3.636060237884521484e+00,3.598520755767822266e+00,3.561748504638671875e+00,3.525720119476318359e+00,3.490413188934326172e+00,3.455806732177734375e+00,3.421879768371582031e+00,3.388612270355224609e+00,3.355985641479492188e+00,3.323981046676635742e+00,3.292581081390380859e+00,3.261769056320190430e+00,3.231528282165527344e+00,3.201842784881591797e+00,3.172698020935058594e+00,3.144078969955444336e+00,3.115971803665161133e+00,3.088362455368041992e+00,3.061238288879394531e+00,3.034586429595947266e+00,3.008394479751586914e+00,2.982650995254516602e+00,2.957344293594360352e+00,2.932462930679321289e+00,2.907997369766235352e+00,2.883936405181884766e+00,2.860270500183105469e+00,2.836989641189575195e+00,2.814084768295288086e+00,2.791546821594238281e+00,2.769366979598999023e+00,2.747536897659301758e+00,2.726048231124877930e+00,2.704892873764038086e+00,2.684063673019409180e+00,2.663552522659301758e+00,2.643352746963500977e+00,2.623456954956054688e+00,2.603858470916748047e+00,2.584550619125366211e+00,2.565526962280273438e+00,2.546781301498413086e+00,2.528307437896728516e+00,2.510099887847900391e+00,2.492152452468872070e+00,2.474460124969482422e+00,2.457017183303833008e+00,2.439818382263183594e+00,2.422858715057373047e+00,2.406133174896240234e+00,2.389636993408203125e+00,2.373365402221679688e+00,2.357313871383666992e+00,2.341478109359741211e+00,2.325853586196899414e+00,2.310436248779296875e+00,2.295222043991088867e+00,2.280206918716430664e+00,2.265386819839477539e+00,2.250758171081542969e+00,2.236317396163940430e+00,2.222060680389404297e+00,2.207984209060668945e+00,2.194085359573364258e+00,2.180360317230224609e+00,2.166805982589721680e+00,2.153419017791748047e+00,2.140196561813354492e+00,2.127135276794433594e+00,2.114232540130615234e+00,2.101485490798950195e+00,2.088891267776489258e+00,2.076446533203125000e+00,2.064149856567382812e+00,2.051997661590576172e+00,2.039987802505493164e+00
3.794393777847290039e+00,3.753532409667968750e+00,3.713541507720947266e+00,3.674393892288208008e+00,3.636062383651733398e+00,3.598523139953613281e+00,3.561750888824462891e+00,3.525722742080688477e+00,3.490415811538696289e+00,3.455809116363525391e+00,3.421882152557373047e+00,3.388614654541015625e+00,3.355987787246704102e+00,3.323983430862426758e+00,3.292583227157592773e+00,3.261770963668823242e+00,3.231530189514160156e+00,3.201844930648803711e+00,3.172700166702270508e+00,3.144081115722656250e+00,3.115973711013793945e+00,3.088364601135253906e+00,3.061240434646606445e+00,3.034587860107421875e+00,3.008396148681640625e+00,2.982652425765991211e+00,2.957345724105834961e+00,2.932464838027954102e+00,2.907999038696289062e+00,2.883938074111938477e+00,2.860272169113159180e+00,2.836991310119628906e+00,2.814086437225341797e+00,2.791548252105712891e+00,2.769368410110473633e+00,2.747538328170776367e+00,2.726049661636352539e+00,2.704894542694091797e+00,2.684065103530883789e+00,2.663554191589355469e+00,2.643354177474975586e+00,2.623458385467529297e+00,2.603859901428222656e+00,2.584551811218261719e+00,2.565528154373168945e+00,2.546782493591308594e+00,2.528308868408203125e+00,2.510101318359375000e+00,2.492153882980346680e+00,2.474461317062377930e+00,2.457018375396728516e+00,2.439819574356079102e+00,2.422859907150268555e+00,2.406134128570556641e+00,2.389637947082519531e+00,2.373366594314575195e+00,2.357315063476562500e+00,2.341479301452636719e+00,2.325854778289794922e+00,2.310437440872192383e+00,2.295223236083984375e+00,2.280207872390747070e+00,2.265388011932373047e+00,2.250759124755859375e+00,2.236318349838256836e+00,2.222061395645141602e+00,2.207985162734985352e+00,2.194086313247680664e+00,2.180361270904541016e+00,2.166806936264038086e+00,2.153419971466064453e+00,2.140197515487670898e+00,2.127136230468750000e+00,2.114233493804931641e+00,2.101486444473266602e+00,2.088891983032226562e+00,2.076447486877441406e+00,2.064150571823120117e+00,2.051998615264892578e+00,2.039988756179809570e+00
3.794396400451660156e+00,3.753534793853759766e+00,3.713543891906738281e+00,3.674396276473999023e+00,3.636065244674682617e+00,3.598525762557983398e+00,3.561753511428833008e+00,3.525725126266479492e+00,3.490418434143066406e+00,3.455811738967895508e+00,3.421884298324584961e+00,3.388616800308227539e+00,3.355989933013916016e+00,3.323985338211059570e+00,3.292585372924804688e+00,3.261773347854614258e+00,3.231532335281372070e+00,3.201847076416015625e+00,3.172702312469482422e+00,3.144083023071289062e+00,3.115975618362426758e+00,3.088366270065307617e+00,3.061242103576660156e+00,3.034590005874633789e+00,3.008398056030273438e+00,2.982654333114624023e+00,2.957347631454467773e+00,2.932466506958007812e+00,2.908000707626342773e+00,2.883939743041992188e+00,2.860273599624633789e+00,2.836992740631103516e+00,2.814087867736816406e+00,2.791549921035766602e+00,2.769370079040527344e+00,2.747539997100830078e+00,2.726051092147827148e+00,2.704895973205566406e+00,2.684066534042358398e+00,2.663555622100830078e+00,2.643355607986450195e+00,2.623459577560424805e+00,2.603861093521118164e+00,2.584553241729736328e+00,2.565529584884643555e+00,2.546783924102783203e+00,2.528310060501098633e+00,2.510102510452270508e+00,2.492155075073242188e+00,2.474462747573852539e+00,2.457019567489624023e+00,2.439820766448974609e+00,2.422861099243164062e+00,2.406135320663452148e+00,2.389639139175415039e+00,2.373367786407470703e+00,2.357316255569458008e+00,2.341480255126953125e+00,2.325855970382690430e+00,2.310438394546508789e+00,2.295224189758300781e+00,2.280208826065063477e+00,2.265388965606689453e+00,2.250760316848754883e+00,2.236319303512573242e+00,2.222062587738037109e+00,2.207986354827880859e+00,2.194087266921997070e+00,2.180362224578857422e+00,2.166807651519775391e+00,2.153420686721801758e+00,2.140198230743408203e+00,2.127137184143066406e+00,2.114234447479248047e+00,2.101487159729003906e+00,2.088892936706542969e+00,2.076448440551757812e+00,2.064151525497436523e+00,2.051999568939208984e+00,2.039989471435546875e+00
3.794399499893188477e+00,3.753537654876708984e+00,3.713546752929687500e+00,3.674399137496948242e+00,3.636068105697631836e+00,3.598528623580932617e+00,3.561756134033203125e+00,3.525727510452270508e+00,3.490420579910278320e+00,3.455813884735107422e+00,3.421886682510375977e+00,3.388619184494018555e+00,3.355992317199707031e+00,3.323987722396850586e+00,3.292587757110595703e+00,3.261775493621826172e+00,3.231534481048583984e+00,3.201848983764648438e+00,3.172703981399536133e+00,3.144084930419921875e+00,3.115977525711059570e+00,3.088368177413940430e+00,3.061244010925292969e+00,3.034591913223266602e+00,3.008399963378906250e+00,2.982656240463256836e+00,2.957349300384521484e+00,2.932468175888061523e+00,2.908002376556396484e+00,2.883941411972045898e+00,2.860275268554687500e+00,2.836994409561157227e+00,2.814089536666870117e+00,2.791551351547241211e+00,2.769371747970581055e+00,2.747541427612304688e+00,2.726052522659301758e+00,2.704897403717041016e+00,2.684067964553833008e+00,2.663556814193725586e+00,2.643357038497924805e+00,2.623461008071899414e+00,2.603862524032592773e+00,2.584554672241210938e+00,2.565530776977539062e+00,2.546785116195678711e+00,2.528311252593994141e+00,2.510103702545166016e+00,2.492156267166137695e+00,2.474463701248168945e+00,2.457020759582519531e+00,2.439821958541870117e+00,2.422862291336059570e+00,2.406136751174926758e+00,2.389640331268310547e+00,2.373368740081787109e+00,2.357317209243774414e+00,2.341481447219848633e+00,2.325856924057006836e+00,2.310439586639404297e+00,2.295225143432617188e+00,2.280210018157958984e+00,2.265389919281005859e+00,2.250761270523071289e+00,2.236320257186889648e+00,2.222063541412353516e+00,2.207987070083618164e+00,2.194088220596313477e+00,2.180363178253173828e+00,2.166808843612670898e+00,2.153421640396118164e+00,2.140199184417724609e+00,2.127137899398803711e+00,2.114235401153564453e+00,2.101488113403320312e+00,2.088893890380859375e+00,2.076449155807495117e+00,2.064152240753173828e+00,2.052000284194946289e+00,2.039990425109863281e+00
3.794402360916137695e+00,3.753540754318237305e+00,3.713549613952636719e+00,3.674401760101318359e+00,3.636070251464843750e+00,3.598530769348144531e+00,3.561758279800415039e+00,3.525730133056640625e+00,3.490422964096069336e+00,3.455816268920898438e+00,3.421889066696166992e+00,3.388621568679809570e+00,3.355994701385498047e+00,3.323989868164062500e+00,3.292589664459228516e+00,3.261777400970458984e+00,3.231536388397216797e+00,3.201851129531860352e+00,3.172706127166748047e+00,3.144087076187133789e+00,3.115979671478271484e+00,3.088370084762573242e+00,3.061245918273925781e+00,3.034593343734741211e+00,3.008401632308959961e+00,2.982657670974731445e+00,2.957350969314575195e+00,2.932469844818115234e+00,2.908004045486450195e+00,2.883943080902099609e+00,2.860276937484741211e+00,2.836996078491210938e+00,2.814091205596923828e+00,2.791552782058715820e+00,2.769372940063476562e+00,2.747542858123779297e+00,2.726053953170776367e+00,2.704898834228515625e+00,2.684069395065307617e+00,2.663558244705200195e+00,2.643358469009399414e+00,2.623462438583374023e+00,2.603863954544067383e+00,2.584555864334106445e+00,2.565531969070434570e+00,2.546786308288574219e+00,2.528312683105468750e+00,2.510104894638061523e+00,2.492157459259033203e+00,2.474465131759643555e+00,2.457021951675415039e+00,2.439823150634765625e+00,2.422863483428955078e+00,2.406137704849243164e+00,2.389641523361206055e+00,2.373369932174682617e+00,2.357318401336669922e+00,2.341482400894165039e+00,2.325858116149902344e+00,2.310440540313720703e+00,2.295226335525512695e+00,2.280210971832275391e+00,2.265391111373901367e+00,2.250762224197387695e+00,2.236321210861206055e+00,2.222064495086669922e+00,2.207988262176513672e+00,2.194089174270629883e+00,2.180364131927490234e+00,2.166809797286987305e+00,2.153422594070434570e+00,2.140200138092041016e+00,2.127138853073120117e+00,2.114236116409301758e+00,2.101489067077636719e+00,2.088894605636596680e+00,2.076450109481811523e+00,2.064153194427490234e+00,2.052000999450683594e+00,2.039991140365600586e+00
3.794404983520507812e+00,3.753543138504028320e+00,3.713552236557006836e+00,3.674404382705688477e+00,3.636073112487792969e+00,3.598533630371093750e+00,3.561760902404785156e+00,3.525732755661010742e+00,3.490425586700439453e+00,3.455818891525268555e+00,3.421891212463378906e+00,3.388623714447021484e+00,3.355996608734130859e+00,3.323992013931274414e+00,3.292591810226440430e+00,3.261779546737670898e+00,3.231538534164428711e+00,3.201853275299072266e+00,3.172708272933959961e+00,3.144088983535766602e+00,3.115981340408325195e+00,3.088371992111206055e+00,3.061247587203979492e+00,3.034595489501953125e+00,3.008403539657592773e+00,2.982659578323364258e+00,2.957352876663208008e+00,2.932471752166748047e+00,2.908005952835083008e+00,2.883944749832153320e+00,2.860278367996215820e+00,2.836997509002685547e+00,2.814092636108398438e+00,2.791554450988769531e+00,2.769374608993530273e+00,2.747544288635253906e+00,2.726055622100830078e+00,2.704900264739990234e+00,2.684070825576782227e+00,2.663559913635253906e+00,2.643359661102294922e+00,2.623463869094848633e+00,2.603865146636962891e+00,2.584557294845581055e+00,2.565533399581909180e+00,2.546787738800048828e+00,2.528313875198364258e+00,2.510106325149536133e+00,2.492158889770507812e+00,2.474466323852539062e+00,2.457023143768310547e+00,2.439824342727661133e+00,2.422864675521850586e+00,2.406138896942138672e+00,2.389642715454101562e+00,2.373371124267578125e+00,2.357319593429565430e+00,2.341483592987060547e+00,2.325859069824218750e+00,2.310441493988037109e+00,2.295227289199829102e+00,2.280211925506591797e+00,2.265392065048217773e+00,2.250763177871704102e+00,2.236322402954101562e+00,2.222065448760986328e+00,2.207989215850830078e+00,2.194090127944946289e+00,2.180365085601806641e+00,2.166810512542724609e+00,2.153423547744750977e+00,2.140201091766357422e+00,2.127139806747436523e+00,2.114237070083618164e+00,2.101489782333374023e+00,2.088895559310913086e+00,2.076451063156127930e+00,2.064154148101806641e+00,2.052001953125000000e+00,2.039991855621337891e+00
3.794408082962036133e+00,3.753546237945556641e+00,3.713555097579956055e+00,3.674407005310058594e+00,3.636075973510742188e+00,3.598536252975463867e+00,3.561763525009155273e+00,3.525734901428222656e+00,3.490427732467651367e+00,3.455821037292480469e+00,3.421893596649169922e+00,3.388626098632812500e+00,3.355998992919921875e+00,3.323994159698486328e+00,3.292594194412231445e+00,3.261781930923461914e+00,3.231540679931640625e+00,3.201855182647705078e+00,3.172709941864013672e+00,3.144090890884399414e+00,3.115983247756958008e+00,3.088373899459838867e+00,3.061249494552612305e+00,3.034597396850585938e+00,3.008405447006225586e+00,2.982661485671997070e+00,2.957354545593261719e+00,2.932473182678222656e+00,2.908007383346557617e+00,2.883946180343627930e+00,2.860280036926269531e+00,2.836999177932739258e+00,2.814094066619873047e+00,2.791556119918823242e+00,2.769376277923583984e+00,2.747545957565307617e+00,2.726056814193725586e+00,2.704901695251464844e+00,2.684072256088256836e+00,2.663561105728149414e+00,2.643361091613769531e+00,2.623465299606323242e+00,2.603866577148437500e+00,2.584558486938476562e+00,2.565534830093383789e+00,2.546788930892944336e+00,2.528315067291259766e+00,2.510107517242431641e+00,2.492160081863403320e+00,2.474467515945434570e+00,2.457024335861206055e+00,2.439825534820556641e+00,2.422865867614746094e+00,2.406140089035034180e+00,2.389643907546997070e+00,2.373372316360473633e+00,2.357320547103881836e+00,2.341484546661376953e+00,2.325860023498535156e+00,2.310442686080932617e+00,2.295228242874145508e+00,2.280213117599487305e+00,2.265393018722534180e+00,2.250764369964599609e+00,2.236323356628417969e+00,2.222066402435302734e+00,2.207990169525146484e+00,2.194091081619262695e+00,2.180366039276123047e+00,2.166811466217041016e+00,2.153424501419067383e+00,2.140202045440673828e+00,2.127140760421752930e+00,2.114238023757934570e+00,2.101490736007690430e+00,2.088896512985229492e+00,2.076451778411865234e+00,2.064154863357543945e+00,7.077125310897827148e-01,6.735782027244567871e-01
3.794410943984985352e+00,3.753549098968505859e+00,3.713557958602905273e+00,3.674409866333007812e+00,3.636078357696533203e+00,3.598538637161254883e+00,3.561765909194946289e+00,3.525737524032592773e+00,3.490430355072021484e+00,3.455823421478271484e+00,3.421895980834960938e+00,3.388628482818603516e+00,3.356001377105712891e+00,3.323996305465698242e+00,3.292596101760864258e+00,3.261783838272094727e+00,3.231542587280273438e+00,3.201857328414916992e+00,3.172712087631225586e+00,3.144092798233032227e+00,3.115985393524169922e+00,3.088375806808471680e+00,3.061251401901245117e+00,3.034599065780639648e+00,3.008406877517700195e+00,2.982663154602050781e+00,2.957356214523315430e+00,2.932475090026855469e+00,2.908009052276611328e+00,2.883948087692260742e+00,2.860281944274902344e+00,2.837000846862792969e+00,2.814095735549926758e+00,2.791557550430297852e+00,2.769377470016479492e+00,2.747547388076782227e+00,2.726058483123779297e+00,2.704903125762939453e+00,2.684073686599731445e+00,2.663562536239624023e+00,2.643362522125244141e+00,2.623466730117797852e+00,2.603868007659912109e+00,2.584559679031372070e+00,2.565536022186279297e+00,2.546790122985839844e+00,2.528316497802734375e+00,2.510108709335327148e+00,2.492161273956298828e+00,2.474468708038330078e+00,2.457025527954101562e+00,2.439826726913452148e+00,2.422867059707641602e+00,2.406141042709350586e+00,2.389644861221313477e+00,2.373373270034790039e+00,2.357321739196777344e+00,2.341485738754272461e+00,2.325861215591430664e+00,2.310443878173828125e+00,2.295229434967041016e+00,2.280214071273803711e+00,2.265394210815429688e+00,2.250765323638916016e+00,2.236324310302734375e+00,2.222067356109619141e+00,2.207991123199462891e+00,2.194092035293579102e+00,2.180366992950439453e+00,2.166812419891357422e+00,2.153425455093383789e+00,2.140202999114990234e+00,2.127141714096069336e+00,2.114238739013671875e+00,2.101491689682006836e+00,2.088897228240966797e+00,2.076452732086181641e+00,7.038109898567199707e-01,6.771896481513977051e-01,6.696714758872985840e-01
3.794413566589355469e+00,3.753551721572875977e+00,3.713560342788696289e+00,3.674412250518798828e+00,3.636080980300903320e+00,3.598541259765625000e+00,3.561768531799316406e+00,3.525740146636962891e+00,3.490432739257812500e+00,3.455826044082641602e+00,3.421898126602172852e+00,3.388630390167236328e+00,3.356003284454345703e+00,3.323998451232910156e+00,3.292598247528076172e+00,3.261785984039306641e+00,3.231544733047485352e+00,3.201859474182128906e+00,3.172714233398437500e+00,3.144094944000244141e+00,3.115987062454223633e+00,3.088377475738525391e+00,3.061253070831298828e+00,3.034600973129272461e+00,3.008408784866333008e+00,2.982664823532104492e+00,2.957357883453369141e+00,2.932476758956909180e+00,2.908010959625244141e+00,2.883949756622314453e+00,2.860283374786376953e+00,2.837002277374267578e+00,2.814097166061401367e+00,2.791559219360351562e+00,2.769379138946533203e+00,2.747548818588256836e+00,2.726059913635253906e+00,2.704904794692993164e+00,2.684075117111206055e+00,2.663563966751098633e+00,2.643363714218139648e+00,2.623467922210693359e+00,2.603869199752807617e+00,2.584561109542846680e+00,2.565537214279174805e+00,2.546791553497314453e+00,2.528317689895629883e+00,2.510110139846801758e+00,2.492162466049194336e+00,2.474469900131225586e+00,2.457026720046997070e+00,2.439827680587768555e+00,2.422868013381958008e+00,2.406142234802246094e+00,2.389646053314208984e+00,2.373374462127685547e+00,2.357322931289672852e+00,2.341486930847167969e+00,2.325862407684326172e+00,2.310444831848144531e+00,2.295230388641357422e+00,2.280215024948120117e+00,2.265394926071166992e+00,2.250766277313232422e+00,2.236325263977050781e+00,2.222068309783935547e+00,2.207992076873779297e+00,2.194092988967895508e+00,2.180367946624755859e+00,2.166813373565673828e+00,2.153426408767700195e+00,2.140203714370727539e+00,2.127142429351806641e+00,2.114239692687988281e+00,2.101492404937744141e+00,2.088898181915283203e+00,7.158850431442260742e-01,6.822680830955505371e-01,6.746238470077514648e-01,6.671621799468994141e-01
3.794416666030883789e+00,3.753554582595825195e+00,3.713563203811645508e+00,3.674415111541748047e+00,3.636083841323852539e+00,3.598543882369995117e+00,3.561771154403686523e+00,3.525742292404174805e+00,3.490435123443603516e+00,3.455827951431274414e+00,3.421900510787963867e+00,3.388632774353027344e+00,3.356005668640136719e+00,3.324000835418701172e+00,3.292600631713867188e+00,3.261788129806518555e+00,3.231547117233276367e+00,3.201861143112182617e+00,3.172716140747070312e+00,3.144096612930297852e+00,3.115989208221435547e+00,3.088379621505737305e+00,3.061255216598510742e+00,3.034602880477905273e+00,3.008410692214965820e+00,2.982666730880737305e+00,2.957359790802001953e+00,2.932478427886962891e+00,2.908012390136718750e+00,2.883951187133789062e+00,2.860285043716430664e+00,2.837003946304321289e+00,2.814098834991455078e+00,2.791560649871826172e+00,2.769380807876586914e+00,2.747550487518310547e+00,2.726061344146728516e+00,2.704905986785888672e+00,2.684076547622680664e+00,2.663565397262573242e+00,2.643365383148193359e+00,2.623469352722167969e+00,2.603870630264282227e+00,2.584562540054321289e+00,2.565538644790649414e+00,2.546792984008789062e+00,2.528318881988525391e+00,2.510111093521118164e+00,2.492163658142089844e+00,2.474471092224121094e+00,2.457027912139892578e+00,2.439829111099243164e+00,2.422869205474853516e+00,2.406143665313720703e+00,2.389647245407104492e+00,2.373375654220581055e+00,2.357323884963989258e+00,2.341487884521484375e+00,2.325863361358642578e+00,2.310445785522460938e+00,2.295231580734252930e+00,2.280216217041015625e+00,2.265396118164062500e+00,2.250767230987548828e+00,2.236326217651367188e+00,2.222069501876831055e+00,2.207993030548095703e+00,2.194093942642211914e+00,2.180368900299072266e+00,2.166814327239990234e+00,2.153427362442016602e+00,2.140204668045043945e+00,2.127143383026123047e+00,2.114240646362304688e+00,2.101493358612060547e+00,7.255123853683471680e-01,6.913871765136718750e-01,6.796585321426391602e-01,6.720773577690124512e-01,6.646715998649597168e-01
3.794419527053833008e+00,3.753557443618774414e+00,3.713566064834594727e+00,3.674417972564697266e+00,3.636086225509643555e+00,3.598546266555786133e+00,3.561773538589477539e+00,3.525744915008544922e+00,3.490437507629394531e+00,3.455830574035644531e+00,3.421903133392333984e+00,3.388635158538818359e+00,3.356008052825927734e+00,3.324002742767333984e+00,3.292602539062500000e+00,3.261790037155151367e+00,3.231548786163330078e+00,3.201863288879394531e+00,3.172718048095703125e+00,3.144098758697509766e+00,3.115991115570068359e+00,3.088381528854370117e+00,3.061257123947143555e+00,3.034604549407958984e+00,3.008412361145019531e+00,2.982668399810791016e+00,2.957361459732055664e+00,2.932480096817016602e+00,2.908014059066772461e+00,2.883952856063842773e+00,2.860286712646484375e+00,2.837005615234375000e+00,2.814100503921508789e+00,2.791562080383300781e+00,2.769382238388061523e+00,2.747551918029785156e+00,2.726062774658203125e+00,2.704907655715942383e+00,2.684077978134155273e+00,2.663566827774047852e+00,2.643366813659667969e+00,2.623470783233642578e+00,2.603872060775756836e+00,2.584563732147216797e+00,2.565539836883544922e+00,2.546794176101684570e+00,2.528320312500000000e+00,2.510112524032592773e+00,2.492165088653564453e+00,2.474472284317016602e+00,2.457029342651367188e+00,2.439830303192138672e+00,2.422870635986328125e+00,2.406144618988037109e+00,2.389648199081420898e+00,2.373376607894897461e+00,2.357325077056884766e+00,2.341489076614379883e+00,2.325864553451538086e+00,2.310446977615356445e+00,2.295232534408569336e+00,2.280217170715332031e+00,2.265397071838378906e+00,2.250768184661865234e+00,2.236327171325683594e+00,2.222070217132568359e+00,2.207993984222412109e+00,2.194094896316528320e+00,2.180369853973388672e+00,2.166815280914306641e+00,2.153428316116333008e+00,2.140205621719360352e+00,2.127144336700439453e+00,2.114241361618041992e+00,7.310459017753601074e-01,7.030351161956787109e-01,6.847749352455139160e-01,6.770688295364379883e-01,6.695500612258911133e-01,6.621996164321899414e-01
3.794422149658203125e+00,3.753560066223144531e+00,3.713568687438964844e+00,3.674420356750488281e+00,3.636088848114013672e+00,3.598548889160156250e+00,3.561776161193847656e+00,3.525747537612915039e+00,3.490440130233764648e+00,3.455832958221435547e+00,3.421905040740966797e+00,3.388637304306030273e+00,3.356009960174560547e+00,3.324005126953125000e+00,3.292604684829711914e+00,3.261792182922363281e+00,3.231550931930541992e+00,3.201865434646606445e+00,3.172720193862915039e+00,3.144100904464721680e+00,3.115992784500122070e+00,3.088383197784423828e+00,3.061258792877197266e+00,3.034606456756591797e+00,3.008414268493652344e+00,2.982670307159423828e+00,2.957363128662109375e+00,2.932482004165649414e+00,2.908015966415405273e+00,2.883954763412475586e+00,2.860288143157958984e+00,2.837007045745849609e+00,2.814101934432983398e+00,2.791563749313354492e+00,2.769383668899536133e+00,2.747553348541259766e+00,2.726064443588256836e+00,2.704909086227416992e+00,2.684079408645629883e+00,2.663568258285522461e+00,2.643368005752563477e+00,2.623471975326538086e+00,2.603873252868652344e+00,2.584565162658691406e+00,2.565541267395019531e+00,2.546795368194580078e+00,2.528321504592895508e+00,2.510113716125488281e+00,2.492166280746459961e+00,2.474473714828491211e+00,2.457030296325683594e+00,2.439831256866455078e+00,2.422871589660644531e+00,2.406145811080932617e+00,2.389649391174316406e+00,2.373377799987792969e+00,2.357326269149780273e+00,2.341490268707275391e+00,2.325865507125854492e+00,2.310447931289672852e+00,2.295233488082885742e+00,2.280218124389648438e+00,2.265398025512695312e+00,2.250769376754760742e+00,2.236328363418579102e+00,2.222071409225463867e+00,2.207994937896728516e+00,2.194095849990844727e+00,2.180370807647705078e+00,2.166816234588623047e+00,2.153429031372070312e+00,2.140206575393676758e+00,2.127145051956176758e+00,7.366644740104675293e-01,7.150823473930358887e-01,6.899689435958862305e-01,6.821461915969848633e-01,6.745006442070007324e-01,6.670417189598083496e-01,6.597459316253662109e-01
3.794425249099731445e+00,3.753562927246093750e+00,3.713571548461914062e+00,3.674423217773437500e+00,3.636091709136962891e+00,3.598551750183105469e+00,3.561778783798217773e+00,3.525749683380126953e+00,3.490442276000976562e+00,3.455835103988647461e+00,3.421907663345336914e+00,3.388639688491821289e+00,3.356012344360351562e+00,3.324007511138916016e+00,3.292607069015502930e+00,3.261794567108154297e+00,3.231553316116333008e+00,3.201867341995239258e+00,3.172722101211547852e+00,3.144102573394775391e+00,3.115994930267333984e+00,3.088385343551635742e+00,3.061260700225830078e+00,3.034608364105224609e+00,3.008416175842285156e+00,2.982671976089477539e+00,2.957365036010742188e+00,2.932483434677124023e+00,2.908017396926879883e+00,2.883956193923950195e+00,2.860289812088012695e+00,2.837008714675903320e+00,2.814103603363037109e+00,2.791565418243408203e+00,2.769385337829589844e+00,2.747555017471313477e+00,2.726065874099731445e+00,2.704910278320312500e+00,2.684080839157104492e+00,2.663569450378417969e+00,2.643369436264038086e+00,2.623473405838012695e+00,2.603874683380126953e+00,2.584566593170166016e+00,2.565542697906494141e+00,2.546796798706054688e+00,2.528322696685791016e+00,2.510114908218383789e+00,2.492167472839355469e+00,2.474474668502807617e+00,2.457031488418579102e+00,2.439832687377929688e+00,2.422872781753540039e+00,2.406147003173828125e+00,2.389650583267211914e+00,2.373378992080688477e+00,2.357327222824096680e+00,2.341491222381591797e+00,2.325866460800170898e+00,2.310449123382568359e+00,2.295234680175781250e+00,2.280219316482543945e+00,2.265399217605590820e+00,2.250770330429077148e+00,2.236329317092895508e+00,2.222072362899780273e+00,2.207995891571044922e+00,2.194096803665161133e+00,2.180371761322021484e+00,2.166817188262939453e+00,2.153429985046386719e+00,2.140207529067993164e+00,7.423701286315917969e-01,7.225843667984008789e-01,6.952423453330993652e-01,6.873002648353576660e-01,6.795375347137451172e-01,6.719551682472229004e-01,6.645520329475402832e-01,6.573103666305541992e-01
3.794428110122680664e+00,3.753565788269042969e+00,3.713574409484863281e+00,3.674426078796386719e+00,3.636094093322753906e+00,3.598554134368896484e+00,3.561780929565429688e+00,3.525752305984497070e+00,3.490444898605346680e+00,3.455837726593017578e+00,3.421910047531127930e+00,3.388642072677612305e+00,3.356014728546142578e+00,3.324009418487548828e+00,3.292608976364135742e+00,3.261796474456787109e+00,3.231554985046386719e+00,3.201869487762451172e+00,3.172724008560180664e+00,3.144104719161987305e+00,3.115996837615966797e+00,3.088387250900268555e+00,3.061262607574462891e+00,3.034610033035278320e+00,3.008417844772338867e+00,2.982673645019531250e+00,2.957366704940795898e+00,2.932485342025756836e+00,2.908019304275512695e+00,2.883957862854003906e+00,2.860291719436645508e+00,2.837010383605957031e+00,2.814105272293090820e+00,2.791566848754882812e+00,2.769386768341064453e+00,2.747556209564208984e+00,2.726067304611206055e+00,2.704911947250366211e+00,2.684082269668579102e+00,2.663571119308471680e+00,2.643370866775512695e+00,2.623474836349487305e+00,2.603876113891601562e+00,2.584567785263061523e+00,2.565543889999389648e+00,2.546797990798950195e+00,2.528323888778686523e+00,2.510116338729858398e+00,2.492168664932250977e+00,2.474476099014282227e+00,2.457032918930053711e+00,2.439833879470825195e+00,2.422873973846435547e+00,2.406147956848144531e+00,2.389651536941528320e+00,2.373379945755004883e+00,2.357328414916992188e+00,2.341492176055908203e+00,2.325867652893066406e+00,2.310450077056884766e+00,2.295235633850097656e+00,2.280220270156860352e+00,2.265400171279907227e+00,2.250771284103393555e+00,2.236330270767211914e+00,2.222073316574096680e+00,2.207996845245361328e+00,2.194097757339477539e+00,2.180372714996337891e+00,2.166818141937255859e+00,2.153430938720703125e+00,2.140208482742309570e+00,7.280731201171875000e-01,7.022609114646911621e-01,6.925327777862548828e-01,6.846520900726318359e-01,6.769487857818603516e-01,6.694287061691284180e-01,6.620809435844421387e-01,6.567856073379516602e-01
3.794430732727050781e+00,3.753568410873413086e+00,3.713576793670654297e+00,3.674428462982177734e+00,3.636096715927124023e+00,3.598556756973266602e+00,3.561783790588378906e+00,3.525754928588867188e+00,3.490447282791137695e+00,3.455840110778808594e+00,3.421912193298339844e+00,3.388644218444824219e+00,3.356016635894775391e+00,3.324011802673339844e+00,3.292611122131347656e+00,3.261798620223999023e+00,3.231557369232177734e+00,3.201871633529663086e+00,3.172726154327392578e+00,3.144106626510620117e+00,3.115998744964599609e+00,3.088388919830322266e+00,3.061264276504516602e+00,3.034611940383911133e+00,3.008419752120971680e+00,2.982675552368164062e+00,2.957368373870849609e+00,2.932487010955810547e+00,2.908020973205566406e+00,2.883959770202636719e+00,2.860293149948120117e+00,2.837011814117431641e+00,2.814106702804565430e+00,2.791568517684936523e+00,2.769388198852539062e+00,2.747557878494262695e+00,2.726068973541259766e+00,2.704913377761840820e+00,2.684083700180053711e+00,2.663572549819946289e+00,2.643372058868408203e+00,2.623476028442382812e+00,2.603877305984497070e+00,2.584569215774536133e+00,2.565545082092285156e+00,2.546799182891845703e+00,2.528325319290161133e+00,2.510117530822753906e+00,2.492169857025146484e+00,2.474477291107177734e+00,2.457033872604370117e+00,2.439834833145141602e+00,2.422875165939331055e+00,2.406149148941040039e+00,2.389652729034423828e+00,2.373381137847900391e+00,2.357329607009887695e+00,2.341493368148803711e+00,2.325868844985961914e+00,2.310451030731201172e+00,2.295236587524414062e+00,2.280221223831176758e+00,2.265401124954223633e+00,2.250772237777709961e+00,2.236331224441528320e+00,2.222074270248413086e+00,2.207997798919677734e+00,2.194098711013793945e+00,2.180373668670654297e+00,2.166818857192993164e+00,2.153431892395019531e+00,7.336459755897521973e-01,7.142814397811889648e-01,6.978455185890197754e-01,6.898442506790161133e-01,6.820243000984191895e-01,6.743796467781066895e-01,6.669213175773620605e-01,6.603727936744689941e-01,6.578073501586914062e-01
3.794433832168579102e+00,3.753571271896362305e+00,3.713579654693603516e+00,3.674431324005126953e+00,3.636099576950073242e+00,3.598559379577636719e+00,3.561786413192749023e+00,3.525757074356079102e+00,3.490449666976928711e+00,3.455842256546020508e+00,3.421914577484130859e+00,3.388646602630615234e+00,3.356019020080566406e+00,3.324013948440551758e+00,3.292613506317138672e+00,3.261800765991210938e+00,3.231559514999389648e+00,3.201873540878295898e+00,3.172728061676025391e+00,3.144108533859252930e+00,3.116000652313232422e+00,3.088390827178955078e+00,3.061266422271728516e+00,3.034613847732543945e+00,3.008421421051025391e+00,2.982677459716796875e+00,2.957370281219482422e+00,2.932488679885864258e+00,2.908022403717041016e+00,2.883961200714111328e+00,2.860294818878173828e+00,2.837013483047485352e+00,2.814108371734619141e+00,2.791569948196411133e+00,2.769389867782592773e+00,2.747559547424316406e+00,2.726070165634155273e+00,2.704914808273315430e+00,2.684085130691528320e+00,2.663573741912841797e+00,2.643373489379882812e+00,2.623477458953857422e+00,2.603878736495971680e+00,2.584570646286010742e+00,2.565546512603759766e+00,2.546800613403320312e+00,2.528326511383056641e+00,2.510118722915649414e+00,2.492171049118041992e+00,2.474478483200073242e+00,2.457035064697265625e+00,2.439836025238037109e+00,2.422876358032226562e+00,2.406150341033935547e+00,2.389653921127319336e+00,2.373382329940795898e+00,2.357330560684204102e+00,2.341494321823120117e+00,2.325869798660278320e+00,2.310452222824096680e+00,2.295237779617309570e+00,2.280222415924072266e+00,2.265402317047119141e+00,2.250773429870605469e+00,2.236332178115844727e+00,2.222075223922729492e+00,2.207998752593994141e+00,2.194099664688110352e+00,2.180374383926391602e+00,2.166819810867309570e+00,7.393047213554382324e-01,7.196798920631408691e-01,7.032405138015747070e-01,6.951158046722412109e-01,6.871765255928039551e-01,6.794165968894958496e-01,6.718329191207885742e-01,6.644325852394104004e-01,6.614056825637817383e-01,6.588321924209594727e-01
3.794436693191528320e+00,3.753574371337890625e+00,3.713582515716552734e+00,3.674433946609497070e+00,3.636101961135864258e+00,3.598561763763427734e+00,3.561788558959960938e+00,3.525759696960449219e+00,3.490452051162719727e+00,3.455844879150390625e+00,3.421916961669921875e+00,3.388648986816406250e+00,3.356021404266357422e+00,3.324015855789184570e+00,3.292615413665771484e+00,3.261802673339843750e+00,3.231561422348022461e+00,3.201875686645507812e+00,3.172730207443237305e+00,3.144110441207885742e+00,3.116002798080444336e+00,3.088392972946166992e+00,3.061268329620361328e+00,3.034615516662597656e+00,3.008423089981079102e+00,2.982678890228271484e+00,2.957371711730957031e+00,2.932490348815917969e+00,2.908024311065673828e+00,2.883962869644165039e+00,2.860296487808227539e+00,2.837015151977539062e+00,2.814110040664672852e+00,2.791571378707885742e+00,2.769391298294067383e+00,2.747560739517211914e+00,2.726071834564208984e+00,2.704916238784790039e+00,2.684086561203002930e+00,2.663575172424316406e+00,2.643375158309936523e+00,2.623478889465332031e+00,2.603880167007446289e+00,2.584571838378906250e+00,2.565547704696655273e+00,2.546801805496215820e+00,2.528327703475952148e+00,2.510119915008544922e+00,2.492172479629516602e+00,2.474479675292968750e+00,2.457036495208740234e+00,2.439837455749511719e+00,2.422877550125122070e+00,2.406151533126831055e+00,2.389655113220214844e+00,2.373383283615112305e+00,2.357331752777099609e+00,2.341495513916015625e+00,2.325870990753173828e+00,2.310453414916992188e+00,2.295238971710205078e+00,2.280223369598388672e+00,2.265403270721435547e+00,2.250774383544921875e+00,2.236333131790161133e+00,2.222076177597045898e+00,2.207999706268310547e+00,2.194100618362426758e+00,2.180375576019287109e+00,7.456891536712646484e-01,7.253485918045043945e-01,7.087196111679077148e-01,7.004684209823608398e-01,6.924071907997131348e-01,6.845293641090393066e-01,6.768287420272827148e-01,6.693074703216552734e-01,6.650435328483581543e-01,6.625394821166992188e-01,6.602775454521179199e-01
3.794439315795898438e+00,3.753576755523681641e+00,3.713585138320922852e+00,3.674436569213867188e+00,3.636104583740234375e+00,3.598564386367797852e+00,3.561791181564331055e+00,3.525762319564819336e+00,3.490454673767089844e+00,3.455847263336181641e+00,3.421919107437133789e+00,3.388650894165039062e+00,3.356023550033569336e+00,3.324018239974975586e+00,3.292617797851562500e+00,3.261805057525634766e+00,3.231563568115234375e+00,3.201877593994140625e+00,3.172732114791870117e+00,3.144112586975097656e+00,3.116004467010498047e+00,3.088394641876220703e+00,3.061269998550415039e+00,3.034617424011230469e+00,3.008424997329711914e+00,2.982680797576904297e+00,2.957373619079589844e+00,2.932492256164550781e+00,2.908025979995727539e+00,2.883964538574218750e+00,2.860297918319702148e+00,2.837016582489013672e+00,2.814111471176147461e+00,2.791573047637939453e+00,2.769392967224121094e+00,2.747562408447265625e+00,2.726073265075683594e+00,2.704917907714843750e+00,2.684087991714477539e+00,2.663576602935791016e+00,2.643376350402832031e+00,2.623480081558227539e+00,2.603881359100341797e+00,2.584573030471801758e+00,2.565549135208129883e+00,2.546803236007690430e+00,2.528329133987426758e+00,2.510121345520019531e+00,2.492173671722412109e+00,2.474480867385864258e+00,2.457037448883056641e+00,2.439838409423828125e+00,2.422878503799438477e+00,2.406152725219726562e+00,2.389656305313110352e+00,2.373384475708007812e+00,2.357332706451416016e+00,2.341496706008911133e+00,2.325871706008911133e+00,2.310454130172729492e+00,2.295239448547363281e+00,2.280224084854125977e+00,2.265403747558593750e+00,2.250774860382080078e+00,2.236333608627319336e+00,2.222076654434204102e+00,2.208000183105468750e+00,2.194101095199584961e+00,7.530897259712219238e-01,7.323490381240844727e-01,7.148098349571228027e-01,7.060399055480957031e-01,6.977972984313964844e-01,6.897449493408203125e-01,6.819024682044982910e-01,6.742604970932006836e-01,6.687216758728027344e-01,6.663873791694641113e-01,6.640991568565368652e-01,6.618266105651855469e-01
3.794442415237426758e+00,3.753579854965209961e+00,3.713587999343872070e+00,3.674439191818237305e+00,3.636107444763183594e+00,3.598567247390747070e+00,3.561793804168701172e+00,3.525764465332031250e+00,3.490456819534301758e+00,3.455849409103393555e+00,3.421921491622924805e+00,3.388653278350830078e+00,3.356025695800781250e+00,3.324020624160766602e+00,3.292619943618774414e+00,3.261807203292846680e+00,3.231565713882446289e+00,3.201879501342773438e+00,3.172734022140502930e+00,3.144114255905151367e+00,3.116006374359130859e+00,3.088396549224853516e+00,3.061271905899047852e+00,3.034619331359863281e+00,3.008426904678344727e+00,2.982682704925537109e+00,2.957375526428222656e+00,2.932493686676025391e+00,2.908027410507202148e+00,2.883966207504272461e+00,2.860299587249755859e+00,2.837018251419067383e+00,2.814113140106201172e+00,2.791574716567993164e+00,2.769394397735595703e+00,2.747564077377319336e+00,2.726074695587158203e+00,2.704919099807739258e+00,2.684089183807373047e+00,2.663577556610107422e+00,2.643377304077148438e+00,2.623481273651123047e+00,2.603882312774658203e+00,2.584573984146118164e+00,2.565549850463867188e+00,2.546803951263427734e+00,2.528329849243164062e+00,2.510121822357177734e+00,2.492174148559570312e+00,2.474481344223022461e+00,2.457038164138793945e+00,2.439839124679565430e+00,2.422878980636596680e+00,2.406153202056884766e+00,2.389656782150268555e+00,2.373384952545166016e+00,2.357333183288574219e+00,2.341496944427490234e+00,2.325872182846069336e+00,2.310454607009887695e+00,2.295240163803100586e+00,2.280224561691284180e+00,2.265404462814331055e+00,2.250775575637817383e+00,2.236334323883056641e+00,2.222077369689941406e+00,2.208000898361206055e+00,2.194101810455322266e+00,7.394859194755554199e-01,7.213196158409118652e-01,7.117789387702941895e-01,7.034026384353637695e-01,6.952212452888488770e-01,6.872279047966003418e-01,6.794162988662719727e-01,6.729004383087158203e-01,6.702802777290344238e-01,6.679652929306030273e-01,6.656662225723266602e-01,6.633829474449157715e-01
3.794445276260375977e+00,3.753582715988159180e+00,3.713590860366821289e+00,3.674442052841186523e+00,3.636109828948974609e+00,3.598569393157958984e+00,3.561796188354492188e+00,3.525767087936401367e+00,3.490459442138671875e+00,3.455852031707763672e+00,3.421924114227294922e+00,3.388655662536621094e+00,3.356028079986572266e+00,3.324022531509399414e+00,3.292621850967407227e+00,3.261809110641479492e+00,3.231567621231079102e+00,3.201881647109985352e+00,3.172735452651977539e+00,3.144115924835205078e+00,3.116008043289184570e+00,3.088397979736328125e+00,3.061273097991943359e+00,3.034620285034179688e+00,3.008428096771240234e+00,2.982683897018432617e+00,2.957376241683959961e+00,2.932494878768920898e+00,2.908028602600097656e+00,2.883967161178588867e+00,2.860300540924072266e+00,2.837019205093383789e+00,2.814113855361938477e+00,2.791575431823730469e+00,2.769395112991333008e+00,2.747564315795898438e+00,2.726075172424316406e+00,2.704919815063476562e+00,2.684089899063110352e+00,2.663578510284423828e+00,2.643378257751464844e+00,2.623481988906860352e+00,2.603883028030395508e+00,2.584574937820434570e+00,2.565550565719604492e+00,2.546804666519165039e+00,2.528330564498901367e+00,2.510122776031494141e+00,2.492174863815307617e+00,2.474482059478759766e+00,2.457038879394531250e+00,2.439839839935302734e+00,2.422879934310913086e+00,2.406153917312622070e+00,2.389657258987426758e+00,2.373385667800903320e+00,2.357333898544311523e+00,2.341497659683227539e+00,2.325872898101806641e+00,2.310455322265625000e+00,2.295240879058837891e+00,2.280225276947021484e+00,2.265404939651489258e+00,2.250776052474975586e+00,2.236335039138793945e+00,2.222078084945678711e+00,2.208001375198364258e+00,7.467632293701171875e-01,7.279489636421203613e-01,7.181269526481628418e-01,7.090987563133239746e-01,7.007851004600524902e-01,6.926640868186950684e-01,6.847290992736816406e-01,6.778190135955810547e-01,6.750379800796508789e-01,6.722797155380249023e-01,6.695507168769836426e-01,6.672407388687133789e-01,6.649466156959533691e-01
3.794447660446166992e+00,3.753584623336791992e+00,3.713592529296875000e+00,3.674443960189819336e+00,3.636111974716186523e+00,3.598571062088012695e+00,3.561797857284545898e+00,3.525768756866455078e+00,3.490460872650146484e+00,3.455853462219238281e+00,3.421925067901611328e+00,3.388656854629516602e+00,3.356029272079467773e+00,3.324023962020874023e+00,3.292623043060302734e+00,3.261810064315795898e+00,3.231568574905395508e+00,3.201882600784301758e+00,3.172737121582031250e+00,3.144117116928100586e+00,3.116009235382080078e+00,3.088399171829223633e+00,3.061274528503417969e+00,3.034621477127075195e+00,3.008429050445556641e+00,2.982684850692749023e+00,2.957377672195434570e+00,2.932495832443237305e+00,2.908029556274414062e+00,2.883968114852905273e+00,2.860301494598388672e+00,2.837020397186279297e+00,2.814114809036254883e+00,2.791576385498046875e+00,2.769396066665649414e+00,2.747565507888793945e+00,2.726076126098632812e+00,2.704920530319213867e+00,2.684090852737426758e+00,2.663579463958740234e+00,2.643379211425781250e+00,2.623482704162597656e+00,2.603883981704711914e+00,2.584575653076171875e+00,2.565551519393920898e+00,2.546805381774902344e+00,2.528331279754638672e+00,2.510123491287231445e+00,2.492175817489624023e+00,2.474483013153076172e+00,2.457039594650268555e+00,2.439840555191040039e+00,2.422880649566650391e+00,2.406154632568359375e+00,2.389657974243164062e+00,2.373386144638061523e+00,2.357334613800048828e+00,2.341498374938964844e+00,2.325873613357543945e+00,2.310456037521362305e+00,2.295241355895996094e+00,2.280225992202758789e+00,2.265405893325805664e+00,2.250776767730712891e+00,2.236335515975952148e+00,2.222078561782836914e+00,7.541852593421936035e-01,7.347013950347900391e-01,7.246975302696228027e-01,7.149624824523925781e-01,7.064387202262878418e-01,6.981869339942932129e-01,6.901257038116455078e-01,6.828100085258483887e-01,6.799880266189575195e-01,6.771891713142395020e-01,6.744132637977600098e-01,6.716601252555847168e-01,6.689292788505554199e-01,6.759245991706848145e-01
3.794449329376220703e+00,3.753586530685424805e+00,3.713594198226928711e+00,3.674445390701293945e+00,3.636113405227661133e+00,3.598572969436645508e+00,3.561799287796020508e+00,3.525770187377929688e+00,3.490462303161621094e+00,3.455854892730712891e+00,3.421926975250244141e+00,3.388658285140991211e+00,3.356030702590942383e+00,3.324025392532348633e+00,3.292624473571777344e+00,3.261811494827270508e+00,3.231569766998291016e+00,3.201883792877197266e+00,3.172738313674926758e+00,3.144118547439575195e+00,3.116010189056396484e+00,3.088400363922119141e+00,3.061275482177734375e+00,3.034622907638549805e+00,3.008430242538452148e+00,2.982685804367065430e+00,2.957378625869750977e+00,2.932497024536132812e+00,2.908030509948730469e+00,2.883969068527221680e+00,2.860302686691284180e+00,2.837021350860595703e+00,2.814116001129150391e+00,2.791577339172363281e+00,2.769397020339965820e+00,2.747566461563110352e+00,2.726077318191528320e+00,2.704921483993530273e+00,2.684091806411743164e+00,2.663580179214477539e+00,2.643379926681518555e+00,2.623483896255493164e+00,2.603884696960449219e+00,2.584576368331909180e+00,2.565552473068237305e+00,2.546806335449218750e+00,2.528332233428955078e+00,2.510124206542968750e+00,2.492176532745361328e+00,2.474483728408813477e+00,2.457040309906005859e+00,2.439841270446777344e+00,2.422881364822387695e+00,2.406155347824096680e+00,2.389658927917480469e+00,2.373386859893798828e+00,2.357335329055786133e+00,2.341499090194702148e+00,2.325874328613281250e+00,2.310456514358520508e+00,2.295242071151733398e+00,2.280226707458496094e+00,2.265406370162963867e+00,2.250777482986450195e+00,2.236336231231689453e+00,2.222079277038574219e+00,7.415801882743835449e-01,7.313894033432006836e-01,7.214749455451965332e-01,7.121843695640563965e-01,7.037985324859619141e-01,6.956079602241516113e-01,6.878750920295715332e-01,6.850111484527587891e-01,6.821708679199218750e-01,6.793541312217712402e-01,6.765605211257934570e-01,6.737412810325622559e-01,6.790099740028381348e-01,6.882519721984863281e-01
3.794451236724853516e+00,3.753588438034057617e+00,3.713596343994140625e+00,3.674447059631347656e+00,3.636115074157714844e+00,3.598574638366699219e+00,3.561801195144653320e+00,3.525771617889404297e+00,3.490463733673095703e+00,3.455856323242187500e+00,3.421928405761718750e+00,3.388659954071044922e+00,3.356031894683837891e+00,3.324026584625244141e+00,3.292625904083251953e+00,3.261812925338745117e+00,3.231570959091186523e+00,3.201884984970092773e+00,3.172739505767822266e+00,3.144119739532470703e+00,3.116011619567871094e+00,3.088401556015014648e+00,3.061276674270629883e+00,3.034623861312866211e+00,3.008431434631347656e+00,2.982686996459960938e+00,2.957379579544067383e+00,2.932498216629028320e+00,2.908031940460205078e+00,2.883970022201538086e+00,2.860303640365600586e+00,2.837022304534912109e+00,2.814116716384887695e+00,2.791578292846679688e+00,2.769397974014282227e+00,2.747567415237426758e+00,2.726078033447265625e+00,2.704922676086425781e+00,2.684092521667480469e+00,2.663581132888793945e+00,2.643380880355834961e+00,2.623484611511230469e+00,2.603885650634765625e+00,2.584577322006225586e+00,2.565553188323974609e+00,2.546807289123535156e+00,2.528333187103271484e+00,2.510124921798706055e+00,2.492177248001098633e+00,2.474484443664550781e+00,2.457041263580322266e+00,2.439841985702514648e+00,2.422882080078125000e+00,2.406156063079833984e+00,2.389659643173217773e+00,2.373387813568115234e+00,2.357335805892944336e+00,2.341499805450439453e+00,2.325875043869018555e+00,2.310457468032836914e+00,2.295242786407470703e+00,2.280227184295654297e+00,2.265407085418701172e+00,2.250778198242187500e+00,2.236336946487426758e+00,7.485890388488769531e-01,7.382060885429382324e-01,7.281072735786437988e-01,7.182809710502624512e-01,7.095011472702026367e-01,7.011780738830566406e-01,6.930480003356933594e-01,6.901089549064636230e-01,6.872264146804809570e-01,6.843678355216979980e-01,6.815163493156433105e-01,6.786063313484191895e-01,6.826276183128356934e-01,6.917645931243896484e-01,7.011494636535644531e-01
3.794452905654907227e+00,3.753590106964111328e+00,3.713598012924194336e+00,3.674449205398559570e+00,3.636116504669189453e+00,3.598576068878173828e+00,3.561802625656127930e+00,3.525773525238037109e+00,3.490465402603149414e+00,3.455857753753662109e+00,3.421929597854614258e+00,3.388661384582519531e+00,3.356033563613891602e+00,3.324028015136718750e+00,3.292627096176147461e+00,3.261814355850219727e+00,3.231572628021240234e+00,3.201886415481567383e+00,3.172740697860717773e+00,3.144120931625366211e+00,3.116012811660766602e+00,3.088402986526489258e+00,3.061277866363525391e+00,3.034625053405761719e+00,3.008432626724243164e+00,2.982688188552856445e+00,2.957380771636962891e+00,2.932499170303344727e+00,2.908032894134521484e+00,2.883971214294433594e+00,2.860304594039916992e+00,2.837023258209228516e+00,2.814117670059204102e+00,2.791579246520996094e+00,2.769399166107177734e+00,2.747568130493164062e+00,2.726078987121582031e+00,2.704923391342163086e+00,2.684093713760375977e+00,2.663582086563110352e+00,2.643381595611572266e+00,2.623485565185546875e+00,2.603886604309082031e+00,2.584578275680541992e+00,2.565553903579711914e+00,2.546808004379272461e+00,2.528333902359008789e+00,2.510125875473022461e+00,2.492177963256835938e+00,2.474485158920288086e+00,2.457041978836059570e+00,2.439842700958251953e+00,2.422882795333862305e+00,2.406156778335571289e+00,2.389660358428955078e+00,2.373388528823852539e+00,2.357336759567260742e+00,2.341500282287597656e+00,2.325875759124755859e+00,2.310457944869995117e+00,2.295243501663208008e+00,2.280227899551391602e+00,2.265407562255859375e+00,2.250778675079345703e+00,7.557317018508911133e-01,7.451509833335876465e-01,7.348625659942626953e-01,7.248543500900268555e-01,7.152969241142272949e-01,7.068380713462829590e-01,6.985769867897033691e-01,6.952833533287048340e-01,6.923574805259704590e-01,6.894561052322387695e-01,6.864947676658630371e-01,6.835421919822692871e-01,6.862840056419372559e-01,6.955197453498840332e-01,7.050074934959411621e-01,2.040004491806030273e+00
3.777962923049926758e+00,3.753591775894165039e+00,3.713599681854248047e+00,3.674450635910034180e+00,3.636118650436401367e+00,3.598577737808227539e+00,3.561804294586181641e+00,3.525774955749511719e+00,3.490467071533203125e+00,3.455859184265136719e+00,3.421931028366088867e+00,3.388662815093994141e+00,3.356034994125366211e+00,3.324029684066772461e+00,3.292628526687622070e+00,3.261815547943115234e+00,3.231573820114135742e+00,3.201887845993041992e+00,3.172741889953613281e+00,3.144122123718261719e+00,3.116014003753662109e+00,3.088403940200805664e+00,3.061279296875000000e+00,3.034626245498657227e+00,3.008433580398559570e+00,2.982689380645751953e+00,2.957381963729858398e+00,2.932500123977661133e+00,2.908033847808837891e+00,2.883972406387329102e+00,2.860305786132812500e+00,2.837024211883544922e+00,2.814118623733520508e+00,2.791580200195312500e+00,2.769399881362915039e+00,2.747569322586059570e+00,2.726079940795898438e+00,2.704924345016479492e+00,2.684094429016113281e+00,2.663583040237426758e+00,2.643382549285888672e+00,2.623486280441284180e+00,2.603887319564819336e+00,2.584578990936279297e+00,2.565554857254028320e+00,2.546808719635009766e+00,2.528334617614746094e+00,2.510126590728759766e+00,2.492178916931152344e+00,2.474486112594604492e+00,2.457042694091796875e+00,2.439843416213989258e+00,2.422883510589599609e+00,2.406157493591308594e+00,2.389660835266113281e+00,2.373389005661010742e+00,2.357337474822998047e+00,2.341501235961914062e+00,2.325876235961914062e+00,2.310458660125732422e+00,2.295244216918945312e+00,2.280228614807128906e+00,2.265408277511596680e+00,7.630118727684020996e-01,7.522278428077697754e-01,7.417443990707397461e-01,7.315492033958435059e-01,7.216304540634155273e-01,7.125902175903320312e-01,7.041949033737182617e-01,7.005358934402465820e-01,6.975657343864440918e-01,6.945686936378479004e-01,6.915464401245117188e-01,6.885502934455871582e-01,6.899797916412353516e-01,6.993159055709838867e-01,7.089082598686218262e-01,2.052015304565429688e+00,2.040005207061767578e+00
3.084070682525634766e+00,3.083584547042846680e+00,3.083098411560058594e+00,3.082612514495849609e+00,3.082127094268798828e+00,3.081641674041748047e+00,3.081156253814697266e+00,3.080671072006225586e+00,3.080186128616333008e+00,3.079700946807861328e+00,3.079216241836547852e+00,3.078731775283813477e+00,3.078247308731079102e+00,3.077763080596923828e+00,3.077279090881347656e+00,3.076795101165771484e+00,3.076311111450195312e+00,3.075827360153198242e+00,3.075344085693359375e+00,3.074860572814941406e+00,3.074377536773681641e+00,3.073894500732421875e+00,3.061280250549316406e+00,3.034627437591552734e+00,3.008434772491455078e+00,2.982690334320068359e+00,2.957382917404174805e+00,2.932501554489135742e+00,2.908034801483154297e+00,2.883973360061645508e+00,2.860306739807128906e+00,2.837025403976440430e+00,2.814119577407836914e+00,2.791581153869628906e+00,2.769400835037231445e+00,2.747570276260375977e+00,2.726081132888793945e+00,2.704925298690795898e+00,2.684095382690429688e+00,2.663583993911743164e+00,2.643383502960205078e+00,2.623487234115600586e+00,2.603888034820556641e+00,2.584579944610595703e+00,2.565555810928344727e+00,2.546809673309326172e+00,2.528335332870483398e+00,2.510127544403076172e+00,2.492179632186889648e+00,2.474486827850341797e+00,2.457043409347534180e+00,2.439844131469726562e+00,2.422884225845336914e+00,2.406158208847045898e+00,2.389661550521850586e+00,2.373389720916748047e+00,2.357337951660156250e+00,2.341501951217651367e+00,2.325877189636230469e+00,2.310459375381469727e+00,2.295244693756103516e+00,2.280229330062866211e+00,2.265408992767333984e+00,2.250779867172241211e+00,7.487563490867614746e-01,7.383688092231750488e-01,7.282655239105224609e-01,7.184367775917053223e-01,7.099039554595947266e-01,7.058683633804321289e-01,7.028347253799438477e-01,6.997402906417846680e-01,6.966729760169982910e-01,6.936324238777160645e-01,6.948649883270263672e-01,7.031537890434265137e-01,7.128524184226989746e-01,2.064167976379394531e+00,2.052015781402587891e+00,2.040005683898925781e+00
2.605519056320190430e+00,2.605172157287597656e+00,2.604825019836425781e+00,2.604478359222412109e+00,2.604131698608398438e+00,2.603785037994384766e+00,2.603438615798950195e+00,2.603092193603515625e+00,2.602746009826660156e+00,2.602399826049804688e+00,2.602053403854370117e+00,2.601707458496093750e+00,2.601361513137817383e+00,2.601015806198120117e+00,2.600670099258422852e+00,2.600324392318725586e+00,2.599978923797607422e+00,2.599633216857910156e+00,2.599287748336791992e+00,2.598942518234252930e+00,2.598597288131713867e+00,2.598252296447753906e+00,2.597907304763793945e+00,2.597562313079833984e+00,2.597217321395874023e+00,2.596872568130493164e+00,2.596527814865112305e+00,2.596183300018310547e+00,2.595839023590087891e+00,2.595494508743286133e+00,2.595150232315063477e+00,2.594805955886840820e+00,2.594461917877197266e+00,2.594117879867553711e+00,2.593773841857910156e+00,2.593430042266845703e+00,2.593086481094360352e+00,2.592742681503295898e+00,2.592399120330810547e+00,2.592055559158325195e+00,2.591712236404418945e+00,2.591368913650512695e+00,2.591025829315185547e+00,2.584580659866333008e+00,2.565556526184082031e+00,2.546810388565063477e+00,2.528336286544799805e+00,2.510128259658813477e+00,2.492180585861206055e+00,2.474487543106079102e+00,2.457044363021850586e+00,2.439844846725463867e+00,2.422884941101074219e+00,2.406158924102783203e+00,2.389662504196166992e+00,2.373390436172485352e+00,2.357338666915893555e+00,2.341502428054809570e+00,2.325877666473388672e+00,2.310460090637207031e+00,2.295245409011840820e+00,2.280229806900024414e+00,2.265409708023071289e+00,7.660796046257019043e-01,7.551013231277465820e-01,7.350238561630249023e-01,7.250112891197204590e-01,7.157063484191894531e-01,7.112826704978942871e-01,7.081306576728820801e-01,7.049894928932189941e-01,7.018761038780212402e-01,6.987900733947753906e-01,6.998244524002075195e-01,7.070340514183044434e-01,2.088910102844238281e+00,2.076465845108032227e+00,2.064168691635131836e+00,2.052016258239746094e+00,2.040006160736083984e+00
2.255531072616577148e+00,2.255270957946777344e+00,2.255011081695556641e+00,2.254750967025756836e+00,2.254491329193115234e+00,2.254231452941894531e+00,2.253971815109252930e+00,2.253712177276611328e+00,2.253452539443969727e+00,2.253193140029907227e+00,2.252933502197265625e+00,2.252674102783203125e+00,2.252414703369140625e+00,2.252155542373657227e+00,2.251896381378173828e+00,2.251637220382690430e+00,2.251378059387207031e+00,2.251119136810302734e+00,2.250859975814819336e+00,2.250601053237915039e+00,2.250342130661010742e+00,2.250083446502685547e+00,2.249824523925781250e+00,2.249565839767456055e+00,2.249307155609130859e+00,2.249048471450805664e+00,2.248790025711059570e+00,2.248531579971313477e+00,2.248273372650146484e+00,2.248014926910400391e+00,2.247756719589233398e+00,2.247498512268066406e+00,2.247240066528320312e+00,2.246982097625732422e+00,2.246724128723144531e+00,2.246466159820556641e+00,2.246208190917968750e+00,2.245950460433959961e+00,2.245692491531372070e+00,2.245434522628784180e+00,2.245177030563354492e+00,2.244919300079345703e+00,2.244661808013916016e+00,2.244404315948486328e+00,2.244146823883056641e+00,2.243889570236206055e+00,2.243632078170776367e+00,2.243374824523925781e+00,2.243117570877075195e+00,2.242860555648803711e+00,2.242603302001953125e+00,2.242346286773681641e+00,2.242089271545410156e+00,2.241832256317138672e+00,2.241575479507446289e+00,2.241318702697753906e+00,2.241061925888061523e+00,2.240805387496948242e+00,2.240548610687255859e+00,2.240292072296142578e+00,2.240035533905029297e+00,7.822371721267700195e-01,7.687529921531677246e-01,7.575994729995727539e-01,7.475215196609497070e-01,7.401818037033081055e-01,7.217859029769897461e-01,7.167247533798217773e-01,7.135070562362670898e-01,7.103180885314941406e-01,7.071575522422790527e-01,7.040250301361083984e-01,7.048552036285400391e-01,7.109572887420654297e-01,2.101505279541015625e+00,2.088910818099975586e+00,2.076466321945190430e+00,2.064169168472290039e+00,2.052016973495483398e+00,2.040006637573242188e+00
1.988433361053466797e+00,1.988231420516967773e+00,1.988029241561889648e+00,1.987827420234680176e+00,1.987625360488891602e+00,1.987423300743103027e+00,1.987221598625183105e+00,1.987019658088684082e+00,1.986817955970764160e+00,1.986616134643554688e+00,1.986414551734924316e+00,1.986212849617004395e+00,1.986011147499084473e+00,1.985809683799743652e+00,1.985607981681823730e+00,1.985406637191772461e+00,1.985205054283142090e+00,1.985003829002380371e+00,1.984802365303039551e+00,1.984600901603698730e+00,1.984399676322937012e+00,1.984198331832885742e+00,1.983997225761413574e+00,1.983795881271362305e+00,1.983594894409179688e+00,1.983393788337707520e+00,1.983192563056945801e+00,1.982991695404052734e+00,1.982790589332580566e+00,1.982589840888977051e+00,1.982388854026794434e+00,1.982188105583190918e+00,1.981987237930297852e+00,1.981786370277404785e+00,1.981585741043090820e+00,1.981384873390197754e+00,1.981184363365173340e+00,1.980983734130859375e+00,1.980783224105834961e+00,1.980582594871520996e+00,1.980382084846496582e+00,1.980181694030761719e+00,1.979981184005737305e+00,1.979780912399291992e+00,1.979580521583557129e+00,1.979380369186401367e+00,1.979179978370666504e+00,1.978979706764221191e+00,1.978779673576354980e+00,1.978579521179199219e+00,1.978379487991333008e+00,1.978179335594177246e+00,1.977979540824890137e+00,1.977779388427734375e+00,1.977579355239868164e+00,1.977379679679870605e+00,1.977179646492004395e+00,1.976979970932006836e+00,1.976780176162719727e+00,1.976580619812011719e+00,7.823251485824584961e-01,7.706387639045715332e-01,7.598996758460998535e-01,7.501128911972045898e-01,7.418333888053894043e-01,7.355293631553649902e-01,7.300022244453430176e-01,7.277454733848571777e-01,7.157278656959533691e-01,7.125190496444702148e-01,7.093389630317687988e-01,7.099587917327880859e-01,7.149243950843811035e-01,1.973788738250732422e+00,1.973589420318603516e+00,1.973390340805053711e+00,1.973191380500793457e+00,1.972992300987243652e+00,1.972793459892272949e+00,1.972594499588012695e+00
1.777896881103515625e+00,1.777735233306884766e+00,1.777573823928833008e+00,1.777412176132202148e+00,1.777250885963439941e+00,1.777089357376098633e+00,1.776927828788757324e+00,1.776766538619995117e+00,1.776605129241943359e+00,1.776443958282470703e+00,1.776282548904418945e+00,1.776121377944946289e+00,1.775960087776184082e+00,1.775798797607421875e+00,1.775637745857238770e+00,1.775476574897766113e+00,1.775315523147583008e+00,1.775154352188110352e+00,1.774993419647216797e+00,1.774832248687744141e+00,1.774671196937561035e+00,1.774510383605957031e+00,1.774349331855773926e+00,1.774188518524169922e+00,1.774027585983276367e+00,1.773866772651672363e+00,1.773705840110778809e+00,1.773545026779174805e+00,1.773384332656860352e+00,1.773223519325256348e+00,1.773062944412231445e+00,1.772902131080627441e+00,1.772741675376892090e+00,1.772580981254577637e+00,1.772420287132263184e+00,1.772259831428527832e+00,1.772099137306213379e+00,1.771938800811767578e+00,1.771778225898742676e+00,1.771617889404296875e+00,1.771457433700561523e+00,1.771296858787536621e+00,1.771136641502380371e+00,1.770976185798645020e+00,1.770816087722778320e+00,1.770655632019042969e+00,1.770495533943176270e+00,1.770335197448730469e+00,1.770174980163574219e+00,1.770014882087707520e+00,1.769854784011840820e+00,1.769694685935974121e+00,1.769534587860107422e+00,1.769374608993530273e+00,1.769214510917663574e+00,1.769054532051086426e+00,1.768894672393798828e+00,1.768734574317932129e+00,1.768574833869934082e+00,7.821267247200012207e-01,7.730075120925903320e-01,7.653287649154663086e-01,7.575848102569580078e-01,7.483108043670654297e-01,7.395079135894775391e-01,7.324331402778625488e-01,7.300849556922912598e-01,7.279754281044006348e-01,7.310119867324829102e-01,7.321794033050537109e-01,7.151368260383605957e-01,7.189432382583618164e-01,1.766339302062988281e+00,1.766179800033569336e+00,1.766020417213439941e+00,1.765861034393310547e+00,1.765701532363891602e+00,1.765542268753051758e+00,1.765382885932922363e+00,1.765223741531372070e+00
1.607675075531005859e+00,1.607542991638183594e+00,1.607410907745361328e+00,1.607278943061828613e+00,1.607146859169006348e+00,1.607014894485473633e+00,1.606882810592651367e+00,1.606750845909118652e+00,1.606618881225585938e+00,1.606486916542053223e+00,1.606355071067810059e+00,1.606223225593566895e+00,1.606091380119323730e+00,1.605959534645080566e+00,1.605827569961547852e+00,1.605695843696594238e+00,1.605563998222351074e+00,1.605432391166687012e+00,1.605300545692443848e+00,1.605168938636779785e+00,1.605037212371826172e+00,1.604905486106872559e+00,1.604773879051208496e+00,1.604642152786254883e+00,1.604510664939880371e+00,1.604379057884216309e+00,1.604247570037841797e+00,1.604115962982177734e+00,1.603984355926513672e+00,1.603852987289428711e+00,1.603721380233764648e+00,1.603590011596679688e+00,1.603458523750305176e+00,1.603327274322509766e+00,1.603195786476135254e+00,1.603064298629760742e+00,1.602933049201965332e+00,1.602801680564880371e+00,1.602670431137084961e+00,1.602539181709289551e+00,1.602407932281494141e+00,1.602276682853698730e+00,1.602145433425903320e+00,1.602014303207397461e+00,1.601883053779602051e+00,1.601751923561096191e+00,1.601620793342590332e+00,1.601489782333374023e+00,1.601358652114868164e+00,1.601227521896362305e+00,1.601096510887145996e+00,1.600965380668640137e+00,1.600834488868713379e+00,1.600703477859497070e+00,1.600572586059570312e+00,1.600441575050354004e+00,1.600310683250427246e+00,1.600179791450500488e+00,7.916021347045898438e-01,7.752847671508789062e-01,7.677261829376220703e-01,7.605817317962646484e-01,7.530899643898010254e-01,7.452012300491333008e-01,7.364442348480224609e-01,7.307381629943847656e-01,7.298393249511718750e-01,7.299108505249023438e-01,7.310339212417602539e-01,1.598610639572143555e+00,1.598479986190795898e+00,1.598349213600158691e+00,1.598218560218811035e+00,1.598087787628173828e+00,1.597957253456115723e+00,1.597826480865478516e+00,1.597695946693420410e+00,1.597565174102783203e+00,1.597434520721435547e+00,1.597304105758666992e+00
1.467200517654418945e+00,1.467090487480163574e+00,1.466980457305908203e+00,1.466870427131652832e+00,1.466760516166687012e+00,1.466650485992431641e+00,1.466540694236755371e+00,1.466430664062500000e+00,1.466320753097534180e+00,1.466210842132568359e+00,1.466100931167602539e+00,1.465991139411926270e+00,1.465881228446960449e+00,1.465771436691284180e+00,1.465661644935607910e+00,1.465551733970642090e+00,1.465442061424255371e+00,1.465332269668579102e+00,1.465222597122192383e+00,1.465112805366516113e+00,1.465003132820129395e+00,1.464893341064453125e+00,1.464783668518066406e+00,1.464674115180969238e+00,1.464564323425292969e+00,1.464454770088195801e+00,1.464345097541809082e+00,1.464235544204711914e+00,1.464125990867614746e+00,1.464016318321228027e+00,1.463906884193420410e+00,1.463797330856323242e+00,1.463687777519226074e+00,1.463578224182128906e+00,1.463468909263610840e+00,1.463359355926513672e+00,1.463249802589416504e+00,1.463140487670898438e+00,1.463031053543090820e+00,1.462921619415283203e+00,1.462812185287475586e+00,1.462702989578247070e+00,1.462593555450439453e+00,1.462484121322631836e+00,1.462374925613403320e+00,1.462265491485595703e+00,1.462156295776367188e+00,1.462046980857849121e+00,1.461937785148620605e+00,1.461828589439392090e+00,1.461719274520874023e+00,1.461610078811645508e+00,1.461500883102416992e+00,1.461391806602478027e+00,1.461282610893249512e+00,1.461173534393310547e+00,1.461064338684082031e+00,1.460955142974853516e+00,7.935956120491027832e-01,7.729004025459289551e-01,7.645849585533142090e-01,7.566227912902832031e-01,7.492967247962951660e-01,7.421560287475585938e-01,7.343102097511291504e-01,7.285938858985900879e-01,7.283090949058532715e-01,7.286434769630432129e-01,7.330566048622131348e-01,1.459645867347717285e+00,1.459536910057067871e+00,1.459427833557128906e+00,1.459318757057189941e+00,1.459209918975830078e+00,1.459100842475891113e+00,1.458992004394531250e+00,1.458883047103881836e+00,1.458774209022521973e+00,1.458665251731872559e+00,1.458556294441223145e+00
1.349301934242248535e+00,1.349208831787109375e+00,1.349115729331970215e+00,1.349022746086120605e+00,1.348929643630981445e+00,1.348836779594421387e+00,1.348743677139282227e+00,1.348650813102722168e+00,1.348557829856872559e+00,1.348464727401733398e+00,1.348371863365173340e+00,1.348278880119323730e+00,1.348186135292053223e+00,1.348093152046203613e+00,1.348000288009643555e+00,1.347907423973083496e+00,1.347814440727233887e+00,1.347721695899963379e+00,1.347628831863403320e+00,1.347536087036132812e+00,1.347443222999572754e+00,1.347350478172302246e+00,1.347257614135742188e+00,1.347164869308471680e+00,1.347072124481201172e+00,1.346979379653930664e+00,1.346886634826660156e+00,1.346793889999389648e+00,1.346701264381408691e+00,1.346608519554138184e+00,1.346515774726867676e+00,1.346423149108886719e+00,1.346330523490905762e+00,1.346237897872924805e+00,1.346145272254943848e+00,1.346052646636962891e+00,1.345960021018981934e+00,1.345867395401000977e+00,1.345774888992309570e+00,1.345682263374328613e+00,1.345589756965637207e+00,1.345497131347656250e+00,1.345404624938964844e+00,1.345312118530273438e+00,1.345219612121582031e+00,1.345127105712890625e+00,1.345034599304199219e+00,1.344942212104797363e+00,1.344849705696105957e+00,1.344757080078125000e+00,1.344664573669433594e+00,1.344572067260742188e+00,1.344479560852050781e+00,1.344387054443359375e+00,1.344294667243957520e+00,1.344202160835266113e+00,1.344109654426574707e+00,1.344017267227172852e+00,1.343924760818481445e+00,7.746504545211791992e-01,7.622419595718383789e-01,7.551523447036743164e-01,7.483285665512084961e-01,7.412602901458740234e-01,7.327137589454650879e-01,7.264621257781982422e-01,7.256507277488708496e-01,7.230546474456787109e-01,7.293962240219116211e-01,1.342908859252929688e+00,1.342816472053527832e+00,1.342724323272705078e+00,1.342631936073303223e+00,1.342539787292480469e+00,1.342447519302368164e+00,1.342355251312255859e+00,1.342263102531433105e+00,1.342170834541320801e+00,1.342078685760498047e+00,1.341986536979675293e+00
1.248941659927368164e+00,1.248862028121948242e+00,1.248782277107238770e+00,1.248702526092529297e+00,1.248622894287109375e+00,1.248543143272399902e+00,1.248463511466979980e+00,1.248383760452270508e+00,1.248304247856140137e+00,1.248224496841430664e+00,1.248144865036010742e+00,1.248065233230590820e+00,1.247985601425170898e+00,1.247906088829040527e+00,1.247826457023620605e+00,1.247746944427490234e+00,1.247667312622070312e+00,1.247587680816650391e+00,1.247508168220520020e+00,1.247428655624389648e+00,1.247349143028259277e+00,1.247269511222839355e+00,1.247190117835998535e+00,1.247110605239868164e+00,1.247030973434448242e+00,1.246951580047607422e+00,1.246872067451477051e+00,1.246792674064636230e+00,1.246713161468505859e+00,1.246633768081665039e+00,1.246554255485534668e+00,1.246474862098693848e+00,1.246395468711853027e+00,1.246316075325012207e+00,1.246236681938171387e+00,1.246157288551330566e+00,1.246077895164489746e+00,1.245998501777648926e+00,1.245919108390808105e+00,1.245839715003967285e+00,1.245760202407836914e+00,1.245680809020996094e+00,1.245601415634155273e+00,1.245522022247314453e+00,1.245442628860473633e+00,1.245363235473632812e+00,1.245283961296081543e+00,1.245204567909240723e+00,1.245125293731689453e+00,1.245045900344848633e+00,1.244966506958007812e+00,1.244887232780456543e+00,1.244807958602905273e+00,1.244728684425354004e+00,1.244649291038513184e+00,1.244570136070251465e+00,1.244490861892700195e+00,1.244411468505859375e+00,1.244332313537597656e+00,1.244253039360046387e+00,7.670934200286865234e-01,7.551524043083190918e-01,7.486196160316467285e-01,7.414456009864807129e-01,7.330583930015563965e-01,7.243148684501647949e-01,7.207069993019104004e-01,7.175540924072265625e-01,7.192035317420959473e-01,1.243461251258850098e+00,1.243382215499877930e+00,1.243303060531616211e+00,1.243224024772644043e+00,1.243144869804382324e+00,1.243065834045410156e+00,1.242986798286437988e+00,1.242907643318176270e+00,1.242828607559204102e+00,1.242749571800231934e+00,1.242670655250549316e+00
1.162477493286132812e+00,1.162408351898193359e+00,1.162339210510253906e+00,1.162270188331604004e+00,1.162201166152954102e+00,1.162132143974304199e+00,1.162063121795654297e+00,1.161994099617004395e+00,1.161925077438354492e+00,1.161856174468994141e+00,1.161787152290344238e+00,1.161718130111694336e+00,1.161649107933044434e+00,1.161580085754394531e+00,1.161511182785034180e+00,1.161442160606384277e+00,1.161373257637023926e+00,1.161304354667663574e+00,1.161235332489013672e+00,1.161166548728942871e+00,1.161097526550292969e+00,1.161028742790222168e+00,1.160959720611572266e+00,1.160890936851501465e+00,1.160822033882141113e+00,1.160753130912780762e+00,1.160684227943420410e+00,1.160615324974060059e+00,1.160546422004699707e+00,1.160477399826049805e+00,1.160408616065979004e+00,1.160339593887329102e+00,1.160270810127258301e+00,1.160201907157897949e+00,1.160132884979248047e+00,1.160064101219177246e+00,1.159995198249816895e+00,1.159926414489746094e+00,1.159857511520385742e+00,1.159788608551025391e+00,1.159719824790954590e+00,1.159651041030883789e+00,1.159582257270812988e+00,1.159513354301452637e+00,1.159444570541381836e+00,1.159375786781311035e+00,1.159307003021240234e+00,1.159238219261169434e+00,1.159169435501098633e+00,1.159100770950317383e+00,1.159031987190246582e+00,1.158963203430175781e+00,1.158894419670104980e+00,1.158825755119323730e+00,1.158757090568542480e+00,1.158688306808471680e+00,1.158619642257690430e+00,1.158550858497619629e+00,1.158482193946838379e+00,1.158413529396057129e+00,1.158344864845275879e+00,1.158276319503784180e+00,7.569447159767150879e-01,7.417900562286376953e-01,7.339817881584167480e-01,7.254335284233093262e-01,7.177481651306152344e-01,7.125395536422729492e-01,7.112719416618347168e-01,7.173511385917663574e-01,1.157658696174621582e+00,1.157590150833129883e+00,1.157521486282348633e+00,1.157452940940856934e+00,1.157384395599365234e+00,1.157315850257873535e+00,1.157247304916381836e+00,1.157178759574890137e+00,1.157110333442687988e+00,1.157041788101196289e+00
1.087209820747375488e+00,1.087149381637573242e+00,1.087088942527770996e+00,1.087028503417968750e+00,1.086968183517456055e+00,1.086907744407653809e+00,1.086847424507141113e+00,1.086786985397338867e+00,1.086726665496826172e+00,1.086666345596313477e+00,1.086605906486511230e+00,1.086545586585998535e+00,1.086485266685485840e+00,1.086424946784973145e+00,1.086364626884460449e+00,1.086304306983947754e+00,1.086243867874145508e+00,1.086183547973632812e+00,1.086123108863830566e+00,1.086062788963317871e+00,1.086002469062805176e+00,1.085942149162292480e+00,1.085881710052490234e+00,1.085821390151977539e+00,1.085761070251464844e+00,1.085700750350952148e+00,1.085640430450439453e+00,1.085580110549926758e+00,1.085519909858703613e+00,1.085459470748901367e+00,1.085399150848388672e+00,1.085338950157165527e+00,1.085278630256652832e+00,1.085218429565429688e+00,1.085158109664916992e+00,1.085097789764404297e+00,1.085037589073181152e+00,1.084977388381958008e+00,1.084917187690734863e+00,1.084856867790222168e+00,1.084796667098999023e+00,1.084736466407775879e+00,1.084676146507263184e+00,1.084616065025329590e+00,1.084555864334106445e+00,1.084495663642883301e+00,1.084435462951660156e+00,1.084375262260437012e+00,1.084315061569213867e+00,1.084254860877990723e+00,1.084194779396057129e+00,1.084134578704833984e+00,1.084074497222900391e+00,1.084014296531677246e+00,1.083954215049743652e+00,1.083894133567810059e+00,1.083833932876586914e+00,1.083773851394653320e+00,1.083713769912719727e+00,1.083653688430786133e+00,1.083593606948852539e+00,1.083533406257629395e+00,1.083473443984985352e+00,1.083413362503051758e+00,7.361593246459960938e-01,7.263384461402893066e-01,7.177621722221374512e-01,7.091454267501831055e-01,7.055636644363403320e-01,7.061812281608581543e-01,1.082993030548095703e+00,1.082933068275451660e+00,1.082872986793518066e+00,1.082812905311584473e+00,1.082752943038940430e+00,1.082692980766296387e+00,1.082633018493652344e+00,1.082573056221008301e+00,1.082512974739074707e+00,1.082453131675720215e+00
1.021096348762512207e+00,1.021042943000793457e+00,1.020989775657653809e+00,1.020936489105224609e+00,1.020883083343505859e+00,1.020829916000366211e+00,1.020776510238647461e+00,1.020723223686218262e+00,1.020669937133789062e+00,1.020616650581359863e+00,1.020563364028930664e+00,1.020509958267211914e+00,1.020456671714782715e+00,1.020403385162353516e+00,1.020350098609924316e+00,1.020296931266784668e+00,1.020243525505065918e+00,1.020190358161926270e+00,1.020137071609497070e+00,1.020083785057067871e+00,1.020030617713928223e+00,1.019977331161499023e+00,1.019924163818359375e+00,1.019870877265930176e+00,1.019817590713500977e+00,1.019764423370361328e+00,1.019711136817932129e+00,1.019657969474792480e+00,1.019604802131652832e+00,1.019551634788513184e+00,1.019498348236083984e+00,1.019445180892944336e+00,1.019392013549804688e+00,1.019338846206665039e+00,1.019285678863525391e+00,1.019232511520385742e+00,1.019179344177246094e+00,1.019126176834106445e+00,1.019073009490966797e+00,1.019019961357116699e+00,1.018966794013977051e+00,1.018913626670837402e+00,1.018860459327697754e+00,1.018807411193847656e+00,1.018754243850708008e+00,1.018701195716857910e+00,1.018648028373718262e+00,1.018594980239868164e+00,1.018541932106018066e+00,1.018488764762878418e+00,1.018435716629028320e+00,1.018382668495178223e+00,1.018329501152038574e+00,1.018276453018188477e+00,1.018223404884338379e+00,1.018170356750488281e+00,1.018117308616638184e+00,1.018064260482788086e+00,1.018011212348937988e+00,1.017958164215087891e+00,1.017905235290527344e+00,1.017852187156677246e+00,1.017799139022827148e+00,1.017746090888977051e+00,1.017693161964416504e+00,7.421409487724304199e-01,7.184690237045288086e-01,7.067490220069885254e-01,7.007499337196350098e-01,6.990864276885986328e-01,7.046793699264526367e-01,1.017322182655334473e+00,1.017269253730773926e+00,1.017216324806213379e+00,1.017163395881652832e+00,1.017110466957092285e+00,1.017057418823242188e+00,1.017004609107971191e+00,1.016951680183410645e+00,1.016898751258850098e+00
9.625623226165771484e-01,9.625149369239807129e-01,9.624675512313842773e-01,9.624200463294982910e-01,9.623726606369018555e-01,9.623253345489501953e-01,9.622779488563537598e-01,9.622305035591125488e-01,9.621831178665161133e-01,9.621357917785644531e-01,9.620883464813232422e-01,9.620410203933715820e-01,9.619936943054199219e-01,9.619462490081787109e-01,9.618989229202270508e-01,9.618515968322753906e-01,9.618043303489685059e-01,9.617568850517272949e-01,9.617096185684204102e-01,9.616622924804687500e-01,9.616149067878723145e-01,9.615675806999206543e-01,9.615203142166137695e-01,9.614730477333068848e-01,9.614256620407104492e-01,9.613783955574035645e-01,9.613311290740966797e-01,9.612837433815002441e-01,9.612365365028381348e-01,9.611892700195312500e-01,9.611420035362243652e-01,9.610946774482727051e-01,9.610474109649658203e-01,9.610002040863037109e-01,9.609528779983520508e-01,9.609056115150451660e-01,9.608584046363830566e-01,9.608111977577209473e-01,9.607638716697692871e-01,9.607166647911071777e-01,9.606694579124450684e-01,9.606221914291381836e-01,9.605749845504760742e-01,9.605277776718139648e-01,9.604805111885070801e-01,9.604333639144897461e-01,9.603861570358276367e-01,9.603390097618103027e-01,9.602917432785034180e-01,9.602445960044860840e-01,9.601973891258239746e-01,9.601501226425170898e-01,9.601030349731445312e-01,9.600558876991271973e-01,9.600087404251098633e-01,9.599614739418029785e-01,9.599143862724304199e-01,9.598672389984130859e-01,9.598200321197509766e-01,9.597728848457336426e-01,9.597257971763610840e-01,9.596787095069885254e-01,9.596315026283264160e-01,9.595844149589538574e-01,9.595373272895812988e-01,9.594901204109191895e-01,7.364104390144348145e-01,7.045478224754333496e-01,6.958696842193603516e-01,6.928404569625854492e-01,6.923758983612060547e-01,9.592075943946838379e-01,9.591604471206665039e-01,9.591134190559387207e-01,9.590663313865661621e-01,9.590191841125488281e-01,9.589721560478210449e-01,9.589251279830932617e-01,9.588780999183654785e-01,9.588310122489929199e-01
9.103751182556152344e-01,9.103326797485351562e-01,9.102903008460998535e-01,9.102479219436645508e-01,9.102054238319396973e-01,9.101630449295043945e-01,9.101207256317138672e-01,9.100783467292785645e-01,9.100359082221984863e-01,9.099935293197631836e-01,9.099512100219726562e-01,9.099087715148925781e-01,9.098663926124572754e-01,9.098240733146667480e-01,9.097817540168762207e-01,9.097393155097961426e-01,9.096969962120056152e-01,9.096546769142150879e-01,9.096122384071350098e-01,9.095699191093444824e-01,9.095276594161987305e-01,9.094852209091186523e-01,9.094429612159729004e-01,9.094006419181823730e-01,9.093583226203918457e-01,9.093159437179565430e-01,9.092736840248107910e-01,9.092314243316650391e-01,9.091890454292297363e-01,9.091467261314392090e-01,9.091044664382934570e-01,9.090622067451477051e-01,9.090198874473571777e-01,9.089776277542114258e-01,9.089353680610656738e-01,9.088929891586303711e-01,9.088507890701293945e-01,9.088085293769836426e-01,9.087662696838378906e-01,9.087239503860473633e-01,9.086817502975463867e-01,9.086394906044006348e-01,9.085971713066101074e-01,9.085549712181091309e-01,9.085127711296081543e-01,9.084705114364624023e-01,9.084282517433166504e-01,9.083860516548156738e-01,9.083438515663146973e-01,9.083015322685241699e-01,9.082593321800231934e-01,9.082171916961669922e-01,9.081748723983764648e-01,9.081327319145202637e-01,9.080905318260192871e-01,9.080483913421630859e-01,9.080061316490173340e-01,9.079639315605163574e-01,9.079217910766601562e-01,9.078795313835144043e-01,9.078373908996582031e-01,9.077952504158020020e-01,9.077531099319458008e-01,9.077108502388000488e-01,9.076687097549438477e-01,9.076265692710876465e-01,9.075843691825866699e-01,7.058688998222351074e-01,6.926707029342651367e-01,6.869910359382629395e-01,6.853312253952026367e-01,6.877257227897644043e-01,9.073315858840942383e-01,9.072893857955932617e-01,9.072473049163818359e-01,9.072052240371704102e-01,9.071631431579589844e-01,9.071209430694580078e-01,9.070788621902465820e-01,9.070367813110351562e-01
8.635557293891906738e-01,8.635175824165344238e-01,8.634793758392333984e-01,8.634412288665771484e-01,8.634031414985656738e-01,8.633649349212646484e-01,8.633267879486083984e-01,8.632887005805969238e-01,8.632505536079406738e-01,8.632123470306396484e-01,8.631742596626281738e-01,8.631361722946166992e-01,8.630979657173156738e-01,8.630598783493041992e-01,8.630217909812927246e-01,8.629837036132812500e-01,8.629454970359802246e-01,8.629074096679687500e-01,8.628693819046020508e-01,8.628311753273010254e-01,8.627931475639343262e-01,8.627550601959228516e-01,8.627169132232666016e-01,8.626788258552551270e-01,8.626407980918884277e-01,8.626027107238769531e-01,8.625645637512207031e-01,8.625265359878540039e-01,8.624885082244873047e-01,8.624503612518310547e-01,8.624123334884643555e-01,8.623743057250976562e-01,8.623362779617309570e-01,8.622981309890747070e-01,8.622601032257080078e-01,8.622220754623413086e-01,8.621839880943298340e-01,8.621459603309631348e-01,8.621079921722412109e-01,8.620699644088745117e-01,8.620318770408630371e-01,8.619938492774963379e-01,8.619558811187744141e-01,8.619177937507629395e-01,8.618797659873962402e-01,8.618417978286743164e-01,8.618038296699523926e-01,8.617657423019409180e-01,8.617277741432189941e-01,8.616898059844970703e-01,8.616517186164855957e-01,8.616137504577636719e-01,8.615757822990417480e-01,8.615377545356750488e-01,8.614997863769531250e-01,8.614618182182312012e-01,8.614239096641540527e-01,8.613858819007873535e-01,8.613479137420654297e-01,8.613100051879882812e-01,8.612719774246215820e-01,8.612340092658996582e-01,8.611961007118225098e-01,8.611581325531005859e-01,8.611201643943786621e-01,8.610822558403015137e-01,8.610442876815795898e-01,8.610063195228576660e-01,6.897981166839599609e-01,6.840004324913024902e-01,6.807344555854797363e-01,6.806425452232360840e-01,8.608167171478271484e-01,8.607788085937500000e-01,8.607408404350280762e-01,8.607029318809509277e-01,8.606650829315185547e-01,8.606271743774414062e-01,8.605892062187194824e-01,8.605513572692871094e-01
8.213164806365966797e-01,8.212819695472717285e-01,8.212475180625915527e-01,8.212129473686218262e-01,8.211784362792968750e-01,8.211439847946166992e-01,8.211094141006469727e-01,8.210749030113220215e-01,8.210404515266418457e-01,8.210060000419616699e-01,8.209714293479919434e-01,8.209369778633117676e-01,8.209024667739868164e-01,8.208679556846618652e-01,8.208335041999816895e-01,8.207990527153015137e-01,8.207646012306213379e-01,8.207300305366516113e-01,8.206956386566162109e-01,8.206611871719360352e-01,8.206266760826110840e-01,8.205922245979309082e-01,8.205577731132507324e-01,8.205233216285705566e-01,8.204888105392456055e-01,8.204544186592102051e-01,8.204199671745300293e-01,8.203855156898498535e-01,8.203510642051696777e-01,8.203166723251342773e-01,8.202821612358093262e-01,8.202477693557739258e-01,8.202133774757385254e-01,8.201789259910583496e-01,8.201444745063781738e-01,8.201100826263427734e-01,8.200756907463073730e-01,8.200411796569824219e-01,8.200067877769470215e-01,8.199723958969116211e-01,8.199380636215209961e-01,8.199035525321960449e-01,8.198692202568054199e-01,8.198348283767700195e-01,8.198003768920898438e-01,8.197659850120544434e-01,8.197316527366638184e-01,8.196972608566284180e-01,8.196628093719482422e-01,8.196284770965576172e-01,8.195941448211669922e-01,8.195596933364868164e-01,8.195253610610961914e-01,8.194909691810607910e-01,8.194566369056701660e-01,8.194222450256347656e-01,8.193879127502441406e-01,8.193535804748535156e-01,8.193191289901733398e-01,8.192847967147827148e-01,8.192505240440368652e-01,8.192160725593566895e-01,8.191817998886108398e-01,8.191474676132202148e-01,8.191131353378295898e-01,8.190787434577941895e-01,8.190444707870483398e-01,8.190101385116577148e-01,6.942995190620422363e-01,6.820895075798034668e-01,6.775329113006591797e-01,6.750921010971069336e-01,6.731280684471130371e-01,6.730604767799377441e-01,8.187699317932128906e-01,8.187355399131774902e-01,8.187012672424316406e-01,8.186669945716857910e-01,8.186327219009399414e-01,8.185983896255493164e-01
7.830167412757873535e-01,7.829853296279907227e-01,7.829539775848388672e-01,7.829226255416870117e-01,7.828912138938903809e-01,7.828598618507385254e-01,7.828285098075866699e-01,7.827970981597900391e-01,7.827658057212829590e-01,7.827344536781311035e-01,7.827031016349792480e-01,7.826716899871826172e-01,7.826403975486755371e-01,7.826090455055236816e-01,7.825776934623718262e-01,7.825463414192199707e-01,7.825150489807128906e-01,7.824836969375610352e-01,7.824523448944091797e-01,7.824210524559020996e-01,7.823897004127502441e-01,7.823583483695983887e-01,7.823270559310913086e-01,7.822957634925842285e-01,7.822644710540771484e-01,7.822330594062805176e-01,7.822017669677734375e-01,7.821704745292663574e-01,7.821391224861145020e-01,7.821078300476074219e-01,7.820765972137451172e-01,7.820453047752380371e-01,7.820139527320861816e-01,7.819826602935791016e-01,7.819513678550720215e-01,7.819200754165649414e-01,7.818887829780578613e-01,7.818575501441955566e-01,7.818261981010437012e-01,7.817949056625366211e-01,7.817636728286743164e-01,7.817324399948120117e-01,7.817010879516601562e-01,7.816698551177978516e-01,7.816386222839355469e-01,7.816072702407836914e-01,7.815760374069213867e-01,7.815448045730590820e-01,7.815135717391967773e-01,7.814822793006896973e-01,7.814510464668273926e-01,7.814198136329650879e-01,7.813885211944580078e-01,7.813572883605957031e-01,7.813260555267333984e-01,7.812948226928710938e-01,7.812635302543640137e-01,7.812322974205017090e-01,7.812011241912841797e-01,7.811698317527770996e-01,7.811386585235595703e-01,7.811074256896972656e-01,7.810762524604797363e-01,7.810449600219726562e-01,7.810137271881103516e-01,7.809825539588928223e-01,7.809513211250305176e-01,7.809200882911682129e-01,7.808889150619506836e-01,6.857892870903015137e-01,6.776495575904846191e-01,6.721010804176330566e-01,6.677955389022827148e-01,6.637040376663208008e-01,6.622999310493469238e-01,7.806705236434936523e-01,7.806392908096313477e-01,7.806081175804138184e-01,7.805770039558410645e-01,7.805458307266235352e-01
7.481297850608825684e-01,7.481011748313903809e-01,7.480725049972534180e-01,7.480438947677612305e-01,7.480152845382690430e-01,7.479865550994873047e-01,7.479579448699951172e-01,7.479293346405029297e-01,7.479006648063659668e-01,7.478720545768737793e-01,7.478435039520263672e-01,7.478148937225341797e-01,7.477862238883972168e-01,7.477576136589050293e-01,7.477290034294128418e-01,7.477003335952758789e-01,7.476717829704284668e-01,7.476431727409362793e-01,7.476146221160888672e-01,7.475859522819519043e-01,7.475573420524597168e-01,7.475287914276123047e-01,7.475001215934753418e-01,7.474715709686279297e-01,7.474430203437805176e-01,7.474144101142883301e-01,7.473857998847961426e-01,7.473572492599487305e-01,7.473286390304565430e-01,7.473000288009643555e-01,7.472714781761169434e-01,7.472429275512695312e-01,7.472143769264221191e-01,7.471857666969299316e-01,7.471572160720825195e-01,7.471286654472351074e-01,7.471000552177429199e-01,7.470715045928955078e-01,7.470429539680480957e-01,7.470143437385559082e-01,7.469857931137084961e-01,7.469573020935058594e-01,7.469287514686584473e-01,7.469001412391662598e-01,7.468715906143188477e-01,7.468430995941162109e-01,7.468144893646240234e-01,7.467859983444213867e-01,7.467574477195739746e-01,7.467289566993713379e-01,7.467003464698791504e-01,7.466718554496765137e-01,7.466433048248291016e-01,7.466147541999816895e-01,7.465862631797790527e-01,7.465577721595764160e-01,7.465292215347290039e-01,7.465006709098815918e-01,7.464721798896789551e-01,7.464436888694763184e-01,7.464151382446289062e-01,7.463866472244262695e-01,7.463581562042236328e-01,7.463296651840209961e-01,7.463011145591735840e-01,7.462726235389709473e-01,7.462441325187683105e-01,7.462155818939208984e-01,7.461870908737182617e-01,7.461586594581604004e-01,7.461301684379577637e-01,6.785271167755126953e-01,6.668101549148559570e-01,6.597935557365417480e-01,6.557044386863708496e-01,6.546169519424438477e-01,6.550043821334838867e-01,7.459307312965393066e-01,7.459022998809814453e-01,7.458738088607788086e-01
7.162189483642578125e-01,7.161927223205566406e-01,7.161664962768554688e-01,7.161402106285095215e-01,7.161139845848083496e-01,7.160877585411071777e-01,7.160614728927612305e-01,7.160352468490600586e-01,7.160090208053588867e-01,7.159828543663024902e-01,7.159565687179565430e-01,7.159303426742553711e-01,7.159041166305541992e-01,7.158778309822082520e-01,7.158516645431518555e-01,7.158254384994506836e-01,7.157991528511047363e-01,7.157729864120483398e-01,7.157467603683471680e-01,7.157205939292907715e-01,7.156943082809448242e-01,7.156681418418884277e-01,7.156419157981872559e-01,7.156156897544860840e-01,7.155895233154296875e-01,7.155632972717285156e-01,7.155371308326721191e-01,7.155109047889709473e-01,7.154846787452697754e-01,7.154585123062133789e-01,7.154322862625122070e-01,7.154061198234558105e-01,7.153799533843994141e-01,7.153537869453430176e-01,7.153275609016418457e-01,7.153013944625854492e-01,7.152752280235290527e-01,7.152490019798278809e-01,7.152228355407714844e-01,7.151966691017150879e-01,7.151705026626586914e-01,7.151442766189575195e-01,7.151181101799011230e-01,7.150920033454895020e-01,7.150657773017883301e-01,7.150396108627319336e-01,7.150135040283203125e-01,7.149872779846191406e-01,7.149611115455627441e-01,7.149350047111511230e-01,7.149088382720947266e-01,7.148826718330383301e-01,7.148565053939819336e-01,7.148303985595703125e-01,7.148041725158691406e-01,7.147780656814575195e-01,7.147519588470458984e-01,7.147257924079895020e-01,7.146996259689331055e-01,7.146735191345214844e-01,7.146474123001098633e-01,7.146211862564086914e-01,7.145950794219970703e-01,7.145689725875854492e-01,7.145428657531738281e-01,7.145166993141174316e-01,7.144905924797058105e-01,7.144644856452941895e-01,7.144383192062377930e-01,7.144122123718261719e-01,7.143861055374145508e-01,7.143599987030029297e-01,7.143338322639465332e-01,6.646598577499389648e-01,6.548106670379638672e-01,6.504040360450744629e-01,6.486582159996032715e-01,7.142033576965332031e-01,7.141771912574768066e-01,7.141510844230651855e-01
