5.000000000000000000e+00,5.000000000000000000e+00,5.000000000000000000e+00,5.000000000000000000e+00,5.000000000000000000e+00,5.000000000000000000e+00,5.000000000000000000e+00,5.000000000000000000e+00,5.000000000000000000e+00,5.000000000000000000e+00,5.000000000000000000e+00,5.000000000000000000e+00,5.000000000000000000e+00,5.000000000000000000e+00,5.000000000000000000e+00,5.000000000000000000e+00,5.000000000000000000e+00,5.000000000000000000e+00,5.000000000000000000e+00,5.000000000000000000e+00,5.000000000000000000e+00,5.000000000000000000e+00,5.000000000000000000e+00,5.000000000000000000e+00,5.000000000000000000e+00,5.000000000000000000e+00,5.000000000000000000e+00,5.000000000000000000e+00,5.000000000000000000e+00,5.000000000000000000e+00,5.000000000000000000e+00,5.000000000000000000e+00,5.000000000000000000e+00,5.000000000000000000e+00,5.000000000000000000e+00,5.000000000000000000e+00,5.000000000000000000e+00,5.000000000000000000e+00,5.000000000000000000e+00,5.000000000000000000e+00,5.000000000000000000e+00,5.000000000000000000e+00,5.000000000000000000e+00,5.000000000000000000e+00,5.000000000000000000e+00,5.000000000000000000e+00,5.000000000000000000e+00,5.000000000000000000e+00,5.000000000000000000e+00,5.000000000000000000e+00,5.000000000000000000e+00,5.000000000000000000e+00,4.840324878692626953e+00,4.686816692352294922e+00,4.542746067047119141e+00,4.407268524169921875e+00,4.279637813568115234e+00,4.159215450286865234e+00,4.045387744903564453e+00,3.937624216079711914e+00,3.835453271865844727e+00,3.738450050354003906e+00,3.646232366561889648e+00,3.558455228805541992e+00,3.474804401397705078e+00,3.394996166229248047e+00,3.318771839141845703e+00,3.245895147323608398e+00,3.176150083541870117e+00,3.109339237213134766e+00,3.045281648635864258e+00,2.983809709548950195e+00,2.924770355224609375e+00,2.868022441864013672e+00,2.813434362411499023e+00,2.760885715484619141e+00,2.710263967514038086e+00,2.661465167999267578e+00,2.614392518997192383e+00,2.568956136703491211e+00
5.000000000000000000e+00,5.000000000000000000e+00,5.000000000000000000e+00,5.000000000000000000e+00,5.000000000000000000e+00,5.000000000000000000e+00,5.000000000000000000e+00,5.000000000000000000e+00,5.000000000000000000e+00,5.000000000000000000e+00,5.000000000000000000e+00,5.000000000000000000e+00,5.000000000000000000e+00,5.000000000000000000e+00,5.000000000000000000e+00,5.000000000000000000e+00,5.000000000000000000e+00,5.000000000000000000e+00,5.000000000000000000e+00,5.000000000000000000e+00,5.000000000000000000e+00,5.000000000000000000e+00,5.000000000000000000e+00,5.000000000000000000e+00,5.000000000000000000e+00,5.000000000000000000e+00,5.000000000000000000e+00,5.000000000000000000e+00,5.000000000000000000e+00,5.000000000000000000e+00,5.000000000000000000e+00,5.000000000000000000e+00,5.000000000000000000e+00,5.000000000000000000e+00,5.000000000000000000e+00,5.000000000000000000e+00,5.000000000000000000e+00,5.000000000000000000e+00,5.000000000000000000e+00,5.000000000000000000e+00,5.000000000000000000e+00,5.000000000000000000e+00,5.000000000000000000e+00,5.000000000000000000e+00,5.000000000000000000e+00,5.000000000000000000e+00,5.000000000000000000e+00,5.000000000000000000e+00,5.000000000000000000e+00,5.000000000000000000e+00,5.000000000000000000e+00,5.000000000000000000e+00,4.840325832366943359e+00,4.686820507049560547e+00,4.542781829833984375e+00,4.407333374023437500e+00,4.279727935791015625e+00,4.159303665161132812e+00,4.045470714569091797e+00,3.937703132629394531e+00,3.835527896881103516e+00,3.738521337509155273e+00,3.646300315856933594e+00,3.558519363403320312e+00,3.474866151809692383e+00,3.395055055618286133e+00,3.318827867507934570e+00,3.245949029922485352e+00,3.176201581954956055e+00,3.109388589859008789e+00,3.045328617095947266e+00,2.983855009078979492e+00,2.924813985824584961e+00,2.868064165115356445e+00,2.813474893569946289e+00,2.760924577713012695e+00,2.710301160812377930e+00,2.661501169204711914e+00,2.614427328109741211e+00,2.568989515304565430e+00
5.000000000000000000e+00,5.000000000000000000e+00,5.000000000000000000e+00,5.000000000000000000e+00,5.000000000000000000e+00,5.000000000000000000e+00,5.000000000000000000e+00,5.000000000000000000e+00,5.000000000000000000e+00,5.000000000000000000e+00,5.000000000000000000e+00,5.000000000000000000e+00,5.000000000000000000e+00,5.000000000000000000e+00,5.000000000000000000e+00,5.000000000000000000e+00,5.000000000000000000e+00,5.000000000000000000e+00,5.000000000000000000e+00,5.000000000000000000e+00,5.000000000000000000e+00,5.000000000000000000e+00,5.000000000000000000e+00,5.000000000000000000e+00,5.000000000000000000e+00,5.000000000000000000e+00,5.000000000000000000e+00,5.000000000000000000e+00,5.000000000000000000e+00,5.000000000000000000e+00,5.000000000000000000e+00,5.000000000000000000e+00,5.000000000000000000e+00,5.000000000000000000e+00,5.000000000000000000e+00,5.000000000000000000e+00,5.000000000000000000e+00,5.000000000000000000e+00,5.000000000000000000e+00,5.000000000000000000e+00,5.000000000000000000e+00,5.000000000000000000e+00,5.000000000000000000e+00,5.000000000000000000e+00,5.000000000000000000e+00,5.000000000000000000e+00,5.000000000000000000e+00,5.000000000000000000e+00,5.000000000000000000e+00,5.000000000000000000e+00,5.000000000000000000e+00,5.000000000000000000e+00,4.840410709381103516e+00,4.686932086944580078e+00,4.542887210845947266e+00,4.407432079315185547e+00,4.279820919036865234e+00,4.159391880035400391e+00,4.045554161071777344e+00,3.937782049179077148e+00,3.835602760314941406e+00,3.738592147827148438e+00,3.646368026733398438e+00,3.558583974838256836e+00,3.474927186965942383e+00,3.395113706588745117e+00,3.318884134292602539e+00,3.246002197265625000e+00,3.176253080368041992e+00,3.109437704086303711e+00,3.045375823974609375e+00,2.983900547027587891e+00,2.924857616424560547e+00,2.868106126785278320e+00,2.813514947891235352e+00,2.760963439941406250e+00,2.710338592529296875e+00,2.661537170410156250e+00,2.614462137222290039e+00,2.569023132324218750e+00
5.000000000000000000e+00,5.000000000000000000e+00,5.000000000000000000e+00,5.000000000000000000e+00,5.000000000000000000e+00,5.000000000000000000e+00,5.000000000000000000e+00,5.000000000000000000e+00,5.000000000000000000e+00,5.000000000000000000e+00,5.000000000000000000e+00,5.000000000000000000e+00,5.000000000000000000e+00,5.000000000000000000e+00,5.000000000000000000e+00,5.000000000000000000e+00,5.000000000000000000e+00,5.000000000000000000e+00,5.000000000000000000e+00,5.000000000000000000e+00,5.000000000000000000e+00,5.000000000000000000e+00,5.000000000000000000e+00,5.000000000000000000e+00,5.000000000000000000e+00,5.000000000000000000e+00,5.000000000000000000e+00,5.000000000000000000e+00,5.000000000000000000e+00,5.000000000000000000e+00,5.000000000000000000e+00,5.000000000000000000e+00,5.000000000000000000e+00,5.000000000000000000e+00,5.000000000000000000e+00,5.000000000000000000e+00,5.000000000000000000e+00,5.000000000000000000e+00,5.000000000000000000e+00,5.000000000000000000e+00,5.000000000000000000e+00,5.000000000000000000e+00,5.000000000000000000e+00,5.000000000000000000e+00,5.000000000000000000e+00,5.000000000000000000e+00,5.000000000000000000e+00,5.000000000000000000e+00,5.000000000000000000e+00,5.000000000000000000e+00,5.000000000000000000e+00,5.000000000000000000e+00,4.840529918670654297e+00,4.687043666839599609e+00,4.542992115020751953e+00,4.407530784606933594e+00,4.279914379119873047e+00,4.159479618072509766e+00,4.045637607574462891e+00,3.937861204147338867e+00,3.835677862167358398e+00,3.738663434982299805e+00,3.646435260772705078e+00,3.558648347854614258e+00,3.474988698959350586e+00,3.395172119140625000e+00,3.318940162658691406e+00,3.246056079864501953e+00,3.176304101943969727e+00,3.109487056732177734e+00,3.045423030853271484e+00,2.983945608139038086e+00,2.924901247024536133e+00,2.868148088455200195e+00,2.813555240631103516e+00,2.761002302169799805e+00,2.710376024246215820e+00,2.661573171615600586e+00,2.614496707916259766e+00,2.569056749343872070e+00
5.000000000000000000e+00,5.000000000000000000e+00,5.000000000000000000e+00,5.000000000000000000e+00,5.000000000000000000e+00,5.000000000000000000e+00,5.000000000000000000e+00,5.000000000000000000e+00,5.000000000000000000e+00,5.000000000000000000e+00,5.000000000000000000e+00,5.000000000000000000e+00,5.000000000000000000e+00,5.000000000000000000e+00,5.000000000000000000e+00,5.000000000000000000e+00,5.000000000000000000e+00,5.000000000000000000e+00,5.000000000000000000e+00,5.000000000000000000e+00,5.000000000000000000e+00,5.000000000000000000e+00,5.000000000000000000e+00,5.000000000000000000e+00,5.000000000000000000e+00,5.000000000000000000e+00,5.000000000000000000e+00,5.000000000000000000e+00,5.000000000000000000e+00,5.000000000000000000e+00,5.000000000000000000e+00,5.000000000000000000e+00,5.000000000000000000e+00,5.000000000000000000e+00,5.000000000000000000e+00,5.000000000000000000e+00,5.000000000000000000e+00,5.000000000000000000e+00,5.000000000000000000e+00,5.000000000000000000e+00,5.000000000000000000e+00,5.000000000000000000e+00,5.000000000000000000e+00,5.000000000000000000e+00,5.000000000000000000e+00,5.000000000000000000e+00,5.000000000000000000e+00,5.000000000000000000e+00,5.000000000000000000e+00,5.000000000000000000e+00,5.000000000000000000e+00,5.000000000000000000e+00,4.840649604797363281e+00,4.687155723571777344e+00,4.543097496032714844e+00,4.407629966735839844e+00,4.280007362365722656e+00,4.159567832946777344e+00,4.045720577239990234e+00,3.937939643859863281e+00,3.835752725601196289e+00,3.738734483718872070e+00,3.646503210067749023e+00,3.558712959289550781e+00,3.475050210952758789e+00,3.395230770111083984e+00,3.318995952606201172e+00,3.246109724044799805e+00,3.176355600357055664e+00,3.109536170959472656e+00,3.045470476150512695e+00,2.983990907669067383e+00,2.924944639205932617e+00,2.868190050125122070e+00,2.813595533370971680e+00,2.761040925979614258e+00,2.710413455963134766e+00,2.661609172821044922e+00,2.614531517028808594e+00,2.569090366363525391e+00
5.000000000000000000e+00,5.000000000000000000e+00,5.000000000000000000e+00,5.000000000000000000e+00,5.000000000000000000e+00,5.000000000000000000e+00,5.000000000000000000e+00,5.000000000000000000e+00,5.000000000000000000e+00,5.000000000000000000e+00,5.000000000000000000e+00,5.000000000000000000e+00,5.000000000000000000e+00,5.000000000000000000e+00,5.000000000000000000e+00,5.000000000000000000e+00,5.000000000000000000e+00,5.000000000000000000e+00,5.000000000000000000e+00,5.000000000000000000e+00,5.000000000000000000e+00,5.000000000000000000e+00,5.000000000000000000e+00,5.000000000000000000e+00,5.000000000000000000e+00,5.000000000000000000e+00,5.000000000000000000e+00,5.000000000000000000e+00,5.000000000000000000e+00,5.000000000000000000e+00,5.000000000000000000e+00,5.000000000000000000e+00,5.000000000000000000e+00,5.000000000000000000e+00,5.000000000000000000e+00,5.000000000000000000e+00,5.000000000000000000e+00,5.000000000000000000e+00,5.000000000000000000e+00,5.000000000000000000e+00,5.000000000000000000e+00,5.000000000000000000e+00,5.000000000000000000e+00,5.000000000000000000e+00,5.000000000000000000e+00,5.000000000000000000e+00,5.000000000000000000e+00,5.000000000000000000e+00,5.000000000000000000e+00,5.000000000000000000e+00,5.000000000000000000e+00,5.000000000000000000e+00,4.840768337249755859e+00,4.687267303466796875e+00,4.543202400207519531e+00,4.407728672027587891e+00,4.280100822448730469e+00,4.159655570983886719e+00,4.045804023742675781e+00,3.938018798828125000e+00,3.835827350616455078e+00,3.738805770874023438e+00,3.646570920944213867e+00,3.558777093887329102e+00,3.475111722946166992e+00,3.395289659500122070e+00,3.319052219390869141e+00,3.246163368225097656e+00,3.176406860351562500e+00,3.109585285186767578e+00,3.045517683029174805e+00,2.984036207199096680e+00,2.924988269805908203e+00,2.868231534957885742e+00,2.813635826110839844e+00,2.761079788208007812e+00,2.710450887680053711e+00,2.661645412445068359e+00,2.614566326141357422e+00,2.569123744964599609e+00
5.000000000000000000e+00,5.000000000000000000e+00,5.000000000000000000e+00,5.000000000000000000e+00,5.000000000000000000e+00,5.000000000000000000e+00,5.000000000000000000e+00,5.000000000000000000e+00,5.000000000000000000e+00,5.000000000000000000e+00,5.000000000000000000e+00,5.000000000000000000e+00,5.000000000000000000e+00,5.000000000000000000e+00,5.000000000000000000e+00,5.000000000000000000e+00,5.000000000000000000e+00,5.000000000000000000e+00,5.000000000000000000e+00,5.000000000000000000e+00,5.000000000000000000e+00,5.000000000000000000e+00,5.000000000000000000e+00,5.000000000000000000e+00,5.000000000000000000e+00,5.000000000000000000e+00,5.000000000000000000e+00,5.000000000000000000e+00,5.000000000000000000e+00,5.000000000000000000e+00,5.000000000000000000e+00,5.000000000000000000e+00,5.000000000000000000e+00,5.000000000000000000e+00,5.000000000000000000e+00,5.000000000000000000e+00,5.000000000000000000e+00,5.000000000000000000e+00,5.000000000000000000e+00,5.000000000000000000e+00,5.000000000000000000e+00,5.000000000000000000e+00,5.000000000000000000e+00,5.000000000000000000e+00,5.000000000000000000e+00,5.000000000000000000e+00,5.000000000000000000e+00,5.000000000000000000e+00,5.000000000000000000e+00,5.000000000000000000e+00,5.000000000000000000e+00,5.000000000000000000e+00,4.840888023376464844e+00,4.687378883361816406e+00,4.543307304382324219e+00,4.407827854156494141e+00,4.280193805694580078e+00,4.159743785858154297e+00,4.045887470245361328e+00,3.938097715377807617e+00,3.835902214050292969e+00,3.738876581192016602e+00,3.646638631820678711e+00,3.558841705322265625e+00,3.475172996520996094e+00,3.395348310470581055e+00,3.319108247756958008e+00,3.246216773986816406e+00,3.176458358764648438e+00,3.109634637832641602e+00,3.045564651489257812e+00,2.984081745147705078e+00,2.925031900405883789e+00,2.868273496627807617e+00,2.813676357269287109e+00,2.761118650436401367e+00,2.710488319396972656e+00,2.661681175231933594e+00,2.614601135253906250e+00,2.569157361984252930e+00
5.000000000000000000e+00,5.000000000000000000e+00,5.000000000000000000e+00,5.000000000000000000e+00,5.000000000000000000e+00,5.000000000000000000e+00,5.000000000000000000e+00,5.000000000000000000e+00,5.000000000000000000e+00,5.000000000000000000e+00,5.000000000000000000e+00,5.000000000000000000e+00,5.000000000000000000e+00,5.000000000000000000e+00,5.000000000000000000e+00,5.000000000000000000e+00,5.000000000000000000e+00,5.000000000000000000e+00,5.000000000000000000e+00,5.000000000000000000e+00,5.000000000000000000e+00,5.000000000000000000e+00,5.000000000000000000e+00,5.000000000000000000e+00,5.000000000000000000e+00,5.000000000000000000e+00,5.000000000000000000e+00,5.000000000000000000e+00,5.000000000000000000e+00,5.000000000000000000e+00,5.000000000000000000e+00,5.000000000000000000e+00,5.000000000000000000e+00,5.000000000000000000e+00,5.000000000000000000e+00,5.000000000000000000e+00,5.000000000000000000e+00,5.000000000000000000e+00,5.000000000000000000e+00,5.000000000000000000e+00,5.000000000000000000e+00,5.000000000000000000e+00,5.000000000000000000e+00,5.000000000000000000e+00,5.000000000000000000e+00,5.000000000000000000e+00,5.000000000000000000e+00,5.000000000000000000e+00,5.000000000000000000e+00,5.000000000000000000e+00,5.000000000000000000e+00,5.000000000000000000e+00,4.841011047363281250e+00,4.687493324279785156e+00,4.543413639068603516e+00,4.407927036285400391e+00,4.280287265777587891e+00,4.159832000732421875e+00,4.045970916748046875e+00,3.938176870346069336e+00,3.835977315902709961e+00,3.738947868347167969e+00,3.646706342697143555e+00,3.558906078338623047e+00,3.475234508514404297e+00,3.395406723022460938e+00,3.319164514541625977e+00,3.246270418167114258e+00,3.176509380340576172e+00,3.109683990478515625e+00,3.045611858367919922e+00,2.984126806259155273e+00,2.925075292587280273e+00,2.868315458297729492e+00,2.813716411590576172e+00,2.761157274246215820e+00,2.710525751113891602e+00,2.661717414855957031e+00,2.614636182785034180e+00,2.569191217422485352e+00
5.000000000000000000e+00,5.000000000000000000e+00,5.000000000000000000e+00,5.000000000000000000e+00,5.000000000000000000e+00,5.000000000000000000e+00,5.000000000000000000e+00,5.000000000000000000e+00,5.000000000000000000e+00,5.000000000000000000e+00,5.000000000000000000e+00,5.000000000000000000e+00,5.000000000000000000e+00,5.000000000000000000e+00,5.000000000000000000e+00,5.000000000000000000e+00,5.000000000000000000e+00,5.000000000000000000e+00,5.000000000000000000e+00,5.000000000000000000e+00,5.000000000000000000e+00,5.000000000000000000e+00,5.000000000000000000e+00,5.000000000000000000e+00,5.000000000000000000e+00,5.000000000000000000e+00,5.000000000000000000e+00,5.000000000000000000e+00,5.000000000000000000e+00,5.000000000000000000e+00,5.000000000000000000e+00,5.000000000000000000e+00,5.000000000000000000e+00,5.000000000000000000e+00,5.000000000000000000e+00,5.000000000000000000e+00,5.000000000000000000e+00,5.000000000000000000e+00,5.000000000000000000e+00,5.000000000000000000e+00,5.000000000000000000e+00,5.000000000000000000e+00,5.000000000000000000e+00,5.000000000000000000e+00,5.000000000000000000e+00,5.000000000000000000e+00,5.000000000000000000e+00,5.000000000000000000e+00,5.000000000000000000e+00,5.000000000000000000e+00,5.000000000000000000e+00,5.000000000000000000e+00,4.841138839721679688e+00,4.687613487243652344e+00,4.543526649475097656e+00,4.408032894134521484e+00,4.280386924743652344e+00,4.159924983978271484e+00,4.046058177947998047e+00,3.938259124755859375e+00,3.836054563522338867e+00,3.739020824432373047e+00,3.646775007247924805e+00,3.558971166610717773e+00,3.475296020507812500e+00,3.395465612411499023e+00,3.319220542907714844e+00,3.246324300765991211e+00,3.176560878753662109e+00,3.109732866287231445e+00,3.045659065246582031e+00,2.984172105789184570e+00,2.925118684768676758e+00,2.868357419967651367e+00,2.813756704330444336e+00,2.761195898056030273e+00,2.710563182830810547e+00,2.661753416061401367e+00,2.614670753479003906e+00,2.569224834442138672e+00
5.000000000000000000e+00,5.000000000000000000e+00,5.000000000000000000e+00,5.000000000000000000e+00,5.000000000000000000e+00,5.000000000000000000e+00,5.000000000000000000e+00,5.000000000000000000e+00,5.000000000000000000e+00,5.000000000000000000e+00,5.000000000000000000e+00,5.000000000000000000e+00,5.000000000000000000e+00,5.000000000000000000e+00,5.000000000000000000e+00,5.000000000000000000e+00,5.000000000000000000e+00,5.000000000000000000e+00,5.000000000000000000e+00,5.000000000000000000e+00,5.000000000000000000e+00,5.000000000000000000e+00,5.000000000000000000e+00,5.000000000000000000e+00,5.000000000000000000e+00,5.000000000000000000e+00,5.000000000000000000e+00,5.000000000000000000e+00,4.995028018951416016e+00,4.997295379638671875e+00,5.000000000000000000e+00,5.000000000000000000e+00,5.000000000000000000e+00,5.000000000000000000e+00,5.000000000000000000e+00,5.000000000000000000e+00,5.000000000000000000e+00,5.000000000000000000e+00,5.000000000000000000e+00,5.000000000000000000e+00,5.000000000000000000e+00,5.000000000000000000e+00,5.000000000000000000e+00,5.000000000000000000e+00,5.000000000000000000e+00,5.000000000000000000e+00,5.000000000000000000e+00,5.000000000000000000e+00,5.000000000000000000e+00,5.000000000000000000e+00,5.000000000000000000e+00,5.000000000000000000e+00,4.841266632080078125e+00,4.687733650207519531e+00,4.543639659881591797e+00,4.408139228820800781e+00,4.280487060546875000e+00,4.160019874572753906e+00,4.046147823333740234e+00,3.938343763351440430e+00,3.836135149002075195e+00,3.739097118377685547e+00,3.646847486495971680e+00,3.559040069580078125e+00,3.475362062454223633e+00,3.395528078079223633e+00,3.319279432296752930e+00,3.246380090713500977e+00,3.176614046096801758e+00,3.109783649444580078e+00,3.045707225799560547e+00,2.984217882156372070e+00,2.925162315368652344e+00,2.868399143218994141e+00,2.813796997070312500e+00,2.761234760284423828e+00,2.710600376129150391e+00,2.661789655685424805e+00,2.614705562591552734e+00,2.569258213043212891e+00
5.000000000000000000e+00,5.000000000000000000e+00,5.000000000000000000e+00,5.000000000000000000e+00,5.000000000000000000e+00,5.000000000000000000e+00,5.000000000000000000e+00,5.000000000000000000e+00,5.000000000000000000e+00,5.000000000000000000e+00,5.000000000000000000e+00,5.000000000000000000e+00,5.000000000000000000e+00,5.000000000000000000e+00,5.000000000000000000e+00,5.000000000000000000e+00,5.000000000000000000e+00,5.000000000000000000e+00,5.000000000000000000e+00,5.000000000000000000e+00,5.000000000000000000e+00,5.000000000000000000e+00,5.000000000000000000e+00,5.000000000000000000e+00,5.000000000000000000e+00,5.000000000000000000e+00,5.000000000000000000e+00,5.000000000000000000e+00,5.000000000000000000e+00,5.000000000000000000e+00,5.000000000000000000e+00,5.000000000000000000e+00,5.000000000000000000e+00,5.000000000000000000e+00,5.000000000000000000e+00,5.000000000000000000e+00,5.000000000000000000e+00,5.000000000000000000e+00,5.000000000000000000e+00,5.000000000000000000e+00,5.000000000000000000e+00,5.000000000000000000e+00,5.000000000000000000e+00,5.000000000000000000e+00,5.000000000000000000e+00,5.000000000000000000e+00,5.000000000000000000e+00,5.000000000000000000e+00,5.000000000000000000e+00,5.000000000000000000e+00,5.000000000000000000e+00,5.000000000000000000e+00,4.841394901275634766e+00,4.687853813171386719e+00,4.543752193450927734e+00,4.408245563507080078e+00,4.280587196350097656e+00,4.160114288330078125e+00,4.046237468719482422e+00,3.938428163528442383e+00,3.836215496063232422e+00,3.739173650741577148e+00,3.646920442581176758e+00,3.559109210968017578e+00,3.475427865982055664e+00,3.395591020584106445e+00,3.319339752197265625e+00,3.246437788009643555e+00,3.176669120788574219e+00,3.109836339950561523e+00,3.045757770538330078e+00,2.984266757965087891e+00,2.925209045410156250e+00,2.868443727493286133e+00,2.813839435577392578e+00,2.761275529861450195e+00,2.710639238357543945e+00,2.661826610565185547e+00,2.614741086959838867e+00,2.569292306900024414e+00
5.000000000000000000e+00,5.000000000000000000e+00,5.000000000000000000e+00,5.000000000000000000e+00,5.000000000000000000e+00,5.000000000000000000e+00,5.000000000000000000e+00,5.000000000000000000e+00,5.000000000000000000e+00,5.000000000000000000e+00,5.000000000000000000e+00,5.000000000000000000e+00,5.000000000000000000e+00,5.000000000000000000e+00,5.000000000000000000e+00,5.000000000000000000e+00,5.000000000000000000e+00,5.000000000000000000e+00,5.000000000000000000e+00,5.000000000000000000e+00,5.000000000000000000e+00,5.000000000000000000e+00,5.000000000000000000e+00,5.000000000000000000e+00,5.000000000000000000e+00,5.000000000000000000e+00,5.000000000000000000e+00,5.000000000000000000e+00,4.957844734191894531e+00,5.000000000000000000e+00,5.000000000000000000e+00,5.000000000000000000e+00,5.000000000000000000e+00,5.000000000000000000e+00,5.000000000000000000e+00,5.000000000000000000e+00,5.000000000000000000e+00,5.000000000000000000e+00,5.000000000000000000e+00,5.000000000000000000e+00,5.000000000000000000e+00,5.000000000000000000e+00,5.000000000000000000e+00,5.000000000000000000e+00,5.000000000000000000e+00,5.000000000000000000e+00,5.000000000000000000e+00,5.000000000000000000e+00,5.000000000000000000e+00,5.000000000000000000e+00,5.000000000000000000e+00,5.000000000000000000e+00,4.841523170471191406e+00,4.687973976135253906e+00,4.543865203857421875e+00,4.408351898193359375e+00,4.280687332153320312e+00,4.160209178924560547e+00,4.046326637268066406e+00,3.938513278961181641e+00,3.836296081542968750e+00,3.739249944686889648e+00,3.646992921829223633e+00,3.559178829193115234e+00,3.475494146347045898e+00,3.395653724670410156e+00,3.319399833679199219e+00,3.246495485305786133e+00,3.176724433898925781e+00,3.109889507293701172e+00,3.045808553695678711e+00,2.984315156936645508e+00,2.925256013870239258e+00,2.868488788604736328e+00,2.813882827758789062e+00,2.761317014694213867e+00,2.710679292678833008e+00,2.661865472793579102e+00,2.614778518676757812e+00,2.569328308105468750e+00
5.000000000000000000e+00,5.000000000000000000e+00,5.000000000000000000e+00,5.000000000000000000e+00,5.000000000000000000e+00,5.000000000000000000e+00,5.000000000000000000e+00,5.000000000000000000e+00,5.000000000000000000e+00,5.000000000000000000e+00,5.000000000000000000e+00,5.000000000000000000e+00,5.000000000000000000e+00,5.000000000000000000e+00,5.000000000000000000e+00,5.000000000000000000e+00,5.000000000000000000e+00,5.000000000000000000e+00,5.000000000000000000e+00,5.000000000000000000e+00,5.000000000000000000e+00,5.000000000000000000e+00,5.000000000000000000e+00,5.000000000000000000e+00,5.000000000000000000e+00,5.000000000000000000e+00,5.000000000000000000e+00,5.000000000000000000e+00,4.932199954986572266e+00,4.955228805541992188e+00,5.000000000000000000e+00,5.000000000000000000e+00,5.000000000000000000e+00,5.000000000000000000e+00,5.000000000000000000e+00,5.000000000000000000e+00,5.000000000000000000e+00,5.000000000000000000e+00,5.000000000000000000e+00,5.000000000000000000e+00,5.000000000000000000e+00,5.000000000000000000e+00,5.000000000000000000e+00,5.000000000000000000e+00,5.000000000000000000e+00,5.000000000000000000e+00,5.000000000000000000e+00,5.000000000000000000e+00,5.000000000000000000e+00,5.000000000000000000e+00,5.000000000000000000e+00,5.000000000000000000e+00,4.841651439666748047e+00,4.688094139099121094e+00,4.543978214263916016e+00,4.408458232879638672e+00,4.280787467956542969e+00,4.160303592681884766e+00,4.046416282653808594e+00,3.938597917556762695e+00,3.836376428604125977e+00,3.739326715469360352e+00,3.647065639495849609e+00,3.559247732162475586e+00,3.475559949874877930e+00,3.395716905593872070e+00,3.319460391998291016e+00,3.246552944183349609e+00,3.176779508590698242e+00,3.109942197799682617e+00,3.045859336853027344e+00,2.984364032745361328e+00,2.925302505493164062e+00,2.868533611297607422e+00,2.813926219940185547e+00,2.761358976364135742e+00,2.710719347000122070e+00,2.661904096603393555e+00,2.614815711975097656e+00,2.569364309310913086e+00
5.000000000000000000e+00,5.000000000000000000e+00,5.000000000000000000e+00,5.000000000000000000e+00,5.000000000000000000e+00,5.000000000000000000e+00,5.000000000000000000e+00,5.000000000000000000e+00,5.000000000000000000e+00,5.000000000000000000e+00,5.000000000000000000e+00,5.000000000000000000e+00,5.000000000000000000e+00,5.000000000000000000e+00,5.000000000000000000e+00,5.000000000000000000e+00,5.000000000000000000e+00,5.000000000000000000e+00,5.000000000000000000e+00,5.000000000000000000e+00,5.000000000000000000e+00,5.000000000000000000e+00,5.000000000000000000e+00,5.000000000000000000e+00,5.000000000000000000e+00,5.000000000000000000e+00,5.000000000000000000e+00,5.000000000000000000e+00,4.913673877716064453e+00,4.922616004943847656e+00,5.000000000000000000e+00,5.000000000000000000e+00,5.000000000000000000e+00,5.000000000000000000e+00,5.000000000000000000e+00,5.000000000000000000e+00,5.000000000000000000e+00,5.000000000000000000e+00,5.000000000000000000e+00,5.000000000000000000e+00,5.000000000000000000e+00,5.000000000000000000e+00,5.000000000000000000e+00,5.000000000000000000e+00,5.000000000000000000e+00,5.000000000000000000e+00,5.000000000000000000e+00,5.000000000000000000e+00,5.000000000000000000e+00,5.000000000000000000e+00,5.000000000000000000e+00,5.000000000000000000e+00,4.841779708862304688e+00,4.688214302062988281e+00,4.544090747833251953e+00,4.408564090728759766e+00,4.280887603759765625e+00,4.160398006439208984e+00,4.046505928039550781e+00,3.938683032989501953e+00,3.836456537246704102e+00,3.739402770996093750e+00,3.647138595581054688e+00,3.559317350387573242e+00,3.475625753402709961e+00,3.395779848098754883e+00,3.319520473480224609e+00,3.246610641479492188e+00,3.176834821701049805e+00,3.109994888305664062e+00,3.045909881591796875e+00,2.984412670135498047e+00,2.925349473953247070e+00,2.868578672409057617e+00,2.813969373703002930e+00,2.761400461196899414e+00,2.710759639739990234e+00,2.661942958831787109e+00,2.614853143692016602e+00,2.569400548934936523e+00
5.000000000000000000e+00,5.000000000000000000e+00,5.000000000000000000e+00,5.000000000000000000e+00,5.000000000000000000e+00,5.000000000000000000e+00,5.000000000000000000e+00,5.000000000000000000e+00,5.000000000000000000e+00,5.000000000000000000e+00,5.000000000000000000e+00,5.000000000000000000e+00,5.000000000000000000e+00,5.000000000000000000e+00,5.000000000000000000e+00,5.000000000000000000e+00,5.000000000000000000e+00,5.000000000000000000e+00,5.000000000000000000e+00,5.000000000000000000e+00,5.000000000000000000e+00,5.000000000000000000e+00,5.000000000000000000e+00,5.000000000000000000e+00,5.000000000000000000e+00,5.000000000000000000e+00,5.000000000000000000e+00,5.000000000000000000e+00,4.952881813049316406e+00,4.888071060180664062e+00,5.000000000000000000e+00,5.000000000000000000e+00,5.000000000000000000e+00,5.000000000000000000e+00,5.000000000000000000e+00,5.000000000000000000e+00,5.000000000000000000e+00,5.000000000000000000e+00,5.000000000000000000e+00,5.000000000000000000e+00,5.000000000000000000e+00,5.000000000000000000e+00,5.000000000000000000e+00,5.000000000000000000e+00,5.000000000000000000e+00,5.000000000000000000e+00,5.000000000000000000e+00,5.000000000000000000e+00,5.000000000000000000e+00,5.000000000000000000e+00,5.000000000000000000e+00,5.000000000000000000e+00,4.841907501220703125e+00,4.688334465026855469e+00,4.544203758239746094e+00,4.408670425415039062e+00,4.280987739562988281e+00,4.160492897033691406e+00,4.046595096588134766e+00,3.938767671585083008e+00,3.836537361145019531e+00,3.739479064941406250e+00,3.647211074829101562e+00,3.559386491775512695e+00,3.475692033767700195e+00,3.395843029022216797e+00,3.319580554962158203e+00,3.246668100357055664e+00,3.176889896392822266e+00,3.110048055648803711e+00,3.045960903167724609e+00,2.984461307525634766e+00,2.925396203994750977e+00,2.868623733520507812e+00,2.814012765884399414e+00,2.761442184448242188e+00,2.710799694061279297e+00,2.661981582641601562e+00,2.614890575408935547e+00,2.569436550140380859e+00
5.000000000000000000e+00,5.000000000000000000e+00,5.000000000000000000e+00,5.000000000000000000e+00,5.000000000000000000e+00,5.000000000000000000e+00,5.000000000000000000e+00,5.000000000000000000e+00,5.000000000000000000e+00,5.000000000000000000e+00,5.000000000000000000e+00,5.000000000000000000e+00,5.000000000000000000e+00,5.000000000000000000e+00,5.000000000000000000e+00,5.000000000000000000e+00,5.000000000000000000e+00,5.000000000000000000e+00,5.000000000000000000e+00,5.000000000000000000e+00,5.000000000000000000e+00,5.000000000000000000e+00,5.000000000000000000e+00,5.000000000000000000e+00,5.000000000000000000e+00,5.000000000000000000e+00,5.000000000000000000e+00,5.000000000000000000e+00,5.000000000000000000e+00,4.874330520629882812e+00,5.000000000000000000e+00,5.000000000000000000e+00,5.000000000000000000e+00,5.000000000000000000e+00,5.000000000000000000e+00,5.000000000000000000e+00,5.000000000000000000e+00,5.000000000000000000e+00,5.000000000000000000e+00,5.000000000000000000e+00,5.000000000000000000e+00,5.000000000000000000e+00,5.000000000000000000e+00,5.000000000000000000e+00,5.000000000000000000e+00,5.000000000000000000e+00,5.000000000000000000e+00,5.000000000000000000e+00,5.000000000000000000e+00,5.000000000000000000e+00,5.000000000000000000e+00,5.000000000000000000e+00,4.842035770416259766e+00,4.688454627990722656e+00,4.544316291809082031e+00,4.408776760101318359e+00,4.281087875366210938e+00,4.160587310791015625e+00,4.046684741973876953e+00,3.938852071762084961e+00,3.836617708206176758e+00,3.739555835723876953e+00,3.647284030914306641e+00,3.559455394744873047e+00,3.475758075714111328e+00,3.395905971527099609e+00,3.319640874862670898e+00,3.246726036071777344e+00,3.176944971084594727e+00,3.110100746154785156e+00,3.046011447906494141e+00,2.984510183334350586e+00,2.925442934036254883e+00,2.868668556213378906e+00,2.814055919647216797e+00,2.761483907699584961e+00,2.710840225219726562e+00,2.662020206451416016e+00,2.614927768707275391e+00,2.569472551345825195e+00
5.000000000000000000e+00,5.000000000000000000e+00,5.000000000000000000e+00,5.000000000000000000e+00,5.000000000000000000e+00,5.000000000000000000e+00,5.000000000000000000e+00,5.000000000000000000e+00,5.000000000000000000e+00,5.000000000000000000e+00,5.000000000000000000e+00,5.000000000000000000e+00,5.000000000000000000e+00,5.000000000000000000e+00,5.000000000000000000e+00,5.000000000000000000e+00,5.000000000000000000e+00,5.000000000000000000e+00,5.000000000000000000e+00,5.000000000000000000e+00,5.000000000000000000e+00,5.000000000000000000e+00,5.000000000000000000e+00,5.000000000000000000e+00,5.000000000000000000e+00,5.000000000000000000e+00,5.000000000000000000e+00,5.000000000000000000e+00,5.000000000000000000e+00,4.904176712036132812e+00,5.000000000000000000e+00,5.000000000000000000e+00,5.000000000000000000e+00,5.000000000000000000e+00,5.000000000000000000e+00,5.000000000000000000e+00,5.000000000000000000e+00,5.000000000000000000e+00,5.000000000000000000e+00,5.000000000000000000e+00,5.000000000000000000e+00,5.000000000000000000e+00,5.000000000000000000e+00,5.000000000000000000e+00,5.000000000000000000e+00,5.000000000000000000e+00,5.000000000000000000e+00,5.000000000000000000e+00,5.000000000000000000e+00,5.000000000000000000e+00,5.000000000000000000e+00,5.000000000000000000e+00,4.842164039611816406e+00,4.688574790954589844e+00,4.544429302215576172e+00,4.408883094787597656e+00,4.281188011169433594e+00,4.160682201385498047e+00,4.046773910522460938e+00,3.938937187194824219e+00,3.836698293685913086e+00,3.739632129669189453e+00,3.647356510162353516e+00,3.559525012969970703e+00,3.475824117660522461e+00,3.395968914031982422e+00,3.319700956344604492e+00,3.246783494949340820e+00,3.177000284194946289e+00,3.110153675079345703e+00,3.046061992645263672e+00,2.984558582305908203e+00,2.925489902496337891e+00,2.868713617324829102e+00,2.814099073410034180e+00,2.761525630950927734e+00,2.710880279541015625e+00,2.662059068679809570e+00,2.614965438842773438e+00,2.569508552551269531e+00
5.000000000000000000e+00,5.000000000000000000e+00,5.000000000000000000e+00,5.000000000000000000e+00,5.000000000000000000e+00,5.000000000000000000e+00,5.000000000000000000e+00,5.000000000000000000e+00,5.000000000000000000e+00,5.000000000000000000e+00,5.000000000000000000e+00,5.000000000000000000e+00,5.000000000000000000e+00,5.000000000000000000e+00,5.000000000000000000e+00,5.000000000000000000e+00,5.000000000000000000e+00,5.000000000000000000e+00,5.000000000000000000e+00,5.000000000000000000e+00,5.000000000000000000e+00,5.000000000000000000e+00,5.000000000000000000e+00,5.000000000000000000e+00,5.000000000000000000e+00,5.000000000000000000e+00,5.000000000000000000e+00,5.000000000000000000e+00,5.000000000000000000e+00,4.913696765899658203e+00,5.000000000000000000e+00,5.000000000000000000e+00,5.000000000000000000e+00,5.000000000000000000e+00,5.000000000000000000e+00,5.000000000000000000e+00,5.000000000000000000e+00,5.000000000000000000e+00,5.000000000000000000e+00,5.000000000000000000e+00,5.000000000000000000e+00,5.000000000000000000e+00,5.000000000000000000e+00,5.000000000000000000e+00,5.000000000000000000e+00,5.000000000000000000e+00,5.000000000000000000e+00,5.000000000000000000e+00,5.000000000000000000e+00,5.000000000000000000e+00,5.000000000000000000e+00,5.000000000000000000e+00,4.842292308807373047e+00,4.688694477081298828e+00,4.544542312622070312e+00,4.408989429473876953e+00,4.281288623809814453e+00,4.160776615142822266e+00,4.046863555908203125e+00,3.939021825790405273e+00,3.836778640747070312e+00,3.739708662033081055e+00,3.647428989410400391e+00,3.559594154357910156e+00,3.475890159606933594e+00,3.396032094955444336e+00,3.319761514663696289e+00,3.246840953826904297e+00,3.177055358886718750e+00,3.110206604003906250e+00,3.046113014221191406e+00,2.984607458114624023e+00,2.925536394119262695e+00,2.868758678436279297e+00,2.814142465591430664e+00,2.761567354202270508e+00,2.710920333862304688e+00,2.662097692489624023e+00,2.615002632141113281e+00,2.569544792175292969e+00
5.000000000000000000e+00,5.000000000000000000e+00,5.000000000000000000e+00,5.000000000000000000e+00,5.000000000000000000e+00,5.000000000000000000e+00,5.000000000000000000e+00,5.000000000000000000e+00,5.000000000000000000e+00,5.000000000000000000e+00,5.000000000000000000e+00,5.000000000000000000e+00,5.000000000000000000e+00,5.000000000000000000e+00,5.000000000000000000e+00,5.000000000000000000e+00,5.000000000000000000e+00,5.000000000000000000e+00,5.000000000000000000e+00,5.000000000000000000e+00,5.000000000000000000e+00,5.000000000000000000e+00,5.000000000000000000e+00,5.000000000000000000e+00,5.000000000000000000e+00,5.000000000000000000e+00,5.000000000000000000e+00,5.000000000000000000e+00,5.000000000000000000e+00,4.915685653686523438e+00,5.000000000000000000e+00,5.000000000000000000e+00,5.000000000000000000e+00,5.000000000000000000e+00,5.000000000000000000e+00,5.000000000000000000e+00,5.000000000000000000e+00,5.000000000000000000e+00,5.000000000000000000e+00,5.000000000000000000e+00,5.000000000000000000e+00,5.000000000000000000e+00,5.000000000000000000e+00,5.000000000000000000e+00,5.000000000000000000e+00,5.000000000000000000e+00,5.000000000000000000e+00,5.000000000000000000e+00,5.000000000000000000e+00,5.000000000000000000e+00,5.000000000000000000e+00,5.000000000000000000e+00,4.842420101165771484e+00,4.688815116882324219e+00,4.544655323028564453e+00,4.409095287322998047e+00,4.281388759613037109e+00,4.160871028900146484e+00,4.046953201293945312e+00,3.939106941223144531e+00,3.836858987808227539e+00,3.739784955978393555e+00,3.647501945495605469e+00,3.559663534164428711e+00,3.475955963134765625e+00,3.396095037460327148e+00,3.319821596145629883e+00,3.246898651123046875e+00,3.177110671997070312e+00,3.110259294509887695e+00,3.046163558959960938e+00,2.984656095504760742e+00,2.925583362579345703e+00,2.868803501129150391e+00,2.814185857772827148e+00,2.761608839035034180e+00,2.710960626602172852e+00,2.662136554718017578e+00,2.615040063858032227e+00,2.569580793380737305e+00
5.000000000000000000e+00,5.000000000000000000e+00,5.000000000000000000e+00,5.000000000000000000e+00,5.000000000000000000e+00,5.000000000000000000e+00,5.000000000000000000e+00,5.000000000000000000e+00,5.000000000000000000e+00,5.000000000000000000e+00,5.000000000000000000e+00,5.000000000000000000e+00,5.000000000000000000e+00,5.000000000000000000e+00,5.000000000000000000e+00,5.000000000000000000e+00,5.000000000000000000e+00,5.000000000000000000e+00,5.000000000000000000e+00,5.000000000000000000e+00,5.000000000000000000e+00,5.000000000000000000e+00,5.000000000000000000e+00,5.000000000000000000e+00,5.000000000000000000e+00,5.000000000000000000e+00,5.000000000000000000e+00,5.000000000000000000e+00,5.000000000000000000e+00,4.933389186859130859e+00,5.000000000000000000e+00,5.000000000000000000e+00,5.000000000000000000e+00,5.000000000000000000e+00,5.000000000000000000e+00,5.000000000000000000e+00,5.000000000000000000e+00,5.000000000000000000e+00,5.000000000000000000e+00,5.000000000000000000e+00,5.000000000000000000e+00,5.000000000000000000e+00,5.000000000000000000e+00,5.000000000000000000e+00,5.000000000000000000e+00,5.000000000000000000e+00,5.000000000000000000e+00,5.000000000000000000e+00,5.000000000000000000e+00,5.000000000000000000e+00,5.000000000000000000e+00,5.000000000000000000e+00,4.842548370361328125e+00,4.688935279846191406e+00,4.544768333435058594e+00,4.409201622009277344e+00,4.281488895416259766e+00,4.160965919494628906e+00,4.047042846679687500e+00,3.939191579818725586e+00,3.836939573287963867e+00,3.739861249923706055e+00,3.647574663162231445e+00,3.559732675552368164e+00,3.476022243499755859e+00,3.396158218383789062e+00,3.319881677627563477e+00,3.246956348419189453e+00,3.177165746688842773e+00,3.110312223434448242e+00,3.046214342117309570e+00,2.984704732894897461e+00,2.925630092620849609e+00,2.868848562240600586e+00,2.814229249954223633e+00,2.761650562286376953e+00,2.711000680923461914e+00,2.662175178527832031e+00,2.615077495574951172e+00,2.569617033004760742e+00
5.000000000000000000e+00,5.000000000000000000e+00,5.000000000000000000e+00,5.000000000000000000e+00,5.000000000000000000e+00,5.000000000000000000e+00,5.000000000000000000e+00,5.000000000000000000e+00,5.000000000000000000e+00,5.000000000000000000e+00,5.000000000000000000e+00,5.000000000000000000e+00,5.000000000000000000e+00,5.000000000000000000e+00,5.000000000000000000e+00,5.000000000000000000e+00,5.000000000000000000e+00,5.000000000000000000e+00,5.000000000000000000e+00,5.000000000000000000e+00,5.000000000000000000e+00,5.000000000000000000e+00,5.000000000000000000e+00,5.000000000000000000e+00,5.000000000000000000e+00,5.000000000000000000e+00,5.000000000000000000e+00,5.000000000000000000e+00,5.000000000000000000e+00,4.947519302368164062e+00,5.000000000000000000e+00,5.000000000000000000e+00,5.000000000000000000e+00,5.000000000000000000e+00,5.000000000000000000e+00,5.000000000000000000e+00,5.000000000000000000e+00,5.000000000000000000e+00,5.000000000000000000e+00,5.000000000000000000e+00,5.000000000000000000e+00,5.000000000000000000e+00,5.000000000000000000e+00,5.000000000000000000e+00,5.000000000000000000e+00,5.000000000000000000e+00,5.000000000000000000e+00,5.000000000000000000e+00,5.000000000000000000e+00,5.000000000000000000e+00,5.000000000000000000e+00,5.000000000000000000e+00,4.842676639556884766e+00,4.689055442810058594e+00,4.544880867004394531e+00,4.409307956695556641e+00,4.281589031219482422e+00,4.161060810089111328e+00,4.047132492065429688e+00,3.939276218414306641e+00,3.837019920349121094e+00,3.739938020706176758e+00,3.647647619247436523e+00,3.559801816940307617e+00,3.476088285446166992e+00,3.396221160888671875e+00,3.319941997528076172e+00,3.247014045715332031e+00,3.177220821380615234e+00,3.110365152359008789e+00,3.046264886856079102e+00,2.984753608703613281e+00,2.925676822662353516e+00,2.868893623352050781e+00,2.814272403717041016e+00,2.761692285537719727e+00,2.711040973663330078e+00,2.662213802337646484e+00,2.615114688873291016e+00,2.569653034210205078e+00
4.874036788940429688e+00,4.872821331024169922e+00,4.871606349945068359e+00,4.870392322540283203e+00,4.869178771972656250e+00,4.867966175079345703e+00,4.866753578186035156e+00,4.865541934967041016e+00,4.864330768585205078e+00,4.863120555877685547e+00,4.861910343170166016e+00,4.860701084136962891e+00,4.859492778778076172e+00,4.858284473419189453e+00,4.857077121734619141e+00,4.855870246887207031e+00,4.854663848876953125e+00,4.853458404541015625e+00,4.852253437042236328e+00,4.851048946380615234e+00,4.849844932556152344e+00,4.848641872406005859e+00,4.847438812255859375e+00,4.846236705780029297e+00,4.845035552978515625e+00,4.843834400177001953e+00,4.842633724212646484e+00,4.841434001922607422e+00,4.840234756469726562e+00,4.839036464691162109e+00,4.837838649749755859e+00,4.836641311645507812e+00,4.835444450378417969e+00,4.834248065948486328e+00,4.833052635192871094e+00,4.831857681274414062e+00,4.830663204193115234e+00,4.829469680786132812e+00,4.828276157379150391e+00,4.827083587646484375e+00,4.825891494750976562e+00,4.824700355529785156e+00,4.823509693145751953e+00,4.822319030761718750e+00,4.821129322052001953e+00,4.819940567016601562e+00,4.818751811981201172e+00,4.817564010620117188e+00,4.816376686096191406e+00,4.815189838409423828e+00,4.814003944396972656e+00,4.812818050384521484e+00,4.811633110046386719e+00,4.689175605773925781e+00,4.544993877410888672e+00,4.409414291381835938e+00,4.281689167022705078e+00,4.161155223846435547e+00,4.047221660614013672e+00,3.939361333847045898e+00,3.837100744247436523e+00,3.740014314651489258e+00,3.647720098495483398e+00,3.559871196746826172e+00,3.476154327392578125e+00,3.396284103393554688e+00,3.320002317428588867e+00,3.247071504592895508e+00,3.177276134490966797e+00,3.110418081283569336e+00,3.046315670013427734e+00,2.984802007675170898e+00,2.925723791122436523e+00,2.868938684463500977e+00,2.814315557479858398e+00,2.761734008789062500e+00,2.711081027984619141e+00,2.662252664566040039e+00,2.615152359008789062e+00,2.569689035415649414e+00
3.777557134628295898e+00,3.776827096939086914e+00,3.776097297668457031e+00,3.775367975234985352e+00,3.774638652801513672e+00,3.773909807205200195e+00,3.773180961608886719e+00,3.772452831268310547e+00,3.771724700927734375e+00,3.770996809005737305e+00,3.770269393920898438e+00,3.769541978836059570e+00,3.768815040588378906e+00,3.768088340759277344e+00,3.767361879348754883e+00,3.766635894775390625e+00,3.765910148620605469e+00,3.765184402465820312e+00,3.764459133148193359e+00,3.763734102249145508e+00,3.763009309768676758e+00,3.762284994125366211e+00,3.761560916900634766e+00,3.760836839675903320e+00,3.760113239288330078e+00,3.759390115737915039e+00,3.758666992187500000e+00,3.757944107055664062e+00,3.757221698760986328e+00,3.756499528884887695e+00,3.755777597427368164e+00,3.755055904388427734e+00,3.754334449768066406e+00,3.753613233566284180e+00,3.752892494201660156e+00,3.752171993255615234e+00,3.751451730728149414e+00,3.750731706619262695e+00,3.750011920928955078e+00,3.749292373657226562e+00,3.748573303222656250e+00,3.747854471206665039e+00,3.747135639190673828e+00,3.746417284011840820e+00,3.745698928833007812e+00,3.744981050491333008e+00,3.744263648986816406e+00,3.743546247482299805e+00,3.742829322814941406e+00,3.742112636566162109e+00,3.741396188735961914e+00,3.740680217742919922e+00,3.739964246749877930e+00,3.739248752593994141e+00,3.738533258438110352e+00,3.737818241119384766e+00,3.737103462219238281e+00,3.736388921737670898e+00,3.735674858093261719e+00,3.734960794448852539e+00,3.734247207641601562e+00,3.733533620834350586e+00,3.647792577743530273e+00,3.559940338134765625e+00,3.476220369338989258e+00,3.396347284317016602e+00,3.320062637329101562e+00,3.247128963470458984e+00,3.177331209182739258e+00,3.110470771789550781e+00,3.046366453170776367e+00,2.984850883483886719e+00,2.925770282745361328e+00,2.868983507156372070e+00,2.814358949661254883e+00,2.761775732040405273e+00,2.711121082305908203e+00,2.662291288375854492e+00,2.615189552307128906e+00,2.569725275039672852e+00
3.083812713623046875e+00,3.083326101303100586e+00,3.082839727401733398e+00,3.082353591918945312e+00,3.081867456436157227e+00,3.081381559371948242e+00,3.080895662307739258e+00,3.080410003662109375e+00,3.079924583435058594e+00,3.079439163208007812e+00,3.078954219818115234e+00,3.078469038009643555e+00,3.077984094619750977e+00,3.077499389648437500e+00,3.077014923095703125e+00,3.076530456542968750e+00,3.076046228408813477e+00,3.075562238693237305e+00,3.075078248977661133e+00,3.074594497680664062e+00,3.074110746383666992e+00,3.073627233505249023e+00,3.073143959045410156e+00,3.072660684585571289e+00,3.072177648544311523e+00,3.071694850921630859e+00,3.071211814880371094e+00,3.070729255676269531e+00,3.070246696472167969e+00,3.069764375686645508e+00,3.069282293319702148e+00,3.068800449371337891e+00,3.068318605422973633e+00,3.067836761474609375e+00,3.067355394363403320e+00,3.066874027252197266e+00,3.066392660140991211e+00,3.065911769866943359e+00,3.065430879592895508e+00,3.064949989318847656e+00,3.064469575881958008e+00,3.063988924026489258e+00,3.063508749008178711e+00,3.063028573989868164e+00,3.062548398971557617e+00,3.062068700790405273e+00,3.061589002609252930e+00,3.061109304428100586e+00,3.060629844665527344e+00,3.060150623321533203e+00,3.059671640396118164e+00,3.059192657470703125e+00,3.058713674545288086e+00,3.058235168457031250e+00,3.057756662368774414e+00,3.057278156280517578e+00,3.056799888610839844e+00,3.056321859359741211e+00,3.055844068527221680e+00,3.055366277694702148e+00,3.054888725280761719e+00,3.054411172866821289e+00,3.053933858871459961e+00,3.053456544876098633e+00,3.052979707717895508e+00,3.052502632141113281e+00,3.052026033401489258e+00,3.051549434661865234e+00,3.051073074340820312e+00,3.050596714019775391e+00,3.046416997909545898e+00,2.984899520874023438e+00,2.925817251205444336e+00,2.869028329849243164e+00,2.814402103424072266e+00,2.761817455291748047e+00,2.711161375045776367e+00,2.662330150604248047e+00,2.615226745605468750e+00,2.569761276245117188e+00
2.605343818664550781e+00,2.604996681213378906e+00,2.604649305343627930e+00,2.604302167892456055e+00,2.603955268859863281e+00,2.603608369827270508e+00,2.603261470794677734e+00,2.602914810180664062e+00,2.602567911148071289e+00,2.602221488952636719e+00,2.601874828338623047e+00,2.601528644561767578e+00,2.601182222366333008e+00,2.600836038589477539e+00,2.600490093231201172e+00,2.600143909454345703e+00,2.599798202514648438e+00,2.599452257156372070e+00,2.599106550216674805e+00,2.598760843276977539e+00,2.598415374755859375e+00,2.598069906234741211e+00,2.597724676132202148e+00,2.597379207611083984e+00,2.597034215927124023e+00,2.596688985824584961e+00,2.596343994140625000e+00,2.595999240875244141e+00,2.595654487609863281e+00,2.595309734344482422e+00,2.594964981079101562e+00,2.594620466232299805e+00,2.594276189804077148e+00,2.593931674957275391e+00,2.593587398529052734e+00,2.593243360519409180e+00,2.592899322509765625e+00,2.592555284500122070e+00,2.592211246490478516e+00,2.591867685317993164e+00,2.591523885726928711e+00,2.591180324554443359e+00,2.590836763381958008e+00,2.590493202209472656e+00,2.590149879455566406e+00,2.589806795120239258e+00,2.589463472366333008e+00,2.589120388031005859e+00,2.588777542114257812e+00,2.588434696197509766e+00,2.588091850280761719e+00,2.587749004364013672e+00,2.587406396865844727e+00,2.587064027786254883e+00,2.586721420288085938e+00,2.586379289627075195e+00,2.586036920547485352e+00,2.585694789886474609e+00,2.585352659225463867e+00,2.585010766983032227e+00,2.584668874740600586e+00,2.584326982498168945e+00,2.583985328674316406e+00,2.583643674850463867e+00,2.583302259445190430e+00,2.582960844039916992e+00,2.582619428634643555e+00,2.582278251647949219e+00,2.581937074661254883e+00,2.581595897674560547e+00,2.581254959106445312e+00,2.580914020538330078e+00,2.580573320388793945e+00,2.580232620239257812e+00,2.579891920089721680e+00,2.579551458358764648e+00,2.579210996627807617e+00,2.578870534896850586e+00,2.578530073165893555e+00,2.569797515869140625e+00
2.255406141281127930e+00,2.255146026611328125e+00,2.254885673522949219e+00,2.254625558853149414e+00,2.254365444183349609e+00,2.254105567932128906e+00,2.253845453262329102e+00,2.253585577011108398e+00,2.253325700759887695e+00,2.253066062927246094e+00,2.252806186676025391e+00,2.252546548843383789e+00,2.252287149429321289e+00,2.252027511596679688e+00,2.251768112182617188e+00,2.251508474349975586e+00,2.251249313354492188e+00,2.250989913940429688e+00,2.250730752944946289e+00,2.250471353530883789e+00,2.250212430953979492e+00,2.249953269958496094e+00,2.249694347381591797e+00,2.249435424804687500e+00,2.249176502227783203e+00,2.248917579650878906e+00,2.248658895492553711e+00,2.248400211334228516e+00,2.248141527175903320e+00,2.247882843017578125e+00,2.247624397277832031e+00,2.247365951538085938e+00,2.247107505798339844e+00,2.246849060058593750e+00,2.246590852737426758e+00,2.246332645416259766e+00,2.246074438095092773e+00,2.245816230773925781e+00,2.245558261871337891e+00,2.245300054550170898e+00,2.245042324066162109e+00,2.244784355163574219e+00,2.244526624679565430e+00,2.244268655776977539e+00,2.244011163711547852e+00,2.243753433227539062e+00,2.243495941162109375e+00,2.243238210678100586e+00,2.242980957031250000e+00,2.242723464965820312e+00,2.242465972900390625e+00,2.242208719253540039e+00,2.241951465606689453e+00,2.241694450378417969e+00,2.241437196731567383e+00,2.241180181503295898e+00,2.240923166275024414e+00,2.240666389465332031e+00,2.240409374237060547e+00,2.240152597427368164e+00,2.239895582199096680e+00,2.239639043807983398e+00,2.239382266998291016e+00,2.239125728607177734e+00,2.238869190216064453e+00,2.238612890243530273e+00,2.238356351852416992e+00,2.238100051879882812e+00,2.237843751907348633e+00,2.237587451934814453e+00,2.237331390380859375e+00,2.237075328826904297e+00,2.236819267272949219e+00,2.236563205718994141e+00,2.236307144165039062e+00,2.236051321029663086e+00,2.235795497894287109e+00,2.235539674758911133e+00,2.235284090042114258e+00,2.235028266906738281e+00
1.988341689109802246e+00,1.988139271736145020e+00,1.987937211990356445e+00,1.987734913825988770e+00,1.987532854080200195e+00,1.987330555915832520e+00,1.987128615379333496e+00,1.986926436424255371e+00,1.986724615097045898e+00,1.986522555351257324e+00,1.986320734024047852e+00,1.986118793487548828e+00,1.985917091369628906e+00,1.985715150833129883e+00,1.985513567924499512e+00,1.985311746597290039e+00,1.985110163688659668e+00,1.984908461570739746e+00,1.984706997871398926e+00,1.984505295753479004e+00,1.984303951263427734e+00,1.984102368354797363e+00,1.983901023864746094e+00,1.983699560165405273e+00,1.983498334884643555e+00,1.983296871185302734e+00,1.983095765113830566e+00,1.982894420623779297e+00,1.982693433761596680e+00,1.982492089271545410e+00,1.982291102409362793e+00,1.982089996337890625e+00,1.981889128684997559e+00,1.981688022613525391e+00,1.981487154960632324e+00,1.981286168098449707e+00,1.981085419654846191e+00,1.980884552001953125e+00,1.980683922767639160e+00,1.980483055114746094e+00,1.980282425880432129e+00,1.980081677436828613e+00,1.979881167411804199e+00,1.979680538177490234e+00,1.979479908943176270e+00,1.979279518127441406e+00,1.979078888893127441e+00,1.978878617286682129e+00,1.978678226470947266e+00,1.978477954864501953e+00,1.978277564048767090e+00,1.978077411651611328e+00,1.977877140045166016e+00,1.977677106857299805e+00,1.977476835250854492e+00,1.977276921272277832e+00,1.977076649665832520e+00,1.976876854896545410e+00,1.976676702499389648e+00,1.976476907730102539e+00,1.976276993751525879e+00,1.976077198982238770e+00,1.975877285003662109e+00,1.975677728652954102e+00,1.975477814674377441e+00,1.975278258323669434e+00,1.975078582763671875e+00,1.974879026412963867e+00,1.974679350852966309e+00,1.974480032920837402e+00,1.974280357360839844e+00,1.974081039428710938e+00,1.973881602287292480e+00,1.973682284355163574e+00,1.973482847213745117e+00,1.973283767700195312e+00,1.973084449768066406e+00,1.972885370254516602e+00,1.972686052322387695e+00,1.972487092018127441e+00
1.777820587158203125e+00,1.777659654617309570e+00,1.777498841285705566e+00,1.777338027954101562e+00,1.777177214622497559e+00,1.777016282081604004e+00,1.776855587959289551e+00,1.776694893836975098e+00,1.776534199714660645e+00,1.776373267173767090e+00,1.776211619377136230e+00,1.776050329208374023e+00,1.775888800621032715e+00,1.775727629661560059e+00,1.775566101074218750e+00,1.775404930114746094e+00,1.775243520736694336e+00,1.775082349777221680e+00,1.774921059608459473e+00,1.774760007858276367e+00,1.774598717689514160e+00,1.774437665939331055e+00,1.774276494979858398e+00,1.774115562438964844e+00,1.773954391479492188e+00,1.773793458938598633e+00,1.773632407188415527e+00,1.773471355438232422e+00,1.773310542106628418e+00,1.773149490356445312e+00,1.772988677024841309e+00,1.772827744483947754e+00,1.772667050361633301e+00,1.772506237030029297e+00,1.772345542907714844e+00,1.772184729576110840e+00,1.772024154663085938e+00,1.771863341331481934e+00,1.771702766418457031e+00,1.771542072296142578e+00,1.771381616592407227e+00,1.771221041679382324e+00,1.771060585975646973e+00,1.770900011062622070e+00,1.770739555358886719e+00,1.770579099655151367e+00,1.770418763160705566e+00,1.770258307456970215e+00,1.770098090171813965e+00,1.769937634468078613e+00,1.769777417182922363e+00,1.769617080688476562e+00,1.769456982612609863e+00,1.769296646118164062e+00,1.769136548042297363e+00,1.768976330757141113e+00,1.768816351890563965e+00,1.768656134605407715e+00,1.768496155738830566e+00,1.768336057662963867e+00,1.768176198005676270e+00,1.768016099929809570e+00,1.767856240272521973e+00,1.767696261405944824e+00,1.767536401748657227e+00,1.767376542091369629e+00,1.767216801643371582e+00,1.767056822776794434e+00,1.766897201538085938e+00,1.766737341880798340e+00,1.766577720642089844e+00,1.766417980194091797e+00,1.766258478164672852e+00,1.766098737716674805e+00,1.765939235687255859e+00,1.765779614448547363e+00,1.765620112419128418e+00,1.765460610389709473e+00,1.765301227569580078e+00,1.765141606330871582e+00
1.607610464096069336e+00,1.607478857040405273e+00,1.607347249984741211e+00,1.607215762138366699e+00,1.607084274291992188e+00,1.606952905654907227e+00,1.606821417808532715e+00,1.606690049171447754e+00,1.606558680534362793e+00,1.606427073478698730e+00,1.606295704841613770e+00,1.606164455413818359e+00,1.606033086776733398e+00,1.605901837348937988e+00,1.605770587921142578e+00,1.605639338493347168e+00,1.605508089065551758e+00,1.605376720428466797e+00,1.605244874954223633e+00,1.605113029479980469e+00,1.604981184005737305e+00,1.604849457740783691e+00,1.604717612266540527e+00,1.604585886001586914e+00,1.604454040527343750e+00,1.604322433471679688e+00,1.604190707206726074e+00,1.604059100151062012e+00,1.603927373886108398e+00,1.603795766830444336e+00,1.603664040565490723e+00,1.603532552719116211e+00,1.603400945663452148e+00,1.603269457817077637e+00,1.603137850761413574e+00,1.603006482124328613e+00,1.602874875068664551e+00,1.602743506431579590e+00,1.602612018585205078e+00,1.602480649948120117e+00,1.602349162101745605e+00,1.602217912673950195e+00,1.602086544036865234e+00,1.601955294609069824e+00,1.601823806762695312e+00,1.601692676544189453e+00,1.601561307907104492e+00,1.601430177688598633e+00,1.601298809051513672e+00,1.601167678833007812e+00,1.601036429405212402e+00,1.600905418395996094e+00,1.600774168968200684e+00,1.600643157958984375e+00,1.600512027740478516e+00,1.600381016731262207e+00,1.600249886512756348e+00,1.600118875503540039e+00,1.599987745285034180e+00,1.599856853485107422e+00,1.599725842475891113e+00,1.599594950675964355e+00,1.599463939666748047e+00,1.599333167076110840e+00,1.599202275276184082e+00,1.599071502685546875e+00,1.598940491676330566e+00,1.598809838294982910e+00,1.598678946495056152e+00,1.598548293113708496e+00,1.598417401313781738e+00,1.598286747932434082e+00,1.598155975341796875e+00,1.598025441169738770e+00,1.597894668579101562e+00,1.597764134407043457e+00,1.597633361816406250e+00,1.597502827644348145e+00,1.597372174263000488e+00,1.597241520881652832e+00
1.467144727706909180e+00,1.467035174369812012e+00,1.466925621032714844e+00,1.466816067695617676e+00,1.466706514358520508e+00,1.466597080230712891e+00,1.466487407684326172e+00,1.466377973556518555e+00,1.466268539428710938e+00,1.466159105300903320e+00,1.466049671173095703e+00,1.465940356254577637e+00,1.465830922126770020e+00,1.465721607208251953e+00,1.465612053871154785e+00,1.465502738952636719e+00,1.465393424034118652e+00,1.465284109115600586e+00,1.465174794197082520e+00,1.465065598487854004e+00,1.464956283569335938e+00,1.464847087860107422e+00,1.464737772941589355e+00,1.464628577232360840e+00,1.464519381523132324e+00,1.464410185813903809e+00,1.464300632476806641e+00,1.464190840721130371e+00,1.464081287384033203e+00,1.463971495628356934e+00,1.463861942291259766e+00,1.463752150535583496e+00,1.463642597198486328e+00,1.463532924652099609e+00,1.463423371315002441e+00,1.463313817977905273e+00,1.463204264640808105e+00,1.463094711303710938e+00,1.462985157966613770e+00,1.462875604629516602e+00,1.462766170501708984e+00,1.462656617164611816e+00,1.462547302246093750e+00,1.462437748908996582e+00,1.462328433990478516e+00,1.462218880653381348e+00,1.462109565734863281e+00,1.462000131607055664e+00,1.461890816688537598e+00,1.461781382560729980e+00,1.461672186851501465e+00,1.461562752723693848e+00,1.461453557014465332e+00,1.461344242095947266e+00,1.461234927177429199e+00,1.461125612258911133e+00,1.461016535758972168e+00,1.460907220840454102e+00,1.460798025131225586e+00,1.460688829421997070e+00,1.460579633712768555e+00,1.460470557212829590e+00,1.460361361503601074e+00,1.460252285003662109e+00,1.460143089294433594e+00,1.460034012794494629e+00,1.459924936294555664e+00,1.459815979003906250e+00,1.459706783294677734e+00,1.459597826004028320e+00,1.459488749504089355e+00,1.459379911422729492e+00,1.459270834922790527e+00,1.459161877632141113e+00,1.459052920341491699e+00,1.458944082260131836e+00,1.458835124969482422e+00,1.458726286888122559e+00,1.458617329597473145e+00,1.458508491516113281e+00
1.349253058433532715e+00,1.349160432815551758e+00,1.349067687988281250e+00,1.348975062370300293e+00,1.348882436752319336e+00,1.348789811134338379e+00,1.348697185516357422e+00,1.348604559898376465e+00,1.348512053489685059e+00,1.348419427871704102e+00,1.348326802253723145e+00,1.348234295845031738e+00,1.348141789436340332e+00,1.348049283027648926e+00,1.347956776618957520e+00,1.347864270210266113e+00,1.347771883010864258e+00,1.347679376602172852e+00,1.347586870193481445e+00,1.347494363784790039e+00,1.347401976585388184e+00,1.347309589385986328e+00,1.347217202186584473e+00,1.347124814987182617e+00,1.347032427787780762e+00,1.346940040588378906e+00,1.346847653388977051e+00,1.346755266189575195e+00,1.346662998199462891e+00,1.346570730209350586e+00,1.346478462219238281e+00,1.346386075019836426e+00,1.346293807029724121e+00,1.346201658248901367e+00,1.346109151840209961e+00,1.346016526222229004e+00,1.345923781394958496e+00,1.345831036567687988e+00,1.345738410949707031e+00,1.345645785331726074e+00,1.345553040504455566e+00,1.345460414886474609e+00,1.345367789268493652e+00,1.345275163650512695e+00,1.345182538032531738e+00,1.345089912414550781e+00,1.344997406005859375e+00,1.344904780387878418e+00,1.344812273979187012e+00,1.344719648361206055e+00,1.344627261161804199e+00,1.344534635543823242e+00,1.344442248344421387e+00,1.344349622726440430e+00,1.344257235527038574e+00,1.344164729118347168e+00,1.344072341918945312e+00,1.343979835510253906e+00,1.343887448310852051e+00,1.343795061111450195e+00,1.343702673912048340e+00,1.343610286712646484e+00,1.343517899513244629e+00,1.343425512313842773e+00,1.343333244323730469e+00,1.343240857124328613e+00,1.343148589134216309e+00,1.343056201934814453e+00,1.342963933944702148e+00,1.342871665954589844e+00,1.342779397964477539e+00,1.342687129974365234e+00,1.342594861984252930e+00,1.342502593994140625e+00,1.342410445213317871e+00,1.342318177223205566e+00,1.342226028442382812e+00,1.342133760452270508e+00,1.342041730880737305e+00,1.341949462890625000e+00
1.248898386955261230e+00,1.248818993568420410e+00,1.248739719390869141e+00,1.248660326004028320e+00,1.248580932617187500e+00,1.248501658439636230e+00,1.248422265052795410e+00,1.248342871665954590e+00,1.248263478279113770e+00,1.248184204101562500e+00,1.248104929924011230e+00,1.248025655746459961e+00,1.247946381568908691e+00,1.247867107391357422e+00,1.247787833213806152e+00,1.247708439826965332e+00,1.247629284858703613e+00,1.247550010681152344e+00,1.247470855712890625e+00,1.247391581535339355e+00,1.247312426567077637e+00,1.247233152389526367e+00,1.247153997421264648e+00,1.247074723243713379e+00,1.246995568275451660e+00,1.246916413307189941e+00,1.246837258338928223e+00,1.246758222579956055e+00,1.246679067611694336e+00,1.246599912643432617e+00,1.246520876884460449e+00,1.246441721916198730e+00,1.246362566947937012e+00,1.246283531188964844e+00,1.246204495429992676e+00,1.246125459671020508e+00,1.246046423912048340e+00,1.245967388153076172e+00,1.245888352394104004e+00,1.245809197425842285e+00,1.245730280876159668e+00,1.245651245117187500e+00,1.245572328567504883e+00,1.245492935180664062e+00,1.245413541793823242e+00,1.245334148406982422e+00,1.245254755020141602e+00,1.245175480842590332e+00,1.245096087455749512e+00,1.245016813278198242e+00,1.244937539100646973e+00,1.244858264923095703e+00,1.244778871536254883e+00,1.244699716567993164e+00,1.244620323181152344e+00,1.244541168212890625e+00,1.244461774826049805e+00,1.244382619857788086e+00,1.244303345680236816e+00,1.244224190711975098e+00,1.244144916534423828e+00,1.244065761566162109e+00,1.243986487388610840e+00,1.243907451629638672e+00,1.243828177452087402e+00,1.243749022483825684e+00,1.243669867515563965e+00,1.243590831756591797e+00,1.243511557579040527e+00,1.243432521820068359e+00,1.243353366851806641e+00,1.243274331092834473e+00,1.243195176124572754e+00,1.243116140365600586e+00,1.243036985397338867e+00,1.242958068847656250e+00,1.242878913879394531e+00,1.242799878120422363e+00,1.242720842361450195e+00,1.242641925811767578e+00
1.162438750267028809e+00,1.162369966506958008e+00,1.162301301956176758e+00,1.162232398986816406e+00,1.162163615226745605e+00,1.162094950675964355e+00,1.162026166915893555e+00,1.161957383155822754e+00,1.161888718605041504e+00,1.161820054054260254e+00,1.161751270294189453e+00,1.161682486534118652e+00,1.161613821983337402e+00,1.161545157432556152e+00,1.161476492881774902e+00,1.161407828330993652e+00,1.161339163780212402e+00,1.161270499229431152e+00,1.161201834678649902e+00,1.161133170127868652e+00,1.161064505577087402e+00,1.160995960235595703e+00,1.160927295684814453e+00,1.160858750343322754e+00,1.160790085792541504e+00,1.160721540451049805e+00,1.160652995109558105e+00,1.160584330558776855e+00,1.160515785217285156e+00,1.160447239875793457e+00,1.160378694534301758e+00,1.160310149192810059e+00,1.160241603851318359e+00,1.160173058509826660e+00,1.160104513168334961e+00,1.160036087036132812e+00,1.159967422485351562e+00,1.159898996353149414e+00,1.159830451011657715e+00,1.159762024879455566e+00,1.159693598747253418e+00,1.159625053405761719e+00,1.159556627273559570e+00,1.159488201141357422e+00,1.159419655799865723e+00,1.159351229667663574e+00,1.159282922744750977e+00,1.159214496612548828e+00,1.159146070480346680e+00,1.159077644348144531e+00,1.159009337425231934e+00,1.158940672874450684e+00,1.158872008323669434e+00,1.158803224563598633e+00,1.158734560012817383e+00,1.158665776252746582e+00,1.158597111701965332e+00,1.158528447151184082e+00,1.158459782600402832e+00,1.158391118049621582e+00,1.158322453498840332e+00,1.158253788948059082e+00,1.158185243606567383e+00,1.158116579055786133e+00,1.158047914505004883e+00,1.157979249954223633e+00,1.157910704612731934e+00,1.157842040061950684e+00,1.157773494720458984e+00,1.157704830169677734e+00,1.157636404037475586e+00,1.157567739486694336e+00,1.157499194145202637e+00,1.157430648803710938e+00,1.157362103462219238e+00,1.157293558120727539e+00,1.157225012779235840e+00,1.157156467437744141e+00,1.157087922096252441e+00,1.157019495964050293e+00
1.087174892425537109e+00,1.087114810943603516e+00,1.087054610252380371e+00,1.086994409561157227e+00,1.086934328079223633e+00,1.086874246597290039e+00,1.086814045906066895e+00,1.086753964424133301e+00,1.086693763732910156e+00,1.086633682250976562e+00,1.086573600769042969e+00,1.086513400077819824e+00,1.086453318595886230e+00,1.086393237113952637e+00,1.086333155632019043e+00,1.086273193359375000e+00,1.086212992668151855e+00,1.086152911186218262e+00,1.086092948913574219e+00,1.086032867431640625e+00,1.085972785949707031e+00,1.085912823677062988e+00,1.085852742195129395e+00,1.085792779922485352e+00,1.085732698440551758e+00,1.085672736167907715e+00,1.085612654685974121e+00,1.085552692413330078e+00,1.085492730140686035e+00,1.085432767868041992e+00,1.085372805595397949e+00,1.085312843322753906e+00,1.085252761840820312e+00,1.085192918777465820e+00,1.085132956504821777e+00,1.085072994232177734e+00,1.085013031959533691e+00,1.084953188896179199e+00,1.084893226623535156e+00,1.084833383560180664e+00,1.084773421287536621e+00,1.084713459014892578e+00,1.084653496742248535e+00,1.084593653678894043e+00,1.084533810615539551e+00,1.084473967552185059e+00,1.084414124488830566e+00,1.084354162216186523e+00,1.084294319152832031e+00,1.084234476089477539e+00,1.084174633026123047e+00,1.084114789962768555e+00,1.084054946899414062e+00,1.083995103836059570e+00,1.083935379981994629e+00,1.083875536918640137e+00,1.083815693855285645e+00,1.083755850791931152e+00,1.083696126937866211e+00,1.083636283874511719e+00,1.083576202392578125e+00,1.083516120910644531e+00,1.083456039428710938e+00,1.083395957946777344e+00,1.083335995674133301e+00,1.083275914192199707e+00,1.083215832710266113e+00,1.083155751228332520e+00,1.083095788955688477e+00,1.083035707473754883e+00,1.082975745201110840e+00,1.082915663719177246e+00,1.082855701446533203e+00,1.082795739173889160e+00,1.082735776901245117e+00,1.082675695419311523e+00,1.082615733146667480e+00,1.082555770874023438e+00,1.082495808601379395e+00,1.082435846328735352e+00
1.021064639091491699e+00,1.021011590957641602e+00,1.020958542823791504e+00,1.020905494689941406e+00,1.020852327346801758e+00,1.020799279212951660e+00,1.020746231079101562e+00,1.020693182945251465e+00,1.020640134811401367e+00,1.020587205886840820e+00,1.020534157752990723e+00,1.020481109619140625e+00,1.020428061485290527e+00,1.020375013351440430e+00,1.020322084426879883e+00,1.020269036293029785e+00,1.020216107368469238e+00,1.020163178443908691e+00,1.020110130310058594e+00,1.020057201385498047e+00,1.020004153251647949e+00,1.019951224327087402e+00,1.019898295402526855e+00,1.019845366477966309e+00,1.019792318344116211e+00,1.019739389419555664e+00,1.019686460494995117e+00,1.019633531570434570e+00,1.019580602645874023e+00,1.019527673721313477e+00,1.019474744796752930e+00,1.019421935081481934e+00,1.019369006156921387e+00,1.019316077232360840e+00,1.019263267517089844e+00,1.019210338592529297e+00,1.019157409667968750e+00,1.019104480743408203e+00,1.019051671028137207e+00,1.018998861312866211e+00,1.018945932388305664e+00,1.018893122673034668e+00,1.018840312957763672e+00,1.018787384033203125e+00,1.018734574317932129e+00,1.018681764602661133e+00,1.018628954887390137e+00,1.018576145172119141e+00,1.018523335456848145e+00,1.018470525741577148e+00,1.018417716026306152e+00,1.018364906311035156e+00,1.018312096595764160e+00,1.018259286880493164e+00,1.018206477165222168e+00,1.018153667449951172e+00,1.018100976943969727e+00,1.018048167228698730e+00,1.017995476722717285e+00,1.017942667007446289e+00,1.017889976501464844e+00,1.017837166786193848e+00,1.017784476280212402e+00,1.017731666564941406e+00,1.017678976058959961e+00,1.017626285552978516e+00,1.017573595046997070e+00,1.017520785331726074e+00,1.017467856407165527e+00,1.017414927482604980e+00,1.017361998558044434e+00,1.017309069633483887e+00,1.017256021499633789e+00,1.017203092575073242e+00,1.017150163650512695e+00,1.017097234725952148e+00,1.017044305801391602e+00,1.016991376876831055e+00,1.016938447952270508e+00,1.016885519027709961e+00
9.625337123870849609e-01,9.624865055084228516e-01,9.624393582344055176e-01,9.623922109603881836e-01,9.623450636863708496e-01,9.622979164123535156e-01,9.622507691383361816e-01,9.622036814689636230e-01,9.621565341949462891e-01,9.621093273162841797e-01,9.620621800422668457e-01,9.620150923728942871e-01,9.619680047035217285e-01,9.619208574295043945e-01,9.618737697601318359e-01,9.618266820907592773e-01,9.617795944213867188e-01,9.617325067520141602e-01,9.616854786872863770e-01,9.616383910179138184e-01,9.615913033485412598e-01,9.615442752838134766e-01,9.614971876144409180e-01,9.614500999450683594e-01,9.614030718803405762e-01,9.613559246063232422e-01,9.613088965415954590e-01,9.612618684768676758e-01,9.612148404121398926e-01,9.611677527427673340e-01,9.611207842826843262e-01,9.610737562179565430e-01,9.610267281532287598e-01,9.609797000885009766e-01,9.609327316284179688e-01,9.608857035636901855e-01,9.608387351036071777e-01,9.607917070388793945e-01,9.607447385787963867e-01,9.606977701187133789e-01,9.606508016586303711e-01,9.606037139892578125e-01,9.605567455291748047e-01,9.605097770690917969e-01,9.604628086090087891e-01,9.604158401489257812e-01,9.603689312934875488e-01,9.603219628334045410e-01,9.602749943733215332e-01,9.602280855178833008e-01,9.601811766624450684e-01,9.601342082023620605e-01,9.600872993469238281e-01,9.600403904914855957e-01,9.599934816360473633e-01,9.599465727806091309e-01,9.598996639251708984e-01,9.598526358604431152e-01,9.598057270050048828e-01,9.597588777542114258e-01,9.597119688987731934e-01,9.596650600433349609e-01,9.596182107925415039e-01,9.595713615417480469e-01,9.595244526863098145e-01,9.594776034355163574e-01,9.594307541847229004e-01,9.593839049339294434e-01,9.593370556831359863e-01,9.592902064323425293e-01,9.592433571815490723e-01,9.591965079307556152e-01,9.591497182846069336e-01,9.591027498245239258e-01,9.590559601783752441e-01,9.590091109275817871e-01,9.589623212814331055e-01,9.589151740074157715e-01,9.588681459426879883e-01,9.588211178779602051e-01
9.103492498397827148e-01,9.103070497512817383e-01,9.102649092674255371e-01,9.102227091789245605e-01,9.101805686950683594e-01,9.101383686065673828e-01,9.100962281227111816e-01,9.100540280342102051e-01,9.100118875503540039e-01,9.099697470664978027e-01,9.099276065826416016e-01,9.098854660987854004e-01,9.098433256149291992e-01,9.098010659217834473e-01,9.097589254379272461e-01,9.097168445587158203e-01,9.096747040748596191e-01,9.096325635910034180e-01,9.095904827117919922e-01,9.095483422279357910e-01,9.095062613487243652e-01,9.094641208648681641e-01,9.094220399856567383e-01,9.093799591064453125e-01,9.093378186225891113e-01,9.092957377433776855e-01,9.092536568641662598e-01,9.092115759849548340e-01,9.091694951057434082e-01,9.091274142265319824e-01,9.090852737426757812e-01,9.090431928634643555e-01,9.090011715888977051e-01,9.089590907096862793e-01,9.089170098304748535e-01,9.088749885559082031e-01,9.088329672813415527e-01,9.087908864021301270e-01,9.087488651275634766e-01,9.087068438529968262e-01,9.086647629737854004e-01,9.086227416992187500e-01,9.085807204246520996e-01,9.085386991500854492e-01,9.084967374801635742e-01,9.084547162055969238e-01,9.084125757217407227e-01,9.083706140518188477e-01,9.083285927772521973e-01,9.082865715026855469e-01,9.082446098327636719e-01,9.082026481628417969e-01,9.081606268882751465e-01,9.081186652183532715e-01,9.080767035484313965e-01,9.080346822738647461e-01,9.079927206039428711e-01,9.079507589340209961e-01,9.079087972640991211e-01,9.078668355941772461e-01,9.078249335289001465e-01,9.077829718589782715e-01,9.077408909797668457e-01,9.076989889144897461e-01,9.076570272445678711e-01,9.076151251792907715e-01,9.075731635093688965e-01,9.075312614440917969e-01,9.074892997741699219e-01,9.074473977088928223e-01,9.074054956436157227e-01,9.073635935783386230e-01,9.073216915130615234e-01,9.072797894477844238e-01,9.072378873825073242e-01,9.071959853172302246e-01,9.071540832519531250e-01,9.071121811866760254e-01,9.070702195167541504e-01,9.070283770561218262e-01
8.635323643684387207e-01,8.634943962097167969e-01,8.634563684463500977e-01,8.634184002876281738e-01,8.633804321289062500e-01,8.633425235748291016e-01,8.633045554161071777e-01,8.632666468620300293e-01,8.632286787033081055e-01,8.631907701492309570e-01,8.631528615951538086e-01,8.631149530410766602e-01,8.630769848823547363e-01,8.630390763282775879e-01,8.630011677742004395e-01,8.629632592201232910e-01,8.629253506660461426e-01,8.628874421119689941e-01,8.628494739532470703e-01,8.628115653991699219e-01,8.627737164497375488e-01,8.627358078956604004e-01,8.626978993415832520e-01,8.626600503921508789e-01,8.626221418380737305e-01,8.625842928886413574e-01,8.625463843345642090e-01,8.625085353851318359e-01,8.624706864356994629e-01,8.624328374862670898e-01,8.623949289321899414e-01,8.623570799827575684e-01,8.623192310333251953e-01,8.622813820838928223e-01,8.622434735298156738e-01,8.622056245803833008e-01,8.621677756309509277e-01,8.621299266815185547e-01,8.620920777320861816e-01,8.620542883872985840e-01,8.620164394378662109e-01,8.619786500930786133e-01,8.619408011436462402e-01,8.619030117988586426e-01,8.618651628494262695e-01,8.618273735046386719e-01,8.617895841598510742e-01,8.617517948150634766e-01,8.617139458656311035e-01,8.616761565208435059e-01,8.616383075714111328e-01,8.616005182266235352e-01,8.615627288818359375e-01,8.615249395370483398e-01,8.614871501922607422e-01,8.614493608474731445e-01,8.614115715026855469e-01,8.613738417625427246e-01,8.613360524177551270e-01,8.612983226776123047e-01,8.612605333328247070e-01,8.612228035926818848e-01,8.611850142478942871e-01,8.611472845077514648e-01,8.611095547676086426e-01,8.610718250274658203e-01,8.610339760780334473e-01,8.609962463378906250e-01,8.609585165977478027e-01,8.609207868576049805e-01,8.608830571174621582e-01,8.608453273773193359e-01,8.608075976371765137e-01,8.607698678970336914e-01,8.607321977615356445e-01,8.606944680213928223e-01,8.606567382812500000e-01,8.606190681457519531e-01,8.605813384056091309e-01,8.605436682701110840e-01
8.212952017784118652e-01,8.212608695030212402e-01,8.212265372276306152e-01,8.211922049522399902e-01,8.211578726768493652e-01,8.211235404014587402e-01,8.210891485214233398e-01,8.210548162460327148e-01,8.210204839706420898e-01,8.209862112998962402e-01,8.209518790245056152e-01,8.209176063537597656e-01,8.208832740783691406e-01,8.208490014076232910e-01,8.208147287368774414e-01,8.207803964614868164e-01,8.207461237907409668e-01,8.207118511199951172e-01,8.206775188446044922e-01,8.206432461738586426e-01,8.206089735031127930e-01,8.205747008323669434e-01,8.205403685569763184e-01,8.205060958862304688e-01,8.204718232154846191e-01,8.204375505447387695e-01,8.204032778739929199e-01,8.203690648078918457e-01,8.203347921371459961e-01,8.203005194664001465e-01,8.202663064002990723e-01,8.202320337295532227e-01,8.201977610588073730e-01,8.201635479927062988e-01,8.201293349266052246e-01,8.200950622558593750e-01,8.200608491897583008e-01,8.200266361236572266e-01,8.199923634529113770e-01,8.199580907821655273e-01,8.199238777160644531e-01,8.198896646499633789e-01,8.198553919792175293e-01,8.198211789131164551e-01,8.197870254516601562e-01,8.197528123855590820e-01,8.197185993194580078e-01,8.196843862533569336e-01,8.196501731872558594e-01,8.196159601211547852e-01,8.195818066596984863e-01,8.195475935935974121e-01,8.195134401321411133e-01,8.194792270660400391e-01,8.194450736045837402e-01,8.194108009338378906e-01,8.193765878677368164e-01,8.193424344062805176e-01,8.193082809448242188e-01,8.192741274833679199e-01,8.192399144172668457e-01,8.192057609558105469e-01,8.191716074943542480e-01,8.191374540328979492e-01,8.191033005714416504e-01,8.190691471099853516e-01,8.190349936485290527e-01,8.190008401870727539e-01,8.189667463302612305e-01,8.189325928688049316e-01,8.188984394073486328e-01,8.188642263412475586e-01,8.188300728797912598e-01,8.187959790229797363e-01,8.187618255615234375e-01,8.187277317047119141e-01,8.186935782432556152e-01,8.186594843864440918e-01,8.186253905296325684e-01,8.185912370681762695e-01
7.829971909523010254e-01,7.829659581184387207e-01,7.829347848892211914e-01,7.829035520553588867e-01,7.828723788261413574e-01,7.828411459922790527e-01,7.828099727630615234e-01,7.827787995338439941e-01,7.827475666999816895e-01,7.827163934707641602e-01,7.826852202415466309e-01,7.826539874076843262e-01,7.826228141784667969e-01,7.825916409492492676e-01,7.825604677200317383e-01,7.825292944908142090e-01,7.824981212615966797e-01,7.824669480323791504e-01,7.824357748031616211e-01,7.824046015739440918e-01,7.823734283447265625e-01,7.823423147201538086e-01,7.823111414909362793e-01,7.822799682617187500e-01,7.822488546371459961e-01,7.822176814079284668e-01,7.821865677833557129e-01,7.821553349494934082e-01,7.821241617202758789e-01,7.820930480957031250e-01,7.820619344711303711e-01,7.820307612419128418e-01,7.819996476173400879e-01,7.819685339927673340e-01,7.819374203681945801e-01,7.819062471389770508e-01,7.818751335144042969e-01,7.818440198898315430e-01,7.818129062652587891e-01,7.817817926406860352e-01,7.817506790161132812e-01,7.817195653915405273e-01,7.816885113716125488e-01,7.816573381423950195e-01,7.816262245178222656e-01,7.815951108932495117e-01,7.815639972686767578e-01,7.815329432487487793e-01,7.815018296241760254e-01,7.814707756042480469e-01,7.814396619796752930e-01,7.814086079597473145e-01,7.813774943351745605e-01,7.813464403152465820e-01,7.813153266906738281e-01,7.812842726707458496e-01,7.812532186508178711e-01,7.812221646308898926e-01,7.811910510063171387e-01,7.811599373817443848e-01,7.811288833618164062e-01,7.810978293418884277e-01,7.810667753219604492e-01,7.810357213020324707e-01,7.810046672821044922e-01,7.809736132621765137e-01,7.809425592422485352e-01,7.809115052223205566e-01,7.808805108070373535e-01,7.808494567871093750e-01,7.808184027671813965e-01,7.807874083518981934e-01,7.807563543319702148e-01,7.807253003120422363e-01,7.806943058967590332e-01,7.806632518768310547e-01,7.806321978569030762e-01,7.806011438369750977e-01,7.805701494216918945e-01,7.805391550064086914e-01
7.481117844581604004e-01,7.480832934379577637e-01,7.480548024177551270e-01,7.480263113975524902e-01,7.479978203773498535e-01,7.479693889617919922e-01,7.479408979415893555e-01,7.479124069213867188e-01,7.478839755058288574e-01,7.478554844856262207e-01,7.478269934654235840e-01,7.477985620498657227e-01,7.477700710296630859e-01,7.477416396141052246e-01,7.477131485939025879e-01,7.476846575736999512e-01,7.476561665534973145e-01,7.476277351379394531e-01,7.475993037223815918e-01,7.475708127021789551e-01,7.475423812866210938e-01,7.475139498710632324e-01,7.474855184555053711e-01,7.474570274353027344e-01,7.474285960197448730e-01,7.474001646041870117e-01,7.473717331886291504e-01,7.473433017730712891e-01,7.473148703575134277e-01,7.472864389419555664e-01,7.472580075263977051e-01,7.472296357154846191e-01,7.472011446952819824e-01,7.471727132797241211e-01,7.471442818641662598e-01,7.471158504486083984e-01,7.470874786376953125e-01,7.470590472221374512e-01,7.470306754112243652e-01,7.470022439956665039e-01,7.469738125801086426e-01,7.469454407691955566e-01,7.469170093536376953e-01,7.468886375427246094e-01,7.468602657318115234e-01,7.468318343162536621e-01,7.468034625053405762e-01,7.467750906944274902e-01,7.467465996742248535e-01,7.467182278633117676e-01,7.466898560523986816e-01,7.466614842414855957e-01,7.466331124305725098e-01,7.466047406196594238e-01,7.465763688087463379e-01,7.465479969978332520e-01,7.465196251869201660e-01,7.464912533760070801e-01,7.464628815650939941e-01,7.464345097541809082e-01,7.464061379432678223e-01,7.463778257369995117e-01,7.463494539260864258e-01,7.463210821151733398e-01,7.462926506996154785e-01,7.462643384933471680e-01,7.462359666824340820e-01,7.462076544761657715e-01,7.461792826652526855e-01,7.461509704589843750e-01,7.461225986480712891e-01,7.460942864418029785e-01,7.460659146308898926e-01,7.460376024246215820e-01,7.460092902183532715e-01,7.459809184074401855e-01,7.459526062011718750e-01,7.459242939949035645e-01,7.458959817886352539e-01,7.458676695823669434e-01
7.162023782730102539e-01,7.161762714385986328e-01,7.161501646041870117e-01,7.161240577697753906e-01,7.160978913307189941e-01,7.160718441009521484e-01,7.160457372665405273e-01,7.160196304321289062e-01,7.159935235977172852e-01,7.159674167633056641e-01,7.159413099288940430e-01,7.159152626991271973e-01,7.158891558647155762e-01,7.158630490303039551e-01,7.158370018005371094e-01,7.158108949661254883e-01,7.157848477363586426e-01,7.157587409019470215e-01,7.157326936721801758e-01,7.157065868377685547e-01,7.156804800033569336e-01,7.156543731689453125e-01,7.156283259391784668e-01,7.156022787094116211e-01,7.155761718750000000e-01,7.155501246452331543e-01,7.155240774154663086e-01,7.154980301856994629e-01,7.154719233512878418e-01,7.154458761215209961e-01,7.154198288917541504e-01,7.153937816619873047e-01,7.153677344322204590e-01,7.153416872024536133e-01,7.153156399726867676e-01,7.152895927429199219e-01,7.152634859085083008e-01,7.152374386787414551e-01,7.152113914489746094e-01,7.151854038238525391e-01,7.151593565940856934e-01,7.151333093643188477e-01,7.151072621345520020e-01,7.150812745094299316e-01,7.150552272796630859e-01,7.150291800498962402e-01,7.150031924247741699e-01,7.149771451950073242e-01,7.149511575698852539e-01,7.149251103401184082e-01,7.148991227149963379e-01,7.148730754852294922e-01,7.148470282554626465e-01,7.148209810256958008e-01,7.147949934005737305e-01,7.147690057754516602e-01,7.147429585456848145e-01,7.147169709205627441e-01,7.146909832954406738e-01,7.146649956703186035e-01,7.146390080451965332e-01,7.146129608154296875e-01,7.145869731903076172e-01,7.145609855651855469e-01,7.145349979400634766e-01,7.145090103149414062e-01,7.144830226898193359e-01,7.144570350646972656e-01,7.144309878349304199e-01,7.144050598144531250e-01,7.143790721893310547e-01,7.143530845642089844e-01,7.143270969390869141e-01,7.143011093139648438e-01,7.142751812934875488e-01,7.142491936683654785e-01,7.142232060432434082e-01,7.141972780227661133e-01,7.141712903976440430e-01,7.141453623771667480e-01
6.869037151336669922e-01,6.868796944618225098e-01,6.868556737899780273e-01,6.868316531181335449e-01,6.868076324462890625e-01,6.867836117744445801e-01,6.867596507072448730e-01,6.867356300354003906e-01,6.867115497589111328e-01,6.866875290870666504e-01,6.866635680198669434e-01,6.866395473480224609e-01,6.866155266761779785e-01,6.865915656089782715e-01,6.865675449371337891e-01,6.865435838699340820e-01,6.865195631980895996e-01,6.864956021308898926e-01,6.864715814590454102e-01,6.864476203918457031e-01,6.864235997200012207e-01,6.863996386528015137e-01,6.863756775856018066e-01,6.863516569137573242e-01,6.863276362419128418e-01,6.863036751747131348e-01,6.862797141075134277e-01,6.862557530403137207e-01,6.862317323684692383e-01,6.862077713012695312e-01,6.861838102340698242e-01,6.861598491668701172e-01,6.861358880996704102e-01,6.861119270324707031e-01,6.860879659652709961e-01,6.860640048980712891e-01,6.860400438308715820e-01,6.860160827636718750e-01,6.859921216964721680e-01,6.859681606292724609e-01,6.859441995620727539e-01,6.859202384948730469e-01,6.858962774276733398e-01,6.858723163604736328e-01,6.858483552932739258e-01,6.858244538307189941e-01,6.858004927635192871e-01,6.857765316963195801e-01,6.857526302337646484e-01,6.857286691665649414e-01,6.857047677040100098e-01,6.856808066368103027e-01,6.856569051742553711e-01,6.856329441070556641e-01,6.856090426445007324e-01,6.855850815773010254e-01,6.855611801147460938e-01,6.855372190475463867e-01,6.855132579803466797e-01,6.854893565177917480e-01,6.854654550552368164e-01,6.854414939880371094e-01,6.854175925254821777e-01,6.853936910629272461e-01,6.853697896003723145e-01,6.853458881378173828e-01,6.853219866752624512e-01,6.852980852127075195e-01,6.852741241455078125e-01,6.852502226829528809e-01,6.852263212203979492e-01,6.852024197578430176e-01,6.851785778999328613e-01,6.851546168327331543e-01,6.851307153701782227e-01,6.851068139076232910e-01,6.850829124450683594e-01,6.850590109825134277e-01,6.850351691246032715e-01,6.850112676620483398e-01
6.599079370498657227e-01,6.598857641220092773e-01,6.598635911941528320e-01,6.598414182662963867e-01,6.598192453384399414e-01,6.597970724105834961e-01,6.597749590873718262e-01,6.597527861595153809e-01,6.597306132316589355e-01,6.597084999084472656e-01,6.596863269805908203e-01,6.596641540527343750e-01,6.596420407295227051e-01,6.596198081970214844e-01,6.595976948738098145e-01,6.595755219459533691e-01,6.595534086227416992e-01,6.595312356948852539e-01,6.595091223716735840e-01,6.594869494438171387e-01,6.594648361206054688e-01,6.594426631927490234e-01,6.594205498695373535e-01,6.593984365463256836e-01,6.593762636184692383e-01,6.593541502952575684e-01,6.593320369720458984e-01,6.593099236488342285e-01,6.592877507209777832e-01,6.592655777931213379e-01,6.592434644699096680e-01,6.592213511466979980e-01,6.591992378234863281e-01,6.591771245002746582e-01,6.591550111770629883e-01,6.591328978538513184e-01,6.591107845306396484e-01,6.590886712074279785e-01,6.590665578842163086e-01,6.590444445610046387e-01,6.590223312377929688e-01,6.590002179145812988e-01,6.589781045913696289e-01,6.589559912681579590e-01,6.589339375495910645e-01,6.589117646217346191e-01,6.588896512985229492e-01,6.588675379753112793e-01,6.588454842567443848e-01,6.588233709335327148e-01,6.588012576103210449e-01,6.587792038917541504e-01,6.587570905685424805e-01,6.587350368499755859e-01,6.587129235267639160e-01,6.586908102035522461e-01,6.586687564849853516e-01,6.586466431617736816e-01,6.586245894432067871e-01,6.586024761199951172e-01,6.585804224014282227e-01,6.585583090782165527e-01,6.585361957550048828e-01,6.585141420364379883e-01,6.584920883178710938e-01,6.584699749946594238e-01,6.584479212760925293e-01,6.584258675575256348e-01,6.584038138389587402e-01,6.583817601203918457e-01,6.583596467971801758e-01,6.583375930786132812e-01,6.583155393600463867e-01,6.582934856414794922e-01,6.582714319229125977e-01,6.582493782043457031e-01,6.582273244857788086e-01,6.582052707672119141e-01,6.581831574440002441e-01,6.581611037254333496e-01
6.349537968635559082e-01,6.349332332611083984e-01,6.349127292633056641e-01,6.348922252655029297e-01,6.348717212677001953e-01,6.348511576652526855e-01,6.348306536674499512e-01,6.348101496696472168e-01,6.347896456718444824e-01,6.347691416740417480e-01,6.347486376762390137e-01,6.347281336784362793e-01,6.347076296806335449e-01,6.346871256828308105e-01,6.346666216850280762e-01,6.346461176872253418e-01,6.346256136894226074e-01,6.346050500869750977e-01,6.345845460891723633e-01,6.345640420913696289e-01,6.345435380935668945e-01,6.345230340957641602e-01,6.345025300979614258e-01,6.344820857048034668e-01,6.344615817070007324e-01,6.344410777091979980e-01,6.344205737113952637e-01,6.344001293182373047e-01,6.343796253204345703e-01,6.343591213226318359e-01,6.343386769294738770e-01,6.343181729316711426e-01,6.342976689338684082e-01,6.342772245407104492e-01,6.342567205429077148e-01,6.342362165451049805e-01,6.342157125473022461e-01,6.341952681541442871e-01,6.341748237609863281e-01,6.341543197631835938e-01,6.341338753700256348e-01,6.341133713722229004e-01,6.340929269790649414e-01,6.340724825859069824e-01,6.340519785881042480e-01,6.340315341949462891e-01,6.340110898017883301e-01,6.339905858039855957e-01,6.339701414108276367e-01,6.339496970176696777e-01,6.339291930198669434e-01,6.339087486267089844e-01,6.338883042335510254e-01,6.338678002357482910e-01,6.338473558425903320e-01,6.338269114494323730e-01,6.338064670562744141e-01,6.337860226631164551e-01,6.337655782699584961e-01,6.337451338768005371e-01,6.337246894836425781e-01,6.337042450904846191e-01,6.336838006973266602e-01,6.336633563041687012e-01,6.336429119110107422e-01,6.336224675178527832e-01,6.336020231246948242e-01,6.335815787315368652e-01,6.335611343383789062e-01,6.335406899452209473e-01,6.335202455520629883e-01,6.334998607635498047e-01,6.334794163703918457e-01,6.334589719772338867e-01,6.334385871887207031e-01,6.334181427955627441e-01,6.333976984024047852e-01,6.333773136138916016e-01,6.333568692207336426e-01,6.333364844322204590e-01
6.118181943893432617e-01,6.117991805076599121e-01,6.117801070213317871e-01,6.117610335350036621e-01,6.117420196533203125e-01,6.117229461669921875e-01,6.117038726806640625e-01,6.116847991943359375e-01,6.116657853126525879e-01,6.116467118263244629e-01,6.116276979446411133e-01,6.116086244583129883e-01,6.115896105766296387e-01,6.115705370903015137e-01,6.115515232086181641e-01,6.115325093269348145e-01,6.115134358406066895e-01,6.114944219589233398e-01,6.114754080772399902e-01,6.114563345909118652e-01,6.114373207092285156e-01,6.114183068275451660e-01,6.113992333412170410e-01,6.113802194595336914e-01,6.113611459732055664e-01,6.113421320915222168e-01,6.113231182098388672e-01,6.113041043281555176e-01,6.112850904464721680e-01,6.112660765647888184e-01,6.112470626831054688e-01,6.112279891967773438e-01,6.112089753150939941e-01,6.111899614334106445e-01,6.111709475517272949e-01,6.111519336700439453e-01,6.111329197883605957e-01,6.111139059066772461e-01,6.110948920249938965e-01,6.110758781433105469e-01,6.110568642616271973e-01,6.110378503799438477e-01,6.110188364982604980e-01,6.109998226165771484e-01,6.109808683395385742e-01,6.109618544578552246e-01,6.109428405761718750e-01,6.109238266944885254e-01,6.109048724174499512e-01,6.108858585357666016e-01,6.108668446540832520e-01,6.108478307723999023e-01,6.108288764953613281e-01,6.108098626136779785e-01,6.107908487319946289e-01,6.107718348503112793e-01,6.107528805732727051e-01,6.107338666915893555e-01,6.107149124145507812e-01,6.106958985328674316e-01,6.106769442558288574e-01,6.106579303741455078e-01,6.106389760971069336e-01,6.106199622154235840e-01,6.106010079383850098e-01,6.105819940567016602e-01,6.105630397796630859e-01,6.105440855026245117e-01,6.105250716209411621e-01,6.105061173439025879e-01,6.104871034622192383e-01,6.104681491851806641e-01,6.104491949081420898e-01,6.104301810264587402e-01,6.104112267494201660e-01,6.103922724723815918e-01,6.103733181953430176e-01,6.103543639183044434e-01,6.103353500366210938e-01,6.103163957595825195e-01
5.903092622756958008e-01,5.902915000915527344e-01,5.902737975120544434e-01,5.902560353279113770e-01,5.902383327484130859e-01,5.902205705642700195e-01,5.902028679847717285e-01,5.901851058006286621e-01,5.901674032211303711e-01,5.901496410369873047e-01,5.901318788528442383e-01,5.901141762733459473e-01,5.900964140892028809e-01,5.900787115097045898e-01,5.900610089302062988e-01,5.900432467460632324e-01,5.900255441665649414e-01,5.900078415870666504e-01,5.899901390075683594e-01,5.899723768234252930e-01,5.899546742439270020e-01,5.899369716644287109e-01,5.899192690849304199e-01,5.899015069007873535e-01,5.898838043212890625e-01,5.898661017417907715e-01,5.898483991622924805e-01,5.898306369781494141e-01,5.898129343986511230e-01,5.897952318191528320e-01,5.897775292396545410e-01,5.897598266601562500e-01,5.897421240806579590e-01,5.897244215011596680e-01,5.897067189216613770e-01,5.896890163421630859e-01,5.896713137626647949e-01,5.896536111831665039e-01,5.896359086036682129e-01,5.896182060241699219e-01,5.896005630493164062e-01,5.895828604698181152e-01,5.895651578903198242e-01,5.895473957061767578e-01,5.895297527313232422e-01,5.895120501518249512e-01,5.894943475723266602e-01,5.894766449928283691e-01,5.894589424133300781e-01,5.894412994384765625e-01,5.894235968589782715e-01,5.894058942794799805e-01,5.893882513046264648e-01,5.893705487251281738e-01,5.893528461456298828e-01,5.893352031707763672e-01,5.893175005912780762e-01,5.892998576164245605e-01,5.892821550369262695e-01,5.892644524574279785e-01,5.892467498779296875e-01,5.892291069030761719e-01,5.892114043235778809e-01,5.891937613487243652e-01,5.891760587692260742e-01,5.891584157943725586e-01,5.891407132148742676e-01,5.891230702400207520e-01,5.891054272651672363e-01,5.890877246856689453e-01,5.890700817108154297e-01,5.890524387359619141e-01,5.890347361564636230e-01,5.890170931816101074e-01,5.889994502067565918e-01,5.889817476272583008e-01,5.889641046524047852e-01,5.889464020729064941e-01,5.889287590980529785e-01,5.889111161231994629e-01
