3.100621461868286133e+00,3.179058551788330078e+00,3.261566877365112305e+00,3.348472356796264648e+00,3.440135955810546875e+00,3.536959171295166016e+00,3.639390230178833008e+00,3.747931480407714844e+00,3.863146066665649414e+00,3.985662460327148438e+00,4.116199970245361328e+00,4.255577564239501953e+00,4.404725074768066406e+00,4.564706802368164062e+00,4.736747264862060547e+00,4.922264099121093750e+00,5.000000000000000000e+00,5.000000000000000000e+00,5.000000000000000000e+00,5.000000000000000000e+00,5.000000000000000000e+00,5.000000000000000000e+00,5.000000000000000000e+00,5.000000000000000000e+00,5.000000000000000000e+00,5.000000000000000000e+00,5.000000000000000000e+00,1.679141163825988770e+00,1.653643250465393066e+00,1.657897591590881348e+00,1.789797663688659668e+00,1.797951340675354004e+00,1.816163778305053711e+00,1.856552600860595703e+00,1.868532419204711914e+00,1.857265830039978027e+00,1.846443295478820801e+00,1.860190868377685547e+00,5.000000000000000000e+00,5.000000000000000000e+00,5.000000000000000000e+00,5.000000000000000000e+00,5.000000000000000000e+00,5.000000000000000000e+00,5.000000000000000000e+00,5.000000000000000000e+00,5.000000000000000000e+00,5.000000000000000000e+00,5.000000000000000000e+00,5.000000000000000000e+00,5.000000000000000000e+00,5.000000000000000000e+00,5.000000000000000000e+00,5.000000000000000000e+00,5.000000000000000000e+00,5.000000000000000000e+00,5.000000000000000000e+00,5.000000000000000000e+00,5.000000000000000000e+00,5.000000000000000000e+00,5.000000000000000000e+00,5.000000000000000000e+00,5.000000000000000000e+00,5.000000000000000000e+00,5.000000000000000000e+00,5.000000000000000000e+00,5.000000000000000000e+00,5.000000000000000000e+00,5.000000000000000000e+00,5.000000000000000000e+00,4.848243236541748047e+00,4.689118385314941406e+00,4.540103912353515625e+00,4.400267601013183594e+00,4.268788337707519531e+00,4.144937515258789062e+00,4.028071403503417969e+00,3.917614698410034180e+00,3.813054084777832031e+00,3.713929414749145508e+00
3.100555181503295898e+00,3.178988933563232422e+00,3.261493921279907227e+00,3.348395347595214844e+00,3.440054416656494141e+00,3.536873102188110352e+00,3.639299392700195312e+00,3.747835159301757812e+00,3.863043308258056641e+00,3.985559225082397461e+00,4.116094112396240234e+00,4.255465030670166016e+00,4.404604434967041016e+00,4.564576625823974609e+00,4.736607551574707031e+00,4.922113418579101562e+00,5.000000000000000000e+00,5.000000000000000000e+00,5.000000000000000000e+00,5.000000000000000000e+00,5.000000000000000000e+00,5.000000000000000000e+00,5.000000000000000000e+00,5.000000000000000000e+00,5.000000000000000000e+00,5.000000000000000000e+00,5.000000000000000000e+00,5.000000000000000000e+00,1.637241363525390625e+00,1.620655179023742676e+00,1.640012025833129883e+00,1.798309445381164551e+00,1.811356067657470703e+00,1.884544253349304199e+00,1.851554632186889648e+00,1.822944998741149902e+00,1.824029207229614258e+00,1.825114727020263672e+00,1.898918032646179199e+00,5.000000000000000000e+00,5.000000000000000000e+00,5.000000000000000000e+00,5.000000000000000000e+00,5.000000000000000000e+00,5.000000000000000000e+00,5.000000000000000000e+00,5.000000000000000000e+00,5.000000000000000000e+00,5.000000000000000000e+00,5.000000000000000000e+00,5.000000000000000000e+00,5.000000000000000000e+00,5.000000000000000000e+00,5.000000000000000000e+00,5.000000000000000000e+00,5.000000000000000000e+00,5.000000000000000000e+00,5.000000000000000000e+00,5.000000000000000000e+00,5.000000000000000000e+00,5.000000000000000000e+00,5.000000000000000000e+00,5.000000000000000000e+00,5.000000000000000000e+00,5.000000000000000000e+00,5.000000000000000000e+00,5.000000000000000000e+00,5.000000000000000000e+00,5.000000000000000000e+00,5.000000000000000000e+00,4.848379135131835938e+00,4.689241409301757812e+00,4.540218353271484375e+00,4.400375366210937500e+00,4.268889427185058594e+00,4.145033359527587891e+00,4.028161525726318359e+00,3.917699575424194336e+00,3.813134670257568359e+00,3.714005947113037109e+00
3.100489377975463867e+00,3.178919792175292969e+00,3.261420726776123047e+00,3.348318338394165039e+00,3.439973354339599609e+00,3.536787271499633789e+00,3.639208316802978516e+00,3.747738361358642578e+00,3.862941026687622070e+00,3.985450506210327148e+00,4.115984439849853516e+00,4.255352020263671875e+00,4.404483318328857422e+00,4.564447402954101562e+00,4.736467838287353516e+00,4.921962738037109375e+00,5.000000000000000000e+00,5.000000000000000000e+00,5.000000000000000000e+00,5.000000000000000000e+00,5.000000000000000000e+00,5.000000000000000000e+00,5.000000000000000000e+00,5.000000000000000000e+00,5.000000000000000000e+00,5.000000000000000000e+00,5.000000000000000000e+00,5.000000000000000000e+00,1.623379468917846680e+00,1.613845109939575195e+00,1.605424046516418457e+00,1.629846572875976562e+00,1.806902527809143066e+00,1.869033932685852051e+00,1.846674799919128418e+00,1.820043802261352539e+00,1.811142921447753906e+00,1.813544392585754395e+00,1.846118569374084473e+00,5.000000000000000000e+00,5.000000000000000000e+00,5.000000000000000000e+00,5.000000000000000000e+00,5.000000000000000000e+00,5.000000000000000000e+00,5.000000000000000000e+00,5.000000000000000000e+00,5.000000000000000000e+00,5.000000000000000000e+00,5.000000000000000000e+00,5.000000000000000000e+00,5.000000000000000000e+00,5.000000000000000000e+00,5.000000000000000000e+00,5.000000000000000000e+00,5.000000000000000000e+00,5.000000000000000000e+00,5.000000000000000000e+00,5.000000000000000000e+00,5.000000000000000000e+00,5.000000000000000000e+00,5.000000000000000000e+00,5.000000000000000000e+00,5.000000000000000000e+00,5.000000000000000000e+00,5.000000000000000000e+00,5.000000000000000000e+00,5.000000000000000000e+00,5.000000000000000000e+00,5.000000000000000000e+00,4.848509788513183594e+00,4.689363479614257812e+00,4.540332794189453125e+00,4.400482654571533203e+00,4.268990516662597656e+00,4.145128726959228516e+00,4.028251647949218750e+00,3.917785167694091797e+00,3.813215255737304688e+00,3.714082479476928711e+00
3.100423097610473633e+00,3.178850173950195312e+00,3.261347770690917969e+00,3.348241329193115234e+00,3.439891815185546875e+00,3.536701202392578125e+00,3.639117479324340820e+00,3.747642040252685547e+00,3.862838268280029297e+00,3.985341072082519531e+00,4.115868091583251953e+00,4.255235195159912109e+00,4.404362678527832031e+00,4.564317703247070312e+00,4.736328601837158203e+00,4.921811580657958984e+00,5.000000000000000000e+00,5.000000000000000000e+00,5.000000000000000000e+00,5.000000000000000000e+00,5.000000000000000000e+00,5.000000000000000000e+00,5.000000000000000000e+00,5.000000000000000000e+00,5.000000000000000000e+00,5.000000000000000000e+00,5.000000000000000000e+00,5.000000000000000000e+00,1.614531755447387695e+00,1.593441724777221680e+00,1.584093093872070312e+00,1.626126050949096680e+00,1.812469959259033203e+00,1.868689179420471191e+00,1.847460985183715820e+00,1.819701790809631348e+00,1.797790765762329102e+00,1.802353143692016602e+00,1.804731249809265137e+00,5.000000000000000000e+00,5.000000000000000000e+00,5.000000000000000000e+00,5.000000000000000000e+00,5.000000000000000000e+00,5.000000000000000000e+00,5.000000000000000000e+00,5.000000000000000000e+00,5.000000000000000000e+00,5.000000000000000000e+00,5.000000000000000000e+00,5.000000000000000000e+00,5.000000000000000000e+00,5.000000000000000000e+00,5.000000000000000000e+00,5.000000000000000000e+00,5.000000000000000000e+00,5.000000000000000000e+00,5.000000000000000000e+00,5.000000000000000000e+00,5.000000000000000000e+00,5.000000000000000000e+00,5.000000000000000000e+00,5.000000000000000000e+00,5.000000000000000000e+00,5.000000000000000000e+00,5.000000000000000000e+00,5.000000000000000000e+00,5.000000000000000000e+00,5.000000000000000000e+00,5.000000000000000000e+00,4.848640441894531250e+00,4.689485549926757812e+00,4.540447235107421875e+00,4.400589942932128906e+00,4.269091606140136719e+00,4.145224094390869141e+00,4.028341770172119141e+00,3.917870283126831055e+00,3.813296318054199219e+00,3.714159250259399414e+00
3.100357294082641602e+00,3.178780794143676758e+00,3.261274576187133789e+00,3.348164319992065430e+00,3.439810752868652344e+00,3.536615371704101562e+00,3.639026403427124023e+00,3.747545480728149414e+00,3.862735986709594727e+00,3.985232114791870117e+00,4.115751743316650391e+00,4.255110740661621094e+00,4.404237270355224609e+00,4.564188003540039062e+00,4.736188888549804688e+00,4.921661376953125000e+00,5.000000000000000000e+00,5.000000000000000000e+00,5.000000000000000000e+00,5.000000000000000000e+00,5.000000000000000000e+00,5.000000000000000000e+00,5.000000000000000000e+00,5.000000000000000000e+00,5.000000000000000000e+00,5.000000000000000000e+00,5.000000000000000000e+00,5.000000000000000000e+00,1.629126191139221191e+00,1.582458615303039551e+00,1.807141900062561035e+00,1.813106894493103027e+00,1.819264531135559082e+00,1.880160927772521973e+00,1.858812212944030762e+00,1.819061398506164551e+00,1.791159272193908691e+00,1.788130164146423340e+00,1.793029427528381348e+00,1.853697419166564941e+00,5.000000000000000000e+00,5.000000000000000000e+00,5.000000000000000000e+00,5.000000000000000000e+00,5.000000000000000000e+00,5.000000000000000000e+00,5.000000000000000000e+00,5.000000000000000000e+00,5.000000000000000000e+00,5.000000000000000000e+00,5.000000000000000000e+00,5.000000000000000000e+00,5.000000000000000000e+00,5.000000000000000000e+00,5.000000000000000000e+00,5.000000000000000000e+00,5.000000000000000000e+00,5.000000000000000000e+00,5.000000000000000000e+00,5.000000000000000000e+00,5.000000000000000000e+00,5.000000000000000000e+00,5.000000000000000000e+00,5.000000000000000000e+00,5.000000000000000000e+00,5.000000000000000000e+00,5.000000000000000000e+00,5.000000000000000000e+00,5.000000000000000000e+00,5.000000000000000000e+00,4.848771095275878906e+00,4.689607620239257812e+00,4.540561676025390625e+00,4.400697708129882812e+00,4.269192695617675781e+00,4.145319461822509766e+00,4.028431892395019531e+00,3.917955398559570312e+00,3.813376903533935547e+00,3.714235782623291016e+00
3.100291490554809570e+00,3.178711414337158203e+00,3.261201620101928711e+00,3.348087310791015625e+00,3.439729690551757812e+00,3.536529302597045898e+00,3.638935565948486328e+00,3.747449159622192383e+00,3.862633705139160156e+00,3.985122919082641602e+00,4.115635871887207031e+00,4.254986286163330078e+00,4.404104232788085938e+00,4.564053535461425781e+00,4.736049175262451172e+00,4.921510219573974609e+00,5.000000000000000000e+00,5.000000000000000000e+00,5.000000000000000000e+00,5.000000000000000000e+00,5.000000000000000000e+00,5.000000000000000000e+00,5.000000000000000000e+00,5.000000000000000000e+00,5.000000000000000000e+00,5.000000000000000000e+00,5.000000000000000000e+00,5.000000000000000000e+00,1.861373066902160645e+00,1.821028590202331543e+00,1.815700769424438477e+00,1.821320295333862305e+00,1.833878993988037109e+00,5.000000000000000000e+00,1.869775414466857910e+00,1.818421483039855957e+00,1.790504932403564453e+00,1.774206519126892090e+00,1.779431223869323730e+00,1.796858072280883789e+00,5.000000000000000000e+00,5.000000000000000000e+00,5.000000000000000000e+00,5.000000000000000000e+00,5.000000000000000000e+00,5.000000000000000000e+00,5.000000000000000000e+00,5.000000000000000000e+00,5.000000000000000000e+00,5.000000000000000000e+00,5.000000000000000000e+00,5.000000000000000000e+00,5.000000000000000000e+00,5.000000000000000000e+00,5.000000000000000000e+00,5.000000000000000000e+00,5.000000000000000000e+00,5.000000000000000000e+00,5.000000000000000000e+00,5.000000000000000000e+00,5.000000000000000000e+00,5.000000000000000000e+00,5.000000000000000000e+00,5.000000000000000000e+00,5.000000000000000000e+00,5.000000000000000000e+00,5.000000000000000000e+00,5.000000000000000000e+00,5.000000000000000000e+00,5.000000000000000000e+00,4.848901271820068359e+00,4.689729690551757812e+00,4.540676116943359375e+00,4.400804996490478516e+00,4.269294261932373047e+00,4.145414829254150391e+00,4.028522014617919922e+00,3.918040990829467773e+00,3.813457489013671875e+00,3.714312314987182617e+00
3.100198030471801758e+00,3.178629398345947266e+00,3.261128664016723633e+00,3.348010301589965820e+00,3.439648151397705078e+00,3.536443710327148438e+00,3.638844728469848633e+00,3.747352600097656250e+00,3.862530946731567383e+00,3.985013961791992188e+00,4.115519523620605469e+00,4.254861831665039062e+00,4.403971195220947266e+00,4.563910484313964844e+00,4.735904693603515625e+00,4.921359539031982422e+00,5.000000000000000000e+00,5.000000000000000000e+00,5.000000000000000000e+00,5.000000000000000000e+00,5.000000000000000000e+00,5.000000000000000000e+00,5.000000000000000000e+00,5.000000000000000000e+00,5.000000000000000000e+00,5.000000000000000000e+00,5.000000000000000000e+00,5.000000000000000000e+00,1.877936720848083496e+00,1.833093404769897461e+00,1.824851393699645996e+00,1.829608559608459473e+00,1.848730087280273438e+00,5.000000000000000000e+00,5.000000000000000000e+00,1.819672584533691406e+00,1.788095474243164062e+00,1.763328194618225098e+00,1.765921473503112793e+00,1.771666049957275391e+00,5.000000000000000000e+00,5.000000000000000000e+00,5.000000000000000000e+00,5.000000000000000000e+00,5.000000000000000000e+00,5.000000000000000000e+00,5.000000000000000000e+00,5.000000000000000000e+00,5.000000000000000000e+00,5.000000000000000000e+00,5.000000000000000000e+00,5.000000000000000000e+00,5.000000000000000000e+00,5.000000000000000000e+00,5.000000000000000000e+00,5.000000000000000000e+00,5.000000000000000000e+00,5.000000000000000000e+00,5.000000000000000000e+00,5.000000000000000000e+00,5.000000000000000000e+00,5.000000000000000000e+00,5.000000000000000000e+00,5.000000000000000000e+00,5.000000000000000000e+00,5.000000000000000000e+00,5.000000000000000000e+00,5.000000000000000000e+00,5.000000000000000000e+00,5.000000000000000000e+00,4.849031925201416016e+00,4.689851760864257812e+00,4.540790557861328125e+00,4.400912761688232422e+00,4.269395351409912109e+00,4.145510196685791016e+00,4.028612136840820312e+00,3.918126106262207031e+00,3.813538551330566406e+00,3.714388608932495117e+00
3.100099325180053711e+00,3.178525447845458984e+00,3.261022567749023438e+00,3.347916364669799805e+00,3.439567089080810547e+00,3.536357402801513672e+00,3.638753652572631836e+00,3.747256278991699219e+00,3.862428665161132812e+00,3.984904766082763672e+00,4.115403175354003906e+00,4.254737377166748047e+00,4.403837680816650391e+00,4.563767433166503906e+00,4.735750675201416016e+00,4.921203613281250000e+00,5.000000000000000000e+00,5.000000000000000000e+00,5.000000000000000000e+00,5.000000000000000000e+00,5.000000000000000000e+00,5.000000000000000000e+00,5.000000000000000000e+00,5.000000000000000000e+00,5.000000000000000000e+00,5.000000000000000000e+00,5.000000000000000000e+00,5.000000000000000000e+00,1.893141865730285645e+00,1.845318913459777832e+00,1.834094882011413574e+00,1.838481187820434570e+00,1.862095475196838379e+00,5.000000000000000000e+00,5.000000000000000000e+00,1.837434291839599609e+00,1.784969568252563477e+00,1.760627150535583496e+00,1.747444033622741699e+00,1.757054686546325684e+00,1.815475106239318848e+00,5.000000000000000000e+00,5.000000000000000000e+00,5.000000000000000000e+00,5.000000000000000000e+00,5.000000000000000000e+00,5.000000000000000000e+00,5.000000000000000000e+00,5.000000000000000000e+00,5.000000000000000000e+00,5.000000000000000000e+00,5.000000000000000000e+00,5.000000000000000000e+00,5.000000000000000000e+00,5.000000000000000000e+00,5.000000000000000000e+00,5.000000000000000000e+00,5.000000000000000000e+00,5.000000000000000000e+00,5.000000000000000000e+00,5.000000000000000000e+00,5.000000000000000000e+00,5.000000000000000000e+00,5.000000000000000000e+00,5.000000000000000000e+00,5.000000000000000000e+00,5.000000000000000000e+00,5.000000000000000000e+00,5.000000000000000000e+00,5.000000000000000000e+00,4.849162578582763672e+00,4.689973831176757812e+00,4.540904998779296875e+00,4.401020050048828125e+00,4.269496440887451172e+00,4.145605564117431641e+00,4.028702259063720703e+00,3.918211221694946289e+00,3.813619136810302734e+00,3.714465618133544922e+00
3.100000381469726562e+00,3.178421258926391602e+00,3.260913133621215820e+00,3.347801208496093750e+00,3.439445734024047852e+00,3.536249399185180664e+00,3.638660192489624023e+00,3.747159481048583984e+00,3.862325906753540039e+00,3.984795808792114258e+00,4.115286827087402344e+00,4.254613399505615234e+00,4.403704643249511719e+00,4.563624382019042969e+00,4.735596656799316406e+00,4.921037197113037109e+00,5.000000000000000000e+00,5.000000000000000000e+00,5.000000000000000000e+00,5.000000000000000000e+00,5.000000000000000000e+00,5.000000000000000000e+00,5.000000000000000000e+00,5.000000000000000000e+00,5.000000000000000000e+00,5.000000000000000000e+00,5.000000000000000000e+00,5.000000000000000000e+00,1.912070274353027344e+00,1.859127044677734375e+00,1.840784549713134766e+00,1.845902323722839355e+00,1.873783826828002930e+00,5.000000000000000000e+00,5.000000000000000000e+00,5.000000000000000000e+00,1.784254789352416992e+00,1.757934451103210449e+00,1.738952755928039551e+00,1.740532398223876953e+00,1.751239061355590820e+00,5.000000000000000000e+00,5.000000000000000000e+00,5.000000000000000000e+00,5.000000000000000000e+00,5.000000000000000000e+00,5.000000000000000000e+00,5.000000000000000000e+00,5.000000000000000000e+00,5.000000000000000000e+00,5.000000000000000000e+00,5.000000000000000000e+00,5.000000000000000000e+00,5.000000000000000000e+00,5.000000000000000000e+00,5.000000000000000000e+00,5.000000000000000000e+00,5.000000000000000000e+00,5.000000000000000000e+00,5.000000000000000000e+00,5.000000000000000000e+00,5.000000000000000000e+00,5.000000000000000000e+00,5.000000000000000000e+00,5.000000000000000000e+00,5.000000000000000000e+00,5.000000000000000000e+00,5.000000000000000000e+00,5.000000000000000000e+00,5.000000000000000000e+00,4.849292755126953125e+00,4.690096378326416016e+00,4.541019439697265625e+00,4.401127815246582031e+00,4.269598007202148438e+00,4.145700931549072266e+00,4.028792381286621094e+00,3.918296337127685547e+00,3.813699722290039062e+00,3.714542150497436523e+00
3.099930286407470703e+00,3.178331613540649414e+00,3.260803937911987305e+00,3.347685813903808594e+00,3.439324140548706055e+00,3.536120891571044922e+00,3.638524055480957031e+00,3.747034549713134766e+00,3.862216711044311523e+00,3.984686374664306641e+00,4.115170478820800781e+00,4.254488945007324219e+00,4.403571128845214844e+00,4.563481330871582031e+00,4.735442638397216797e+00,4.920870780944824219e+00,5.000000000000000000e+00,5.000000000000000000e+00,5.000000000000000000e+00,5.000000000000000000e+00,5.000000000000000000e+00,5.000000000000000000e+00,5.000000000000000000e+00,5.000000000000000000e+00,5.000000000000000000e+00,5.000000000000000000e+00,5.000000000000000000e+00,5.000000000000000000e+00,1.925283789634704590e+00,1.873180270195007324e+00,1.848383069038391113e+00,1.852005362510681152e+00,1.886054992675781250e+00,5.000000000000000000e+00,5.000000000000000000e+00,5.000000000000000000e+00,1.815394759178161621e+00,1.754328489303588867e+00,1.736607193946838379e+00,1.729562520980834961e+00,1.742515206336975098e+00,5.000000000000000000e+00,5.000000000000000000e+00,5.000000000000000000e+00,5.000000000000000000e+00,5.000000000000000000e+00,5.000000000000000000e+00,5.000000000000000000e+00,5.000000000000000000e+00,5.000000000000000000e+00,5.000000000000000000e+00,5.000000000000000000e+00,5.000000000000000000e+00,5.000000000000000000e+00,5.000000000000000000e+00,5.000000000000000000e+00,5.000000000000000000e+00,5.000000000000000000e+00,5.000000000000000000e+00,5.000000000000000000e+00,5.000000000000000000e+00,5.000000000000000000e+00,5.000000000000000000e+00,5.000000000000000000e+00,5.000000000000000000e+00,5.000000000000000000e+00,5.000000000000000000e+00,5.000000000000000000e+00,5.000000000000000000e+00,5.000000000000000000e+00,4.849423885345458984e+00,4.690218448638916016e+00,4.541133880615234375e+00,4.401235580444335938e+00,4.269699096679687500e+00,4.145796298980712891e+00,4.028882503509521484e+00,3.918381690979003906e+00,3.813780784606933594e+00,3.714618444442749023e+00
3.099864482879638672e+00,3.178262472152709961e+00,3.260729074478149414e+00,3.347589015960693359e+00,3.439203262329101562e+00,3.535992383956909180e+00,3.638387441635131836e+00,3.746890068054199219e+00,3.862063169479370117e+00,3.984540700912475586e+00,4.115041255950927734e+00,4.254364967346191406e+00,4.403438091278076172e+00,4.563338279724121094e+00,4.735288619995117188e+00,4.920704841613769531e+00,5.000000000000000000e+00,5.000000000000000000e+00,5.000000000000000000e+00,5.000000000000000000e+00,5.000000000000000000e+00,5.000000000000000000e+00,5.000000000000000000e+00,5.000000000000000000e+00,5.000000000000000000e+00,5.000000000000000000e+00,5.000000000000000000e+00,5.000000000000000000e+00,1.938601851463317871e+00,1.887447357177734375e+00,1.858458638191223145e+00,1.858148574829101562e+00,1.894875288009643555e+00,5.000000000000000000e+00,5.000000000000000000e+00,5.000000000000000000e+00,5.000000000000000000e+00,1.756446957588195801e+00,1.739681482315063477e+00,1.733028650283813477e+00,1.744732618331909180e+00,5.000000000000000000e+00,5.000000000000000000e+00,5.000000000000000000e+00,5.000000000000000000e+00,5.000000000000000000e+00,5.000000000000000000e+00,5.000000000000000000e+00,5.000000000000000000e+00,5.000000000000000000e+00,5.000000000000000000e+00,5.000000000000000000e+00,5.000000000000000000e+00,5.000000000000000000e+00,5.000000000000000000e+00,5.000000000000000000e+00,5.000000000000000000e+00,5.000000000000000000e+00,5.000000000000000000e+00,5.000000000000000000e+00,5.000000000000000000e+00,5.000000000000000000e+00,5.000000000000000000e+00,5.000000000000000000e+00,5.000000000000000000e+00,5.000000000000000000e+00,5.000000000000000000e+00,5.000000000000000000e+00,5.000000000000000000e+00,5.000000000000000000e+00,4.849554538726806641e+00,4.690340518951416016e+00,4.541248798370361328e+00,4.401342868804931641e+00,4.269800186157226562e+00,4.145892143249511719e+00,4.028972625732421875e+00,3.918466806411743164e+00,3.813861370086669922e+00,3.714695453643798828e+00
3.099798202514648438e+00,3.178193092346191406e+00,3.260655879974365234e+00,3.347512245178222656e+00,3.439122200012207031e+00,3.535887241363525391e+00,3.638255834579467773e+00,3.746745824813842773e+00,3.861909389495849609e+00,3.984377622604370117e+00,4.114867210388183594e+00,4.254193305969238281e+00,4.403285503387451172e+00,4.563195228576660156e+00,4.735134601593017578e+00,4.920538425445556641e+00,5.000000000000000000e+00,5.000000000000000000e+00,5.000000000000000000e+00,5.000000000000000000e+00,5.000000000000000000e+00,5.000000000000000000e+00,5.000000000000000000e+00,5.000000000000000000e+00,5.000000000000000000e+00,5.000000000000000000e+00,5.000000000000000000e+00,5.000000000000000000e+00,5.000000000000000000e+00,1.901933431625366211e+00,1.868644714355468750e+00,1.864332556724548340e+00,1.902599573135375977e+00,5.000000000000000000e+00,5.000000000000000000e+00,5.000000000000000000e+00,5.000000000000000000e+00,1.764365553855895996e+00,1.748616576194763184e+00,1.740581512451171875e+00,1.752193808555603027e+00,5.000000000000000000e+00,5.000000000000000000e+00,5.000000000000000000e+00,5.000000000000000000e+00,5.000000000000000000e+00,5.000000000000000000e+00,5.000000000000000000e+00,5.000000000000000000e+00,5.000000000000000000e+00,5.000000000000000000e+00,5.000000000000000000e+00,5.000000000000000000e+00,5.000000000000000000e+00,5.000000000000000000e+00,5.000000000000000000e+00,5.000000000000000000e+00,5.000000000000000000e+00,5.000000000000000000e+00,5.000000000000000000e+00,5.000000000000000000e+00,5.000000000000000000e+00,5.000000000000000000e+00,5.000000000000000000e+00,5.000000000000000000e+00,5.000000000000000000e+00,5.000000000000000000e+00,5.000000000000000000e+00,5.000000000000000000e+00,5.000000000000000000e+00,4.849684715270996094e+00,4.690462589263916016e+00,4.541363239288330078e+00,4.401450634002685547e+00,4.269901752471923828e+00,4.145987510681152344e+00,4.029062747955322266e+00,3.918551921844482422e+00,3.813941955566406250e+00,3.714771986007690430e+00
3.099732398986816406e+00,3.178123712539672852e+00,3.260583162307739258e+00,3.347434997558593750e+00,3.439041137695312500e+00,3.535801410675048828e+00,3.638164520263671875e+00,3.746631622314453125e+00,3.861764430999755859e+00,3.984214305877685547e+00,4.114692687988281250e+00,4.254007339477539062e+00,4.403085708618164062e+00,4.562992572784423828e+00,4.734951972961425781e+00,4.920372486114501953e+00,5.000000000000000000e+00,5.000000000000000000e+00,5.000000000000000000e+00,5.000000000000000000e+00,5.000000000000000000e+00,5.000000000000000000e+00,5.000000000000000000e+00,5.000000000000000000e+00,5.000000000000000000e+00,5.000000000000000000e+00,5.000000000000000000e+00,5.000000000000000000e+00,5.000000000000000000e+00,1.916492819786071777e+00,1.880804061889648438e+00,1.872773408889770508e+00,1.913172364234924316e+00,5.000000000000000000e+00,5.000000000000000000e+00,5.000000000000000000e+00,5.000000000000000000e+00,1.773795962333679199e+00,1.754690766334533691e+00,1.751337528228759766e+00,1.759718775749206543e+00,5.000000000000000000e+00,5.000000000000000000e+00,5.000000000000000000e+00,5.000000000000000000e+00,5.000000000000000000e+00,5.000000000000000000e+00,5.000000000000000000e+00,5.000000000000000000e+00,5.000000000000000000e+00,5.000000000000000000e+00,5.000000000000000000e+00,5.000000000000000000e+00,5.000000000000000000e+00,5.000000000000000000e+00,5.000000000000000000e+00,5.000000000000000000e+00,5.000000000000000000e+00,5.000000000000000000e+00,5.000000000000000000e+00,5.000000000000000000e+00,5.000000000000000000e+00,5.000000000000000000e+00,5.000000000000000000e+00,5.000000000000000000e+00,5.000000000000000000e+00,5.000000000000000000e+00,5.000000000000000000e+00,5.000000000000000000e+00,5.000000000000000000e+00,4.849815368652343750e+00,4.690584659576416016e+00,4.541477680206298828e+00,4.401558399200439453e+00,4.270002841949462891e+00,4.146082878112792969e+00,4.029152870178222656e+00,3.918637514114379883e+00,3.814023017883300781e+00,3.714849233627319336e+00
3.099666595458984375e+00,3.178054332733154297e+00,3.260510206222534180e+00,3.347358226776123047e+00,3.438959836959838867e+00,3.535715818405151367e+00,3.638073921203613281e+00,3.746535301208496094e+00,3.861662387847900391e+00,3.984088897705078125e+00,4.114532470703125000e+00,4.253820896148681641e+00,4.402886390686035156e+00,4.562778472900390625e+00,4.734721183776855469e+00,4.920130729675292969e+00,5.000000000000000000e+00,5.000000000000000000e+00,5.000000000000000000e+00,5.000000000000000000e+00,5.000000000000000000e+00,5.000000000000000000e+00,5.000000000000000000e+00,5.000000000000000000e+00,5.000000000000000000e+00,5.000000000000000000e+00,5.000000000000000000e+00,5.000000000000000000e+00,1.958739638328552246e+00,1.918275952339172363e+00,1.899093508720397949e+00,1.902302742004394531e+00,5.000000000000000000e+00,5.000000000000000000e+00,5.000000000000000000e+00,5.000000000000000000e+00,5.000000000000000000e+00,1.783327817916870117e+00,1.760891199111938477e+00,1.762227296829223633e+00,1.779898285865783691e+00,5.000000000000000000e+00,5.000000000000000000e+00,5.000000000000000000e+00,5.000000000000000000e+00,5.000000000000000000e+00,5.000000000000000000e+00,5.000000000000000000e+00,5.000000000000000000e+00,5.000000000000000000e+00,5.000000000000000000e+00,5.000000000000000000e+00,5.000000000000000000e+00,5.000000000000000000e+00,5.000000000000000000e+00,5.000000000000000000e+00,5.000000000000000000e+00,5.000000000000000000e+00,5.000000000000000000e+00,5.000000000000000000e+00,5.000000000000000000e+00,5.000000000000000000e+00,5.000000000000000000e+00,5.000000000000000000e+00,5.000000000000000000e+00,5.000000000000000000e+00,5.000000000000000000e+00,5.000000000000000000e+00,5.000000000000000000e+00,5.000000000000000000e+00,4.849946022033691406e+00,4.690706729888916016e+00,4.541592121124267578e+00,4.401665687561035156e+00,4.270103931427001953e+00,4.146178245544433594e+00,4.029242992401123047e+00,3.918725490570068359e+00,3.814108610153198242e+00,3.714932441711425781e+00
3.099600315093994141e+00,3.177985191345214844e+00,3.260437011718750000e+00,3.347281455993652344e+00,3.438878774642944336e+00,3.535629749298095703e+00,3.637983083724975586e+00,3.746438741683959961e+00,3.861560106277465820e+00,3.983980178833007812e+00,4.114416599273681641e+00,4.253683090209960938e+00,4.402708053588867188e+00,4.562564373016357422e+00,4.734490871429443359e+00,4.919881343841552734e+00,5.000000000000000000e+00,5.000000000000000000e+00,5.000000000000000000e+00,5.000000000000000000e+00,5.000000000000000000e+00,5.000000000000000000e+00,5.000000000000000000e+00,5.000000000000000000e+00,5.000000000000000000e+00,5.000000000000000000e+00,5.000000000000000000e+00,5.000000000000000000e+00,1.954565882682800293e+00,1.928936600685119629e+00,1.923142552375793457e+00,1.942159652709960938e+00,5.000000000000000000e+00,5.000000000000000000e+00,5.000000000000000000e+00,5.000000000000000000e+00,5.000000000000000000e+00,1.788699269294738770e+00,1.764761567115783691e+00,1.766888856887817383e+00,1.779413819313049316e+00,5.000000000000000000e+00,5.000000000000000000e+00,5.000000000000000000e+00,5.000000000000000000e+00,5.000000000000000000e+00,5.000000000000000000e+00,5.000000000000000000e+00,5.000000000000000000e+00,5.000000000000000000e+00,5.000000000000000000e+00,5.000000000000000000e+00,5.000000000000000000e+00,5.000000000000000000e+00,5.000000000000000000e+00,5.000000000000000000e+00,5.000000000000000000e+00,5.000000000000000000e+00,5.000000000000000000e+00,5.000000000000000000e+00,5.000000000000000000e+00,5.000000000000000000e+00,5.000000000000000000e+00,5.000000000000000000e+00,5.000000000000000000e+00,5.000000000000000000e+00,5.000000000000000000e+00,5.000000000000000000e+00,5.000000000000000000e+00,5.000000000000000000e+00,4.850076675415039062e+00,4.690829277038574219e+00,4.541706562042236328e+00,4.401773452758789062e+00,4.270207405090332031e+00,4.146278381347656250e+00,4.029340744018554688e+00,3.918817996978759766e+00,3.814196586608886719e+00,3.715015888214111328e+00
3.099534511566162109e+00,3.177915573120117188e+00,3.260364055633544922e+00,3.347204446792602539e+00,3.438797712326049805e+00,3.535544157028198242e+00,3.637892007827758789e+00,3.746342420578002930e+00,3.861457347869873047e+00,3.983871459960937500e+00,4.114300251007080078e+00,4.253558635711669922e+00,4.402574539184570312e+00,4.562410831451416016e+00,4.734289646148681641e+00,4.919632434844970703e+00,5.000000000000000000e+00,5.000000000000000000e+00,5.000000000000000000e+00,5.000000000000000000e+00,5.000000000000000000e+00,5.000000000000000000e+00,5.000000000000000000e+00,5.000000000000000000e+00,5.000000000000000000e+00,5.000000000000000000e+00,5.000000000000000000e+00,5.000000000000000000e+00,1.963696956634521484e+00,1.946581244468688965e+00,1.947808146476745605e+00,5.000000000000000000e+00,5.000000000000000000e+00,5.000000000000000000e+00,5.000000000000000000e+00,5.000000000000000000e+00,5.000000000000000000e+00,1.789245963096618652e+00,1.764013409614562988e+00,1.765371799468994141e+00,1.767165899276733398e+00,5.000000000000000000e+00,5.000000000000000000e+00,5.000000000000000000e+00,5.000000000000000000e+00,5.000000000000000000e+00,5.000000000000000000e+00,5.000000000000000000e+00,5.000000000000000000e+00,5.000000000000000000e+00,5.000000000000000000e+00,5.000000000000000000e+00,5.000000000000000000e+00,5.000000000000000000e+00,5.000000000000000000e+00,5.000000000000000000e+00,5.000000000000000000e+00,5.000000000000000000e+00,5.000000000000000000e+00,5.000000000000000000e+00,5.000000000000000000e+00,5.000000000000000000e+00,5.000000000000000000e+00,5.000000000000000000e+00,5.000000000000000000e+00,5.000000000000000000e+00,5.000000000000000000e+00,5.000000000000000000e+00,5.000000000000000000e+00,5.000000000000000000e+00,4.850207328796386719e+00,4.690952301025390625e+00,4.541825771331787109e+00,4.401888847351074219e+00,4.270317077636718750e+00,4.146382331848144531e+00,4.029438495635986328e+00,3.918910503387451172e+00,3.814284086227416992e+00,3.715098857879638672e+00
3.099468708038330078e+00,3.177846431732177734e+00,3.260290861129760742e+00,3.347127676010131836e+00,3.438716173171997070e+00,3.535458326339721680e+00,3.637801408767700195e+00,3.746246337890625000e+00,3.861355304718017578e+00,3.983762025833129883e+00,4.114183902740478516e+00,4.253434658050537109e+00,4.402441978454589844e+00,4.562267780303955078e+00,4.734135627746582031e+00,4.919459819793701172e+00,5.000000000000000000e+00,5.000000000000000000e+00,5.000000000000000000e+00,5.000000000000000000e+00,5.000000000000000000e+00,5.000000000000000000e+00,5.000000000000000000e+00,5.000000000000000000e+00,5.000000000000000000e+00,5.000000000000000000e+00,5.000000000000000000e+00,5.000000000000000000e+00,1.977743744850158691e+00,1.962309598922729492e+00,1.964809775352478027e+00,5.000000000000000000e+00,5.000000000000000000e+00,5.000000000000000000e+00,5.000000000000000000e+00,5.000000000000000000e+00,5.000000000000000000e+00,1.790765762329101562e+00,1.764951467514038086e+00,1.763221144676208496e+00,1.765648365020751953e+00,5.000000000000000000e+00,5.000000000000000000e+00,5.000000000000000000e+00,5.000000000000000000e+00,5.000000000000000000e+00,5.000000000000000000e+00,5.000000000000000000e+00,5.000000000000000000e+00,5.000000000000000000e+00,5.000000000000000000e+00,5.000000000000000000e+00,5.000000000000000000e+00,5.000000000000000000e+00,5.000000000000000000e+00,5.000000000000000000e+00,5.000000000000000000e+00,5.000000000000000000e+00,5.000000000000000000e+00,5.000000000000000000e+00,5.000000000000000000e+00,5.000000000000000000e+00,5.000000000000000000e+00,5.000000000000000000e+00,5.000000000000000000e+00,5.000000000000000000e+00,5.000000000000000000e+00,5.000000000000000000e+00,5.000000000000000000e+00,5.000000000000000000e+00,4.850346088409423828e+00,4.691084861755371094e+00,4.541950225830078125e+00,4.402005672454833984e+00,4.270427227020263672e+00,4.146486282348632812e+00,4.029536247253417969e+00,3.919003248214721680e+00,3.814372062683105469e+00,3.715182065963745117e+00
3.099402427673339844e+00,3.177777290344238281e+00,3.260218143463134766e+00,3.347050666809082031e+00,3.438635110855102539e+00,3.535372257232666016e+00,3.637710571289062500e+00,3.746149778366088867e+00,3.861253023147583008e+00,3.983653306961059570e+00,4.114068031311035156e+00,4.253310680389404297e+00,4.402308464050292969e+00,4.562125205993652344e+00,4.733982086181640625e+00,4.919293403625488281e+00,5.000000000000000000e+00,5.000000000000000000e+00,5.000000000000000000e+00,5.000000000000000000e+00,5.000000000000000000e+00,5.000000000000000000e+00,5.000000000000000000e+00,5.000000000000000000e+00,5.000000000000000000e+00,5.000000000000000000e+00,5.000000000000000000e+00,5.000000000000000000e+00,1.991730928421020508e+00,1.975429654121398926e+00,1.984453558921813965e+00,5.000000000000000000e+00,5.000000000000000000e+00,5.000000000000000000e+00,5.000000000000000000e+00,5.000000000000000000e+00,5.000000000000000000e+00,1.811342716217041016e+00,1.765890479087829590e+00,1.760646104812622070e+00,1.764133691787719727e+00,5.000000000000000000e+00,5.000000000000000000e+00,5.000000000000000000e+00,5.000000000000000000e+00,5.000000000000000000e+00,5.000000000000000000e+00,5.000000000000000000e+00,5.000000000000000000e+00,5.000000000000000000e+00,5.000000000000000000e+00,5.000000000000000000e+00,5.000000000000000000e+00,5.000000000000000000e+00,5.000000000000000000e+00,5.000000000000000000e+00,5.000000000000000000e+00,5.000000000000000000e+00,5.000000000000000000e+00,5.000000000000000000e+00,5.000000000000000000e+00,5.000000000000000000e+00,5.000000000000000000e+00,5.000000000000000000e+00,5.000000000000000000e+00,5.000000000000000000e+00,5.000000000000000000e+00,5.000000000000000000e+00,5.000000000000000000e+00,5.000000000000000000e+00,4.850488185882568359e+00,4.691217899322509766e+00,4.542074680328369141e+00,4.402122497558593750e+00,4.270536899566650391e+00,4.146589756011962891e+00,4.029634475708007812e+00,3.919095754623413086e+00,3.814459800720214844e+00,3.715265512466430664e+00
3.099336624145507812e+00,3.177707672119140625e+00,3.260145187377929688e+00,3.346973657608032227e+00,3.438554048538208008e+00,3.535286664962768555e+00,3.637619495391845703e+00,3.746053457260131836e+00,3.861150503158569336e+00,3.983544588088989258e+00,4.113951683044433594e+00,4.253186225891113281e+00,4.402175426483154297e+00,4.561982154846191406e+00,4.733828067779541016e+00,4.919127464294433594e+00,5.000000000000000000e+00,5.000000000000000000e+00,5.000000000000000000e+00,5.000000000000000000e+00,5.000000000000000000e+00,5.000000000000000000e+00,5.000000000000000000e+00,5.000000000000000000e+00,5.000000000000000000e+00,5.000000000000000000e+00,5.000000000000000000e+00,5.000000000000000000e+00,2.006191015243530273e+00,1.989413738250732422e+00,2.005633354187011719e+00,5.000000000000000000e+00,5.000000000000000000e+00,5.000000000000000000e+00,5.000000000000000000e+00,5.000000000000000000e+00,5.000000000000000000e+00,1.832789897918701172e+00,1.767517805099487305e+00,1.758326053619384766e+00,1.761877536773681641e+00,5.000000000000000000e+00,5.000000000000000000e+00,5.000000000000000000e+00,5.000000000000000000e+00,5.000000000000000000e+00,5.000000000000000000e+00,5.000000000000000000e+00,5.000000000000000000e+00,5.000000000000000000e+00,5.000000000000000000e+00,5.000000000000000000e+00,5.000000000000000000e+00,5.000000000000000000e+00,5.000000000000000000e+00,5.000000000000000000e+00,5.000000000000000000e+00,5.000000000000000000e+00,5.000000000000000000e+00,5.000000000000000000e+00,5.000000000000000000e+00,5.000000000000000000e+00,5.000000000000000000e+00,5.000000000000000000e+00,5.000000000000000000e+00,5.000000000000000000e+00,5.000000000000000000e+00,5.000000000000000000e+00,5.000000000000000000e+00,5.000000000000000000e+00,4.850629806518554688e+00,4.691350460052490234e+00,4.542199134826660156e+00,4.402239322662353516e+00,4.270647048950195312e+00,4.146693229675292969e+00,4.029732227325439453e+00,3.919188261032104492e+00,3.814547300338745117e+00,3.715348720550537109e+00
3.099270820617675781e+00,3.177638530731201172e+00,3.260072469711303711e+00,3.346896886825561523e+00,3.438472747802734375e+00,3.535201072692871094e+00,3.637528896331787109e+00,3.745957374572753906e+00,3.861048221588134766e+00,3.983435392379760742e+00,4.113835334777832031e+00,4.253062248229980469e+00,4.402042865753173828e+00,4.561839103698730469e+00,4.733674049377441406e+00,4.918961524963378906e+00,5.000000000000000000e+00,5.000000000000000000e+00,5.000000000000000000e+00,5.000000000000000000e+00,5.000000000000000000e+00,5.000000000000000000e+00,5.000000000000000000e+00,5.000000000000000000e+00,5.000000000000000000e+00,5.000000000000000000e+00,5.000000000000000000e+00,5.000000000000000000e+00,2.021220684051513672e+00,2.003846406936645508e+00,2.025245189666748047e+00,5.000000000000000000e+00,5.000000000000000000e+00,5.000000000000000000e+00,5.000000000000000000e+00,5.000000000000000000e+00,5.000000000000000000e+00,5.000000000000000000e+00,1.771099448204040527e+00,1.756698727607727051e+00,1.760243773460388184e+00,5.000000000000000000e+00,5.000000000000000000e+00,5.000000000000000000e+00,5.000000000000000000e+00,5.000000000000000000e+00,5.000000000000000000e+00,5.000000000000000000e+00,5.000000000000000000e+00,5.000000000000000000e+00,5.000000000000000000e+00,5.000000000000000000e+00,5.000000000000000000e+00,5.000000000000000000e+00,5.000000000000000000e+00,5.000000000000000000e+00,5.000000000000000000e+00,5.000000000000000000e+00,5.000000000000000000e+00,5.000000000000000000e+00,5.000000000000000000e+00,5.000000000000000000e+00,5.000000000000000000e+00,5.000000000000000000e+00,5.000000000000000000e+00,5.000000000000000000e+00,5.000000000000000000e+00,5.000000000000000000e+00,5.000000000000000000e+00,5.000000000000000000e+00,4.850771903991699219e+00,4.691483497619628906e+00,4.542323589324951172e+00,4.402356147766113281e+00,4.270757198333740234e+00,4.146797180175781250e+00,4.029830455780029297e+00,3.919281244277954102e+00,3.814635276794433594e+00,3.715431690216064453e+00
3.099204778671264648e+00,3.177569150924682617e+00,3.259999275207519531e+00,3.346820116043090820e+00,3.438391685485839844e+00,3.535115003585815430e+00,3.637438058853149414e+00,3.745860815048217773e+00,3.860945940017700195e+00,3.983326435089111328e+00,4.113719463348388672e+00,4.252937793731689453e+00,4.401909828186035156e+00,4.561696529388427734e+00,4.733520507812500000e+00,4.918795108795166016e+00,5.000000000000000000e+00,5.000000000000000000e+00,5.000000000000000000e+00,5.000000000000000000e+00,5.000000000000000000e+00,5.000000000000000000e+00,5.000000000000000000e+00,5.000000000000000000e+00,5.000000000000000000e+00,5.000000000000000000e+00,5.000000000000000000e+00,5.000000000000000000e+00,2.037823677062988281e+00,2.023867607116699219e+00,2.047952651977539062e+00,5.000000000000000000e+00,5.000000000000000000e+00,5.000000000000000000e+00,5.000000000000000000e+00,5.000000000000000000e+00,5.000000000000000000e+00,5.000000000000000000e+00,1.774695754051208496e+00,1.755976915359497070e+00,1.758612871170043945e+00,5.000000000000000000e+00,5.000000000000000000e+00,5.000000000000000000e+00,5.000000000000000000e+00,5.000000000000000000e+00,5.000000000000000000e+00,5.000000000000000000e+00,5.000000000000000000e+00,5.000000000000000000e+00,5.000000000000000000e+00,5.000000000000000000e+00,5.000000000000000000e+00,5.000000000000000000e+00,5.000000000000000000e+00,5.000000000000000000e+00,5.000000000000000000e+00,5.000000000000000000e+00,5.000000000000000000e+00,5.000000000000000000e+00,5.000000000000000000e+00,5.000000000000000000e+00,5.000000000000000000e+00,5.000000000000000000e+00,5.000000000000000000e+00,5.000000000000000000e+00,5.000000000000000000e+00,5.000000000000000000e+00,5.000000000000000000e+00,5.000000000000000000e+00,4.850914001464843750e+00,4.691616058349609375e+00,4.542448043823242188e+00,4.402473449707031250e+00,4.270866870880126953e+00,4.146901130676269531e+00,4.029928207397460938e+00,3.919373750686645508e+00,3.814723014831542969e+00,3.715515136718750000e+00
3.099138975143432617e+00,3.177499771118164062e+00,3.259926319122314453e+00,3.346743106842041016e+00,3.438310623168945312e+00,3.535029411315917969e+00,3.637346982955932617e+00,3.745764493942260742e+00,3.860843420028686523e+00,3.983217716217041016e+00,4.113603115081787109e+00,4.252813816070556641e+00,4.401776313781738281e+00,4.561553478240966797e+00,4.733366966247558594e+00,4.854134559631347656e+00,4.852931976318359375e+00,4.851730346679687500e+00,4.850528717041015625e+00,4.849327564239501953e+00,4.848127365112304688e+00,4.846927642822265625e+00,4.845728874206542969e+00,4.844530105590820312e+00,4.843332290649414062e+00,4.842135429382324219e+00,4.840938568115234375e+00,4.839742660522460938e+00,2.054766654968261719e+00,2.040648937225341797e+00,2.075281858444213867e+00,4.834963798522949219e+00,4.833770275115966797e+00,4.832577705383300781e+00,4.831386089324951172e+00,4.830194473266601562e+00,4.829003334045410156e+00,4.827813148498535156e+00,1.778306722640991211e+00,1.756208658218383789e+00,1.756985187530517578e+00,4.823058605194091797e+00,4.821871280670166016e+00,4.820684432983398438e+00,4.819498538970947266e+00,4.818313121795654297e+00,4.817127704620361328e+00,4.815943241119384766e+00,4.814759731292724609e+00,4.813576221466064453e+00,4.812393665313720703e+00,4.811211585998535156e+00,4.810030460357666016e+00,4.808849334716796875e+00,4.807668685913085938e+00,4.806488990783691406e+00,4.805309772491455078e+00,4.804131507873535156e+00,4.802953243255615234e+00,4.801775932312011719e+00,4.800599098205566406e+00,4.799423217773437500e+00,4.798247337341308594e+00,4.797071933746337891e+00,4.795897483825683594e+00,4.794723510742187500e+00,4.793550014495849609e+00,4.792377471923828125e+00,4.791205406188964844e+00,4.790033817291259766e+00,4.788862705230712891e+00,4.691748619079589844e+00,4.542572498321533203e+00,4.402589797973632812e+00,4.270977020263671875e+00,4.147004604339599609e+00,4.030025959014892578e+00,3.919466495513916016e+00,3.814810514450073242e+00,3.715598344802856445e+00
3.099072933197021484e+00,3.177430629730224609e+00,3.259853124618530273e+00,3.346666097640991211e+00,3.438229322433471680e+00,3.534943580627441406e+00,3.637256383895874023e+00,3.745668411254882812e+00,3.770674705505371094e+00,3.769948959350585938e+00,3.769223690032958984e+00,3.768498420715332031e+00,3.767773628234863281e+00,3.767049074172973633e+00,3.766324758529663086e+00,3.765600681304931641e+00,3.764876604080200195e+00,3.764153003692626953e+00,3.763429880142211914e+00,3.762706995010375977e+00,3.761984348297119141e+00,3.761261940002441406e+00,3.760539770126342773e+00,3.759818077087402344e+00,3.759096384048461914e+00,3.758375167846679688e+00,3.757654190063476562e+00,3.756933450698852539e+00,2.072282791137695312e+00,2.057711124420166016e+00,3.754773139953613281e+00,3.754053354263305664e+00,3.753334045410156250e+00,3.752614974975585938e+00,3.751895904541015625e+00,3.751177310943603516e+00,3.750459194183349609e+00,3.749741077423095703e+00,1.781932353973388672e+00,1.758367538452148438e+00,1.758499503135681152e+00,3.746872186660766602e+00,3.746155500411987305e+00,3.745439291000366211e+00,3.744723320007324219e+00,3.744007587432861328e+00,3.743292093276977539e+00,3.742576837539672852e+00,3.741861820220947266e+00,3.741147279739379883e+00,3.740432739257812500e+00,3.739718675613403320e+00,3.739004611968994141e+00,3.738291025161743164e+00,3.737577676773071289e+00,3.736864566802978516e+00,3.736151933670043945e+00,3.735439300537109375e+00,3.734727144241333008e+00,3.734015226364135742e+00,3.733303546905517578e+00,3.732592105865478516e+00,3.731881141662597656e+00,3.731170177459716797e+00,3.730459690093994141e+00,3.729749202728271484e+00,3.729039192199707031e+00,3.728329420089721680e+00,3.727619886398315430e+00,3.726910829544067383e+00,3.726201295852661133e+00,3.725492715835571289e+00,3.724784135818481445e+00,3.724076032638549805e+00,3.723368167877197266e+00,3.722660541534423828e+00,3.721953153610229492e+00,3.721246004104614258e+00,3.720539331436157227e+00,3.715681791305541992e+00
3.083107233047485352e+00,3.082622289657592773e+00,3.082137107849121094e+00,3.081652402877807617e+00,3.081167459487915039e+00,3.080682992935180664e+00,3.080198526382446289e+00,3.079714298248291016e+00,3.079230070114135742e+00,3.078746080398559570e+00,3.078262329101562500e+00,3.077778577804565430e+00,3.077295064926147461e+00,3.076811790466308594e+00,3.076328516006469727e+00,3.075845479965209961e+00,3.075362682342529297e+00,3.074879884719848633e+00,3.074397087097167969e+00,3.073914766311645508e+00,3.073432445526123047e+00,3.072950363159179688e+00,3.072468280792236328e+00,3.071986436843872070e+00,3.071504592895507812e+00,3.071023225784301758e+00,3.070541620254516602e+00,3.070060491561889648e+00,2.098226785659790039e+00,2.087540864944458008e+00,3.068617582321166992e+00,3.068136930465698242e+00,3.067656278610229492e+00,3.067175865173339844e+00,3.066695690155029297e+00,3.066215753555297852e+00,3.065735816955566406e+00,3.065256118774414062e+00,3.064776420593261719e+00,1.771544337272644043e+00,1.768325448036193848e+00,3.063338518142700195e+00,3.062859535217285156e+00,3.062380790710449219e+00,3.061902046203613281e+00,3.061423540115356445e+00,3.060945272445678711e+00,3.060467004776000977e+00,3.059988737106323242e+00,3.059510946273803711e+00,3.059032678604125977e+00,3.058555126190185547e+00,3.058077573776245117e+00,3.057600259780883789e+00,3.057122945785522461e+00,3.056646108627319336e+00,3.056169033050537109e+00,3.055692434310913086e+00,3.055215835571289062e+00,3.054739236831665039e+00,3.054262876510620117e+00,3.053786754608154297e+00,3.053310871124267578e+00,3.052834987640380859e+00,3.052359104156494141e+00,3.051883697509765625e+00,3.051408290863037109e+00,3.050932884216308594e+00,3.050457477569580078e+00,3.049982547760009766e+00,3.049507617950439453e+00,3.049033164978027344e+00,3.048558473587036133e+00,3.048084259033203125e+00,3.047609806060791016e+00,3.047135829925537109e+00,3.046661853790283203e+00,3.046188116073608398e+00,3.045714378356933594e+00,3.045240879058837891e+00
2.604844570159912109e+00,2.604498147964477539e+00,2.604151964187622070e+00,2.603805780410766602e+00,2.603459596633911133e+00,2.603113651275634766e+00,2.602767705917358398e+00,2.602421998977661133e+00,2.602076292037963867e+00,2.601730585098266602e+00,2.601385116577148438e+00,2.601039648056030273e+00,2.600694656372070312e+00,2.600349426269531250e+00,2.600004196166992188e+00,2.599659204483032227e+00,2.599314212799072266e+00,2.598969221115112305e+00,2.598624467849731445e+00,2.598279714584350586e+00,2.597935199737548828e+00,2.597590684890747070e+00,2.597246170043945312e+00,2.596901893615722656e+00,2.596557617187500000e+00,2.596213579177856445e+00,2.595869541168212891e+00,2.595525503158569336e+00,2.094655752182006836e+00,2.063437223434448242e+00,2.064262151718139648e+00,2.594150304794311523e+00,2.593806743621826172e+00,2.593463420867919922e+00,2.593120098114013672e+00,2.592776775360107422e+00,2.592433691024780273e+00,2.592090606689453125e+00,2.591747760772705078e+00,1.762374997138977051e+00,1.740762352943420410e+00,1.738665819168090820e+00,2.590376615524291992e+00,2.590034246444702148e+00,2.589691877365112305e+00,2.589349508285522461e+00,2.589007139205932617e+00,2.588665008544921875e+00,2.588322877883911133e+00,2.587980747222900391e+00,2.587638854980468750e+00,2.587297201156616211e+00,2.586955547332763672e+00,2.586613893508911133e+00,2.586272239685058594e+00,2.585930824279785156e+00,2.585589647293090820e+00,2.585248470306396484e+00,2.584907293319702148e+00,2.584566116333007812e+00,2.584225177764892578e+00,2.583884239196777344e+00,2.583543539047241211e+00,2.583202838897705078e+00,2.582862138748168945e+00,2.582521438598632812e+00,2.582180976867675781e+00,2.581840753555297852e+00,2.581500291824340820e+00,2.581160306930541992e+00,2.580820083618164062e+00,2.580480098724365234e+00,2.580140352249145508e+00,2.579800367355346680e+00,2.579460620880126953e+00,2.579121112823486328e+00,2.578781604766845703e+00,2.578442096710205078e+00,2.578102827072143555e+00,2.577763319015502930e+00
2.255035161972045898e+00,2.254775524139404297e+00,2.254516124725341797e+00,2.254256725311279297e+00,2.253997325897216797e+00,2.253737926483154297e+00,2.253478765487670898e+00,2.253219366073608398e+00,2.252960205078125000e+00,2.252701282501220703e+00,2.252442121505737305e+00,2.252183437347412109e+00,2.251924514770507812e+00,2.251665592193603516e+00,2.251406669616699219e+00,2.251147985458374023e+00,2.250889301300048828e+00,2.250630617141723633e+00,2.250372171401977539e+00,2.250113725662231445e+00,2.249855279922485352e+00,2.249596834182739258e+00,2.249338388442993164e+00,2.249080419540405273e+00,2.248822212219238281e+00,2.248564004898071289e+00,2.248306035995483398e+00,2.248047828674316406e+00,2.247789859771728516e+00,2.033271551132202148e+00,2.029907464981079102e+00,2.031191587448120117e+00,2.246758460998535156e+00,2.246500968933105469e+00,2.246243238449096680e+00,2.245985746383666992e+00,2.245728254318237305e+00,2.245470762252807617e+00,1.808516263961791992e+00,1.763513207435607910e+00,1.725880742073059082e+00,1.687331199645996094e+00,1.657825827598571777e+00,1.632261276245117188e+00,2.243670225143432617e+00,2.243413448333740234e+00,2.243156194686889648e+00,2.242899417877197266e+00,2.242642641067504883e+00,2.242385864257812500e+00,2.242129325866699219e+00,2.241872549057006836e+00,2.241616010665893555e+00,2.241359472274780273e+00,2.241103172302246094e+00,2.240846872329711914e+00,2.240590333938598633e+00,2.240334272384643555e+00,2.240077972412109375e+00,2.239821910858154297e+00,2.239565849304199219e+00,2.239309787750244141e+00,2.239053726196289062e+00,2.238797664642333984e+00,2.238541841506958008e+00,2.238286018371582031e+00,2.238030195236206055e+00,2.237774610519409180e+00,2.237519025802612305e+00,2.237263441085815430e+00,2.237007856369018555e+00,2.236752510070800781e+00,2.236497163772583008e+00,2.236241817474365234e+00,2.235986471176147461e+00,2.235731363296508789e+00,2.235476016998291016e+00,2.235221147537231445e+00,2.234966039657592773e+00,2.234710931777954102e+00
1.988055706024169922e+00,1.987853765487670898e+00,1.987652182579040527e+00,1.987450361251831055e+00,1.987248897552490234e+00,1.987047195434570312e+00,1.986845731735229492e+00,1.986644148826599121e+00,1.986442804336547852e+00,1.986241459846496582e+00,1.986039996147155762e+00,1.985838770866394043e+00,1.985637426376342773e+00,1.985436201095581055e+00,1.985234856605529785e+00,1.985033869743347168e+00,1.984832644462585449e+00,1.984631657600402832e+00,1.984430432319641113e+00,1.984229445457458496e+00,1.984028458595275879e+00,1.983827590942382812e+00,1.983626842498779297e+00,1.983425855636596680e+00,1.983225107192993164e+00,1.983024239540100098e+00,1.982823610305786133e+00,1.982622861862182617e+00,1.982422351837158203e+00,1.982221603393554688e+00,1.982021093368530273e+00,1.981820464134216309e+00,1.981620073318481445e+00,1.981419563293457031e+00,1.981219291687011719e+00,1.981018781661987305e+00,1.980818510055541992e+00,1.980618119239807129e+00,1.980418086051940918e+00,1.776579976081848145e+00,1.777227878570556641e+00,1.683732390403747559e+00,1.667953014373779297e+00,1.979417324066162109e+00,1.979217171669006348e+00,1.979017257690429688e+00,1.978817224502563477e+00,1.978617548942565918e+00,1.978417515754699707e+00,1.978217840194702148e+00,1.978017926216125488e+00,1.977818369865417480e+00,1.977618575096130371e+00,1.977419018745422363e+00,1.977219343185424805e+00,1.977019906044006348e+00,1.976820230484008789e+00,1.976620912551879883e+00,1.976421356201171875e+00,1.976222038269042969e+00,1.976022481918334961e+00,1.975823163986206055e+00,1.975623965263366699e+00,1.975424528121948242e+00,1.975225448608398438e+00,1.975026249885559082e+00,1.974827170372009277e+00,1.974627971649169922e+00,1.974429130554199219e+00,1.974229931831359863e+00,1.974031090736389160e+00,1.973832130432128906e+00,1.973633289337158203e+00,1.973434329032897949e+00,1.973235726356506348e+00,1.973036766052246094e+00,1.972838282585144043e+00,1.972639441490173340e+00,1.972440719604492188e+00,1.972242236137390137e+00
1.777600765228271484e+00,1.777439475059509277e+00,1.777278184890747070e+00,1.777117013931274414e+00,1.776955723762512207e+00,1.776794552803039551e+00,1.776633381843566895e+00,1.776472330093383789e+00,1.776311278343200684e+00,1.776150226593017578e+00,1.775989294052124023e+00,1.775828123092651367e+00,1.775667190551757812e+00,1.775506258010864258e+00,1.775345325469970703e+00,1.775184392929077148e+00,1.775023579597473145e+00,1.774862647056579590e+00,1.774701952934265137e+00,1.774541139602661133e+00,1.774380445480346680e+00,1.774219870567321777e+00,1.774059057235717773e+00,1.773898482322692871e+00,1.773737788200378418e+00,1.773577213287353516e+00,1.773416638374328613e+00,1.773256182670593262e+00,1.773095488548278809e+00,1.772935152053833008e+00,1.772774577140808105e+00,1.772614240646362305e+00,1.772453784942626953e+00,1.772293448448181152e+00,1.772133231163024902e+00,1.771972894668579102e+00,1.771812677383422852e+00,1.771652340888977051e+00,1.771492123603820801e+00,1.771331906318664551e+00,1.771171808242797852e+00,1.771011590957641602e+00,1.770851373672485352e+00,1.770691394805908203e+00,1.770531296730041504e+00,1.770371317863464355e+00,1.770211219787597656e+00,1.770051360130310059e+00,1.769891381263732910e+00,1.769731521606445312e+00,1.769571542739868164e+00,1.769411802291870117e+00,1.769251823425292969e+00,1.769092202186584473e+00,1.768932342529296875e+00,1.768772721290588379e+00,1.768612861633300781e+00,1.768453240394592285e+00,1.768293499946594238e+00,1.768133878707885742e+00,1.767974376678466797e+00,1.767814755439758301e+00,1.767655253410339355e+00,1.767495632171630859e+00,1.767336249351501465e+00,1.767176747322082520e+00,1.767017483711242676e+00,1.766857981681823730e+00,1.766698718070983887e+00,1.766539216041564941e+00,1.766380071640014648e+00,1.766220688819885254e+00,1.766061544418334961e+00,1.765902280807495117e+00,1.765743136405944824e+00,1.765583872795104980e+00,1.765424728393554688e+00,1.765265703201293945e+00,1.765106558799743652e+00,1.764947652816772461e+00
1.607437968254089355e+00,1.607306003570556641e+00,1.607174277305603027e+00,1.607042312622070312e+00,1.606910586357116699e+00,1.606778621673583984e+00,1.606646895408630371e+00,1.606515288352966309e+00,1.606383442878723145e+00,1.606251835823059082e+00,1.606119990348815918e+00,1.605988383293151855e+00,1.605856657028198242e+00,1.605725049972534180e+00,1.605593442916870117e+00,1.605461835861206055e+00,1.605330228805541992e+00,1.605198740959167480e+00,1.605067133903503418e+00,1.604935765266418457e+00,1.604804277420043945e+00,1.604672789573669434e+00,1.604541420936584473e+00,1.604409933090209961e+00,1.604278564453125000e+00,1.604147076606750488e+00,1.604015827178955078e+00,1.603884458541870117e+00,1.603753209114074707e+00,1.603621840476989746e+00,1.603490591049194336e+00,1.603359460830688477e+00,1.603228092193603516e+00,1.603096961975097656e+00,1.602965712547302246e+00,1.602834582328796387e+00,1.602703452110290527e+00,1.602572321891784668e+00,1.602441191673278809e+00,1.602310180664062500e+00,1.602179050445556641e+00,1.602048039436340332e+00,1.601917028427124023e+00,1.601786136627197266e+00,1.601655006408691406e+00,1.601524114608764648e+00,1.601393103599548340e+00,1.601262331008911133e+00,1.601131319999694824e+00,1.601000547409057617e+00,1.600869655609130859e+00,1.600738883018493652e+00,1.600607991218566895e+00,1.600477337837219238e+00,1.600346446037292480e+00,1.600215792655944824e+00,1.600085020065307617e+00,1.599954247474670410e+00,1.599823594093322754e+00,1.599692940711975098e+00,1.599562406539916992e+00,1.599431633949279785e+00,1.599301099777221680e+00,1.599170565605163574e+00,1.599040031433105469e+00,1.598909497261047363e+00,1.598779082298278809e+00,1.598648428916931152e+00,1.598518133163452148e+00,1.598387598991394043e+00,1.598257184028625488e+00,1.598126769065856934e+00,1.597996473312377930e+00,1.597866058349609375e+00,1.597735643386840820e+00,1.597605347633361816e+00,1.597475051879882812e+00,1.597344875335693359e+00,1.597214460372924805e+00,1.597084403038024902e+00
1.467007040977478027e+00,1.466897249221801758e+00,1.466787338256835938e+00,1.466677546501159668e+00,1.466567873954772949e+00,1.466457962989807129e+00,1.466348290443420410e+00,1.466238379478454590e+00,1.466128706932067871e+00,1.466018915176391602e+00,1.465909361839294434e+00,1.465799570083618164e+00,1.465689897537231445e+00,1.465580224990844727e+00,1.465470671653747559e+00,1.465360879898071289e+00,1.465251326560974121e+00,1.465141892433166504e+00,1.465032219886779785e+00,1.464922666549682617e+00,1.464813113212585449e+00,1.464703559875488281e+00,1.464594006538391113e+00,1.464484572410583496e+00,1.464375019073486328e+00,1.464265584945678711e+00,1.464156150817871094e+00,1.464046716690063477e+00,1.463937282562255859e+00,1.463827967643737793e+00,1.463718652725219727e+00,1.463609218597412109e+00,1.463499903678894043e+00,1.463390469551086426e+00,1.463281273841857910e+00,1.463171839714050293e+00,1.463062644004821777e+00,1.462953329086303711e+00,1.462844133377075195e+00,1.462734818458557129e+00,1.462625622749328613e+00,1.462516427040100098e+00,1.462407231330871582e+00,1.462298154830932617e+00,1.462188959121704102e+00,1.462079882621765137e+00,1.461970686912536621e+00,1.461861610412597656e+00,1.461752533912658691e+00,1.461643457412719727e+00,1.461534380912780762e+00,1.461425423622131348e+00,1.461316347122192383e+00,1.461207389831542969e+00,1.461098313331604004e+00,1.460989236831665039e+00,1.460880398750305176e+00,1.460771322250366211e+00,1.460662484169006348e+00,1.460553526878356934e+00,1.460444688796997070e+00,1.460335731506347656e+00,1.460227012634277344e+00,1.460118055343627930e+00,1.460009336471557617e+00,1.459900379180908203e+00,1.459791660308837891e+00,1.459682822227478027e+00,1.459574103355407715e+00,1.459465265274047852e+00,1.459356665611267090e+00,1.459247827529907227e+00,1.459139108657836914e+00,1.459030508995056152e+00,1.458921790122985840e+00,1.458813190460205078e+00,1.458704471588134766e+00,1.458595871925354004e+00,1.458487272262573242e+00,1.458378672599792480e+00
1.349141716957092285e+00,1.349048733711242676e+00,1.348955988883972168e+00,1.348863124847412109e+00,1.348770141601562500e+00,1.348677396774291992e+00,1.348584413528442383e+00,1.348491668701171875e+00,1.348398804664611816e+00,1.348306059837341309e+00,1.348213195800781250e+00,1.348120450973510742e+00,1.348027586936950684e+00,1.347934842109680176e+00,1.347842097282409668e+00,1.347749471664428711e+00,1.347656726837158203e+00,1.347563982009887695e+00,1.347471356391906738e+00,1.347378611564636230e+00,1.347285985946655273e+00,1.347193241119384766e+00,1.347100734710693359e+00,1.347007989883422852e+00,1.346915483474731445e+00,1.346822738647460938e+00,1.346730232238769531e+00,1.346637606620788574e+00,1.346545100212097168e+00,1.346452593803405762e+00,1.346359968185424805e+00,1.346267461776733398e+00,1.346174955368041992e+00,1.346082448959350586e+00,1.345989942550659180e+00,1.345897436141967773e+00,1.345804929733276367e+00,1.345712542533874512e+00,1.345620036125183105e+00,1.345527648925781250e+00,1.345435261726379395e+00,1.345342874526977539e+00,1.345250487327575684e+00,1.345158100128173828e+00,1.345065712928771973e+00,1.344973325729370117e+00,1.344881057739257812e+00,1.344788670539855957e+00,1.344696402549743652e+00,1.344604015350341797e+00,1.344511866569519043e+00,1.344419479370117188e+00,1.344327330589294434e+00,1.344234943389892578e+00,1.344142794609069824e+00,1.344050526618957520e+00,1.343958377838134766e+00,1.343866109848022461e+00,1.343773961067199707e+00,1.343681693077087402e+00,1.343589544296264648e+00,1.343497395515441895e+00,1.343405246734619141e+00,1.343313097953796387e+00,1.343221068382263184e+00,1.343128919601440430e+00,1.343036890029907227e+00,1.342944741249084473e+00,1.342852711677551270e+00,1.342760562896728516e+00,1.342668533325195312e+00,1.342576503753662109e+00,1.342484474182128906e+00,1.342392444610595703e+00,1.342300415039062500e+00,1.342208504676818848e+00,1.342116475105285645e+00,1.342024564743041992e+00,1.341932654380798340e+00,1.341840744018554688e+00
1.248807430267333984e+00,1.248727917671203613e+00,1.248648285865783691e+00,1.248568654060363770e+00,1.248489141464233398e+00,1.248409509658813477e+00,1.248329997062683105e+00,1.248250484466552734e+00,1.248170971870422363e+00,1.248091340065002441e+00,1.248011946678161621e+00,1.247932314872741699e+00,1.247852921485900879e+00,1.247773408889770508e+00,1.247693896293640137e+00,1.247614502906799316e+00,1.247534990310668945e+00,1.247455596923828125e+00,1.247376084327697754e+00,1.247296690940856934e+00,1.247217297554016113e+00,1.247137904167175293e+00,1.247058391571044922e+00,1.246979117393493652e+00,1.246899724006652832e+00,1.246820330619812012e+00,1.246740937232971191e+00,1.246661663055419922e+00,1.246582388877868652e+00,1.246502995491027832e+00,1.246423721313476562e+00,1.246344327926635742e+00,1.246265053749084473e+00,1.246185779571533203e+00,1.246106505393981934e+00,1.246027231216430664e+00,1.245948076248168945e+00,1.245868682861328125e+00,1.245789527893066406e+00,1.245710372924804688e+00,1.245631098747253418e+00,1.245551943778991699e+00,1.245472669601440430e+00,1.245393514633178711e+00,1.245314359664916992e+00,1.245235204696655273e+00,1.245156049728393555e+00,1.245076894760131836e+00,1.244997739791870117e+00,1.244918704032897949e+00,1.244839429855346680e+00,1.244760394096374512e+00,1.244681358337402344e+00,1.244602203369140625e+00,1.244523167610168457e+00,1.244444131851196289e+00,1.244365096092224121e+00,1.244286060333251953e+00,1.244207024574279785e+00,1.244127988815307617e+00,1.244048953056335449e+00,1.243969917297363281e+00,1.243891000747680664e+00,1.243811964988708496e+00,1.243733048439025879e+00,1.243654012680053711e+00,1.243575096130371094e+00,1.243496060371398926e+00,1.243417143821716309e+00,1.243338227272033691e+00,1.243259310722351074e+00,1.243180394172668457e+00,1.243101477622985840e+00,1.243022680282592773e+00,1.242943763732910156e+00,1.242864966392517090e+00,1.242786049842834473e+00,1.242707252502441406e+00,1.242628335952758789e+00,1.242549538612365723e+00
1.162363767623901367e+00,1.162294745445251465e+00,1.162225842475891113e+00,1.162156939506530762e+00,1.162087917327880859e+00,1.162019014358520508e+00,1.161949992179870605e+00,1.161881208419799805e+00,1.161812186241149902e+00,1.161743283271789551e+00,1.161674380302429199e+00,1.161605596542358398e+00,1.161536693572998047e+00,1.161467790603637695e+00,1.161399006843566895e+00,1.161330103874206543e+00,1.161261200904846191e+00,1.161192417144775391e+00,1.161123633384704590e+00,1.161054730415344238e+00,1.160985946655273438e+00,1.160917043685913086e+00,1.160848379135131836e+00,1.160779476165771484e+00,1.160710811614990234e+00,1.160642027854919434e+00,1.160573244094848633e+00,1.160504460334777832e+00,1.160435676574707031e+00,1.160367012023925781e+00,1.160298228263854980e+00,1.160229563713073730e+00,1.160160779953002930e+00,1.160092115402221680e+00,1.160023331642150879e+00,1.159954667091369629e+00,1.159886002540588379e+00,1.159817337989807129e+00,1.159748673439025879e+00,1.159680008888244629e+00,1.159611344337463379e+00,1.159542679786682129e+00,1.159474134445190430e+00,1.159405469894409180e+00,1.159336805343627930e+00,1.159268260002136230e+00,1.159199595451354980e+00,1.159131050109863281e+00,1.159062504768371582e+00,1.158993840217590332e+00,1.158925294876098633e+00,1.158856749534606934e+00,1.158788204193115234e+00,1.158719658851623535e+00,1.158651113510131836e+00,1.158582568168640137e+00,1.158514022827148438e+00,1.158445596694946289e+00,1.158377051353454590e+00,1.158308625221252441e+00,1.158240079879760742e+00,1.158171653747558594e+00,1.158103108406066895e+00,1.158034682273864746e+00,1.157966256141662598e+00,1.157897710800170898e+00,1.157829284667968750e+00,1.157760858535766602e+00,1.157692432403564453e+00,1.157624006271362305e+00,1.157555580139160156e+00,1.157487273216247559e+00,1.157418847084045410e+00,1.157350420951843262e+00,1.157281994819641113e+00,1.157213687896728516e+00,1.157145261764526367e+00,1.157076954841613770e+00,1.157008647918701172e+00,1.156940340995788574e+00
1.087112665176391602e+00,1.087052226066589355e+00,1.086992025375366211e+00,1.086931705474853516e+00,1.086871385574340820e+00,1.086811065673828125e+00,1.086750745773315430e+00,1.086690425872802734e+00,1.086630225181579590e+00,1.086569905281066895e+00,1.086509704589843750e+00,1.086449384689331055e+00,1.086389183998107910e+00,1.086328864097595215e+00,1.086268663406372070e+00,1.086208462715148926e+00,1.086148142814636230e+00,1.086087942123413086e+00,1.086027741432189941e+00,1.085967540740966797e+00,1.085907340049743652e+00,1.085847139358520508e+00,1.085786938667297363e+00,1.085726857185363770e+00,1.085666656494140625e+00,1.085606455802917480e+00,1.085546374320983887e+00,1.085486173629760742e+00,1.085425972938537598e+00,1.085365891456604004e+00,1.085305809974670410e+00,1.085245609283447266e+00,1.085185527801513672e+00,1.085125327110290527e+00,1.085065245628356934e+00,1.085005164146423340e+00,1.084945082664489746e+00,1.084885001182556152e+00,1.084824919700622559e+00,1.084764838218688965e+00,1.084704756736755371e+00,1.084644675254821777e+00,1.084584593772888184e+00,1.084524631500244141e+00,1.084464550018310547e+00,1.084404587745666504e+00,1.084344506263732910e+00,1.084284543991088867e+00,1.084224462509155273e+00,1.084164500236511230e+00,1.084104537963867188e+00,1.084044456481933594e+00,1.083984494209289551e+00,1.083924531936645508e+00,1.083864569664001465e+00,1.083804607391357422e+00,1.083744645118713379e+00,1.083684682846069336e+00,1.083624720573425293e+00,1.083564758300781250e+00,1.083504796028137207e+00,1.083444833755493164e+00,1.083384990692138672e+00,1.083325147628784180e+00,1.083265185356140137e+00,1.083205342292785645e+00,1.083145380020141602e+00,1.083085536956787109e+00,1.083025574684143066e+00,1.082965731620788574e+00,1.082905888557434082e+00,1.082846045494079590e+00,1.082786083221435547e+00,1.082726240158081055e+00,1.082666397094726562e+00,1.082606554031372070e+00,1.082546710968017578e+00,1.082486987113952637e+00,1.082427144050598145e+00,1.082367300987243652e+00
1.021012544631958008e+00,1.020959377288818359e+00,1.020906090736389160e+00,1.020852923393249512e+00,1.020799756050109863e+00,1.020746588706970215e+00,1.020693302154541016e+00,1.020640134811401367e+00,1.020586967468261719e+00,1.020533800125122070e+00,1.020480751991271973e+00,1.020427465438842773e+00,1.020374417304992676e+00,1.020321249961853027e+00,1.020268082618713379e+00,1.020214915275573730e+00,1.020161867141723633e+00,1.020108699798583984e+00,1.020055532455444336e+00,1.020002365112304688e+00,1.019949316978454590e+00,1.019896149635314941e+00,1.019843101501464844e+00,1.019790053367614746e+00,1.019737005233764648e+00,1.019683957099914551e+00,1.019630789756774902e+00,1.019577741622924805e+00,1.019524693489074707e+00,1.019471645355224609e+00,1.019418597221374512e+00,1.019365549087524414e+00,1.019312500953674316e+00,1.019259452819824219e+00,1.019206404685974121e+00,1.019153356552124023e+00,1.019100427627563477e+00,1.019047379493713379e+00,1.018994331359863281e+00,1.018941283226013184e+00,1.018888354301452637e+00,1.018835306167602539e+00,1.018782377243041992e+00,1.018729329109191895e+00,1.018676400184631348e+00,1.018623352050781250e+00,1.018570423126220703e+00,1.018517494201660156e+00,1.018464565277099609e+00,1.018411636352539062e+00,1.018358588218688965e+00,1.018305778503417969e+00,1.018252730369567871e+00,1.018199920654296875e+00,1.018146872520446777e+00,1.018094062805175781e+00,1.018041133880615234e+00,1.017988204956054688e+00,1.017935276031494141e+00,1.017882466316223145e+00,1.017829537391662598e+00,1.017776608467102051e+00,1.017723798751831055e+00,1.017670869827270508e+00,1.017618060111999512e+00,1.017565131187438965e+00,1.017512321472167969e+00,1.017459392547607422e+00,1.017406582832336426e+00,1.017353773117065430e+00,1.017300963401794434e+00,1.017248034477233887e+00,1.017195343971252441e+00,1.017142534255981445e+00,1.017089605331420898e+00,1.017036914825439453e+00,1.016984105110168457e+00,1.016931295394897461e+00,1.016878485679626465e+00,1.016825675964355469e+00
9.624900817871093750e-01,9.624426960945129395e-01,9.623954296112060547e-01,9.623481631278991699e-01,9.623008966445922852e-01,9.622535705566406250e-01,9.622063040733337402e-01,9.621590971946716309e-01,9.621118307113647461e-01,9.620646238327026367e-01,9.620172977447509766e-01,9.619700908660888672e-01,9.619228839874267578e-01,9.618756771087646484e-01,9.618283510208129883e-01,9.617811441421508789e-01,9.617339372634887695e-01,9.616867899894714355e-01,9.616394639015197754e-01,9.615923166275024414e-01,9.615451097488403320e-01,9.614979624748229980e-01,9.614508152008056641e-01,9.614035487174987793e-01,9.613563418388366699e-01,9.613091945648193359e-01,9.612620472908020020e-01,9.612148404121398926e-01,9.611676931381225586e-01,9.611205458641052246e-01,9.610733985900878906e-01,9.610261917114257812e-01,9.609790444374084473e-01,9.609319567680358887e-01,9.608848094940185547e-01,9.608377218246459961e-01,9.607905149459838867e-01,9.607434272766113281e-01,9.606963396072387695e-01,9.606492519378662109e-01,9.606020450592041016e-01,9.605549573898315430e-01,9.605078697204589844e-01,9.604608416557312012e-01,9.604136347770690918e-01,9.603666067123413086e-01,9.603195190429687500e-01,9.602724909782409668e-01,9.602254629135131836e-01,9.601783156394958496e-01,9.601312279701232910e-01,9.600841999053955078e-01,9.600371718406677246e-01,9.599900841712951660e-01,9.599430561065673828e-01,9.598960280418395996e-01,9.598489999771118164e-01,9.598019123077392578e-01,9.597548842430114746e-01,9.597079157829284668e-01,9.596609473228454590e-01,9.596139192581176758e-01,9.595668315887451172e-01,9.595198631286621094e-01,9.594728946685791016e-01,9.594259262084960938e-01,9.593788385391235352e-01,9.593318700790405273e-01,9.592849612236022949e-01,9.592379927635192871e-01,9.591909050941467285e-01,9.591439962387084961e-01,9.590970277786254883e-01,9.590501189231872559e-01,9.590032100677490234e-01,9.589561820030212402e-01,9.589092731475830078e-01,9.588623046875000000e-01,9.588154554367065430e-01,9.587684273719787598e-01
9.103125333786010742e-01,9.102702140808105469e-01,9.102279543876647949e-01,9.101856946945190430e-01,9.101433157920837402e-01,9.101010560989379883e-01,9.100587964057922363e-01,9.100165367126464844e-01,9.099742770195007324e-01,9.099319577217102051e-01,9.098896980285644531e-01,9.098474383354187012e-01,9.098052382469177246e-01,9.097629189491271973e-01,9.097206592559814453e-01,9.096784591674804688e-01,9.096361994743347168e-01,9.095939397811889648e-01,9.095516800880432129e-01,9.095094799995422363e-01,9.094672799110412598e-01,9.094250798225402832e-01,9.093828201293945312e-01,9.093406200408935547e-01,9.092984199523925781e-01,9.092562198638916016e-01,9.092139601707458496e-01,9.091717600822448730e-01,9.091296195983886719e-01,9.090874195098876953e-01,9.090451598167419434e-01,9.090030193328857422e-01,9.089608788490295410e-01,9.089186787605285645e-01,9.088765382766723633e-01,9.088343381881713867e-01,9.087921977043151855e-01,9.087500572204589844e-01,9.087079167366027832e-01,9.086656570434570312e-01,9.086235761642456055e-01,9.085814356803894043e-01,9.085392951965332031e-01,9.084970951080322266e-01,9.084550142288208008e-01,9.084128737449645996e-01,9.083707928657531738e-01,9.083287119865417480e-01,9.082865118980407715e-01,9.082444310188293457e-01,9.082023501396179199e-01,9.081602692604064941e-01,9.081180691719055176e-01,9.080759882926940918e-01,9.080339074134826660e-01,9.079918861389160156e-01,9.079496860504150391e-01,9.079076647758483887e-01,9.078655838966369629e-01,9.078235626220703125e-01,9.077814817428588867e-01,9.077393412590026855e-01,9.076973199844360352e-01,9.076552391052246094e-01,9.076132178306579590e-01,9.075711369514465332e-01,9.075291156768798828e-01,9.074870944023132324e-01,9.074450731277465820e-01,9.074029326438903809e-01,9.073609113693237305e-01,9.073189496994018555e-01,9.072769284248352051e-01,9.072349667549133301e-01,9.071928262710571289e-01,9.071508646011352539e-01,9.071088433265686035e-01,9.070668816566467285e-01,9.070248007774353027e-01,9.069828391075134277e-01
8.635013103485107422e-01,8.634632825851440430e-01,8.634252548217773438e-01,8.633871078491210938e-01,8.633490800857543945e-01,8.633110523223876953e-01,8.632730245590209961e-01,8.632349967956542969e-01,8.631969094276428223e-01,8.631588816642761230e-01,8.631208539009094238e-01,8.630828857421875000e-01,8.630447983741760254e-01,8.630067706108093262e-01,8.629688024520874023e-01,8.629307746887207031e-01,8.628926873207092285e-01,8.628547191619873047e-01,8.628167510032653809e-01,8.627787232398986816e-01,8.627407550811767578e-01,8.627027273178100586e-01,8.626647591590881348e-01,8.626267910003662109e-01,8.625888228416442871e-01,8.625507354736328125e-01,8.625127673149108887e-01,8.624748587608337402e-01,8.624368906021118164e-01,8.623988628387451172e-01,8.623608946800231934e-01,8.623229861259460449e-01,8.622850179672241211e-01,8.622471094131469727e-01,8.622090816497802734e-01,8.621711730957031250e-01,8.621332049369812012e-01,8.620952963829040527e-01,8.620572686195373535e-01,8.620193600654602051e-01,8.619814515113830566e-01,8.619435429573059082e-01,8.619055747985839844e-01,8.618676662445068359e-01,8.618297576904296875e-01,8.617918491363525391e-01,8.617540001869201660e-01,8.617159724235534668e-01,8.616781234741210938e-01,8.616402149200439453e-01,8.616023659706115723e-01,8.615643978118896484e-01,8.615265488624572754e-01,8.614886403083801270e-01,8.614507913589477539e-01,8.614129424095153809e-01,8.613749742507934570e-01,8.613371253013610840e-01,8.612992763519287109e-01,8.612614274024963379e-01,8.612235188484191895e-01,8.611856698989868164e-01,8.611478209495544434e-01,8.611099720001220703e-01,8.610720634460449219e-01,8.610342144966125488e-01,8.609964251518249512e-01,8.609585762023925781e-01,8.609206676483154297e-01,8.608828783035278320e-01,8.608450293540954590e-01,8.608072400093078613e-01,8.607694506645202637e-01,8.607315421104431152e-01,8.606937527656555176e-01,8.606559634208679199e-01,8.606181740760803223e-01,8.605802655220031738e-01,8.605425357818603516e-01,8.605047464370727539e-01
8.212690353393554688e-01,8.212346434593200684e-01,8.212001323699951172e-01,8.211657404899597168e-01,8.211313486099243164e-01,8.210969567298889160e-01,8.210625648498535156e-01,8.210280537605285645e-01,8.209936618804931641e-01,8.209592700004577637e-01,8.209248781204223633e-01,8.208904266357421875e-01,8.208560347557067871e-01,8.208217024803161621e-01,8.207873106002807617e-01,8.207529187202453613e-01,8.207184672355651855e-01,8.206841349601745605e-01,8.206497430801391602e-01,8.206154108047485352e-01,8.205809593200683594e-01,8.205466270446777344e-01,8.205122947692871094e-01,8.204779028892517090e-01,8.204435110092163086e-01,8.204091787338256836e-01,8.203747868537902832e-01,8.203404545783996582e-01,8.203061223030090332e-01,8.202717304229736328e-01,8.202373981475830078e-01,8.202030658721923828e-01,8.201687335968017578e-01,8.201343417167663574e-01,8.201000690460205078e-01,8.200657367706298828e-01,8.200314044952392578e-01,8.199970126152038574e-01,8.199627399444580078e-01,8.199284076690673828e-01,8.198941349983215332e-01,8.198598027229309082e-01,8.198254704475402832e-01,8.197911381721496582e-01,8.197568655014038086e-01,8.197225928306579590e-01,8.196882009506225586e-01,8.196539282798767090e-01,8.196196556091308594e-01,8.195853829383850098e-01,8.195510506629943848e-01,8.195167779922485352e-01,8.194825053215026855e-01,8.194482326507568359e-01,8.194140195846557617e-01,8.193796277046203613e-01,8.193454146385192871e-01,8.193111419677734375e-01,8.192769289016723633e-01,8.192425966262817383e-01,8.192083239555358887e-01,8.191741108894348145e-01,8.191398382186889648e-01,8.191055655479431152e-01,8.190712928771972656e-01,8.190370798110961914e-01,8.190028667449951172e-01,8.189686536788940430e-01,8.189343214035034180e-01,8.189001083374023438e-01,8.188658952713012695e-01,8.188316822052001953e-01,8.187974095344543457e-01,8.187631964683532715e-01,8.187289834022521973e-01,8.186948299407958984e-01,8.186604976654052734e-01,8.186263442039489746e-01,8.185921311378479004e-01,8.185579776763916016e-01
7.829751968383789062e-01,7.829439043998718262e-01,7.829125523567199707e-01,7.828812599182128906e-01,7.828500270843505859e-01,7.828187346458435059e-01,7.827873826026916504e-01,7.827561497688293457e-01,7.827248573303222656e-01,7.826936244964599609e-01,7.826622724533081055e-01,7.826310396194458008e-01,7.825998067855834961e-01,7.825685143470764160e-01,7.825372815132141113e-01,7.825059890747070312e-01,7.824747562408447266e-01,7.824435234069824219e-01,7.824122905731201172e-01,7.823809385299682617e-01,7.823497056961059570e-01,7.823184728622436523e-01,7.822872996330261230e-01,7.822560071945190430e-01,7.822247743606567383e-01,7.821935415267944336e-01,7.821623086929321289e-01,7.821311354637145996e-01,7.820998430252075195e-01,7.820686101913452148e-01,7.820374369621276855e-01,7.820062041282653809e-01,7.819749116897583008e-01,7.819437384605407715e-01,7.819125652313232422e-01,7.818813323974609375e-01,7.818500995635986328e-01,7.818189263343811035e-01,7.817876935005187988e-01,7.817565202713012695e-01,7.817253470420837402e-01,7.816941142082214355e-01,7.816629409790039062e-01,7.816317677497863770e-01,7.816005945205688477e-01,7.815693616867065430e-01,7.815381884574890137e-01,7.815070152282714844e-01,7.814758419990539551e-01,7.814446091651916504e-01,7.814134359359741211e-01,7.813823223114013672e-01,7.813511490821838379e-01,7.813200354576110840e-01,7.812888026237487793e-01,7.812576293945312500e-01,7.812265157699584961e-01,7.811953425407409668e-01,7.811641693115234375e-01,7.811330556869506836e-01,7.811018824577331543e-01,7.810707688331604004e-01,7.810395956039428711e-01,7.810084223747253418e-01,7.809773087501525879e-01,7.809461951255798340e-01,7.809150815010070801e-01,7.808839082717895508e-01,7.808527946472167969e-01,7.808216810226440430e-01,7.807905673980712891e-01,7.807593941688537598e-01,7.807282805442810059e-01,7.806972265243530273e-01,7.806661128997802734e-01,7.806349396705627441e-01,7.806038260459899902e-01,7.805727720260620117e-01,7.805416584014892578e-01,7.805106043815612793e-01
7.480933070182800293e-01,7.480646967887878418e-01,7.480361461639404297e-01,7.480075955390930176e-01,7.479790449142456055e-01,7.479504346847534180e-01,7.479218840599060059e-01,7.478933334350585938e-01,7.478647828102111816e-01,7.478362321853637695e-01,7.478076815605163574e-01,7.477791309356689453e-01,7.477506399154663086e-01,7.477220892906188965e-01,7.476934790611267090e-01,7.476649880409240723e-01,7.476364374160766602e-01,7.476079463958740234e-01,7.475793361663818359e-01,7.475508451461791992e-01,7.475223541259765625e-01,7.474938035011291504e-01,7.474652528762817383e-01,7.474367618560791016e-01,7.474082112312316895e-01,7.473797202110290527e-01,7.473512291908264160e-01,7.473226785659790039e-01,7.472941875457763672e-01,7.472656965255737305e-01,7.472372055053710938e-01,7.472086548805236816e-01,7.471801638603210449e-01,7.471516728401184082e-01,7.471231818199157715e-01,7.470946311950683594e-01,7.470661997795104980e-01,7.470377087593078613e-01,7.470092177391052246e-01,7.469807267189025879e-01,7.469522356986999512e-01,7.469237446784973145e-01,7.468953132629394531e-01,7.468668222427368164e-01,7.468383312225341797e-01,7.468098402023315430e-01,7.467814087867736816e-01,7.467529177665710449e-01,7.467244267463684082e-01,7.466959953308105469e-01,7.466675043106079102e-01,7.466390728950500488e-01,7.466106414794921875e-01,7.465821504592895508e-01,7.465537190437316895e-01,7.465252280235290527e-01,7.464967966079711914e-01,7.464683055877685547e-01,7.464398741722106934e-01,7.464114427566528320e-01,7.463830709457397461e-01,7.463545799255371094e-01,7.463261485099792480e-01,7.462977170944213867e-01,7.462692856788635254e-01,7.462409138679504395e-01,7.462124228477478027e-01,7.461839914321899414e-01,7.461556196212768555e-01,7.461271882057189941e-01,7.460986971855163574e-01,7.460703253746032715e-01,7.460418939590454102e-01,7.460135221481323242e-01,7.459850311279296875e-01,7.459566593170166016e-01,7.459282875061035156e-01,7.458999156951904297e-01,7.458714842796325684e-01,7.458430528640747070e-01
7.161868214607238770e-01,7.161606550216674805e-01,7.161344885826110840e-01,7.161083221435546875e-01,7.160820960998535156e-01,7.160559296607971191e-01,7.160297632217407227e-01,7.160035967826843262e-01,7.159773707389831543e-01,7.159512639045715332e-01,7.159250974655151367e-01,7.158989310264587402e-01,7.158727645874023438e-01,7.158465981483459473e-01,7.158204317092895508e-01,7.157942652702331543e-01,7.157681584358215332e-01,7.157419323921203613e-01,7.157158255577087402e-01,7.156896591186523438e-01,7.156635522842407227e-01,7.156373858451843262e-01,7.156112194061279297e-01,7.155851125717163086e-01,7.155590057373046875e-01,7.155328392982482910e-01,7.155066728591918945e-01,7.154805660247802734e-01,7.154544591903686523e-01,7.154282927513122559e-01,7.154021263122558594e-01,7.153760194778442383e-01,7.153499126434326172e-01,7.153238058090209961e-01,7.152976393699645996e-01,7.152715325355529785e-01,7.152454257011413574e-01,7.152193188667297363e-01,7.151932716369628906e-01,7.151671051979064941e-01,7.151409983634948730e-01,7.151148915290832520e-01,7.150887846946716309e-01,7.150626778602600098e-01,7.150365710258483887e-01,7.150104641914367676e-01,7.149844169616699219e-01,7.149582505226135254e-01,7.149322032928466797e-01,7.149060964584350586e-01,7.148800492286682129e-01,7.148539423942565918e-01,7.148278355598449707e-01,7.148017287254333496e-01,7.147756814956665039e-01,7.147496342658996582e-01,7.147234678268432617e-01,7.146974205970764160e-01,7.146713733673095703e-01,7.146453261375427246e-01,7.146192193031311035e-01,7.145931124687194824e-01,7.145670652389526367e-01,7.145410180091857910e-01,7.145149707794189453e-01,7.144888639450073242e-01,7.144628167152404785e-01,7.144367694854736328e-01,7.144107222557067871e-01,7.143846750259399414e-01,7.143586277961730957e-01,7.143325805664062500e-01,7.143065333366394043e-01,7.142804265022277832e-01,7.142544388771057129e-01,7.142283916473388672e-01,7.142023444175720215e-01,7.141763567924499512e-01,7.141502499580383301e-01,7.141242623329162598e-01
6.868907213211059570e-01,6.868666410446166992e-01,6.868425607681274414e-01,6.868184208869934082e-01,6.867944002151489258e-01,6.867703199386596680e-01,6.867462396621704102e-01,6.867220997810363770e-01,6.866980791091918945e-01,6.866739988327026367e-01,6.866499781608581543e-01,6.866258978843688965e-01,6.866017580032348633e-01,6.865777373313903809e-01,6.865536570549011230e-01,6.865296363830566406e-01,6.865055561065673828e-01,6.864814758300781250e-01,6.864574551582336426e-01,6.864333748817443848e-01,6.864092946052551270e-01,6.863852739334106445e-01,6.863612532615661621e-01,6.863371729850769043e-01,6.863131523132324219e-01,6.862890720367431641e-01,6.862650513648986816e-01,6.862410306930541992e-01,6.862170100212097168e-01,6.861929297447204590e-01,6.861689090728759766e-01,6.861448884010314941e-01,6.861208677291870117e-01,6.860967874526977539e-01,6.860727667808532715e-01,6.860487461090087891e-01,6.860247254371643066e-01,6.860007047653198242e-01,6.859766244888305664e-01,6.859526634216308594e-01,6.859286427497863770e-01,6.859046220779418945e-01,6.858805418014526367e-01,6.858565807342529297e-01,6.858325600624084473e-01,6.858085989952087402e-01,6.857845187187194824e-01,6.857604980468750000e-01,6.857365369796752930e-01,6.857125163078308105e-01,6.856885552406311035e-01,6.856644749641418457e-01,6.856405138969421387e-01,6.856165528297424316e-01,6.855925321578979492e-01,6.855685114860534668e-01,6.855445504188537598e-01,6.855205297470092773e-01,6.854965686798095703e-01,6.854725480079650879e-01,6.854485869407653809e-01,6.854246258735656738e-01,6.854006648063659668e-01,6.853766441345214844e-01,6.853526234626770020e-01,6.853286623954772949e-01,6.853047013282775879e-01,6.852807402610778809e-01,6.852567195892333984e-01,6.852327585220336914e-01,6.852088570594787598e-01,6.851848959922790527e-01,6.851608753204345703e-01,6.851369142532348633e-01,6.851129531860351562e-01,6.850889921188354492e-01,6.850650906562805176e-01,6.850410699844360352e-01,6.850171089172363281e-01,6.849932074546813965e-01
6.598971486091613770e-01,6.598749756813049316e-01,6.598526835441589355e-01,6.598304510116577148e-01,6.598082780838012695e-01,6.597860455513000488e-01,6.597637534141540527e-01,6.597415804862976074e-01,6.597193479537963867e-01,6.596971750259399414e-01,6.596749424934387207e-01,6.596527099609375000e-01,6.596304774284362793e-01,6.596083045005798340e-01,6.595861315727233887e-01,6.595638394355773926e-01,6.595416665077209473e-01,6.595194935798645020e-01,6.594972610473632812e-01,6.594750285148620605e-01,6.594528555870056152e-01,6.594306826591491699e-01,6.594084501266479492e-01,6.593862771987915039e-01,6.593640446662902832e-01,6.593418717384338379e-01,6.593196988105773926e-01,6.592975258827209473e-01,6.592752933502197266e-01,6.592531204223632812e-01,6.592309474945068359e-01,6.592087745666503906e-01,6.591865420341491699e-01,6.591643691062927246e-01,6.591421961784362793e-01,6.591200232505798340e-01,6.590978503227233887e-01,6.590756773948669434e-01,6.590535044670104980e-01,6.590313315391540527e-01,6.590091586112976074e-01,6.589869856834411621e-01,6.589648127555847168e-01,6.589426398277282715e-01,6.589205265045166016e-01,6.588982939720153809e-01,6.588761806488037109e-01,6.588540077209472656e-01,6.588318347930908203e-01,6.588097214698791504e-01,6.587874889373779297e-01,6.587653756141662598e-01,6.587432622909545898e-01,6.587210893630981445e-01,6.586989164352416992e-01,6.586767435073852539e-01,6.586546301841735840e-01,6.586325168609619141e-01,6.586102843284606934e-01,6.585881710052490234e-01,6.585660576820373535e-01,6.585439443588256836e-01,6.585217714309692383e-01,6.584995985031127930e-01,6.584774851799011230e-01,6.584553718566894531e-01,6.584332585334777832e-01,6.584110856056213379e-01,6.583889722824096680e-01,6.583668589591979980e-01,6.583447456359863281e-01,6.583225727081298828e-01,6.583004593849182129e-01,6.582783460617065430e-01,6.582562327384948730e-01,6.582341194152832031e-01,6.582120060920715332e-01,6.581898927688598633e-01,6.581677794456481934e-01,6.581456661224365234e-01
6.349449753761291504e-01,6.349243521690368652e-01,6.349037885665893555e-01,6.348832249641418457e-01,6.348626613616943359e-01,6.348420381546020508e-01,6.348214745521545410e-01,6.348009109497070312e-01,6.347803473472595215e-01,6.347597837448120117e-01,6.347392201423645020e-01,6.347186565399169922e-01,6.346980929374694824e-01,6.346775293350219727e-01,6.346569657325744629e-01,6.346364021301269531e-01,6.346158385276794434e-01,6.345952749252319336e-01,6.345747113227844238e-01,6.345541477203369141e-01,6.345335841178894043e-01,6.345130801200866699e-01,6.344925165176391602e-01,6.344719529151916504e-01,6.344513893127441406e-01,6.344308853149414062e-01,6.344103217124938965e-01,6.343897581100463867e-01,6.343691945075988770e-01,6.343486905097961426e-01,6.343281269073486328e-01,6.343076229095458984e-01,6.342870593070983887e-01,6.342664957046508789e-01,6.342459917068481445e-01,6.342254877090454102e-01,6.342049241065979004e-01,6.341843605041503906e-01,6.341638565063476562e-01,6.341433525085449219e-01,6.341227889060974121e-01,6.341022849082946777e-01,6.340817809104919434e-01,6.340612173080444336e-01,6.340407133102416992e-01,6.340201497077941895e-01,6.339996457099914551e-01,6.339791417121887207e-01,6.339586377143859863e-01,6.339380741119384766e-01,6.339175701141357422e-01,6.338970661163330078e-01,6.338765621185302734e-01,6.338560581207275391e-01,6.338355541229248047e-01,6.338150501251220703e-01,6.337945461273193359e-01,6.337740421295166016e-01,6.337535381317138672e-01,6.337330341339111328e-01,6.337125301361083984e-01,6.336920261383056641e-01,6.336715221405029297e-01,6.336510181427001953e-01,6.336305141448974609e-01,6.336100697517395020e-01,6.335895061492919922e-01,6.335690021514892578e-01,6.335485577583312988e-01,6.335280537605285645e-01,6.335076093673706055e-01,6.334870457649230957e-01,6.334666013717651367e-01,6.334460973739624023e-01,6.334256529808044434e-01,6.334051489830017090e-01,6.333846449851989746e-01,6.333642005920410156e-01,6.333437561988830566e-01,6.333231925964355469e-01
6.118110418319702148e-01,6.117919087409973145e-01,6.117728352546691895e-01,6.117537617683410645e-01,6.117346286773681641e-01,6.117154955863952637e-01,6.116964221000671387e-01,6.116773486137390137e-01,6.116582155227661133e-01,6.116390824317932129e-01,6.116200089454650879e-01,6.116009354591369629e-01,6.115818619728088379e-01,6.115627288818359375e-01,6.115436553955078125e-01,6.115245223045349121e-01,6.115054488182067871e-01,6.114863753318786621e-01,6.114672422409057617e-01,6.114481687545776367e-01,6.114290952682495117e-01,6.114100217819213867e-01,6.113909482955932617e-01,6.113718748092651367e-01,6.113528013229370117e-01,6.113337278366088867e-01,6.113145947456359863e-01,6.112955212593078613e-01,6.112764477729797363e-01,6.112574338912963867e-01,6.112383604049682617e-01,6.112192273139953613e-01,6.112001538276672363e-01,6.111811399459838867e-01,6.111620664596557617e-01,6.111429333686828613e-01,6.111239194869995117e-01,6.111048460006713867e-01,6.110857725143432617e-01,6.110666990280151367e-01,6.110476255416870117e-01,6.110286116600036621e-01,6.110095381736755371e-01,6.109905242919921875e-01,6.109713912010192871e-01,6.109523773193359375e-01,6.109333038330078125e-01,6.109142899513244629e-01,6.108952164649963379e-01,6.108761429786682129e-01,6.108571290969848633e-01,6.108380556106567383e-01,6.108189821243286133e-01,6.107999682426452637e-01,6.107808947563171387e-01,6.107618808746337891e-01,6.107428669929504395e-01,6.107237935066223145e-01,6.107047796249389648e-01,6.106857061386108398e-01,6.106666922569274902e-01,6.106476187705993652e-01,6.106286048889160156e-01,6.106095910072326660e-01,6.105905771255493164e-01,6.105715036392211914e-01,6.105524897575378418e-01,6.105334758758544922e-01,6.105144023895263672e-01,6.104953885078430176e-01,6.104763746261596680e-01,6.104573607444763184e-01,6.104383468627929688e-01,6.104193329811096191e-01,6.104002594947814941e-01,6.103812456130981445e-01,6.103622317314147949e-01,6.103432178497314453e-01,6.103242039680480957e-01,6.103051900863647461e-01
5.903035402297973633e-01,5.902857780456542969e-01,5.902680158615112305e-01,5.902502536773681641e-01,5.902324318885803223e-01,5.902146697044372559e-01,5.901968479156494141e-01,5.901790857315063477e-01,5.901612639427185059e-01,5.901435017585754395e-01,5.901257395744323730e-01,5.901079773902893066e-01,5.900901556015014648e-01,5.900723934173583984e-01,5.900546312332153320e-01,5.900368690490722656e-01,5.900191068649291992e-01,5.900012850761413574e-01,5.899835824966430664e-01,5.899658203125000000e-01,5.899480581283569336e-01,5.899302363395690918e-01,5.899124741554260254e-01,5.898947119712829590e-01,5.898769497871398926e-01,5.898591876029968262e-01,5.898414254188537598e-01,5.898237228393554688e-01,5.898059606552124023e-01,5.897881984710693359e-01,5.897704362869262695e-01,5.897526741027832031e-01,5.897349119186401367e-01,5.897171497344970703e-01,5.896993875503540039e-01,5.896816253662109375e-01,5.896639227867126465e-01,5.896461606025695801e-01,5.896283984184265137e-01,5.896106362342834473e-01,5.895929336547851562e-01,5.895751714706420898e-01,5.895574688911437988e-01,5.895396471023559570e-01,5.895219445228576660e-01,5.895041823387145996e-01,5.894864797592163086e-01,5.894687175750732422e-01,5.894509553909301758e-01,5.894332528114318848e-01,5.894155502319335938e-01,5.893977284431457520e-01,5.893800258636474609e-01,5.893623232841491699e-01,5.893445611000061035e-01,5.893268585205078125e-01,5.893090963363647461e-01,5.892913937568664551e-01,5.892736911773681641e-01,5.892559289932250977e-01,5.892382264137268066e-01,5.892204642295837402e-01,5.892027616500854492e-01,5.891850590705871582e-01,5.891672968864440918e-01,5.891495943069458008e-01,5.891318917274475098e-01,5.891141891479492188e-01,5.890964865684509277e-01,5.890787243843078613e-01,5.890610218048095703e-01,5.890433192253112793e-01,5.890256166458129883e-01,5.890078544616699219e-01,5.889901518821716309e-01,5.889724493026733398e-01,5.889547467231750488e-01,5.889370441436767578e-01,5.889193415641784668e-01,5.889016389846801758e-01
