2.655743360519409180e+00,2.638269186019897461e+00,2.621023178100585938e+00,2.604001045227050781e+00,2.587198734283447266e+00,2.570611953735351562e+00,2.554236650466918945e+00,2.538068294525146484e+00,2.522103548049926758e+00,2.506338357925415039e+00,2.490768909454345703e+00,2.475392103195190430e+00,2.460203647613525391e+00,2.445200443267822266e+00,2.430379152297973633e+00,2.415736675262451172e+00,2.401269197463989258e+00,2.386974096298217773e+00,2.372848272323608398e+00,2.358888626098632812e+00,2.345092535018920898e+00,2.331456422805786133e+00,2.317978143692016602e+00,2.304654836654663086e+00,2.291483640670776367e+00,2.278462648391723633e+00,2.265588283538818359e+00,2.252858877182006836e+00,2.240271568298339844e+00,2.227824211120605469e+00,2.215514421463012695e+00,2.203339815139770508e+00,2.191298246383666992e+00,2.179387807846069336e+00,2.167606115341186523e+00,2.155951023101806641e+00,2.144420385360717773e+00,2.133012533187866211e+00,2.121725559234619141e+00,2.110557556152343750e+00,2.099506139755249023e+00,2.088570117950439453e+00,8.041092157363891602e-01,7.910026907920837402e-01,7.813608646392822266e-01,7.758839130401611328e-01,7.713041901588439941e-01,7.677925825119018555e-01,7.646714448928833008e-01,7.613914608955383301e-01,7.581394314765930176e-01,7.549150586128234863e-01,7.545722126960754395e-01,7.739217281341552734e-01,8.930666446685791016e-01,8.829882740974426270e-01,8.731348514556884766e-01,8.634989261627197266e-01,8.537255525588989258e-01,8.561114668846130371e-01,8.588451743125915527e-01,8.615282177925109863e-01,8.642280697822570801e-01,8.900932669639587402e-01,1.865120172500610352e+00,1.856484651565551758e+00,1.847928404808044434e+00,1.839450955390930176e+00,1.831050992012023926e+00,1.822727084159851074e+00,1.814478754997253418e+00,1.806304574012756348e+00,1.798203825950622559e+00,1.790175437927246094e+00,1.782218217849731445e+00,1.774331688880920410e+00,1.766514420509338379e+00,1.758765935897827148e+00,1.751085162162780762e+00,1.743470907211303711e+00
2.655736923217773438e+00,2.638262748718261719e+00,2.621016740798950195e+00,2.603994846343994141e+00,2.587192535400390625e+00,2.570605993270874023e+00,2.554230690002441406e+00,2.538062334060668945e+00,2.522097587585449219e+00,2.506332635879516602e+00,2.490763425827026367e+00,2.475386381149291992e+00,2.460197925567626953e+00,2.445194959640502930e+00,2.430373907089233398e+00,2.415731191635131836e+00,2.401263952255249023e+00,2.386968851089477539e+00,2.372843027114868164e+00,2.358883619308471680e+00,2.345087289810180664e+00,2.331451416015625000e+00,2.317973136901855469e+00,2.304649829864501953e+00,2.291479110717773438e+00,2.278457880020141602e+00,2.265583515167236328e+00,2.252854108810424805e+00,2.240267038345336914e+00,2.227819681167602539e+00,2.215509891510009766e+00,2.203335285186767578e+00,2.191293954849243164e+00,2.179383516311645508e+00,2.167601823806762695e+00,2.155946731567382812e+00,2.144416093826293945e+00,2.133008480072021484e+00,2.121721506118774414e+00,2.110553503036499023e+00,2.099502086639404297e+00,2.088566064834594727e+00,8.074156641960144043e-01,7.945994138717651367e-01,7.835005521774291992e-01,7.773160338401794434e-01,7.714679241180419922e-01,7.656855583190917969e-01,7.610045671463012695e-01,7.577558159828186035e-01,7.545347213745117188e-01,7.513409256935119629e-01,7.493115663528442383e-01,7.495203018188476562e-01,7.625942826271057129e-01,8.824488520622253418e-01,8.721476793289184570e-01,8.620843291282653809e-01,8.536126613616943359e-01,8.565976023674011230e-01,8.596034049987792969e-01,8.626304268836975098e-01,8.656383752822875977e-01,9.043660163879394531e-01,1.865117073059082031e+00,1.856481313705444336e+00,1.847925424575805664e+00,1.839447975158691406e+00,1.831047773361206055e+00,1.822724103927612305e+00,1.814475655555725098e+00,1.806301593780517578e+00,1.798200964927673340e+00,1.790172457695007324e+00,1.782215476036071777e+00,1.774328708648681641e+00,1.766511559486389160e+00,1.758763194084167480e+00,1.751082181930541992e+00,1.743468165397644043e+00
2.655730485916137695e+00,2.638256311416625977e+00,2.621010303497314453e+00,2.603988647460937500e+00,2.587186574935913086e+00,2.570600032806396484e+00,2.554224491119384766e+00,2.538056373596191406e+00,2.522091865539550781e+00,2.506326913833618164e+00,2.490757703781127930e+00,2.475380659103393555e+00,2.460192441940307617e+00,2.445189476013183594e+00,2.430368423461914062e+00,2.415725708007812500e+00,2.401258468627929688e+00,2.386963605880737305e+00,2.372838020324707031e+00,2.358878612518310547e+00,2.345082283020019531e+00,2.331446409225463867e+00,2.317968130111694336e+00,2.304645061492919922e+00,2.291474103927612305e+00,2.278452873229980469e+00,2.265578746795654297e+00,2.252849578857421875e+00,2.240262508392333984e+00,2.227815151214599609e+00,2.215505361557006836e+00,2.203330755233764648e+00,2.191289424896240234e+00,2.179379224777221680e+00,2.167597293853759766e+00,2.155942440032958984e+00,2.144412040710449219e+00,2.133004426956176758e+00,2.121717453002929688e+00,2.110549211502075195e+00,2.099498033523559570e+00,2.088562011718750000e+00,2.077739477157592773e+00,7.983695268630981445e-01,7.893543243408203125e-01,7.788139581680297852e-01,7.715394496917724609e-01,7.656515836715698242e-01,7.599557638168334961e-01,7.543439865112304688e-01,7.509641051292419434e-01,7.478004097938537598e-01,7.446631789207458496e-01,7.443295717239379883e-01,7.445355653762817383e-01,7.467248439788818359e-01,7.733680009841918945e-01,8.619196414947509766e-01,8.532744050025939941e-01,8.552520275115966797e-01,8.583889007568359375e-01,8.615487217903137207e-01,8.647320270538330078e-01,1.873830199241638184e+00,1.865113735198974609e+00,1.856478214263916016e+00,1.847922325134277344e+00,1.839444756507873535e+00,1.831044793128967285e+00,1.822721004486083984e+00,1.814472675323486328e+00,1.806298732757568359e+00,1.798197865486145020e+00,1.790169596672058105e+00,1.782212376594543457e+00,1.774325966835021973e+00,1.766508817672729492e+00,1.758760213851928711e+00,1.751079440116882324e+00,1.743465304374694824e+00
2.655723810195922852e+00,2.638249874114990234e+00,2.621004104614257812e+00,2.603982448577880859e+00,2.587180376052856445e+00,2.570593833923339844e+00,2.554218530654907227e+00,2.538050413131713867e+00,2.522086143493652344e+00,2.506321191787719727e+00,2.490751981735229492e+00,2.475374937057495117e+00,2.460186719894409180e+00,2.445183992385864258e+00,2.430362939834594727e+00,2.415720462799072266e+00,2.401253223419189453e+00,2.386958599090576172e+00,2.372832775115966797e+00,2.358873367309570312e+00,2.345077276229858398e+00,2.331441402435302734e+00,2.317963361740112305e+00,2.304640293121337891e+00,2.291469335556030273e+00,2.278448104858398438e+00,2.265573978424072266e+00,2.252845048904418945e+00,2.240257740020751953e+00,2.227810621261596680e+00,2.215500831604003906e+00,2.203326463699340820e+00,2.191285133361816406e+00,2.179374694824218750e+00,2.167593002319335938e+00,2.155938148498535156e+00,2.144407749176025391e+00,2.133000135421752930e+00,2.121713161468505859e+00,2.110545158386230469e+00,2.099493980407714844e+00,2.088558197021484375e+00,2.077735424041748047e+00,8.056897521018981934e-01,7.968506217002868652e-01,7.882032990455627441e-01,7.751628160476684570e-01,7.676640152931213379e-01,7.606433033943176270e-01,7.543110251426696777e-01,7.487820982933044434e-01,7.442931532859802246e-01,7.411852478981018066e-01,7.392103672027587891e-01,7.394134998321533203e-01,7.396168112754821777e-01,7.398201823234558105e-01,7.577512264251708984e-01,8.559396266937255859e-01,8.520534038543701172e-01,8.547012209892272949e-01,8.573656082153320312e-01,8.600465655326843262e-01,8.627443909645080566e-01,1.865110635757446289e+00,1.856475114822387695e+00,1.847919106483459473e+00,1.839441657066345215e+00,1.831041574478149414e+00,1.822718024253845215e+00,1.814469814300537109e+00,1.806295633316040039e+00,1.798195004463195801e+00,1.790166497230529785e+00,1.782209515571594238e+00,1.774323105812072754e+00,1.766505837440490723e+00,1.758757472038269043e+00,1.751076579093933105e+00,1.743462562561035156e+00
2.655717372894287109e+00,2.638243436813354492e+00,2.620997905731201172e+00,2.603976249694824219e+00,2.587174177169799805e+00,2.570587635040283203e+00,2.554212570190429688e+00,2.538044691085815430e+00,2.522080183029174805e+00,2.506315231323242188e+00,2.490746259689331055e+00,2.475369453430175781e+00,2.460181474685668945e+00,2.445178508758544922e+00,2.430357456207275391e+00,2.415714979171752930e+00,2.401247978210449219e+00,2.386953353881835938e+00,2.372827768325805664e+00,2.358868360519409180e+00,2.345072031021118164e+00,2.331436634063720703e+00,2.317958354949951172e+00,2.304635286331176758e+00,2.291464567184448242e+00,2.278443336486816406e+00,2.265569448471069336e+00,2.252840280532836914e+00,2.240253210067749023e+00,2.227805852890014648e+00,2.215496301651000977e+00,2.203321933746337891e+00,2.191280603408813477e+00,2.179370403289794922e+00,2.167588710784912109e+00,2.155933618545532227e+00,2.144403696060180664e+00,2.132996082305908203e+00,2.121709108352661133e+00,2.110541105270385742e+00,2.099490165710449219e+00,2.088554143905639648e+00,2.077731609344482422e+00,2.067020416259765625e+00,8.044906258583068848e-01,7.956776618957519531e-01,7.862555384635925293e-01,7.715458273887634277e-01,7.638274431228637695e-01,7.568763494491577148e-01,7.500506639480590820e-01,7.433469891548156738e-01,7.379322648048400879e-01,7.346861362457275391e-01,7.343614101409912109e-01,7.345619201660156250e-01,7.363986372947692871e-01,7.380558848381042480e-01,7.665066123008728027e-01,8.515407443046569824e-01,8.494449853897094727e-01,8.520745038986206055e-01,8.547204136848449707e-01,8.573828935623168945e-01,1.865107536315917969e+00,1.856471896171569824e+00,1.847916007041931152e+00,1.839438438415527344e+00,1.831038594245910645e+00,1.822715044021606445e+00,1.814466595649719238e+00,1.806292653083801270e+00,1.798191905021667480e+00,1.790163636207580566e+00,1.782206773757934570e+00,1.774320125579833984e+00,1.766503095626831055e+00,1.758754491806030273e+00,1.751073837280273438e+00,1.743459820747375488e+00
2.655710935592651367e+00,2.638237237930297852e+00,2.620991468429565430e+00,2.603970050811767578e+00,2.587167978286743164e+00,2.570581674575805664e+00,2.554206609725952148e+00,2.538038730621337891e+00,2.522074222564697266e+00,2.506309509277343750e+00,2.490740537643432617e+00,2.475363969802856445e+00,2.460175752639770508e+00,2.445173025131225586e+00,2.430351972579956055e+00,2.415709495544433594e+00,2.401242733001708984e+00,2.386948108673095703e+00,2.372822523117065430e+00,2.358863115310668945e+00,2.345067262649536133e+00,2.331431388854980469e+00,2.317953586578369141e+00,2.304630517959594727e+00,2.291459560394287109e+00,2.278438806533813477e+00,2.265564680099487305e+00,2.252835512161254883e+00,2.240248441696166992e+00,2.227801322937011719e+00,2.215491771697998047e+00,2.203317642211914062e+00,2.191276311874389648e+00,2.179365873336791992e+00,2.167584419250488281e+00,2.155929565429687500e+00,2.144399404525756836e+00,2.132991790771484375e+00,2.121704816818237305e+00,2.110537052154541016e+00,2.099486112594604492e+00,2.088550090789794922e+00,2.077727556228637695e+00,2.067016363143920898e+00,2.056415557861328125e+00,8.032950758934020996e-01,7.945080995559692383e-01,7.825345396995544434e-01,7.679623961448669434e-01,7.600290179252624512e-01,7.531465291976928711e-01,7.463876008987426758e-01,7.397490143775939941e-01,7.332273721694946289e-01,7.297610640525817871e-01,7.318841218948364258e-01,7.340196371078491211e-01,7.360731363296508789e-01,7.468993663787841797e-01,8.553628325462341309e-01,8.478644490242004395e-01,8.468264341354370117e-01,8.494397401809692383e-01,8.520692586898803711e-01,8.542413711547851562e-01,1.856468796730041504e+00,1.847912788391113281e+00,1.839435458183288574e+00,1.831035614013671875e+00,1.822711825370788574e+00,1.814463615417480469e+00,1.806289553642272949e+00,1.798189043998718262e+00,1.790160775184631348e+00,1.782203674316406250e+00,1.774317264556884766e+00,1.766500115394592285e+00,1.758751749992370605e+00,1.751071095466613770e+00,1.743456959724426270e+00
2.655704259872436523e+00,2.638230800628662109e+00,2.620985269546508789e+00,2.603963613510131836e+00,2.587161779403686523e+00,2.570575714111328125e+00,2.554200649261474609e+00,2.538032770156860352e+00,2.522068500518798828e+00,2.506303787231445312e+00,2.490734815597534180e+00,2.475358247756958008e+00,2.460170269012451172e+00,2.445167541503906250e+00,2.430346488952636719e+00,2.415704488754272461e+00,2.401237487792968750e+00,2.386942863464355469e+00,2.372817277908325195e+00,2.358858108520507812e+00,2.345062017440795898e+00,2.331426382064819336e+00,2.317948579788208008e+00,2.304625511169433594e+00,2.291455030441284180e+00,2.278434038162231445e+00,2.265559911727905273e+00,2.252830982208251953e+00,2.240243911743164062e+00,2.227797031402587891e+00,2.215487241744995117e+00,2.203313112258911133e+00,2.191271781921386719e+00,2.179361581802368164e+00,2.167580127716064453e+00,2.155925273895263672e+00,2.144395112991333008e+00,2.132987499237060547e+00,2.121700763702392578e+00,2.110532999038696289e+00,2.099481821060180664e+00,2.088546037673950195e+00,2.077723503112792969e+00,2.067012548446655273e+00,2.056411504745483398e+00,2.045918703079223633e+00,8.021031022071838379e-01,7.933420538902282715e-01,7.788485288619995117e-01,7.644120454788208008e-01,7.562680840492248535e-01,7.494533061981201172e-01,7.427602410316467285e-01,7.361620664596557617e-01,7.296782732009887695e-01,7.295340895652770996e-01,7.316557765007019043e-01,7.337899208068847656e-01,7.346893548965454102e-01,7.560397386550903320e-01,8.516535758972167969e-01,8.442198634147644043e-01,8.442239165306091309e-01,8.468211889266967773e-01,8.490575551986694336e-01,8.509790301322937012e-01,1.847909688949584961e+00,1.839432477951049805e+00,1.831032395362854004e+00,1.822708845138549805e+00,1.814460515975952148e+00,1.806286692619323730e+00,1.798186182975769043e+00,1.790157675743103027e+00,1.782200813293457031e+00,1.774314284324645996e+00,1.766497254371643066e+00,1.758749008178710938e+00,1.751068115234375000e+00,1.743454217910766602e+00
2.655698060989379883e+00,2.638224363327026367e+00,2.620978832244873047e+00,2.603957414627075195e+00,2.587155818939208984e+00,2.570569515228271484e+00,2.554194688796997070e+00,2.538026809692382812e+00,2.522062540054321289e+00,2.506298065185546875e+00,2.490729093551635742e+00,2.475352525711059570e+00,2.460164546966552734e+00,2.445162057876586914e+00,2.430341243743896484e+00,2.415699005126953125e+00,2.401232004165649414e+00,2.386937379837036133e+00,2.372812032699584961e+00,2.358853101730346680e+00,2.345057010650634766e+00,2.331421375274658203e+00,2.317943572998046875e+00,2.304620742797851562e+00,2.291450023651123047e+00,2.278429031372070312e+00,2.265555381774902344e+00,2.252826213836669922e+00,2.240239381790161133e+00,2.227792263031005859e+00,2.215482711791992188e+00,2.203308582305908203e+00,2.191267490386962891e+00,2.179357290267944336e+00,2.167575836181640625e+00,2.155920982360839844e+00,2.144390821456909180e+00,2.132983446121215820e+00,2.121696710586547852e+00,2.110528945922851562e+00,2.099477767944335938e+00,2.088541984558105469e+00,2.077719688415527344e+00,2.067008733749389648e+00,2.056407690048217773e+00,2.045914888381958008e+00,2.035528421401977539e+00,8.009145855903625488e-01,7.900477647781372070e-01,7.751970887184143066e-01,7.608944773674011230e-01,7.525261044502258301e-01,7.457521557807922363e-01,7.390990853309631348e-01,7.325636744499206543e-01,7.271990776062011719e-01,7.293072938919067383e-01,7.314276695251464844e-01,7.327370643615722656e-01,7.372103929519653320e-01,7.654066681861877441e-01,8.479763269424438477e-01,8.406063318252563477e-01,8.416373729705810547e-01,8.439362645149230957e-01,8.458345532417297363e-01,1.847906708717346191e+00,1.839429259300231934e+00,1.831029415130615234e+00,1.822705745697021484e+00,1.814457535743713379e+00,1.806283712387084961e+00,1.798183083534240723e+00,1.790154814720153809e+00,1.782197833061218262e+00,1.774311542510986328e+00,1.766494512557983398e+00,1.758746027946472168e+00,1.751065373420715332e+00,1.743451356887817383e+00
2.655691623687744141e+00,2.638217926025390625e+00,2.620972633361816406e+00,2.603951215744018555e+00,2.587149620056152344e+00,2.570563554763793945e+00,2.554188489913940430e+00,2.538020849227905273e+00,2.522056818008422852e+00,2.506292343139648438e+00,2.490723371505737305e+00,2.475346803665161133e+00,2.460159063339233398e+00,2.445156574249267578e+00,2.430335760116577148e+00,2.415693521499633789e+00,2.401226758956909180e+00,2.386932134628295898e+00,2.372807025909423828e+00,2.358847856521606445e+00,2.345052003860473633e+00,2.331416368484497070e+00,2.317938566207885742e+00,2.304615974426269531e+00,2.291445255279541016e+00,2.278424263000488281e+00,2.265550613403320312e+00,2.252821683883666992e+00,2.240234851837158203e+00,2.227787733078002930e+00,2.215478181838989258e+00,2.203304052352905273e+00,2.191263198852539062e+00,2.179352998733520508e+00,2.167571544647216797e+00,2.155916690826416016e+00,2.144386529922485352e+00,2.132979393005371094e+00,2.121692657470703125e+00,2.110524654388427734e+00,2.099473714828491211e+00,2.088537931442260742e+00,2.077715635299682617e+00,2.067004680633544922e+00,2.056403636932373047e+00,2.045910835266113281e+00,2.035524845123291016e+00,2.025243282318115234e+00,2.015065193176269531e+00,7.862908244132995605e-01,7.692285180091857910e-01,7.556719779968261719e-01,7.487663626670837402e-01,7.420596480369567871e-01,7.354719638824462891e-01,7.290002703666687012e-01,7.269736528396606445e-01,7.290805578231811523e-01,7.307950854301452637e-01,7.313657402992248535e-01,7.459909915924072266e-01,8.508114814758300781e-01,8.443306684494018555e-01,8.370236754417419434e-01,8.388764262199401855e-01,8.407520055770874023e-01,8.426359891891479492e-01,1.839426159858703613e+00,1.831026196479797363e+00,1.822702765464782715e+00,1.814454674720764160e+00,1.806280612945556641e+00,1.798180103302001953e+00,1.790151834487915039e+00,1.782194972038269043e+00,1.774308681488037109e+00,1.766491532325744629e+00,1.758743286132812500e+00,1.751062512397766113e+00,1.743448615074157715e+00
2.655684947967529297e+00,2.638211488723754883e+00,2.620966196060180664e+00,2.603945016860961914e+00,2.587143421173095703e+00,2.570557355880737305e+00,2.554182529449462891e+00,2.538015127182006836e+00,2.522051095962524414e+00,2.506286382675170898e+00,2.490717649459838867e+00,2.475341320037841797e+00,2.460153579711914062e+00,2.445151090621948242e+00,2.430330276489257812e+00,2.415688276290893555e+00,2.401221513748168945e+00,2.386927127838134766e+00,2.372801780700683594e+00,2.358842849731445312e+00,2.345046758651733398e+00,2.331411361694335938e+00,2.317933797836303711e+00,2.304610967636108398e+00,2.291440486907958984e+00,2.278419494628906250e+00,2.265545845031738281e+00,2.252816915512084961e+00,2.240230083465576172e+00,2.227783203125000000e+00,2.215473651885986328e+00,2.203299760818481445e+00,2.191258668899536133e+00,2.179348468780517578e+00,2.167567253112792969e+00,2.155912399291992188e+00,2.144382476806640625e+00,2.132975101470947266e+00,2.121688365936279297e+00,2.110520601272583008e+00,2.099469661712646484e+00,2.088534116744995117e+00,2.077711582183837891e+00,2.067000865936279297e+00,2.056399822235107422e+00,2.045907258987426758e+00,2.035521030426025391e+00,2.025239467620849609e+00,2.015061378479003906e+00,7.948792576789855957e-01,7.768796086311340332e-01,7.601868510246276855e-01,7.519211769104003906e-01,7.450439333915710449e-01,7.384034991264343262e-01,7.318803071975708008e-01,7.254713773727416992e-01,7.267484664916992188e-01,7.288540005683898926e-01,7.294310331344604492e-01,7.299996018409729004e-01,7.549833059310913086e-01,8.458691835403442383e-01,8.395664691925048828e-01,8.343154191970825195e-01,8.367860913276672363e-01,8.392714262008666992e-01,8.415662050247192383e-01,1.831023216247558594e+00,1.822699785232543945e+00,1.814451456069946289e+00,1.806277751922607422e+00,1.798177123069763184e+00,1.790148973464965820e+00,1.782192111015319824e+00,1.774305701255798340e+00,1.766488790512084961e+00,1.758740305900573730e+00,1.751059770584106445e+00,1.743445873260498047e+00
2.655678510665893555e+00,2.638205051422119141e+00,2.620959997177124023e+00,2.603938817977905273e+00,2.587137222290039062e+00,2.570551395416259766e+00,2.554176568984985352e+00,2.538009166717529297e+00,2.522045135498046875e+00,2.506280660629272461e+00,2.490711927413940430e+00,2.475335836410522461e+00,2.460148096084594727e+00,2.445145606994628906e+00,2.430324792861938477e+00,2.415682792663574219e+00,2.401216268539428711e+00,2.386921882629394531e+00,2.372796535491943359e+00,2.358837604522705078e+00,2.345041751861572266e+00,2.331406593322753906e+00,2.317928791046142578e+00,2.304605960845947266e+00,2.291435480117797852e+00,2.278414726257324219e+00,2.265541076660156250e+00,2.252812385559082031e+00,2.240225553512573242e+00,2.227778673171997070e+00,2.215469360351562500e+00,2.203295230865478516e+00,2.191254138946533203e+00,2.179344177246093750e+00,2.167562723159790039e+00,2.155908346176147461e+00,2.144378185272216797e+00,2.132970809936523438e+00,2.121684312820434570e+00,2.110516548156738281e+00,2.099465847015380859e+00,2.088530063629150391e+00,2.077707767486572266e+00,2.066996812820434570e+00,2.056396007537841797e+00,2.045903205871582031e+00,2.035517215728759766e+00,2.025235652923583984e+00,2.015057802200317383e+00,2.004981756210327148e+00,7.846845388412475586e-01,7.671385407447814941e-01,7.552031874656677246e-01,7.482073903083801270e-01,7.413584589958190918e-01,7.347832322120666504e-01,7.283235788345336914e-01,7.244312167167663574e-01,7.265233397483825684e-01,7.275066375732421875e-01,7.280721068382263184e-01,7.363668680191040039e-01,7.643098235130310059e-01,8.391650319099426270e-01,8.325512409210205078e-01,8.345112800598144531e-01,8.369831442832946777e-01,8.391624689102172852e-01,1.831020116806030273e+00,1.822696566581726074e+00,1.814448595046997070e+00,1.806274533271789551e+00,1.798174142837524414e+00,1.790145993232727051e+00,1.782189130783081055e+00,1.774302840232849121e+00,1.766485810279846191e+00,1.758737564086914062e+00,1.751057028770446777e+00,1.743443012237548828e+00
2.655672073364257812e+00,2.638198852539062500e+00,2.620953798294067383e+00,2.603932619094848633e+00,2.587131261825561523e+00,2.570545196533203125e+00,2.554170608520507812e+00,2.538003206253051758e+00,2.522039175033569336e+00,2.506274938583374023e+00,2.490706443786621094e+00,2.475330114364624023e+00,2.460142374038696289e+00,2.445140123367309570e+00,2.430319309234619141e+00,2.415677547454833984e+00,2.401211023330688477e+00,2.386916637420654297e+00,2.372791528701782227e+00,2.358832359313964844e+00,2.345036745071411133e+00,2.331401586532592773e+00,2.317923784255981445e+00,2.304601192474365234e+00,2.291430711746215820e+00,2.278410196304321289e+00,2.265536546707153320e+00,2.252807617187500000e+00,2.240220785140991211e+00,2.227774143218994141e+00,2.215464830398559570e+00,2.203290700912475586e+00,2.191249847412109375e+00,2.179339885711669922e+00,2.167558670043945312e+00,2.155904054641723633e+00,2.144373893737792969e+00,2.132966756820678711e+00,2.121680021286010742e+00,2.110512495040893555e+00,2.099461793899536133e+00,2.088526010513305664e+00,2.077703714370727539e+00,2.066992759704589844e+00,2.056392192840576172e+00,2.045899391174316406e+00,2.035513162612915039e+00,2.025231838226318359e+00,2.015054225921630859e+00,2.004977941513061523e+00,1.995002269744873047e+00,7.747480273246765137e-01,7.599536180496215820e-01,7.514569759368896484e-01,7.445300817489624023e-01,7.377298474311828613e-01,7.311982512474060059e-01,7.248012423515319824e-01,7.242075204849243164e-01,7.255922555923461914e-01,7.261547446250915527e-01,7.267182469367980957e-01,7.451272010803222656e-01,8.386563062667846680e-01,8.320505023002624512e-01,8.322486877441406250e-01,8.347072601318359375e-01,8.367723822593688965e-01,1.831017017364501953e+00,1.822693586349487305e+00,1.814445376396179199e+00,1.806271672248840332e+00,1.798171281814575195e+00,1.790143013000488281e+00,1.782186269760131836e+00,1.774299860000610352e+00,1.766482949256896973e+00,1.758734822273254395e+00,1.751054048538208008e+00,1.743440270423889160e+00
2.655665636062622070e+00,2.638192415237426758e+00,2.620947360992431641e+00,2.603926420211791992e+00,2.587125062942504883e+00,2.570539236068725586e+00,2.554164648056030273e+00,2.537997245788574219e+00,2.522033452987670898e+00,2.506268978118896484e+00,2.490700721740722656e+00,2.475324392318725586e+00,2.460136890411376953e+00,2.445134639739990234e+00,2.430314064025878906e+00,2.415672302246093750e+00,2.401205539703369141e+00,2.386911392211914062e+00,2.372786283493041992e+00,2.358827590942382812e+00,2.345031738281250000e+00,2.331396579742431641e+00,2.317918777465820312e+00,2.304596185684204102e+00,2.291425943374633789e+00,2.278405427932739258e+00,2.265531778335571289e+00,2.252802848815917969e+00,2.240216255187988281e+00,2.227769613265991211e+00,2.215460300445556641e+00,2.203286170959472656e+00,2.191245317459106445e+00,2.179335594177246094e+00,2.167554140090942383e+00,2.155899763107299805e+00,2.144369840621948242e+00,2.132962465286254883e+00,2.121675968170166016e+00,2.110508441925048828e+00,2.099457740783691406e+00,2.088521957397460938e+00,2.077699661254882812e+00,2.066988945007324219e+00,2.056388139724731445e+00,2.045895576477050781e+00,2.035509347915649414e+00,2.025228261947631836e+00,2.015050411224365234e+00,2.004974126815795898e+00,1.994998693466186523e+00,7.825098633766174316e-01,7.655457258224487305e-01,7.547348737716674805e-01,7.477478384971618652e-01,7.408888339996337891e-01,7.341545820236206055e-01,7.276480793952941895e-01,7.219064831733703613e-01,7.236878871917724609e-01,7.242475152015686035e-01,7.248079776763916016e-01,7.269878387451171875e-01,7.540317773818969727e-01,8.315503597259521484e-01,8.299984931945800781e-01,8.324436545372009277e-01,8.343959450721740723e-01,8.678070902824401855e-01,1.822690486907958984e+00,1.814442515373229980e+00,1.806268811225891113e+00,1.798168182373046875e+00,1.790140151977539062e+00,1.782183289527893066e+00,1.774296998977661133e+00,1.766480207443237305e+00,1.758731842041015625e+00,1.751051306724548340e+00,1.743437409400939941e+00
2.655659198760986328e+00,2.638185977935791016e+00,2.620940923690795898e+00,2.603919982910156250e+00,2.587118864059448242e+00,2.570533275604248047e+00,2.554158687591552734e+00,2.537991285324096680e+00,2.522027492523193359e+00,2.506263494491577148e+00,2.490694999694824219e+00,2.475318670272827148e+00,2.460131168365478516e+00,2.445129156112670898e+00,2.430308580398559570e+00,2.415666818618774414e+00,2.401200294494628906e+00,2.386906147003173828e+00,2.372781276702880859e+00,2.358822345733642578e+00,2.345026731491088867e+00,2.331391572952270508e+00,2.317914009094238281e+00,2.304591417312622070e+00,2.291421175003051758e+00,2.278400421142578125e+00,2.265527009963989258e+00,2.252798318862915039e+00,2.240211725234985352e+00,2.227765083312988281e+00,2.215455770492553711e+00,2.203281879425048828e+00,2.191241025924682617e+00,2.179331064224243164e+00,2.167549848556518555e+00,2.155895471572875977e+00,2.144365549087524414e+00,2.132958412170410156e+00,2.121671915054321289e+00,2.110504388809204102e+00,2.099453449249267578e+00,2.088517904281616211e+00,2.077695846557617188e+00,2.066985130310058594e+00,2.056384325027465820e+00,2.045891761779785156e+00,2.035505533218383789e+00,2.025224447250366211e+00,2.015046596527099609e+00,2.004970550537109375e+00,1.994994878768920898e+00,1.985118031501770020e+00,7.726279497146606445e-01,7.597205042839050293e-01,7.509933710098266602e-01,7.440750002861022949e-01,7.372829318046569824e-01,7.306138277053833008e-01,7.241322398185729980e-01,7.216843366622924805e-01,7.223502397537231445e-01,7.229077816009521484e-01,7.239858508110046387e-01,7.352941036224365234e-01,8.310506939888000488e-01,8.277603387832641602e-01,8.301923871040344238e-01,8.320329785346984863e-01,8.365124464035034180e-01,1.822687506675720215e+00,1.814439535140991211e+00,1.806265592575073242e+00,1.798165321350097656e+00,1.790137052536010742e+00,1.782180428504943848e+00,1.774294257164001465e+00,1.766477227210998535e+00,1.758729100227355957e+00,1.751048445701599121e+00,1.743434667587280273e+00
2.655652761459350586e+00,2.638179540634155273e+00,2.620934724807739258e+00,2.603914022445678711e+00,2.587112903594970703e+00,2.570527076721191406e+00,2.554152727127075195e+00,2.537985324859619141e+00,2.522021770477294922e+00,2.506257772445678711e+00,2.490689277648925781e+00,2.475313186645507812e+00,2.460125684738159180e+00,2.445123672485351562e+00,2.430303335189819336e+00,2.415661334991455078e+00,2.401195049285888672e+00,2.386900901794433594e+00,2.372776031494140625e+00,2.358817338943481445e+00,2.345021724700927734e+00,2.331386566162109375e+00,2.317909240722656250e+00,2.304586648941040039e+00,2.291416406631469727e+00,2.278395652770996094e+00,2.265522241592407227e+00,2.252793550491333008e+00,2.240207195281982422e+00,2.227760314941406250e+00,2.215451240539550781e+00,2.203277349472045898e+00,2.191236734390258789e+00,2.179326772689819336e+00,2.167545557022094727e+00,2.155891180038452148e+00,2.144361495971679688e+00,2.132954120635986328e+00,2.121667861938476562e+00,2.110500097274780273e+00,2.099449396133422852e+00,2.088514089584350586e+00,2.077691793441772461e+00,2.066981077194213867e+00,2.056380510330200195e+00,2.045887947082519531e+00,2.035501956939697266e+00,2.025220632553100586e+00,2.015042781829833984e+00,2.004966735839843750e+00,1.994991302490234375e+00,1.985114455223083496e+00,7.803472280502319336e-01,7.653092145919799805e-01,7.542672157287597656e-01,7.472887039184570312e-01,7.404381036758422852e-01,7.337120771408081055e-01,7.271070480346679688e-01,7.206502556800842285e-01,7.204628586769104004e-01,7.215906381607055664e-01,7.227727174758911133e-01,7.236553430557250977e-01,7.437540292739868164e-01,8.255342245101928711e-01,8.279293179512023926e-01,8.296833634376525879e-01,8.314447402954101562e-01,1.822684526443481445e+00,1.814436435699462891e+00,1.806262731552124023e+00,1.798162221908569336e+00,1.790134191513061523e+00,1.782177567481994629e+00,1.774291157722473145e+00,1.766474366188049316e+00,1.758726119995117188e+00,1.751045703887939453e+00,1.743431925773620605e+00
2.655646085739135742e+00,2.638173103332519531e+00,2.620928525924682617e+00,2.603907823562622070e+00,2.587106704711914062e+00,2.570520877838134766e+00,2.554146528244018555e+00,2.537979602813720703e+00,2.522016048431396484e+00,2.506251811981201172e+00,2.490683555603027344e+00,2.475307464599609375e+00,2.460120201110839844e+00,2.445118188858032227e+00,2.430297851562500000e+00,2.415656089782714844e+00,2.401189804077148438e+00,2.386895656585693359e+00,2.372770786285400391e+00,2.358812093734741211e+00,2.345016479492187500e+00,2.331381559371948242e+00,2.317904233932495117e+00,2.304581642150878906e+00,2.291411399841308594e+00,2.278390884399414062e+00,2.265517711639404297e+00,2.252789020538330078e+00,2.240202426910400391e+00,2.227755784988403320e+00,2.215446710586547852e+00,2.203273057937622070e+00,2.191232204437255859e+00,2.179322242736816406e+00,2.167541265487670898e+00,2.155886888504028320e+00,2.144357204437255859e+00,2.132950067520141602e+00,2.121663570404052734e+00,2.110496044158935547e+00,2.099445581436157227e+00,2.088510036468505859e+00,2.077687978744506836e+00,2.066977262496948242e+00,2.056376457214355469e+00,2.045884132385253906e+00,2.035498142242431641e+00,2.025216817855834961e+00,2.015039205551147461e+00,2.004963159561157227e+00,1.994987845420837402e+00,1.985110759735107422e+00,1.975331187248229980e+00,7.709808349609375000e-01,7.594875097274780273e-01,7.505303025245666504e-01,7.436204552650451660e-01,7.368366718292236328e-01,7.301755547523498535e-01,7.237178087234497070e-01,7.192111611366271973e-01,7.203855514526367188e-01,7.215636968612670898e-01,7.225933074951171875e-01,7.260899543762207031e-01,8.235818743705749512e-01,8.256027698516845703e-01,8.273468613624572754e-01,8.290984034538269043e-01,8.556491732597351074e-01,1.814433455467224121e+00,1.806259632110595703e+00,1.798159360885620117e+00,1.790131330490112305e+00,1.782174587249755859e+00,1.774288415908813477e+00,1.766471385955810547e+00,1.758723378181457520e+00,1.751042962074279785e+00,1.743429064750671387e+00
2.655639648437500000e+00,2.638166904449462891e+00,2.620922088623046875e+00,2.603901386260986328e+00,2.587100505828857422e+00,2.570514917373657227e+00,2.554140806198120117e+00,2.537973642349243164e+00,2.522010087966918945e+00,2.506246089935302734e+00,2.490677833557128906e+00,2.475301980972290039e+00,2.460114717483520508e+00,2.445112705230712891e+00,2.430292367935180664e+00,2.415650606155395508e+00,2.401184558868408203e+00,2.386890411376953125e+00,2.372765541076660156e+00,2.358806848526000977e+00,2.345011711120605469e+00,2.331376552581787109e+00,2.317899227142333984e+00,2.304576873779296875e+00,2.291406631469726562e+00,2.278386354446411133e+00,2.265512943267822266e+00,2.252784252166748047e+00,2.240197896957397461e+00,2.227751255035400391e+00,2.215442180633544922e+00,2.203268527984619141e+00,2.191227674484252930e+00,2.179317951202392578e+00,2.167536973953247070e+00,2.155882596969604492e+00,2.144352912902832031e+00,2.132945775985717773e+00,2.121659517288208008e+00,2.110491991043090820e+00,2.099441528320312500e+00,2.088505983352661133e+00,2.077683925628662109e+00,2.066973209381103516e+00,2.056372642517089844e+00,2.045880317687988281e+00,2.035494327545166016e+00,2.025213241577148438e+00,2.015035390853881836e+00,2.004959583282470703e+00,1.994984030723571777e+00,1.985107183456420898e+00,1.975327491760253906e+00,1.965644001960754395e+00,7.650727629661560059e-01,7.538069486618041992e-01,7.469324469566345215e-01,7.401823401451110840e-01,7.335531711578369141e-01,7.270416617393493652e-01,7.206447124481201172e-01,7.191843986511230469e-01,7.203586101531982422e-01,7.215343117713928223e-01,7.221097946166992188e-01,7.337526679039001465e-01,8.232892751693725586e-01,8.250235915184020996e-01,8.267651796340942383e-01,8.416718840599060059e-01,1.814430356025695801e+00,1.806256651878356934e+00,1.798156499862670898e+00,1.790128231048583984e+00,1.782171726226806641e+00,1.774285435676574707e+00,1.766468644142150879e+00,1.758720636367797852e+00,1.751039981842041016e+00,1.743426322937011719e+00
2.655633211135864258e+00,2.638160467147827148e+00,2.620915889739990234e+00,2.603895187377929688e+00,2.587094306945800781e+00,2.570508956909179688e+00,2.554134845733642578e+00,2.537967681884765625e+00,2.522004127502441406e+00,2.506240367889404297e+00,2.490672349929809570e+00,2.475296258926391602e+00,2.460108995437622070e+00,2.445106983184814453e+00,2.430286884307861328e+00,2.415645360946655273e+00,2.401179075241088867e+00,2.386885166168212891e+00,2.372760295867919922e+00,2.358802080154418945e+00,2.345006465911865234e+00,2.331371545791625977e+00,2.317894220352172852e+00,2.304571866989135742e+00,2.291401863098144531e+00,2.278381586074829102e+00,2.265508174896240234e+00,2.252779483795166016e+00,2.240193128585815430e+00,2.227746725082397461e+00,2.215437650680541992e+00,2.203263998031616211e+00,2.191223382949829102e+00,2.179313659667968750e+00,2.167532682418823242e+00,2.155878305435180664e+00,2.144348621368408203e+00,2.132941722869873047e+00,2.121655464172363281e+00,2.110487937927246094e+00,2.099437475204467773e+00,2.088501930236816406e+00,2.077679872512817383e+00,2.066969394683837891e+00,2.056368827819824219e+00,2.045876264572143555e+00,2.035490512847900391e+00,2.025209426879882812e+00,2.015031814575195312e+00,2.004955768585205078e+00,1.994980454444885254e+00,1.985103487968444824e+00,1.975324034690856934e+00,1.965640544891357422e+00,7.717086672782897949e-01,7.615249752998352051e-01,7.505186200141906738e-01,7.436594963073730469e-01,7.369681596755981445e-01,7.303961515426635742e-01,7.239403128623962402e-01,7.179872989654541016e-01,7.191575765609741211e-01,7.203317284584045410e-01,7.210522890090942383e-01,7.240028381347656250e-01,7.421768307685852051e-01,8.227133154869079590e-01,8.244451880455017090e-01,8.281440138816833496e-01,8.578765988349914551e-01,1.806253552436828613e+00,1.798153400421142578e+00,1.790125370025634766e+00,1.782168626785278320e+00,1.774282574653625488e+00,1.766465902328491211e+00,1.758717656135559082e+00,1.751037240028381348e+00,1.743423461914062500e+00
2.655626773834228516e+00,2.638154029846191406e+00,2.620909452438354492e+00,2.603888988494873047e+00,2.587088346481323242e+00,2.570502758026123047e+00,2.554128646850585938e+00,2.537961721420288086e+00,2.521998405456542969e+00,2.506234645843505859e+00,2.490666627883911133e+00,2.475290775299072266e+00,2.460103511810302734e+00,2.445101499557495117e+00,2.430281639099121094e+00,2.415640115737915039e+00,2.401173830032348633e+00,2.386879920959472656e+00,2.372755289077758789e+00,2.358796834945678711e+00,2.345001459121704102e+00,2.331366539001464844e+00,2.317889213562011719e+00,2.304567098617553711e+00,2.291397094726562500e+00,2.278376817703247070e+00,2.265503406524658203e+00,2.252774953842163086e+00,2.240188598632812500e+00,2.227742195129394531e+00,2.215433120727539062e+00,2.203259468078613281e+00,2.191218852996826172e+00,2.179309368133544922e+00,2.167528390884399414e+00,2.155874013900756836e+00,2.144344329833984375e+00,2.132937431335449219e+00,2.121651172637939453e+00,2.110483884811401367e+00,2.099433422088623047e+00,2.088497877120971680e+00,2.077676057815551758e+00,2.066965579986572266e+00,2.056365013122558594e+00,2.045872449874877930e+00,2.035486698150634766e+00,2.025205612182617188e+00,2.015027999877929688e+00,2.004952192306518555e+00,1.994976639747619629e+00,1.985099911689758301e+00,1.975320458412170410e+00,1.965636849403381348e+00,1.956047654151916504e+00,7.693961858749389648e-01,7.592729926109313965e-01,7.472589015960693359e-01,7.404150962829589844e-01,7.337818145751953125e-01,7.272662520408630371e-01,7.208653688430786133e-01,7.179605960845947266e-01,7.191308140754699707e-01,7.199977636337280273e-01,7.205708026885986328e-01,7.266436219215393066e-01,8.206024169921875000e-01,8.223288655281066895e-01,8.240625262260437012e-01,8.457779884338378906e-01,1.806250691413879395e+00,1.798150539398193359e+00,1.790122389793395996e+00,1.782165884971618652e+00,1.774279713630676270e+00,1.766462922096252441e+00,1.758714914321899414e+00,1.751034379005432129e+00,1.743420720100402832e+00
2.655620336532592773e+00,2.638147592544555664e+00,2.620903015136718750e+00,2.603882789611816406e+00,2.587082147598266602e+00,2.570496797561645508e+00,2.554122686386108398e+00,2.537955760955810547e+00,2.521992683410644531e+00,2.506228923797607422e+00,2.490660667419433594e+00,2.475285053253173828e+00,2.460097789764404297e+00,2.445096254348754883e+00,2.430276155471801758e+00,2.415634632110595703e+00,2.401168584823608398e+00,2.386874675750732422e+00,2.372750282287597656e+00,2.358791589736938477e+00,2.344996452331542969e+00,2.331361532211303711e+00,2.317884445190429688e+00,2.304562330245971680e+00,2.291392326354980469e+00,2.278371810913085938e+00,2.265498638153076172e+00,2.252770423889160156e+00,2.240184068679809570e+00,2.227737665176391602e+00,2.215428590774536133e+00,2.203254938125610352e+00,2.191214561462402344e+00,2.179304838180541992e+00,2.167524099349975586e+00,2.155869722366333008e+00,2.144340038299560547e+00,2.132933378219604492e+00,2.121647119522094727e+00,2.110479831695556641e+00,2.099429368972778320e+00,2.088494062423706055e+00,2.077672004699707031e+00,2.066961526870727539e+00,2.056360960006713867e+00,2.045868635177612305e+00,2.035482883453369141e+00,2.025201797485351562e+00,2.015024185180664062e+00,2.004948377609252930e+00,1.994973063468933105e+00,1.985096454620361328e+00,1.975316762924194336e+00,1.965633392333984375e+00,1.956044077873229980e+00,1.946548104286193848e+00,7.670975327491760254e-01,7.509965896606445312e-01,7.440273165702819824e-01,7.371989488601684570e-01,7.306228280067443848e-01,7.241629958152770996e-01,7.178164124488830566e-01,7.179338932037353516e-01,7.189463376998901367e-01,7.195177674293518066e-01,7.219276428222656250e-01,7.322175502777099609e-01,8.202898502349853516e-01,8.220149874687194824e-01,8.343121409416198730e-01,1.806247711181640625e+00,1.798147439956665039e+00,1.790119528770446777e+00,1.782162785530090332e+00,1.774276733398437500e+00,1.766460061073303223e+00,1.758711934089660645e+00,1.751031637191772461e+00,1.743417978286743164e+00
2.655613660812377930e+00,2.638141155242919922e+00,2.620896816253662109e+00,2.603876590728759766e+00,2.587075948715209961e+00,2.570490598678588867e+00,2.554116725921630859e+00,2.537950038909912109e+00,2.521986722946166992e+00,2.506222963333129883e+00,2.490654945373535156e+00,2.475279331207275391e+00,2.460092544555664062e+00,2.445090770721435547e+00,2.430270671844482422e+00,2.415629148483276367e+00,2.401163101196289062e+00,2.386869668960571289e+00,2.372745037078857422e+00,2.358786582946777344e+00,2.344991207122802734e+00,2.331356763839721680e+00,2.317879438400268555e+00,2.304557323455810547e+00,2.291387319564819336e+00,2.278367042541503906e+00,2.265494108200073242e+00,2.252765655517578125e+00,2.240179538726806641e+00,2.227733135223388672e+00,2.215424060821533203e+00,2.203250646591186523e+00,2.191210269927978516e+00,2.179300546646118164e+00,2.167519569396972656e+00,2.155865430831909180e+00,2.144335985183715820e+00,2.132929086685180664e+00,2.121642827987670898e+00,2.110475540161132812e+00,2.099425315856933594e+00,2.088490009307861328e+00,2.077667951583862305e+00,2.066957712173461914e+00,2.056357145309448242e+00,2.045864820480346680e+00,2.035479068756103516e+00,2.025197982788085938e+00,2.015020370483398438e+00,2.004944562911987305e+00,1.994969487190246582e+00,1.985092639923095703e+00,1.975313305854797363e+00,1.965629696846008301e+00,1.956040620803833008e+00,1.946544766426086426e+00,7.750849723815917969e-01,7.648125290870666504e-01,7.477327585220336914e-01,7.408235073089599609e-01,7.340409755706787109e-01,7.274909615516662598e-01,7.210861444473266602e-01,7.167409062385559082e-01,7.178980112075805664e-01,7.184677124023437500e-01,7.190383672714233398e-01,7.245532870292663574e-01,8.182610273361206055e-01,8.199776411056518555e-01,8.252004981040954590e-01,1.806244611740112305e+00,1.798144459724426270e+00,1.790116429328918457e+00,1.782159924507141113e+00,1.774273991584777832e+00,1.766457080841064453e+00,1.758709192276000977e+00,1.751028895378112793e+00,1.743415117263793945e+00
2.655607223510742188e+00,2.638134717941284180e+00,2.620890617370605469e+00,2.603870391845703125e+00,2.587069749832153320e+00,2.570484638214111328e+00,2.554110765457153320e+00,2.537944078445434570e+00,2.521980762481689453e+00,2.506217241287231445e+00,2.490649223327636719e+00,2.475273847579956055e+00,2.460086822509765625e+00,2.445085287094116211e+00,2.430265188217163086e+00,2.415623903274536133e+00,2.401158094406127930e+00,2.386864423751831055e+00,2.372739791870117188e+00,2.358781337738037109e+00,2.344986200332641602e+00,2.331351518630981445e+00,2.317874431610107422e+00,2.304552316665649414e+00,2.291382551193237305e+00,2.278362512588500977e+00,2.265489339828491211e+00,2.252760887145996094e+00,2.240174770355224609e+00,2.227728366851806641e+00,2.215419769287109375e+00,2.203246116638183594e+00,2.191205739974975586e+00,2.179296255111694336e+00,2.167515277862548828e+00,2.155861377716064453e+00,2.144331693649291992e+00,2.132925033569335938e+00,2.121638774871826172e+00,2.110471487045288086e+00,2.099421262741088867e+00,2.088485956192016602e+00,2.077664136886596680e+00,2.066953659057617188e+00,2.056353330612182617e+00,2.045861005783081055e+00,2.035475254058837891e+00,2.025194406509399414e+00,2.015016794204711914e+00,2.004940986633300781e+00,1.994965791702270508e+00,1.985089182853698730e+00,1.975309610366821289e+00,1.965626239776611328e+00,1.956037163734436035e+00,1.946541190147399902e+00,1.937137126922607422e+00,7.727522850036621094e-01,7.535415291786193848e-01,7.444970607757568359e-01,7.376472949981689453e-01,7.309224605560302734e-01,7.243857979774475098e-01,7.180353403091430664e-01,7.167143225669860840e-01,7.174208164215087891e-01,7.179898023605346680e-01,7.198643684387207031e-01,8.162421584129333496e-01,8.179502487182617188e-01,8.231242895126342773e-01,8.411296010017395020e-01,1.798141479492187500e+00,1.790113568305969238e+00,1.782157063484191895e+00,1.774270892143249512e+00,1.766454339027404785e+00,1.758706450462341309e+00,1.751025915145874023e+00,1.743412375450134277e+00
2.655600786209106445e+00,2.638128519058227539e+00,2.620884418487548828e+00,2.603864192962646484e+00,2.587063550949096680e+00,2.570478439331054688e+00,2.554104804992675781e+00,2.537938117980957031e+00,2.521975040435791016e+00,2.506211519241333008e+00,2.490643739700317383e+00,2.475268125534057617e+00,2.460081338882446289e+00,2.445079565048217773e+00,2.430259704589843750e+00,2.415618658065795898e+00,2.401152610778808594e+00,2.386858940124511719e+00,2.372734546661376953e+00,2.358776330947875977e+00,2.344981193542480469e+00,2.331346511840820312e+00,2.317869663238525391e+00,2.304547548294067383e+00,2.291377782821655273e+00,2.278357744216918945e+00,2.265484809875488281e+00,2.252756357192993164e+00,2.240170240402221680e+00,2.227724075317382812e+00,2.215415239334106445e+00,2.203241825103759766e+00,2.191201210021972656e+00,2.179291725158691406e+00,2.167511224746704102e+00,2.155857086181640625e+00,2.144327640533447266e+00,2.132920742034912109e+00,2.121634721755981445e+00,2.110467433929443359e+00,2.099417209625244141e+00,2.088481903076171875e+00,2.077660083770751953e+00,2.066949844360351562e+00,2.056349515914916992e+00,2.045857191085815430e+00,2.035471439361572266e+00,2.025190591812133789e+00,2.015012979507446289e+00,2.004937410354614258e+00,1.994962215423583984e+00,1.985085368156433105e+00,1.975306034088134766e+00,1.965622782707214355e+00,1.956033587455749512e+00,1.946537733078002930e+00,1.937133550643920898e+00,1.927819848060607910e+00,7.704335451126098633e-01,7.482071518898010254e-01,7.412892580032348633e-01,7.344982028007507324e-01,7.278303503990173340e-01,7.213070988655090332e-01,7.155253887176513672e-01,7.163769006729125977e-01,7.169442176818847656e-01,7.175124287605285645e-01,8.142331838607788086e-01,8.159329295158386230e-01,8.210585117340087891e-01,8.297885656356811523e-01,1.798138499259948730e+00,1.790110707283020020e+00,1.782154083251953125e+00,1.774268150329589844e+00,1.766451358795166016e+00,1.758703470230102539e+00,1.751023173332214355e+00,1.743409395217895508e+00
2.605143785476684570e+00,2.604798078536987305e+00,2.604452371597290039e+00,2.604106903076171875e+00,2.587057352066040039e+00,2.570472478866577148e+00,2.554098844528198242e+00,2.537932157516479492e+00,2.521969079971313477e+00,2.506205797195434570e+00,2.490638017654418945e+00,2.475262641906738281e+00,2.460075616836547852e+00,2.445074081420898438e+00,2.430254459381103516e+00,2.415613174438476562e+00,2.401147365570068359e+00,2.386853694915771484e+00,2.372729301452636719e+00,2.358771324157714844e+00,2.344976186752319336e+00,2.331341505050659180e+00,2.317864656448364258e+00,2.304542541503906250e+00,2.291373014450073242e+00,2.278352975845336914e+00,2.265480041503906250e+00,2.252751588821411133e+00,2.240165710449218750e+00,2.227719545364379883e+00,2.215410709381103516e+00,2.203237295150756836e+00,2.191196918487548828e+00,2.179287433624267578e+00,2.167506694793701172e+00,2.155852794647216797e+00,2.144323348999023438e+00,2.132916450500488281e+00,2.121630668640136719e+00,2.110463380813598633e+00,2.099413156509399414e+00,2.088477849960327148e+00,2.077656030654907227e+00,2.066945791244506836e+00,2.056345462799072266e+00,2.045853376388549805e+00,2.035467624664306641e+00,2.025186777114868164e+00,2.015009403228759766e+00,2.004933595657348633e+00,1.994958400726318359e+00,1.985081911087036133e+00,1.975302577018737793e+00,1.965619087219238281e+00,1.956030130386352539e+00,1.946534156799316406e+00,1.937130093574523926e+00,1.927816510200500488e+00,1.918591856956481934e+00,7.602344751358032227e-01,7.449674010276794434e-01,7.381090521812438965e-01,7.313758134841918945e-01,7.247642874717712402e-01,7.182712554931640625e-01,7.153360843658447266e-01,7.314000725746154785e-01,7.409191131591796875e-01,8.122341632843017578e-01,8.139255046844482422e-01,8.190031051635742188e-01,8.243774175643920898e-01,1.798135638236999512e+00,1.790107607841491699e+00,1.782151222229003906e+00,1.774265170097351074e+00,1.766448616981506348e+00,1.758700728416442871e+00,1.751020312309265137e+00,1.743406772613525391e+00
2.255253553390502930e+00,2.254994630813598633e+00,2.254735469818115234e+00,2.254476308822631836e+00,2.254217386245727539e+00,2.253958463668823242e+00,2.253699541091918945e+00,2.253440856933593750e+00,2.253182172775268555e+00,2.252923488616943359e+00,2.252664804458618164e+00,2.252406358718872070e+00,2.252147912979125977e+00,2.251889467239379883e+00,2.251631021499633789e+00,2.251372575759887695e+00,2.251114368438720703e+00,2.250856161117553711e+00,2.250597953796386719e+00,2.250339746475219727e+00,2.250081777572631836e+00,2.249824047088623047e+00,2.249566078186035156e+00,2.249308109283447266e+00,2.249050378799438477e+00,2.248792648315429688e+00,2.248534917831420898e+00,2.248277425765991211e+00,2.240160942077636719e+00,2.227714776992797852e+00,2.215406179428100586e+00,2.203232765197753906e+00,2.191192626953125000e+00,2.179283142089843750e+00,2.167502403259277344e+00,2.155848503112792969e+00,2.144319057464599609e+00,2.132912397384643555e+00,2.121626377105712891e+00,2.110459327697753906e+00,2.099409103393554688e+00,2.088473796844482422e+00,2.077652215957641602e+00,2.066941976547241211e+00,2.056341648101806641e+00,2.045849323272705078e+00,2.035463809967041016e+00,2.025182962417602539e+00,2.015005588531494141e+00,2.004930019378662109e+00,1.994954824447631836e+00,1.985078334808349609e+00,1.975298881530761719e+00,1.965615630149841309e+00,1.956026554107666016e+00,1.946530818939208984e+00,1.937126755714416504e+00,1.927813053131103516e+00,1.918588638305664062e+00,7.761377096176147461e-01,7.486822009086608887e-01,7.417555451393127441e-01,7.349559664726257324e-01,7.282798886299133301e-01,7.305890321731567383e-01,7.272080183029174805e-01,7.273492217063903809e-01,7.322548627853393555e-01,7.398341894149780273e-01,8.119279146194458008e-01,8.169578909873962402e-01,8.223053216934204102e-01,1.798132538795471191e+00,1.790104746818542480e+00,1.782148241996765137e+00,1.774262309074401855e+00,1.766445755958557129e+00,1.758697748184204102e+00,1.751017570495605469e+00,1.743403792381286621e+00
1.988220810890197754e+00,1.988019347190856934e+00,1.987818002700805664e+00,1.987616658210754395e+00,1.987415313720703125e+00,1.987214088439941406e+00,1.987012863159179688e+00,1.986811637878417969e+00,1.986610531806945801e+00,1.986409425735473633e+00,1.986208558082580566e+00,1.986007571220397949e+00,1.985806584358215332e+00,1.985605597496032715e+00,1.985404729843139648e+00,1.985203862190246582e+00,1.985003113746643066e+00,1.984802365303039551e+00,1.984601616859436035e+00,1.984400868415832520e+00,1.984200119972229004e+00,1.983999609947204590e+00,1.983798980712890625e+00,1.983598470687866211e+00,1.983397960662841797e+00,1.983197450637817383e+00,1.982997059822082520e+00,1.982796669006347656e+00,1.982596397399902344e+00,1.982396125793457031e+00,1.982196092605590820e+00,1.981995820999145508e+00,1.981795668601989746e+00,1.981595516204833984e+00,1.981395483016967773e+00,1.981195449829101562e+00,1.980995416641235352e+00,1.980795383453369141e+00,1.980595469474792480e+00,1.980395555496215820e+00,1.980195760726928711e+00,1.979995965957641602e+00,1.979796171188354492e+00,1.979596376419067383e+00,1.979396700859069824e+00,1.979197025299072266e+00,1.978997468948364258e+00,1.978797912597656250e+00,1.978598356246948242e+00,1.978398919105529785e+00,1.978199601173400879e+00,1.978000283241271973e+00,1.975295424461364746e+00,1.965611934661865234e+00,1.956023097038269043e+00,1.946527361869812012e+00,1.937123179435729980e+00,1.927809715270996094e+00,1.918585062026977539e+00,1.909448623657226562e+00,7.670474052429199219e-01,7.711923718452453613e-01,7.516062855720520020e-01,7.412858605384826660e-01,7.319245934486389160e-01,7.285557985305786133e-01,7.261276841163635254e-01,7.272776961326599121e-01,7.332090139389038086e-01,7.387598156929016113e-01,8.149229288101196289e-01,8.202436566352844238e-01,8.256343007087707520e-01,1.790101766586303711e+00,1.782145380973815918e+00,1.774259448051452637e+00,1.766442775726318359e+00,1.758695006370544434e+00,1.751014590263366699e+00,1.743401169776916504e+00
1.777729153633117676e+00,1.777568101882934570e+00,1.777407169342041016e+00,1.777246117591857910e+00,1.777085185050964355e+00,1.776924252510070801e+00,1.776763319969177246e+00,1.776602506637573242e+00,1.776441693305969238e+00,1.776280999183654785e+00,1.776120305061340332e+00,1.775959491729736328e+00,1.775798797607421875e+00,1.775638103485107422e+00,1.775477409362792969e+00,1.775316834449768066e+00,1.775156259536743164e+00,1.774995684623718262e+00,1.774835109710693359e+00,1.774674534797668457e+00,1.774514079093933105e+00,1.774353623390197754e+00,1.774193167686462402e+00,1.774032831192016602e+00,1.773872375488281250e+00,1.773712038993835449e+00,1.773551702499389648e+00,1.773391485214233398e+00,1.773231267929077148e+00,1.773071169853210449e+00,1.772910952568054199e+00,1.772750854492187500e+00,1.772590637207031250e+00,1.772430539131164551e+00,1.772270441055297852e+00,1.772110462188720703e+00,1.771950364112854004e+00,1.771790385246276855e+00,1.771630406379699707e+00,1.771470427513122559e+00,1.771310567855834961e+00,1.771150708198547363e+00,1.770990848541259766e+00,1.770830988883972168e+00,1.770671248435974121e+00,1.770511388778686523e+00,1.770351648330688477e+00,1.770192027091979980e+00,1.770032286643981934e+00,1.769872784614562988e+00,1.769713163375854492e+00,1.769553661346435547e+00,1.769394040107727051e+00,1.769234538078308105e+00,1.769075036048889160e+00,1.768915534019470215e+00,1.768756031990051270e+00,1.768596649169921875e+00,1.768437266349792480e+00,1.768277883529663086e+00,1.768118619918823242e+00,1.767959237098693848e+00,7.552883625030517578e-01,7.446739673614501953e-01,7.351668477058410645e-01,7.295225262641906738e-01,7.256678342819213867e-01,7.253242135047912598e-01,7.262495756149291992e-01,7.311956286430358887e-01,7.366361021995544434e-01,8.181923031806945801e-01,8.235558867454528809e-01,1.766049981117248535e+00,1.765891075134277344e+00,1.765732169151306152e+00,1.765573263168334961e+00,1.758692026138305664e+00,1.751011848449707031e+00,1.743398427963256836e+00
1.607540011405944824e+00,1.607408285140991211e+00,1.607276678085327148e+00,1.607144951820373535e+00,1.607013344764709473e+00,1.606881737709045410e+00,1.606750130653381348e+00,1.606618762016296387e+00,1.606487274169921875e+00,1.606355786323547363e+00,1.606224298477172852e+00,1.606092810630798340e+00,1.605961322784423828e+00,1.605829954147338867e+00,1.605698466300964355e+00,1.605567097663879395e+00,1.605435729026794434e+00,1.605304360389709473e+00,1.605173110961914062e+00,1.605041742324829102e+00,1.604910492897033691e+00,1.604779243469238281e+00,1.604647994041442871e+00,1.604516863822937012e+00,1.604385614395141602e+00,1.604254484176635742e+00,1.604123353958129883e+00,1.603992342948913574e+00,1.603861212730407715e+00,1.603730201721191406e+00,1.603599071502685547e+00,1.603468060493469238e+00,1.603337049484252930e+00,1.603206038475036621e+00,1.603075027465820312e+00,1.602944135665893555e+00,1.602813243865966797e+00,1.602682232856750488e+00,1.602551341056823730e+00,1.602420568466186523e+00,1.602289676666259766e+00,1.602158904075622559e+00,1.602028012275695801e+00,1.601897239685058594e+00,1.601766467094421387e+00,1.601635813713073730e+00,1.601505041122436523e+00,1.601374387741088867e+00,1.601243853569030762e+00,1.601113200187683105e+00,1.600982546806335449e+00,1.600851893424987793e+00,1.600721359252929688e+00,1.600590825080871582e+00,1.600460171699523926e+00,1.600329756736755371e+00,1.600199222564697266e+00,1.600068688392639160e+00,1.599938154220581055e+00,1.599807739257812500e+00,1.599677324295043945e+00,1.599546909332275391e+00,7.613395452499389648e-01,7.477399110794067383e-01,7.370638847351074219e-01,7.291681170463562012e-01,7.256103157997131348e-01,7.233641147613525391e-01,7.241724729537963867e-01,7.267076969146728516e-01,7.287954092025756836e-01,7.343158125877380371e-01,1.598114132881164551e+00,1.597983956336975098e+00,1.597853899002075195e+00,1.597723722457885742e+00,1.597593665122985840e+00,1.597463607788085938e+00,1.597333550453186035e+00,1.597203612327575684e+00
1.467089533805847168e+00,1.466979861259460449e+00,1.466870188713073730e+00,1.466760516166687012e+00,1.466650962829589844e+00,1.466541290283203125e+00,1.466431856155395508e+00,1.466322183609008789e+00,1.466212630271911621e+00,1.466103076934814453e+00,1.465993642807006836e+00,1.465884089469909668e+00,1.465774536132812500e+00,1.465665102005004883e+00,1.465555667877197266e+00,1.465446114540100098e+00,1.465336680412292480e+00,1.465227365493774414e+00,1.465117931365966797e+00,1.465008497238159180e+00,1.464899182319641113e+00,1.464789748191833496e+00,1.464680433273315430e+00,1.464571118354797363e+00,1.464461803436279297e+00,1.464352488517761230e+00,1.464243412017822266e+00,1.464134097099304199e+00,1.464024901390075684e+00,1.463915705680847168e+00,1.463806509971618652e+00,1.463697314262390137e+00,1.463588118553161621e+00,1.463478922843933105e+00,1.463369846343994141e+00,1.463260650634765625e+00,1.463151574134826660e+00,1.463042497634887695e+00,1.462933421134948730e+00,1.462824344635009766e+00,1.462715268135070801e+00,1.462606310844421387e+00,1.462497234344482422e+00,1.462388277053833008e+00,1.462279319763183594e+00,1.462170362472534180e+00,1.462061405181884766e+00,1.461952567100524902e+00,1.461843729019165039e+00,1.461734771728515625e+00,1.461625933647155762e+00,1.461517095565795898e+00,1.461408257484436035e+00,1.461299419403076172e+00,1.461190581321716309e+00,1.461081743240356445e+00,1.460973024368286133e+00,1.460864186286926270e+00,1.460755467414855957e+00,1.460646748542785645e+00,1.460538029670715332e+00,7.706119418144226074e-01,7.505338191986083984e-01,7.416340708732604980e-01,7.336602210998535156e-01,7.279946208000183105e-01,7.234113216400146484e-01,7.216786742210388184e-01,7.221946120262145996e-01,7.230054140090942383e-01,7.240185737609863281e-01,7.273603677749633789e-01,1.459234833717346191e+00,1.459126234054565430e+00,1.459017753601074219e+00,1.458909273147583008e+00,1.458800792694091797e+00,1.458692431449890137e+00,1.458583950996398926e+00,1.458475589752197266e+00
1.349209308624267578e+00,1.349116563796997070e+00,1.349023818969726562e+00,1.348931074142456055e+00,1.348838329315185547e+00,1.348745822906494141e+00,1.348653078079223633e+00,1.348560333251953125e+00,1.348467707633972168e+00,1.348375082015991211e+00,1.348282456398010254e+00,1.348189711570739746e+00,1.348097085952758789e+00,1.348004579544067383e+00,1.347911953926086426e+00,1.347819328308105469e+00,1.347726821899414062e+00,1.347634196281433105e+00,1.347541689872741699e+00,1.347449183464050293e+00,1.347356677055358887e+00,1.347264170646667480e+00,1.347171664237976074e+00,1.347079157829284668e+00,1.346986651420593262e+00,1.346894383430480957e+00,1.346801877021789551e+00,1.346709489822387695e+00,1.346617102622985840e+00,1.346524715423583984e+00,1.346432209014892578e+00,1.346339941024780273e+00,1.346247553825378418e+00,1.346155166625976562e+00,1.346062779426574707e+00,1.345970511436462402e+00,1.345878124237060547e+00,1.345785856246948242e+00,1.345693588256835938e+00,1.345601320266723633e+00,1.345509052276611328e+00,1.345416784286499023e+00,1.345324516296386719e+00,1.345232248306274414e+00,1.345140099525451660e+00,1.345047950744628906e+00,1.344955801963806152e+00,1.344863653182983398e+00,1.344771385192871094e+00,1.344679236412048340e+00,1.344587087631225586e+00,1.344495058059692383e+00,1.344402909278869629e+00,1.344310760498046875e+00,1.344218730926513672e+00,1.344126582145690918e+00,1.344034552574157715e+00,1.343942523002624512e+00,1.343850493431091309e+00,1.343758463859558105e+00,1.343666434288024902e+00,7.546193599700927734e-01,7.435130476951599121e-01,7.353339791297912598e-01,7.297745347023010254e-01,7.241479158401489258e-01,7.214202284812927246e-01,7.205805778503417969e-01,7.201040387153625488e-01,7.199327945709228516e-01,7.203564047813415527e-01,7.223979830741882324e-01,8.184192180633544922e-01,1.342471480369567871e+00,1.342379570007324219e+00,1.342287778854370117e+00,1.342195987701416016e+00,1.342104196548461914e+00,1.342012405395507812e+00,1.341920614242553711e+00
1.248863577842712402e+00,1.248784065246582031e+00,1.248704671859741211e+00,1.248625159263610840e+00,1.248545885086059570e+00,1.248466372489929199e+00,1.248386979103088379e+00,1.248307585716247559e+00,1.248228192329406738e+00,1.248148798942565918e+00,1.248069405555725098e+00,1.247990012168884277e+00,1.247910618782043457e+00,1.247831225395202637e+00,1.247751951217651367e+00,1.247672557830810547e+00,1.247593283653259277e+00,1.247513890266418457e+00,1.247434616088867188e+00,1.247355341911315918e+00,1.247276067733764648e+00,1.247196793556213379e+00,1.247117519378662109e+00,1.247038245201110840e+00,1.246959090232849121e+00,1.246879816055297852e+00,1.246800661087036133e+00,1.246721386909484863e+00,1.246642231941223145e+00,1.246562957763671875e+00,1.246483802795410156e+00,1.246404647827148438e+00,1.246325492858886719e+00,1.246246337890625000e+00,1.246167182922363281e+00,1.246088027954101562e+00,1.246008872985839844e+00,1.245929837226867676e+00,1.245850682258605957e+00,1.245771646499633789e+00,1.245692491531372070e+00,1.245613455772399902e+00,1.245534420013427734e+00,1.245455265045166016e+00,1.245376348495483398e+00,1.245297312736511230e+00,1.245218276977539062e+00,1.245139241218566895e+00,1.245060324668884277e+00,1.244981288909912109e+00,1.244902253150939941e+00,1.244823336601257324e+00,1.244744420051574707e+00,1.244665384292602539e+00,1.244586467742919922e+00,1.244507551193237305e+00,1.244428634643554688e+00,1.244349718093872070e+00,1.244270801544189453e+00,1.244191884994506836e+00,7.624886631965637207e-01,7.474662065505981445e-01,7.378537058830261230e-01,7.306123971939086914e-01,7.252709865570068359e-01,7.202320098876953125e-01,7.188993692398071289e-01,7.177001833915710449e-01,7.173063158988952637e-01,7.171699404716491699e-01,7.180672287940979004e-01,7.268793582916259766e-01,8.105825781822204590e-01,8.190450072288513184e-01,1.243009805679321289e+00,1.242931008338928223e+00,1.242852330207824707e+00,1.242773652076721191e+00,1.242694854736328125e+00,1.242616176605224609e+00
1.162410736083984375e+00,1.162341952323913574e+00,1.162273049354553223e+00,1.162204265594482422e+00,1.162135481834411621e+00,1.162066698074340820e+00,1.161997795104980469e+00,1.161929011344909668e+00,1.161860227584838867e+00,1.161791443824768066e+00,1.161722660064697266e+00,1.161653876304626465e+00,1.161585092544555664e+00,1.161516308784484863e+00,1.161447644233703613e+00,1.161378860473632812e+00,1.161310076713562012e+00,1.161241412162780762e+00,1.161172628402709961e+00,1.161103963851928711e+00,1.161035299301147461e+00,1.160966634750366211e+00,1.160897850990295410e+00,1.160829305648803711e+00,1.160760641098022461e+00,1.160691976547241211e+00,1.160623311996459961e+00,1.160554647445678711e+00,1.160485982894897461e+00,1.160417437553405762e+00,1.160348773002624512e+00,1.160280227661132812e+00,1.160211563110351562e+00,1.160143017768859863e+00,1.160074353218078613e+00,1.160005807876586914e+00,1.159937262535095215e+00,1.159868717193603516e+00,1.159800052642822266e+00,1.159731507301330566e+00,1.159662961959838867e+00,1.159594535827636719e+00,1.159525990486145020e+00,1.159457564353942871e+00,1.159389019012451172e+00,1.159320473670959473e+00,1.159252047538757324e+00,1.159183502197265625e+00,1.159115076065063477e+00,1.159046649932861328e+00,1.158978104591369629e+00,1.158909678459167480e+00,1.158841252326965332e+00,1.158772826194763184e+00,1.158704400062561035e+00,1.158635973930358887e+00,1.158567547798156738e+00,1.158499121665954590e+00,1.158430814743041992e+00,7.696294188499450684e-01,7.519544363021850586e-01,7.406210303306579590e-01,7.314254045486450195e-01,7.246316075325012207e-01,7.187200784683227539e-01,7.157634496688842773e-01,7.150018215179443359e-01,7.154795527458190918e-01,7.169299721717834473e-01,7.211122512817382812e-01,8.060299158096313477e-01,8.065642714500427246e-01,8.070803880691528320e-01,8.093698620796203613e-01,1.157337665557861328e+00,1.157269477844238281e+00,1.157201170921325684e+00,1.157132983207702637e+00,1.157064676284790039e+00,1.156996488571166992e+00
1.087152361869812012e+00,1.087092280387878418e+00,1.087031960487365723e+00,1.086971759796142578e+00,1.086911559104919434e+00,1.086851358413696289e+00,1.086791157722473145e+00,1.086730957031250000e+00,1.086670756340026855e+00,1.086610674858093262e+00,1.086550474166870117e+00,1.086490273475646973e+00,1.086430191993713379e+00,1.086369991302490234e+00,1.086309909820556641e+00,1.086249709129333496e+00,1.086189627647399902e+00,1.086129426956176758e+00,1.086069345474243164e+00,1.086009263992309570e+00,1.085949182510375977e+00,1.085889101028442383e+00,1.085829019546508789e+00,1.085768938064575195e+00,1.085708856582641602e+00,1.085648775100708008e+00,1.085588812828063965e+00,1.085528731346130371e+00,1.085468649864196777e+00,1.085408568382263184e+00,1.085348606109619141e+00,1.085288524627685547e+00,1.085228562355041504e+00,1.085168480873107910e+00,1.085108518600463867e+00,1.085048556327819824e+00,1.084988474845886230e+00,1.084928512573242188e+00,1.084868550300598145e+00,1.084808588027954102e+00,1.084748625755310059e+00,1.084688663482666016e+00,1.084628701210021973e+00,1.084568738937377930e+00,1.084508895874023438e+00,1.084448933601379395e+00,1.084388971328735352e+00,1.084329009056091309e+00,1.084269165992736816e+00,1.084209203720092773e+00,1.084149360656738281e+00,1.084089398384094238e+00,1.084029555320739746e+00,1.083969712257385254e+00,1.083909749984741211e+00,1.083849906921386719e+00,1.083790063858032227e+00,1.083730220794677734e+00,7.766875624656677246e-01,7.549766302108764648e-01,7.427346706390380859e-01,7.316334247589111328e-01,7.234277725219726562e-01,7.177474498748779297e-01,7.137323021888732910e-01,7.135071754455566406e-01,7.146971225738525391e-01,8.127159476280212402e-01,8.068890571594238281e-01,8.048501014709472656e-01,8.035507202148437500e-01,8.037173151969909668e-01,8.029578328132629395e-01,8.034247159957885742e-01,8.069421052932739258e-01,1.082653999328613281e+00,1.082594275474548340e+00,1.082534551620483398e+00,1.082474827766418457e+00,1.082415103912353516e+00
1.021046519279479980e+00,1.020993351936340332e+00,1.020940184593200684e+00,1.020887136459350586e+00,1.020833969116210938e+00,1.020780920982360840e+00,1.020727753639221191e+00,1.020674705505371094e+00,1.020621657371520996e+00,1.020568490028381348e+00,1.020515441894531250e+00,1.020462393760681152e+00,1.020409345626831055e+00,1.020356297492980957e+00,1.020303249359130859e+00,1.020250201225280762e+00,1.020197153091430664e+00,1.020144104957580566e+00,1.020091056823730469e+00,1.020038008689880371e+00,1.019985079765319824e+00,1.019932031631469727e+00,1.019878983497619629e+00,1.019826054573059082e+00,1.019773006439208984e+00,1.019720077514648438e+00,1.019667029380798340e+00,1.019614100456237793e+00,1.019561052322387695e+00,1.019508123397827148e+00,1.019455194473266602e+00,1.019402146339416504e+00,1.019349217414855957e+00,1.019296288490295410e+00,1.019243359565734863e+00,1.019190430641174316e+00,1.019137501716613770e+00,1.019084572792053223e+00,1.019031643867492676e+00,1.018978714942932129e+00,1.018925905227661133e+00,1.018872976303100586e+00,1.018820047378540039e+00,1.018767118453979492e+00,1.018714308738708496e+00,1.018661379814147949e+00,1.018608450889587402e+00,1.018555641174316406e+00,1.018502712249755859e+00,1.018449902534484863e+00,1.018397092819213867e+00,1.018344163894653320e+00,1.018291354179382324e+00,1.018238544464111328e+00,1.018185615539550781e+00,1.018132805824279785e+00,7.929898500442504883e-01,7.838341593742370605e-01,7.590365409851074219e-01,7.437143325805664062e-01,7.310626506805419922e-01,7.205596566200256348e-01,7.145179510116577148e-01,7.105854153633117676e-01,7.118492126464843750e-01,7.159113883972167969e-01,8.120624423027038574e-01,8.082045316696166992e-01,8.062453866004943848e-01,8.047104477882385254e-01,8.030111193656921387e-01,8.004862666130065918e-01,7.999762892723083496e-01,7.987462878227233887e-01,7.994212508201599121e-01,1.017077445983886719e+00,1.017024755477905273e+00,1.016972064971923828e+00,1.016919374465942383e+00,1.016866683959960938e+00
9.625191092491149902e-01,9.624718427658081055e-01,9.624246954917907715e-01,9.623774290084838867e-01,9.623302817344665527e-01,9.622830152511596680e-01,9.622359275817871094e-01,9.621886610984802246e-01,9.621415138244628906e-01,9.620943069458007812e-01,9.620472192764282227e-01,9.619999527931213379e-01,9.619528651237487793e-01,9.619056582450866699e-01,9.618585705757141113e-01,9.618113636970520020e-01,9.617642760276794434e-01,9.617170691490173340e-01,9.616700410842895508e-01,9.616229534149169922e-01,9.615757465362548828e-01,9.615287184715270996e-01,9.614815115928649902e-01,9.614344835281372070e-01,9.613873362541198730e-01,9.613402485847473145e-01,9.612931013107299805e-01,9.612460732460021973e-01,9.611989259719848633e-01,9.611518979072570801e-01,9.611048102378845215e-01,9.610577821731567383e-01,9.610106348991394043e-01,9.609636664390563965e-01,9.609165191650390625e-01,9.608695507049560547e-01,9.608224034309387207e-01,9.607754349708557129e-01,9.607283473014831543e-01,9.606813788414001465e-01,9.606344103813171387e-01,9.605873227119445801e-01,9.605403542518615723e-01,9.604932665824890137e-01,9.604462981224060059e-01,9.603992700576782227e-01,9.603523015975952148e-01,9.603052735328674316e-01,9.602583050727844238e-01,9.602112770080566406e-01,9.601643085479736328e-01,9.601172804832458496e-01,9.600703716278076172e-01,9.600233435630798340e-01,7.943798899650573730e-01,7.877683639526367188e-01,7.677135467529296875e-01,7.519288659095764160e-01,7.422175407409667969e-01,7.331798672676086426e-01,7.191194891929626465e-01,7.122540473937988281e-01,7.098751068115234375e-01,7.092047333717346191e-01,8.117913007736206055e-01,8.115007281303405762e-01,8.123193979263305664e-01,8.104747533798217773e-01,8.085182309150695801e-01,8.061084747314453125e-01,8.025477528572082520e-01,7.997273802757263184e-01,7.976807355880737305e-01,7.965969443321228027e-01,7.974338531494140625e-01,9.589912295341491699e-01,9.589443206787109375e-01,9.588975310325622559e-01,9.588506221771240234e-01,9.588038325309753418e-01
9.103375673294067383e-01,9.102953076362609863e-01,9.102531671524047852e-01,9.102108478546142578e-01,9.101687073707580566e-01,9.101264476776123047e-01,9.100842475891113281e-01,9.100419878959655762e-01,9.099998474121093750e-01,9.099575877189636230e-01,9.099154472351074219e-01,9.098732471466064453e-01,9.098311066627502441e-01,9.097888469696044922e-01,9.097467064857482910e-01,9.097045063972473145e-01,9.096623659133911133e-01,9.096202254295349121e-01,9.095780253410339355e-01,9.095359444618225098e-01,9.094937443733215332e-01,9.094516038894653320e-01,9.094094038009643555e-01,9.093673229217529297e-01,9.093251228332519531e-01,9.092830419540405273e-01,9.092408418655395508e-01,9.091987609863281250e-01,9.091566205024719238e-01,9.091145396232604980e-01,9.090723395347595215e-01,9.090303182601928711e-01,9.089881181716918945e-01,9.089460968971252441e-01,9.089039564132690430e-01,9.088618755340576172e-01,9.088197350502014160e-01,9.087777137756347656e-01,9.087356925010681152e-01,9.086935520172119141e-01,9.086515307426452637e-01,9.086093902587890625e-01,9.085673689842224121e-01,9.085252285003662109e-01,9.084832072257995605e-01,9.084411263465881348e-01,9.083991050720214844e-01,9.083570241928100586e-01,9.083150029182434082e-01,9.082729220390319824e-01,9.082309603691101074e-01,9.081888794898986816e-01,9.081468582153320312e-01,9.081047773361206055e-01,7.853675484657287598e-01,7.667368650436401367e-01,7.508329749107360840e-01,7.373263239860534668e-01,7.344116568565368652e-01,7.196400761604309082e-01,7.153667807579040527e-01,7.107819318771362305e-01,7.107262611389160156e-01,8.085799217224121094e-01,8.085571527481079102e-01,8.158895373344421387e-01,8.186778426170349121e-01,8.152856826782226562e-01,8.119798302650451660e-01,8.087052702903747559e-01,8.033853173255920410e-01,7.992883324623107910e-01,7.963436841964721680e-01,7.952909469604492188e-01,8.053536415100097656e-01,9.071812629699707031e-01,9.071393013000488281e-01,9.070973992347717285e-01,9.070554971694946289e-01,9.070135354995727539e-01
8.635230064392089844e-01,8.634849786758422852e-01,8.634470105171203613e-01,8.634089827537536621e-01,8.633710145950317383e-01,8.633329868316650391e-01,8.632950782775878906e-01,8.632570505142211914e-01,8.632191419601440430e-01,8.631811141967773438e-01,8.631431460380554199e-01,8.631051778793334961e-01,8.630672693252563477e-01,8.630292415618896484e-01,8.629913330078125000e-01,8.629533052444458008e-01,8.629154562950134277e-01,8.628775477409362793e-01,8.628395199775695801e-01,8.628016710281372070e-01,8.627636432647705078e-01,8.627257943153381348e-01,8.626878261566162109e-01,8.626499176025390625e-01,8.626119494438171387e-01,8.625741004943847656e-01,8.625361323356628418e-01,8.624982237815856934e-01,8.624603152275085449e-01,8.624224066734313965e-01,8.623844981193542480e-01,8.623466491699218750e-01,8.623086810111999512e-01,8.622708320617675781e-01,8.622329235076904297e-01,8.621950745582580566e-01,8.621571660041809082e-01,8.621193170547485352e-01,8.620814681053161621e-01,8.620435595512390137e-01,8.620057106018066406e-01,8.619678020477294922e-01,8.619300127029418945e-01,8.618921041488647461e-01,8.618543148040771484e-01,8.618164062500000000e-01,8.617786169052124023e-01,8.617407083511352539e-01,8.617029190063476562e-01,8.616650104522705078e-01,8.616272211074829102e-01,8.615893721580505371e-01,8.615515828132629395e-01,8.615136742591857910e-01,8.614759445190429688e-01,8.614380359649658203e-01,7.515137791633605957e-01,7.355780601501464844e-01,7.206978201866149902e-01,7.186340093612670898e-01,8.170231580734252930e-01,8.130267858505249023e-01,8.080440163612365723e-01,8.061591386795043945e-01,8.610978722572326660e-01,8.610601425170898438e-01,8.610222935676574707e-01,8.609845638275146484e-01,8.609467744827270508e-01,8.609090447425842285e-01,8.608711957931518555e-01,8.608334660530090332e-01,8.607956767082214355e-01,8.607579469680786133e-01,8.607201576232910156e-01,8.606824278831481934e-01,8.606446385383605957e-01,8.606069684028625488e-01,8.605692386627197266e-01,8.605314493179321289e-01
8.212878704071044922e-01,8.212534189224243164e-01,8.212190866470336914e-01,8.211846947669982910e-01,8.211503624916076660e-01,8.211159706115722656e-01,8.210816979408264160e-01,8.210472464561462402e-01,8.210129737854003906e-01,8.209785819053649902e-01,8.209442496299743652e-01,8.209098577499389648e-01,8.208755850791931152e-01,8.208411931991577148e-01,8.208069205284118652e-01,8.207725882530212402e-01,8.207382559776306152e-01,8.207039833068847656e-01,8.206695914268493652e-01,8.206353187561035156e-01,8.206009864807128906e-01,8.205667138099670410e-01,8.205323219299316406e-01,8.204980492591857910e-01,8.204637169837951660e-01,8.204294443130493164e-01,8.203951120376586914e-01,8.203608393669128418e-01,8.203265070915222168e-01,8.202922940254211426e-01,8.202579617500305176e-01,8.202236890792846680e-01,8.201893568038940430e-01,8.201551437377929688e-01,8.201208114624023438e-01,8.200865983963012695e-01,8.200523257255554199e-01,8.200180530548095703e-01,8.199837803840637207e-01,8.199495077133178711e-01,8.199152946472167969e-01,8.198809623718261719e-01,8.198467493057250977e-01,8.198124766349792480e-01,8.197782635688781738e-01,8.197439908981323242e-01,8.197097778320312500e-01,8.196755051612854004e-01,8.196412920951843262e-01,8.196070194244384766e-01,8.195728063583374023e-01,8.195385336875915527e-01,8.195043802261352539e-01,8.194701075553894043e-01,8.194358944892883301e-01,8.194017410278320312e-01,8.193674683570861816e-01,8.193333148956298828e-01,8.192990422248840332e-01,8.192648887634277344e-01,8.192306756973266602e-01,8.191965222358703613e-01,8.191622495651245117e-01,8.191280961036682129e-01,8.190938830375671387e-01,8.190597295761108398e-01,8.190255165100097656e-01,8.189913630485534668e-01,8.189571499824523926e-01,8.189229965209960938e-01,8.188887834548950195e-01,8.188546299934387207e-01,8.188204169273376465e-01,8.187863230705261230e-01,8.187521100044250488e-01,8.187179565429687500e-01,8.186838626861572266e-01,8.186496496200561523e-01,8.186155557632446289e-01,8.185813426971435547e-01
7.829915285110473633e-01,7.829602956771850586e-01,7.829290628433227539e-01,7.828977704048156738e-01,7.828665971755981445e-01,7.828353047370910645e-01,7.828041315078735352e-01,7.827728390693664551e-01,7.827416658401489258e-01,7.827104330062866211e-01,7.826792597770690918e-01,7.826479673385620117e-01,7.826167941093444824e-01,7.825855612754821777e-01,7.825543880462646484e-01,7.825232148170471191e-01,7.824919819831848145e-01,7.824608087539672852e-01,7.824295759201049805e-01,7.823984026908874512e-01,7.823671698570251465e-01,7.823359966278076172e-01,7.823047637939453125e-01,7.822736501693725586e-01,7.822424173355102539e-01,7.822112441062927246e-01,7.821800708770751953e-01,7.821488976478576660e-01,7.821177244186401367e-01,7.820865511894226074e-01,7.820553779602050781e-01,7.820242047309875488e-01,7.819930315017700195e-01,7.819619178771972656e-01,7.819307446479797363e-01,7.818995714187622070e-01,7.818684577941894531e-01,7.818372845649719238e-01,7.818061709403991699e-01,7.817749381065368652e-01,7.817438840866088867e-01,7.817126512527465820e-01,7.816815972328186035e-01,7.816504240036010742e-01,7.816193103790283203e-01,7.815881371498107910e-01,7.815570235252380371e-01,7.815258502960205078e-01,7.814947962760925293e-01,7.814636230468750000e-01,7.814325094223022461e-01,7.814013957977294922e-01,7.813702821731567383e-01,7.813391685485839844e-01,7.813080549240112305e-01,7.812770009040832520e-01,7.812458872795104980e-01,7.812147736549377441e-01,7.811836600303649902e-01,7.811526060104370117e-01,7.811214327812194824e-01,7.810903787612915039e-01,7.810592651367187500e-01,7.810282111167907715e-01,7.809970974922180176e-01,7.809660434722900391e-01,7.809349298477172852e-01,7.809038758277893066e-01,7.808727622032165527e-01,7.808417677879333496e-01,7.808106541633605957e-01,7.807796001434326172e-01,7.807484865188598633e-01,7.807174921035766602e-01,7.806864380836486816e-01,7.806553840637207031e-01,7.806243300437927246e-01,7.805932760238647461e-01,7.805622220039367676e-01,7.805311679840087891e-01
7.481076121330261230e-01,7.480790019035339355e-01,7.480505704879760742e-01,7.480220198631286621e-01,7.479935288429260254e-01,7.479649782180786133e-01,7.479364871978759766e-01,7.479079365730285645e-01,7.478795051574707031e-01,7.478509545326232910e-01,7.478224635124206543e-01,7.477939128875732422e-01,7.477654814720153809e-01,7.477369904518127441e-01,7.477084994316101074e-01,7.476800084114074707e-01,7.476515173912048340e-01,7.476230859756469727e-01,7.475945353507995605e-01,7.475661039352416992e-01,7.475376129150390625e-01,7.475091218948364258e-01,7.474806308746337891e-01,7.474521994590759277e-01,7.474237084388732910e-01,7.473952770233154297e-01,7.473667263984680176e-01,7.473382949829101562e-01,7.473098039627075195e-01,7.472813725471496582e-01,7.472528815269470215e-01,7.472245097160339355e-01,7.471960186958312988e-01,7.471675872802734375e-01,7.471391558647155762e-01,7.471106648445129395e-01,7.470822930335998535e-01,7.470538020133972168e-01,7.470253705978393555e-01,7.469969391822814941e-01,7.469685077667236328e-01,7.469400763511657715e-01,7.469116449356079102e-01,7.468832135200500488e-01,7.468547821044921875e-01,7.468263506889343262e-01,7.467979192733764648e-01,7.467694878578186035e-01,7.467411160469055176e-01,7.467126250267028809e-01,7.466842532157897949e-01,7.466558218002319336e-01,7.466274499893188477e-01,7.465990781784057617e-01,7.465706467628479004e-01,7.465422749519348145e-01,7.465138435363769531e-01,7.464854717254638672e-01,7.464570403099060059e-01,7.464286684989929199e-01,7.464002370834350586e-01,7.463718652725219727e-01,7.463434934616088867e-01,7.463151216506958008e-01,7.462866902351379395e-01,7.462583184242248535e-01,7.462299466133117676e-01,7.462015748023986816e-01,7.461732029914855957e-01,7.461448311805725098e-01,7.461164593696594238e-01,7.460880875587463379e-01,7.460597157478332520e-01,7.460313439369201660e-01,7.460030317306518555e-01,7.459746599197387695e-01,7.459463477134704590e-01,7.459179162979125977e-01,7.458896040916442871e-01,7.458612322807312012e-01
7.161993384361267090e-01,7.161731719970703125e-01,7.161470651626586914e-01,7.161208987236022949e-01,7.160947918891906738e-01,7.160686254501342773e-01,7.160425186157226562e-01,7.160163521766662598e-01,7.159903049468994141e-01,7.159641385078430176e-01,7.159380316734313965e-01,7.159119248390197754e-01,7.158858180046081543e-01,7.158597111701965332e-01,7.158335447311401367e-01,7.158074975013732910e-01,7.157813310623168945e-01,7.157552838325500488e-01,7.157291173934936523e-01,7.157030701637268066e-01,7.156769037246704102e-01,7.156508564949035645e-01,7.156246900558471680e-01,7.155986428260803223e-01,7.155725359916687012e-01,7.155464887619018555e-01,7.155203223228454590e-01,7.154942750930786133e-01,7.154681682586669922e-01,7.154421210289001465e-01,7.154160141944885254e-01,7.153899669647216797e-01,7.153639197349548340e-01,7.153377532958984375e-01,7.153117656707763672e-01,7.152856588363647461e-01,7.152596116065979004e-01,7.152335047721862793e-01,7.152074575424194336e-01,7.151813507080078125e-01,7.151553034782409668e-01,7.151291966438293457e-01,7.151032090187072754e-01,7.150771021842956543e-01,7.150510549545288086e-01,7.150250077247619629e-01,7.149989604949951172e-01,7.149729132652282715e-01,7.149468660354614258e-01,7.149208188056945801e-01,7.148947715759277344e-01,7.148687839508056641e-01,7.148426771163940430e-01,7.148166894912719727e-01,7.147905826568603516e-01,7.147645950317382812e-01,7.147385478019714355e-01,7.147125601768493652e-01,7.146864533424377441e-01,7.146604657173156738e-01,7.146344184875488281e-01,7.146084308624267578e-01,7.145823836326599121e-01,7.145563960075378418e-01,7.145303487777709961e-01,7.145043611526489258e-01,7.144783139228820801e-01,7.144523262977600098e-01,7.144262790679931641e-01,7.144002914428710938e-01,7.143742442131042480e-01,7.143482565879821777e-01,7.143222689628601074e-01,7.142962813377380371e-01,7.142702937126159668e-01,7.142442464828491211e-01,7.142183184623718262e-01,7.141922712326049805e-01,7.141662836074829102e-01,7.141402959823608398e-01
6.869016885757446289e-01,6.868776082992553711e-01,6.868535876274108887e-01,6.868295073509216309e-01,6.868054866790771484e-01,6.867814660072326660e-01,6.867574453353881836e-01,6.867333650588989258e-01,6.867093443870544434e-01,6.866853237152099609e-01,6.866613030433654785e-01,6.866372823715209961e-01,6.866132616996765137e-01,6.865892410278320312e-01,6.865652203559875488e-01,6.865411996841430664e-01,6.865171790122985840e-01,6.864931583404541016e-01,6.864691376686096191e-01,6.864451169967651367e-01,6.864210963249206543e-01,6.863971352577209473e-01,6.863730549812316895e-01,6.863490939140319824e-01,6.863250732421875000e-01,6.863011121749877930e-01,6.862770318984985352e-01,6.862530708312988281e-01,6.862290501594543457e-01,6.862050890922546387e-01,6.861811280250549316e-01,6.861571073532104492e-01,6.861331462860107422e-01,6.861091256141662598e-01,6.860851645469665527e-01,6.860611438751220703e-01,6.860371828079223633e-01,6.860131621360778809e-01,6.859892010688781738e-01,6.859651803970336914e-01,6.859412789344787598e-01,6.859172582626342773e-01,6.858932971954345703e-01,6.858692765235900879e-01,6.858453750610351562e-01,6.858213543891906738e-01,6.857973933219909668e-01,6.857734322547912598e-01,6.857494711875915527e-01,6.857255101203918457e-01,6.857015490531921387e-01,6.856776475906372070e-01,6.856536269187927246e-01,6.856297254562377930e-01,6.856057047843933105e-01,6.855818033218383789e-01,6.855577826499938965e-01,6.855338811874389648e-01,6.855099201202392578e-01,6.854860186576843262e-01,6.854619979858398438e-01,6.854380965232849121e-01,6.854141354560852051e-01,6.853902339935302734e-01,6.853662729263305664e-01,6.853423714637756348e-01,6.853183507919311523e-01,6.852944493293762207e-01,6.852704882621765137e-01,6.852465867996215820e-01,6.852226853370666504e-01,6.851987242698669434e-01,6.851748824119567871e-01,6.851509213447570801e-01,6.851270198822021484e-01,6.851030588150024414e-01,6.850791573524475098e-01,6.850552558898925781e-01,6.850313544273376465e-01,6.850073933601379395e-01
6.599067449569702148e-01,6.598845720291137695e-01,6.598623991012573242e-01,6.598401665687561035e-01,6.598179936408996582e-01,6.597958207130432129e-01,6.597736477851867676e-01,6.597514152526855469e-01,6.597293019294738770e-01,6.597071290016174316e-01,6.596848964691162109e-01,6.596627831459045410e-01,6.596405506134033203e-01,6.596184372901916504e-01,6.595962047576904297e-01,6.595740914344787598e-01,6.595518589019775391e-01,6.595297455787658691e-01,6.595075726509094238e-01,6.594853997230529785e-01,6.594632267951965332e-01,6.594410538673400879e-01,6.594188809394836426e-01,6.593967676162719727e-01,6.593745946884155273e-01,6.593524217605590820e-01,6.593302488327026367e-01,6.593081355094909668e-01,6.592859625816345215e-01,6.592638492584228516e-01,6.592417359352111816e-01,6.592195630073547363e-01,6.591974496841430664e-01,6.591752767562866211e-01,6.591531634330749512e-01,6.591309905052185059e-01,6.591088771820068359e-01,6.590867042541503906e-01,6.590645909309387207e-01,6.590424180030822754e-01,6.590203046798706055e-01,6.589981317520141602e-01,6.589760780334472656e-01,6.589539051055908203e-01,6.589317917823791504e-01,6.589096188545227051e-01,6.588875651359558105e-01,6.588653922080993652e-01,6.588432788848876953e-01,6.588212251663208008e-01,6.587990522384643555e-01,6.587769389152526855e-01,6.587548255920410156e-01,6.587327122688293457e-01,6.587105989456176758e-01,6.586884856224060059e-01,6.586663722991943359e-01,6.586442589759826660e-01,6.586221456527709961e-01,6.586000919342041016e-01,6.585779190063476562e-01,6.585558652877807617e-01,6.585337519645690918e-01,6.585116386413574219e-01,6.584895253181457520e-01,6.584674715995788574e-01,6.584453582763671875e-01,6.584233045578002930e-01,6.584011912345886230e-01,6.583790779113769531e-01,6.583570241928100586e-01,6.583349108695983887e-01,6.583128571510314941e-01,6.582907438278198242e-01,6.582686901092529297e-01,6.582465767860412598e-01,6.582245230674743652e-01,6.582024097442626953e-01,6.581803560256958008e-01,6.581582427024841309e-01
6.349533796310424805e-01,6.349328160285949707e-01,6.349123120307922363e-01,6.348917484283447266e-01,6.348711848258972168e-01,6.348506212234497070e-01,6.348301172256469727e-01,6.348096132278442383e-01,6.347890496253967285e-01,6.347685456275939941e-01,6.347479820251464844e-01,6.347274780273437500e-01,6.347069144248962402e-01,6.346864104270935059e-01,6.346658468246459961e-01,6.346453428268432617e-01,6.346248388290405273e-01,6.346043348312377930e-01,6.345837712287902832e-01,6.345632672309875488e-01,6.345427036285400391e-01,6.345222592353820801e-01,6.345016956329345703e-01,6.344811916351318359e-01,6.344606876373291016e-01,6.344401836395263672e-01,6.344196200370788574e-01,6.343991756439208984e-01,6.343786716461181641e-01,6.343581080436706543e-01,6.343376636505126953e-01,6.343171000480651855e-01,6.342966556549072266e-01,6.342760920524597168e-01,6.342556476593017578e-01,6.342350840568542480e-01,6.342146396636962891e-01,6.341941356658935547e-01,6.341736316680908203e-01,6.341531276702880859e-01,6.341326832771301270e-01,6.341121196746826172e-01,6.340916752815246582e-01,6.340711712837219238e-01,6.340506672859191895e-01,6.340301632881164551e-01,6.340097188949584961e-01,6.339892148971557617e-01,6.339687705039978027e-01,6.339483261108398438e-01,6.339278221130371094e-01,6.339073181152343750e-01,6.338868141174316406e-01,6.338663697242736816e-01,6.338458657264709473e-01,6.338254213333129883e-01,6.338049173355102539e-01,6.337844729423522949e-01,6.337640285491943359e-01,6.337435841560363770e-01,6.337230801582336426e-01,6.337026357650756836e-01,6.336821317672729492e-01,6.336616873741149902e-01,6.336411833763122559e-01,6.336207389831542969e-01,6.336002945899963379e-01,6.335798501968383789e-01,6.335594058036804199e-01,6.335389614105224609e-01,6.335185170173645020e-01,6.334980130195617676e-01,6.334776282310485840e-01,6.334571242332458496e-01,6.334366798400878906e-01,6.334162354469299316e-01,6.333957910537719727e-01,6.333753466606140137e-01,6.333549022674560547e-01,6.333344578742980957e-01
6.118184328079223633e-01,6.117993593215942383e-01,6.117802858352661133e-01,6.117612123489379883e-01,6.117421388626098633e-01,6.117230653762817383e-01,6.117039918899536133e-01,6.116849184036254883e-01,6.116658449172973633e-01,6.116468310356140137e-01,6.116276979446411133e-01,6.116086840629577637e-01,6.115896105766296387e-01,6.115705370903015137e-01,6.115514636039733887e-01,6.115324497222900391e-01,6.115133762359619141e-01,6.114943027496337891e-01,6.114752292633056641e-01,6.114562153816223145e-01,6.114371418952941895e-01,6.114181280136108398e-01,6.113990545272827148e-01,6.113800406455993652e-01,6.113609671592712402e-01,6.113418936729431152e-01,6.113228797912597656e-01,6.113038063049316406e-01,6.112847924232482910e-01,6.112657189369201660e-01,6.112467050552368164e-01,6.112276315689086914e-01,6.112086176872253418e-01,6.111896038055419922e-01,6.111705899238586426e-01,6.111515164375305176e-01,6.111325025558471680e-01,6.111134290695190430e-01,6.110944151878356934e-01,6.110754013061523438e-01,6.110563874244689941e-01,6.110373139381408691e-01,6.110183000564575195e-01,6.109992861747741699e-01,6.109802722930908203e-01,6.109611988067626953e-01,6.109422445297241211e-01,6.109232306480407715e-01,6.109041571617126465e-01,6.108852028846740723e-01,6.108661293983459473e-01,6.108471751213073730e-01,6.108281016349792480e-01,6.108091473579406738e-01,6.107900738716125488e-01,6.107711195945739746e-01,6.107520461082458496e-01,6.107330918312072754e-01,6.107140183448791504e-01,6.106950640678405762e-01,6.106760501861572266e-01,6.106570363044738770e-01,6.106380224227905273e-01,6.106190681457519531e-01,6.105999946594238281e-01,6.105810403823852539e-01,6.105620265007019043e-01,6.105430722236633301e-01,6.105240583419799805e-01,6.105050444602966309e-01,6.104860901832580566e-01,6.104670763015747070e-01,6.104481220245361328e-01,6.104291081428527832e-01,6.104100942611694336e-01,6.103910803794860840e-01,6.103721261024475098e-01,6.103531122207641602e-01,6.103341579437255859e-01,6.103151440620422363e-01
5.903100371360778809e-01,5.902922749519348145e-01,5.902745127677917480e-01,5.902567505836486816e-01,5.902390480041503906e-01,5.902212858200073242e-01,5.902035236358642578e-01,5.901857614517211914e-01,5.901679992675781250e-01,5.901502966880798340e-01,5.901325345039367676e-01,5.901147723197937012e-01,5.900970101356506348e-01,5.900793075561523438e-01,5.900615453720092773e-01,5.900437831878662109e-01,5.900260210037231445e-01,5.900083184242248535e-01,5.899905562400817871e-01,5.899728536605834961e-01,5.899550914764404297e-01,5.899373888969421387e-01,5.899196267127990723e-01,5.899019241333007812e-01,5.898841619491577148e-01,5.898664593696594238e-01,5.898487567901611328e-01,5.898309946060180664e-01,5.898132920265197754e-01,5.897955298423767090e-01,5.897778272628784180e-01,5.897600650787353516e-01,5.897423624992370605e-01,5.897246599197387695e-01,5.897069573402404785e-01,5.896891951560974121e-01,5.896714925765991211e-01,5.896537303924560547e-01,5.896360278129577637e-01,5.896183252334594727e-01,5.896006226539611816e-01,5.895828604698181152e-01,5.895652174949645996e-01,5.895474553108215332e-01,5.895297527313232422e-01,5.895120501518249512e-01,5.894943475723266602e-01,5.894766449928283691e-01,5.894589424133300781e-01,5.894412398338317871e-01,5.894235372543334961e-01,5.894058346748352051e-01,5.893881320953369141e-01,5.893704295158386230e-01,5.893527269363403320e-01,5.893350243568420410e-01,5.893173217773437500e-01,5.892996191978454590e-01,5.892819166183471680e-01,5.892642140388488770e-01,5.892465114593505859e-01,5.892288684844970703e-01,5.892111063003540039e-01,5.891934633255004883e-01,5.891757607460021973e-01,5.891580581665039062e-01,5.891404151916503906e-01,5.891227126121520996e-01,5.891050100326538086e-01,5.890873074531555176e-01,5.890696644783020020e-01,5.890519618988037109e-01,5.890343189239501953e-01,5.890166163444519043e-01,5.889989137649536133e-01,5.889812111854553223e-01,5.889635682106018066e-01,5.889458656311035156e-01,5.889282226562500000e-01,5.889105200767517090e-01
5.702625513076782227e-01,5.702459812164306641e-01,5.702294111251831055e-01,5.702128410339355469e-01,5.701962709426879883e-01,5.701797604560852051e-01,5.701631307601928711e-01,5.701466202735900879e-01,5.701300501823425293e-01,5.701134800910949707e-01,5.700969099998474121e-01,5.700803399085998535e-01,5.700637698173522949e-01,5.700471997261047363e-01,5.700306296348571777e-01,5.700141191482543945e-01,5.699975490570068359e-01,5.699809789657592773e-01,5.699644088745117188e-01,5.699478983879089355e-01,5.699313282966613770e-01,5.699147582054138184e-01,5.698981881141662598e-01,5.698816776275634766e-01,5.698651671409606934e-01,5.698485970497131348e-01,5.698320269584655762e-01,5.698154568672180176e-01,5.697989463806152344e-01,5.697823762893676758e-01,5.697658658027648926e-01,5.697492957115173340e-01,5.697327852249145508e-01,5.697162151336669922e-01,5.696997046470642090e-01,5.696831345558166504e-01,5.696666240692138672e-01,5.696500539779663086e-01,5.696335434913635254e-01,5.696169734001159668e-01,5.696004629135131836e-01,5.695838928222656250e-01,5.695673823356628418e-01,5.695508718490600586e-01,5.695343017578125000e-01,5.695178508758544922e-01,5.695012807846069336e-01,5.694847702980041504e-01,5.694682002067565918e-01,5.694516897201538086e-01,5.694351792335510254e-01,5.694186687469482422e-01,5.694020986557006836e-01,5.693855881690979004e-01,5.693690776824951172e-01,5.693525671958923340e-01,5.693360567092895508e-01,5.693195462226867676e-01,5.693029761314392090e-01,5.692865252494812012e-01,5.692699551582336426e-01,5.692534446716308594e-01,5.692369341850280762e-01,5.692204236984252930e-01,5.692039728164672852e-01,5.691874027252197266e-01,5.691709518432617188e-01,5.691543817520141602e-01,5.691379308700561523e-01,5.691213607788085938e-01,5.691049098968505859e-01,5.690883398056030273e-01,5.690718889236450195e-01,5.690553784370422363e-01,5.690388679504394531e-01,5.690223574638366699e-01,5.690059065818786621e-01,5.689893364906311035e-01,5.689728856086730957e-01,5.689563751220703125e-01
