3.773879051208496094e+00,3.733782529830932617e+00,3.694528818130493164e+00,3.656092166900634766e+00,3.618446826934814453e+00,3.581568479537963867e+00,3.545434474945068359e+00,3.510022401809692383e+00,3.475310802459716797e+00,3.441278934478759766e+00,3.407907247543334961e+00,3.375176429748535156e+00,3.343068122863769531e+00,3.311565160751342773e+00,3.280650615692138672e+00,3.250307798385620117e+00,3.220521211624145508e+00,3.191275358200073242e+00,3.162555932998657227e+00,3.134348869323730469e+00,3.106640338897705078e+00,3.079417705535888672e+00,3.052668094635009766e+00,3.026378870010375977e+00,3.000538825988769531e+00,2.975136280059814453e+00,2.950160026550292969e+00,2.925599813461303711e+00,2.901445150375366211e+00,2.877686023712158203e+00,2.854312896728515625e+00,2.831316471099853516e+00,2.808687448501586914e+00,2.786417484283447266e+00,2.764497518539428711e+00,2.742920160293579102e+00,2.721676826477050781e+00,2.700760126113891602e+00,2.680162429809570312e+00,2.659876346588134766e+00,2.639895439147949219e+00,2.620212078094482422e+00,2.600820064544677734e+00,8.187755346298217773e-01,8.077291250228881836e-01,7.969768047332763672e-01,7.886467576026916504e-01,7.859724760055541992e-01,7.833162546157836914e-01,7.806780338287353516e-01,7.785686850547790527e-01,7.812522649765014648e-01,6.767214536666870117e-01,6.541762351989746094e-01,6.350178718566894531e-01,6.234546303749084473e-01,6.195321083068847656e-01,6.157320737838745117e-01,6.120165586471557617e-01,6.083456277847290039e-01,6.047185063362121582e-01,6.011936068534851074e-01,5.978703498840332031e-01,5.946061611175537109e-01,5.913773775100708008e-01,5.878186821937561035e-01,5.885949134826660156e-01,5.902824401855468750e-01,5.919796228408813477e-01,2.167669057846069336e+00,2.154380321502685547e+00,2.141253471374511719e+00,2.128285408020019531e+00,2.115473747253417969e+00,2.102815389633178711e+00,2.090307474136352539e+00,2.077947616577148438e+00,2.065732955932617188e+00,2.053661108016967773e+00,2.041729450225830078e+00
3.773880481719970703e+00,3.733783721923828125e+00,3.694530010223388672e+00,3.656092882156372070e+00,3.618447542190551758e+00,3.581569433212280273e+00,3.545435667037963867e+00,3.510023593902587891e+00,3.475311994552612305e+00,3.441280126571655273e+00,3.407907962799072266e+00,3.375177145004272461e+00,3.343069314956665039e+00,3.311566352844238281e+00,3.280651569366455078e+00,3.250308752059936523e+00,3.220522165298461914e+00,3.191276073455810547e+00,3.162556648254394531e+00,3.134349584579467773e+00,3.106641292572021484e+00,3.079418659210205078e+00,3.052668809890747070e+00,3.026379823684692383e+00,3.000539302825927734e+00,2.975136756896972656e+00,2.950160741806030273e+00,2.925600528717041016e+00,2.901445865631103516e+00,2.877686738967895508e+00,2.854313611984252930e+00,2.831316947937011719e+00,2.808687925338745117e+00,2.786417961120605469e+00,2.764498233795166016e+00,2.742920875549316406e+00,2.721677541732788086e+00,2.700760602951049805e+00,2.680162668228149414e+00,2.659876823425292969e+00,2.639895677566528320e+00,2.620212554931640625e+00,2.600820779800415039e+00,8.205006718635559082e-01,8.076871037483215332e-01,7.969359755516052246e-01,7.887825965881347656e-01,7.861074209213256836e-01,7.834503054618835449e-01,7.808111906051635742e-01,7.801377177238464355e-01,7.843633294105529785e-01,7.987347245216369629e-01,6.640616059303283691e-01,6.443286538124084473e-01,6.258883476257324219e-01,6.215308904647827148e-01,6.177115440368652344e-01,6.139388680458068848e-01,6.102119684219360352e-01,6.065594553947448730e-01,6.029628515243530273e-01,5.991382002830505371e-01,5.946604609489440918e-01,5.912579298019409180e-01,5.894446372985839844e-01,5.904267430305480957e-01,5.914361476898193359e-01,5.931400060653686523e-01,2.167670011520385742e+00,2.154381036758422852e+00,2.141254186630249023e+00,2.128286361694335938e+00,2.115474462509155273e+00,2.102816104888916016e+00,2.090308189392089844e+00,2.077948331832885742e+00,2.065733671188354492e+00,2.053661823272705078e+00,2.041730165481567383e+00
3.773881196975708008e+00,3.733784675598144531e+00,3.694530963897705078e+00,3.656094074249267578e+00,3.618448734283447266e+00,3.581570625305175781e+00,3.545436859130859375e+00,3.510024547576904297e+00,3.475312709808349609e+00,3.441280841827392578e+00,3.407908916473388672e+00,3.375178098678588867e+00,3.343070268630981445e+00,3.311567306518554688e+00,3.280652284622192383e+00,3.250309467315673828e+00,3.220522642135620117e+00,3.191277027130126953e+00,3.162557601928710938e+00,3.134350538253784180e+00,3.106642007827758789e+00,3.079419374465942383e+00,3.052669763565063477e+00,3.026380538940429688e+00,3.000540494918823242e+00,2.975137948989868164e+00,2.950161695480346680e+00,2.925601482391357422e+00,2.901446819305419922e+00,2.877687692642211914e+00,2.854314565658569336e+00,2.831318140029907227e+00,2.808689117431640625e+00,2.786419153213500977e+00,2.764499425888061523e+00,2.742921829223632812e+00,2.721678495407104492e+00,2.700761795043945312e+00,2.680164098739624023e+00,2.659878015518188477e+00,2.639897108078002930e+00,2.620213747024536133e+00,2.600821971893310547e+00,8.224768638610839844e-01,8.076452016830444336e-01,7.968950867652893066e-01,7.889184951782226562e-01,7.862424254417419434e-01,7.835844755172729492e-01,7.822335362434387207e-01,7.817131876945495605e-01,7.874991297721862793e-01,8.028012514114379883e-01,8.156887888908386230e-01,6.519032120704650879e-01,6.340058445930480957e-01,6.237767338752746582e-01,6.199297904968261719e-01,6.158768534660339355e-01,6.112570762634277344e-01,6.067060828208923340e-01,6.022087931632995605e-01,5.976853370666503906e-01,5.947377085685729980e-01,5.926737189292907715e-01,5.915037989616394043e-01,5.924928188323974609e-01,5.934851169586181641e-01,5.944808125495910645e-01,2.167670965194702148e+00,2.154381990432739258e+00,2.141255140304565430e+00,2.128287076950073242e+00,2.115475416183471680e+00,2.102816820144653320e+00,2.090308904647827148e+00,2.077949047088623047e+00,2.065734386444091797e+00,2.053662538528442383e+00,2.041730880737304688e+00
3.773883104324340820e+00,3.733786344528198242e+00,3.694532632827758789e+00,3.656095743179321289e+00,3.618450164794921875e+00,3.581572294235229492e+00,3.545438289642333984e+00,3.510026216506958008e+00,3.475314378738403320e+00,3.441282510757446289e+00,3.407910585403442383e+00,3.375179767608642578e+00,3.343071937561035156e+00,3.311568975448608398e+00,3.280654191970825195e+00,3.250311374664306641e+00,3.220524549484252930e+00,3.191278696060180664e+00,3.162559270858764648e+00,3.134352445602416992e+00,3.106643915176391602e+00,3.079421281814575195e+00,3.052671432495117188e+00,3.026382207870483398e+00,3.000542163848876953e+00,2.975139379501342773e+00,2.950163364410400391e+00,2.925603151321411133e+00,2.901448488235473633e+00,2.877689123153686523e+00,2.854315996170043945e+00,2.831319570541381836e+00,2.808690547943115234e+00,2.786420345306396484e+00,2.764500856399536133e+00,2.742923259735107422e+00,2.721679925918579102e+00,2.700762987136840820e+00,2.680165290832519531e+00,2.659879446029663086e+00,2.639898061752319336e+00,2.620214939117431641e+00,2.600822925567626953e+00,8.244626522064208984e-01,8.086950182914733887e-01,7.968542575836181641e-01,7.890544533729553223e-01,7.863774299621582031e-01,7.843405604362487793e-01,7.838174104690551758e-01,7.832950353622436523e-01,7.906602621078491211e-01,8.069094419479370117e-01,8.199303746223449707e-01,6.590707302093505859e-01,6.416152715682983398e-01,6.244109869003295898e-01,6.194053292274475098e-01,6.144791841506958008e-01,6.097636222839355469e-01,6.052348017692565918e-01,6.007409691810607910e-01,5.982586145401000977e-01,5.958405733108520508e-01,5.933462977409362793e-01,5.945574641227722168e-01,5.956423878669738770e-01,5.967312455177307129e-01,5.978240370750427246e-01,2.167671680450439453e+00,2.154382705688476562e+00,2.141255855560302734e+00,2.128288030624389648e+00,2.115476131439208984e+00,2.102817773818969727e+00,2.090309858322143555e+00,2.077949762344360352e+00,2.065735101699829102e+00,2.053663253784179688e+00,2.041731595993041992e+00
3.773885488510131836e+00,3.733788728713989258e+00,3.694535017013549805e+00,3.656098127365112305e+00,3.618452548980712891e+00,3.581574440002441406e+00,3.545440435409545898e+00,3.510028362274169922e+00,3.475316524505615234e+00,3.441284656524658203e+00,3.407912731170654297e+00,3.375181913375854492e+00,3.343073844909667969e+00,3.311570882797241211e+00,3.280656099319458008e+00,3.250313282012939453e+00,3.220526456832885742e+00,3.191280603408813477e+00,3.162561178207397461e+00,3.134354114532470703e+00,3.106645584106445312e+00,3.079422950744628906e+00,3.052672863006591797e+00,3.026383876800537109e+00,3.000543594360351562e+00,2.975141048431396484e+00,2.950164794921875000e+00,2.925604581832885742e+00,2.901449918746948242e+00,2.877690792083740234e+00,2.854317665100097656e+00,2.831321001052856445e+00,2.808691978454589844e+00,2.786421775817871094e+00,2.764502286911010742e+00,2.742924690246582031e+00,2.721681118011474609e+00,2.700764179229736328e+00,2.680166482925415039e+00,2.659880399703979492e+00,2.639899253845214844e+00,2.620216131210327148e+00,2.600824117660522461e+00,8.264580368995666504e-01,8.106147050857543945e-01,7.968133687973022461e-01,7.891904115676879883e-01,7.865124940872192383e-01,7.859330177307128906e-01,7.854077816009521484e-01,7.848832011222839355e-01,7.938468456268310547e-01,8.110599517822265625e-01,8.242161870002746582e-01,6.613942980766296387e-01,6.357805132865905762e-01,6.241414546966552734e-01,6.191399693489074707e-01,6.141575574874877930e-01,6.091519594192504883e-01,6.042272448539733887e-01,6.007697582244873047e-01,5.982341766357421875e-01,5.957198739051818848e-01,5.945492982864379883e-01,5.981063842773437500e-01,5.992042422294616699e-01,6.003061532974243164e-01,2.181126356124877930e+00,2.167672634124755859e+00,2.154383659362792969e+00,2.141256809234619141e+00,2.128288745880126953e+00,2.115476846694946289e+00,2.102818489074707031e+00,2.090310573577880859e+00,2.077950716018676758e+00,2.065735816955566406e+00,2.053663969039916992e+00,2.041732311248779297e+00
3.773888111114501953e+00,3.733791351318359375e+00,3.694537401199340820e+00,3.656100511550903320e+00,3.618454933166503906e+00,3.581576824188232422e+00,3.545442819595336914e+00,3.510030508041381836e+00,3.475318908691406250e+00,3.441286802291870117e+00,3.407914876937866211e+00,3.375184059143066406e+00,3.343075990676879883e+00,3.311572790145874023e+00,3.280658006668090820e+00,3.250314950942993164e+00,3.220528364181518555e+00,3.191282272338867188e+00,3.162562847137451172e+00,3.134355783462524414e+00,3.106647253036499023e+00,3.079424619674682617e+00,3.052674531936645508e+00,3.026385545730590820e+00,3.000545263290405273e+00,2.975142717361450195e+00,2.950166463851928711e+00,2.925606012344360352e+00,2.901451349258422852e+00,2.877692222595214844e+00,2.854319095611572266e+00,2.831322431564331055e+00,2.808693408966064453e+00,2.786422967910766602e+00,2.764503240585327148e+00,2.742925643920898438e+00,2.721682310104370117e+00,2.700765371322631836e+00,2.680167675018310547e+00,2.659881591796875000e+00,2.639900684356689453e+00,2.620217323303222656e+00,2.600825309753417969e+00,8.284630775451660156e-01,8.125435113906860352e-01,7.972242236137390137e-01,7.893264889717102051e-01,7.880600094795227051e-01,7.875319123268127441e-01,7.870045900344848633e-01,7.864779233932495117e-01,7.970591187477111816e-01,8.152533173561096191e-01,8.285470604896545410e-01,6.553789973258972168e-01,6.307633519172668457e-01,6.232441067695617676e-01,6.180899143218994141e-01,6.130202412605285645e-01,6.080330610275268555e-01,6.032031774520874023e-01,6.006470918655395508e-01,5.981125235557556152e-01,5.963601469993591309e-01,5.974239706993103027e-01,6.016978621482849121e-01,6.028090119361877441e-01,6.039242148399353027e-01,2.181127309799194336e+00,2.167673349380493164e+00,2.154384374618530273e+00,2.141257524490356445e+00,2.128289461135864258e+00,2.115477800369262695e+00,2.102819204330444336e+00,2.090311288833618164e+00,2.077951431274414062e+00,2.065736770629882812e+00,2.053664684295654297e+00,2.041733026504516602e+00
3.773890733718872070e+00,3.733793735504150391e+00,3.694539785385131836e+00,3.656102895736694336e+00,3.618457317352294922e+00,3.581578969955444336e+00,3.545444965362548828e+00,3.510032653808593750e+00,3.475321054458618164e+00,3.441288948059082031e+00,3.407916784286499023e+00,3.375185966491699219e+00,3.343077898025512695e+00,3.311574697494506836e+00,3.280659914016723633e+00,3.250316858291625977e+00,3.220530033111572266e+00,3.191284179687500000e+00,3.162564754486083984e+00,3.134357690811157227e+00,3.106648921966552734e+00,3.079426288604736328e+00,3.052676200866699219e+00,3.026387214660644531e+00,3.000546932220458984e+00,2.975144147872924805e+00,2.950167894363403320e+00,2.925607681274414062e+00,2.901453018188476562e+00,2.877693414688110352e+00,2.854320287704467773e+00,2.831323623657226562e+00,2.808694601058959961e+00,2.786424398422241211e+00,2.764504671096801758e+00,2.742927074432373047e+00,2.721683740615844727e+00,2.700766801834106445e+00,2.680169105529785156e+00,2.659883022308349609e+00,2.639901876449584961e+00,2.620218515396118164e+00,2.600826740264892578e+00,8.304779529571533203e-01,8.144815564155578613e-01,7.990898489952087402e-01,7.901985049247741699e-01,7.896676659584045410e-01,7.891374230384826660e-01,7.886078953742980957e-01,7.880790829658508301e-01,8.002976179122924805e-01,8.194339871406555176e-01,2.405033826828002930e+00,6.520619392395019531e-01,6.287877559661865234e-01,6.220729351043701172e-01,6.169379949569702148e-01,6.118870973587036133e-01,6.069182753562927246e-01,6.030795574188232422e-01,6.005244851112365723e-01,5.981820225715637207e-01,5.979021787643432617e-01,6.012125015258789062e-01,6.053327918052673340e-01,6.064574122428894043e-01,2.194749832153320312e+00,2.181128025054931641e+00,2.167674303054809570e+00,2.154385328292846680e+00,2.141258239746093750e+00,2.128290414810180664e+00,2.115478515625000000e+00,2.102820158004760742e+00,2.090312242507934570e+00,2.077952146530151367e+00,2.065737485885620117e+00,2.053665637969970703e+00,2.041733741760253906e+00
3.773893117904663086e+00,3.733796358108520508e+00,3.694542407989501953e+00,3.656105279922485352e+00,3.618459701538085938e+00,3.581581354141235352e+00,3.545447349548339844e+00,3.510035037994384766e+00,3.475323200225830078e+00,3.441291093826293945e+00,3.407918930053710938e+00,3.375188112258911133e+00,3.343079805374145508e+00,3.311576604843139648e+00,3.280661821365356445e+00,3.250318765640258789e+00,3.220531940460205078e+00,3.191286087036132812e+00,3.162566423416137695e+00,3.134359359741210938e+00,3.106650829315185547e+00,3.079427957534790039e+00,3.052677869796752930e+00,3.026388883590698242e+00,3.000548601150512695e+00,2.975145816802978516e+00,2.950169324874877930e+00,2.925608873367309570e+00,2.901454210281372070e+00,2.877694845199584961e+00,2.854321718215942383e+00,2.831325054168701172e+00,2.808696031570434570e+00,2.786425828933715820e+00,2.764506101608276367e+00,2.742928504943847656e+00,2.721684932708740234e+00,2.700767993927001953e+00,2.680170297622680664e+00,2.659884214401245117e+00,2.639903068542480469e+00,2.620219707489013672e+00,2.600827932357788086e+00,8.317885398864746094e-01,8.150662183761596680e-01,7.990030050277709961e-01,7.915493249893188477e-01,7.911556363105773926e-01,7.907494902610778809e-01,7.902177572250366211e-01,7.896867394447326660e-01,8.035624623298645020e-01,8.228571414947509766e-01,6.744211912155151367e-01,6.490868926048278809e-01,6.280880570411682129e-01,6.209061145782470703e-01,6.157903671264648438e-01,6.107581257820129395e-01,6.058075428009033203e-01,6.029559373855590820e-01,6.004019379615783691e-01,5.997334718704223633e-01,5.994521975517272949e-01,6.050493717193603516e-01,6.090118885040283203e-01,6.101502180099487305e-01,2.194750785827636719e+00,2.181128978729248047e+00,2.167675018310546875e+00,2.154386043548583984e+00,2.141259193420410156e+00,2.128291130065917969e+00,2.115479230880737305e+00,2.102820873260498047e+00,2.090312957763671875e+00,2.077952861785888672e+00,2.065738201141357422e+00,2.053666353225708008e+00,2.041734695434570312e+00
3.773895740509033203e+00,3.733798742294311523e+00,3.694544792175292969e+00,3.656107664108276367e+00,3.618462085723876953e+00,3.581583738327026367e+00,3.545449495315551758e+00,3.510037183761596680e+00,3.475325345993041992e+00,3.441293239593505859e+00,3.407921075820922852e+00,3.375190019607543945e+00,3.343081951141357422e+00,3.311578750610351562e+00,3.280663728713989258e+00,3.250320672988891602e+00,3.220533847808837891e+00,3.191287755966186523e+00,3.162568330764770508e+00,3.134361028671264648e+00,3.106652498245239258e+00,3.079429626464843750e+00,3.052679538726806641e+00,3.026390075683593750e+00,3.000549793243408203e+00,2.975147008895874023e+00,2.950170755386352539e+00,2.925610542297363281e+00,2.901455640792846680e+00,2.877696275711059570e+00,2.854323148727416992e+00,2.831326484680175781e+00,2.808697462081909180e+00,2.786427259445190430e+00,2.764507532119750977e+00,2.742929697036743164e+00,2.721686363220214844e+00,2.700769424438476562e+00,2.680171489715576172e+00,2.659885406494140625e+00,2.639904260635375977e+00,2.620221138000488281e+00,8.470919132232666016e-01,8.306771516799926758e-01,8.143817186355590820e-01,7.982410788536071777e-01,7.928050160408020020e-01,7.924099564552307129e-01,7.920310497283935547e-01,7.917069196701049805e-01,7.913830280303955078e-01,8.068540096282958984e-01,8.263090848922729492e-01,6.712390780448913574e-01,6.415795087814331055e-01,6.273898482322692871e-01,6.197437047958374023e-01,6.146469116210937500e-01,6.096333265304565430e-01,6.054072380065917969e-01,6.028323769569396973e-01,6.015760898590087891e-01,6.012930274009704590e-01,6.018629074096679688e-01,6.089355349540710449e-01,6.127359867095947266e-01,6.138882637023925781e-01,2.194751501083374023e+00,2.181129693984985352e+00,2.167675971984863281e+00,2.154386997222900391e+00,2.141259908676147461e+00,2.128292083740234375e+00,2.115480184555053711e+00,2.102821588516235352e+00,2.090313673019409180e+00,2.077953577041625977e+00,2.065738916397094727e+00,2.053667068481445312e+00,2.041735410690307617e+00
3.773898363113403320e+00,3.733801364898681641e+00,3.694547176361083984e+00,3.656110048294067383e+00,3.618464231491088867e+00,3.581585884094238281e+00,3.545451879501342773e+00,3.510039329528808594e+00,3.475327491760253906e+00,3.441295146942138672e+00,3.407923221588134766e+00,3.375192165374755859e+00,3.343083858489990234e+00,3.311580657958984375e+00,3.280665636062622070e+00,3.250322580337524414e+00,3.220535755157470703e+00,3.191289663314819336e+00,3.162569999694824219e+00,3.134362697601318359e+00,3.106653928756713867e+00,3.079431056976318359e+00,3.052680969238281250e+00,3.026391744613647461e+00,3.000551462173461914e+00,2.975148677825927734e+00,2.950172424316406250e+00,2.925611972808837891e+00,2.901457071304321289e+00,2.877697944641113281e+00,2.854324579238891602e+00,2.831327915191650391e+00,2.808698892593383789e+00,2.786428451538085938e+00,2.764508724212646484e+00,2.742931127548217773e+00,2.721687555313110352e+00,2.700770616531372070e+00,2.680172920227050781e+00,2.659886837005615234e+00,2.639905452728271484e+00,8.534307479858398438e-01,8.386420011520385742e-01,8.239886164665222168e-01,8.084434270858764648e-01,7.983512878417968750e-01,7.963427305221557617e-01,7.948505878448486328e-01,7.945241928100585938e-01,7.941980957984924316e-01,7.965975403785705566e-01,8.141276240348815918e-01,8.312644362449645996e-01,6.680868864059448242e-01,6.357426643371582031e-01,6.266931891441345215e-01,6.185855865478515625e-01,6.135078072547912598e-01,6.085126996040344238e-01,6.052826046943664551e-01,6.034300327301025391e-01,6.031452417373657227e-01,6.028607487678527832e-01,6.057081818580627441e-01,6.128718852996826172e-01,6.165058612823486328e-01,2.208545684814453125e+00,2.194752454757690430e+00,2.181130647659301758e+00,2.167676687240600586e+00,2.154387712478637695e+00,2.141260862350463867e+00,2.128292798995971680e+00,2.115480899810791016e+00,2.102822303771972656e+00,2.090314388275146484e+00,2.077954530715942383e+00,2.065739631652832031e+00,2.053667783737182617e+00,2.041736125946044922e+00
3.773900747299194336e+00,3.733803749084472656e+00,3.694549560546875000e+00,3.656112432479858398e+00,3.618466615676879883e+00,3.581588268280029297e+00,3.545454025268554688e+00,3.510041475296020508e+00,3.475329637527465820e+00,3.441297292709350586e+00,3.407925128936767578e+00,3.375194072723388672e+00,3.343086004257202148e+00,3.311582565307617188e+00,3.280667781829833984e+00,3.250324487686157227e+00,3.220537185668945312e+00,3.191291093826293945e+00,3.162571430206298828e+00,3.134364366531372070e+00,3.106655597686767578e+00,3.079432725906372070e+00,3.052682638168334961e+00,3.026393413543701172e+00,3.000553131103515625e+00,2.975150346755981445e+00,2.950173854827880859e+00,2.925613403320312500e+00,2.901458740234375000e+00,2.877699375152587891e+00,2.854326009750366211e+00,2.831329345703125000e+00,2.808700323104858398e+00,2.786429882049560547e+00,2.764510154724121094e+00,2.742932319641113281e+00,2.721688985824584961e+00,2.700772047042846680e+00,2.680174112319946289e+00,8.705689311027526855e-01,8.579952716827392578e-01,8.434167504310607910e-01,8.289701342582702637e-01,8.150100111961364746e-01,8.062446713447570801e-01,8.034370541572570801e-01,8.015882968902587891e-01,7.995634078979492188e-01,7.975487709045410156e-01,7.967048287391662598e-01,8.043882846832275391e-01,8.229464292526245117e-01,8.404605388641357422e-01,6.642518639564514160e-01,6.350274085998535156e-01,6.259980797767639160e-01,6.174318194389343262e-01,6.123728752136230469e-01,6.077528595924377441e-01,6.052954792976379395e-01,6.050089001655578613e-01,6.047226190567016602e-01,6.044365763664245605e-01,6.096028089523315430e-01,6.168594956398010254e-01,6.203224658966064453e-01,2.208546638488769531e+00,2.194753408432006836e+00,2.181131601333618164e+00,2.167677640914916992e+00,2.154388666152954102e+00,2.141261577606201172e+00,2.128293514251708984e+00,2.115481615066528320e+00,2.102823257446289062e+00,2.090315341949462891e+00,2.077955245971679688e+00,2.065740585327148438e+00,2.053668498992919922e+00,2.041736841201782227e+00
3.773903369903564453e+00,3.733806133270263672e+00,3.694551944732666016e+00,3.656114816665649414e+00,3.618468999862670898e+00,3.581590652465820312e+00,3.545456171035766602e+00,3.510043621063232422e+00,3.475331783294677734e+00,3.441299438476562500e+00,3.407927274703979492e+00,3.375196218490600586e+00,3.343087434768676758e+00,3.311584234237670898e+00,3.280669212341308594e+00,3.250326156616210938e+00,3.220539093017578125e+00,3.191293001174926758e+00,3.162573337554931641e+00,3.134366035461425781e+00,3.106657266616821289e+00,3.079434394836425781e+00,3.052684307098388672e+00,3.026395082473754883e+00,3.000554561614990234e+00,2.975151777267456055e+00,2.950175523757934570e+00,2.925615072250366211e+00,2.901460170745849609e+00,2.877700805664062500e+00,2.854327440261840820e+00,2.831330776214599609e+00,2.808701753616333008e+00,2.786431312561035156e+00,2.764511585235595703e+00,2.742933750152587891e+00,2.721690177917480469e+00,2.700773239135742188e+00,8.749216794967651367e-01,8.622227907180786133e-01,8.482462763786315918e-01,8.336351513862609863e-01,8.216615319252014160e-01,8.174674510955810547e-01,8.133160471916198730e-01,8.092065453529357910e-01,8.055752515792846680e-01,8.037841916084289551e-01,8.020010590553283691e-01,8.002258539199829102e-01,8.123328089714050293e-01,8.316659331321716309e-01,2.421611785888671875e+00,6.527730822563171387e-01,6.343137025833129883e-01,6.253045797348022461e-01,6.165477633476257324e-01,6.112421154975891113e-01,6.076273322105407715e-01,6.068841218948364258e-01,6.065960526466369629e-01,6.063082814216613770e-01,6.063683629035949707e-01,6.135478615760803223e-01,6.208993196487426758e-01,2.222515106201171875e+00,2.208547353744506836e+00,2.194754123687744141e+00,2.181132316589355469e+00,2.167678356170654297e+00,2.154389381408691406e+00,2.141262531280517578e+00,2.128294467926025391e+00,2.115482568740844727e+00,2.102823972702026367e+00,2.090316057205200195e+00,2.077955961227416992e+00,2.065741062164306641e+00,2.053669214248657227e+00,2.041737556457519531e+00
3.773905992507934570e+00,3.733808755874633789e+00,3.694554567337036133e+00,3.656117200851440430e+00,3.618471384048461914e+00,3.581592798233032227e+00,3.545458555221557617e+00,3.510046005249023438e+00,3.475333929061889648e+00,3.441301345825195312e+00,3.407928943634033203e+00,3.375197887420654297e+00,3.343089580535888672e+00,3.311586141586303711e+00,3.280671119689941406e+00,3.250328063964843750e+00,3.220541000366210938e+00,3.191294908523559570e+00,3.162575006484985352e+00,3.134367942810058594e+00,3.106659173965454102e+00,3.079436063766479492e+00,3.052685976028442383e+00,3.026396751403808594e+00,3.000556230545043945e+00,2.975153446197509766e+00,2.950176954269409180e+00,2.925616502761840820e+00,2.901461601257324219e+00,2.877702236175537109e+00,2.854328870773315430e+00,2.831332206726074219e+00,2.808702945709228516e+00,2.786432743072509766e+00,2.764512777328491211e+00,2.742935180664062500e+00,2.721691608428955078e+00,8.793181180953979492e-01,8.664922714233398438e-01,8.531314730644226074e-01,8.383529186248779297e-01,8.333206176757812500e-01,8.290070891380310059e-01,8.247379064559936523e-01,8.205125331878662109e-01,8.163300752639770508e-01,8.121901750564575195e-01,8.080920577049255371e-01,8.059242963790893555e-01,8.162732720375061035e-01,8.294913172721862793e-01,8.443524837493896484e-01,6.849191784858703613e-01,6.428532004356384277e-01,6.336016058921813965e-01,6.246125698089599609e-01,6.158750057220458984e-01,6.101167798042297363e-01,6.087709665298461914e-01,6.084811091423034668e-01,6.081914901733398438e-01,6.079021692276000977e-01,6.102715134620666504e-01,6.175442934036254883e-01,6.249924302101135254e-01,2.222516059875488281e+00,2.208548307418823242e+00,2.194755077362060547e+00,2.181133270263671875e+00,2.167679309844970703e+00,2.154390335083007812e+00,2.141263246536254883e+00,2.128295183181762695e+00,2.115483283996582031e+00,2.102824687957763672e+00,2.090316772460937500e+00,2.077956676483154297e+00,2.065741777420043945e+00,2.053669929504394531e+00,2.041738271713256836e+00
3.773908376693725586e+00,3.733811140060424805e+00,3.694556951522827148e+00,3.656119585037231445e+00,3.618473768234252930e+00,3.581594705581665039e+00,3.545460462570190430e+00,3.510047674179077148e+00,3.475335597991943359e+00,3.441303253173828125e+00,3.407931089401245117e+00,3.375199794769287109e+00,3.343091487884521484e+00,3.311588048934936523e+00,3.280673027038574219e+00,3.250329971313476562e+00,3.220542669296264648e+00,3.191296577453613281e+00,3.162576913833618164e+00,3.134369611740112305e+00,3.106660842895507812e+00,3.079437971115112305e+00,3.052687644958496094e+00,3.026398420333862305e+00,3.000557899475097656e+00,2.975155115127563477e+00,2.950178623199462891e+00,2.925618171691894531e+00,2.901463270187377930e+00,2.877703666687011719e+00,2.854330539703369141e+00,2.831333637237548828e+00,2.808704376220703125e+00,2.786434173583984375e+00,2.764514207839965820e+00,2.742936372756958008e+00,8.886827826499938965e-01,8.720098733901977539e-01,8.580731749534606934e-01,8.498009443283081055e-01,8.453154563903808594e-01,8.408771753311157227e-01,8.363941311836242676e-01,8.316690325736999512e-01,8.269970417022705078e-01,8.223772048950195312e-01,8.178088665008544922e-01,8.168589472770690918e-01,8.238801956176757812e-01,8.338584303855895996e-01,8.474702835083007812e-01,2.438416719436645508e+00,6.762579679489135742e-01,6.421218514442443848e-01,6.328911185264587402e-01,6.239221096038818359e-01,6.152036786079406738e-01,6.106696128845214844e-01,6.103779077529907227e-01,6.100865006446838379e-01,6.097874045372009277e-01,6.094678640365600586e-01,6.135247349739074707e-01,6.209338903427124023e-01,6.285241246223449707e-01,2.222516775131225586e+00,2.208549261093139648e+00,2.194756031036376953e+00,2.181133985519409180e+00,2.167680025100708008e+00,2.154391050338745117e+00,2.141263961791992188e+00,2.128295898437500000e+00,2.115483999252319336e+00,2.102825403213500977e+00,2.090317487716674805e+00,2.077957391738891602e+00,2.065742731094360352e+00,2.053670644760131836e+00,2.041738986968994141e+00
3.773910999298095703e+00,3.733813762664794922e+00,3.694558858871459961e+00,3.656121492385864258e+00,3.618475675582885742e+00,3.581597089767456055e+00,3.545462608337402344e+00,3.510050058364868164e+00,3.475337982177734375e+00,3.441305398941040039e+00,3.407933235168457031e+00,3.375201940536499023e+00,3.343093633651733398e+00,3.311590194702148438e+00,3.280674934387207031e+00,3.250331640243530273e+00,3.220544576644897461e+00,3.191298484802246094e+00,3.162578582763671875e+00,3.134371280670166016e+00,3.106662511825561523e+00,3.079439640045166016e+00,3.052689313888549805e+00,3.026400089263916016e+00,3.000559568405151367e+00,2.975156545639038086e+00,2.950180053710937500e+00,2.925619602203369141e+00,2.901464700698852539e+00,2.877705335617065430e+00,2.854331970214843750e+00,2.831335067749023438e+00,2.808705806732177734e+00,2.786435604095458984e+00,2.764515638351440430e+00,8.997771739959716797e-01,8.826695680618286133e-01,8.662194013595581055e-01,8.592654466629028320e-01,8.547713160514831543e-01,8.498369455337524414e-01,8.449591994285583496e-01,8.401371240615844727e-01,8.353698253631591797e-01,8.317043185234069824e-01,8.318938612937927246e-01,8.320835232734680176e-01,8.390433192253112793e-01,8.475713729858398438e-01,8.562745451927185059e-01,2.455455541610717773e+00,2.438417911529541016e+00,6.740087270736694336e-01,6.435278058052062988e-01,6.340484023094177246e-01,6.248442530632019043e-01,6.159034967422485352e-01,6.121351718902587891e-01,6.118131875991821289e-01,6.114915013313293457e-01,6.111701726913452148e-01,6.108552813529968262e-01,6.140160560607910156e-01,6.214370727539062500e-01,6.290398240089416504e-01,2.222517728805541992e+00,2.208549976348876953e+00,2.194756746292114258e+00,2.181134700775146484e+00,2.167680740356445312e+00,2.154391765594482422e+00,2.141264677047729492e+00,2.128296613693237305e+00,2.115484714508056641e+00,2.102826356887817383e+00,2.090318202972412109e+00,2.077958106994628906e+00,2.065743446350097656e+00,2.053671360015869141e+00,2.041739702224731445e+00
3.773913145065307617e+00,3.733815908432006836e+00,3.694561481475830078e+00,3.656123876571655273e+00,3.618478059768676758e+00,3.581599235534667969e+00,3.545464992523193359e+00,3.510052204132080078e+00,3.475340127944946289e+00,3.441307544708251953e+00,3.407935142517089844e+00,3.375203847885131836e+00,3.343095541000366211e+00,3.311592102050781250e+00,3.280677080154418945e+00,3.250333547592163086e+00,3.220546483993530273e+00,3.191300392150878906e+00,3.162580490112304688e+00,3.134373188018798828e+00,3.106664180755615234e+00,3.079441308975219727e+00,3.052690982818603516e+00,3.026401519775390625e+00,3.000560998916625977e+00,2.975158214569091797e+00,2.950181722640991211e+00,2.925621271133422852e+00,2.901466131210327148e+00,2.877706766128540039e+00,2.854333400726318359e+00,2.831336498260498047e+00,2.808707237243652344e+00,2.786436796188354492e+00,2.764517068862915039e+00,8.935971856117248535e-01,8.767370581626892090e-01,8.657156825065612793e-01,8.617155551910400391e-01,8.577522635459899902e-01,8.537014722824096680e-01,8.487793803215026855e-01,8.472959995269775391e-01,8.474926948547363281e-01,8.476895689964294434e-01,8.478865623474121094e-01,8.547750711441040039e-01,8.636275529861450195e-01,2.490256547927856445e+00,2.472734212875366211e+00,2.455456733703613281e+00,2.438418865203857422e+00,6.759500503540039062e-01,6.449021697044372559e-01,6.356971859931945801e-01,6.264454126358032227e-01,6.174591183662414551e-01,6.135285496711730957e-01,6.132051348686218262e-01,6.128819584846496582e-01,6.125591993331909180e-01,6.123138666152954102e-01,6.145081520080566406e-01,6.219411492347717285e-01,6.295562982559204102e-01,2.222518444061279297e+00,2.208550691604614258e+00,2.194757461547851562e+00,2.181135654449462891e+00,2.167681694030761719e+00,2.154392719268798828e+00,2.141265630722045898e+00,2.128297567367553711e+00,2.115485668182373047e+00,2.102827072143554688e+00,2.090319156646728516e+00,2.077959060668945312e+00,2.065744161605834961e+00,2.053672313690185547e+00,2.041740417480468750e+00
3.773915767669677734e+00,3.733818292617797852e+00,3.694563865661621094e+00,3.656126260757446289e+00,3.618480443954467773e+00,3.581601619720458984e+00,3.545467138290405273e+00,3.510054349899291992e+00,3.475342273712158203e+00,3.441309690475463867e+00,3.407937288284301758e+00,3.375205993652343750e+00,3.343097448348999023e+00,3.311594009399414062e+00,3.280678987503051758e+00,3.250335454940795898e+00,3.220548391342163086e+00,3.191302061080932617e+00,3.162582159042358398e+00,3.134374856948852539e+00,3.106666088104248047e+00,3.079442977905273438e+00,3.052692651748657227e+00,3.026403188705444336e+00,3.000562667846679688e+00,2.975159883499145508e+00,2.950183391571044922e+00,2.925622701644897461e+00,2.901467800140380859e+00,2.877708196640014648e+00,2.854334831237792969e+00,2.831337928771972656e+00,2.808708667755126953e+00,2.786438226699829102e+00,9.048212170600891113e-01,8.875133395195007324e-01,8.722632527351379395e-01,8.682025671005249023e-01,8.641795516014099121e-01,8.601936101913452148e-01,8.574194908142089844e-01,8.631697297096252441e-01,8.638921380043029785e-01,8.640967607498168945e-01,8.643013238906860352e-01,8.711079955101013184e-01,2.526058197021484375e+00,2.508030176162719727e+00,2.490257740020751953e+00,2.472735404968261719e+00,2.455457687377929688e+00,2.438420057296752930e+00,6.779024600982666016e-01,6.461638808250427246e-01,6.373545527458190918e-01,6.280548572540283203e-01,6.190226078033447266e-01,6.149283647537231445e-01,6.146034598350524902e-01,6.142787933349609375e-01,6.139545440673828125e-01,6.137793660163879395e-01,6.155029535293579102e-01,6.224461197853088379e-01,6.300736069679260254e-01,2.222519397735595703e+00,2.208551645278930664e+00,2.194758415222167969e+00,2.181136369705200195e+00,2.167682409286499023e+00,2.154393434524536133e+00,2.141266345977783203e+00,2.128298282623291016e+00,2.115486383438110352e+00,2.102827787399291992e+00,2.090319871902465820e+00,2.077959775924682617e+00,2.065744876861572266e+00,2.053673028945922852e+00,2.041741132736206055e+00
3.773918151855468750e+00,3.733820676803588867e+00,3.694566249847412109e+00,3.656128644943237305e+00,3.618482589721679688e+00,3.581604003906250000e+00,3.545469284057617188e+00,3.510056495666503906e+00,3.475344419479370117e+00,3.441311836242675781e+00,3.407939434051513672e+00,3.375208139419555664e+00,3.343099594116210938e+00,3.311595916748046875e+00,3.280680894851684570e+00,3.250337362289428711e+00,3.220550298690795898e+00,3.191303968429565430e+00,3.162584066390991211e+00,3.134376525878906250e+00,3.106667757034301758e+00,3.079444646835327148e+00,3.052694320678710938e+00,3.026404857635498047e+00,3.000564336776733398e+00,2.975161314010620117e+00,2.950184822082519531e+00,2.925624132156372070e+00,2.901469230651855469e+00,2.877709627151489258e+00,2.854336261749267578e+00,2.831339359283447266e+00,2.808710098266601562e+00,9.163305759429931641e-01,8.985719680786132812e-01,8.815158009529113770e-01,8.747881054878234863e-01,8.707039356231689453e-01,8.667330741882324219e-01,8.632201552391052246e-01,8.687396049499511719e-01,8.743640184402465820e-01,8.800618052482604980e-01,8.813643455505371094e-01,2.562904357910156250e+00,2.544348478317260742e+00,2.526059389114379883e+00,2.508031368255615234e+00,2.490258693695068359e+00,2.472736358642578125e+00,2.455458879470825195e+00,2.438421010971069336e+00,6.798662543296813965e-01,6.474305391311645508e-01,6.390206217765808105e-01,6.296725273132324219e-01,6.205940842628479004e-01,6.163345575332641602e-01,6.160081624984741211e-01,6.156820654869079590e-01,6.153751611709594727e-01,6.152519583702087402e-01,6.167613863945007324e-01,6.229518651962280273e-01,6.305918693542480469e-01,2.222520112991333008e+00,2.208552598953247070e+00,2.194759130477905273e+00,2.181137323379516602e+00,2.167683362960815430e+00,2.154394388198852539e+00,2.141267299652099609e+00,2.128299236297607422e+00,2.115487098693847656e+00,2.102828502655029297e+00,2.090320587158203125e+00,2.077960491180419922e+00,2.065745592117309570e+00,2.053673744201660156e+00,2.041741847991943359e+00
3.773920774459838867e+00,3.733823299407958984e+00,3.694568634033203125e+00,3.656131029129028320e+00,3.618484973907470703e+00,3.581606149673461914e+00,3.545471668243408203e+00,3.510058879852294922e+00,3.475346565246582031e+00,3.441313982009887695e+00,3.407941579818725586e+00,3.375210046768188477e+00,3.343101501464843750e+00,3.311597824096679688e+00,3.280682802200317383e+00,3.250339269638061523e+00,3.220551967620849609e+00,3.191305875778198242e+00,3.162585735321044922e+00,3.134378433227539062e+00,3.106669425964355469e+00,3.079446315765380859e+00,3.052695989608764648e+00,3.026406526565551758e+00,3.000566005706787109e+00,2.975162982940673828e+00,2.950186491012573242e+00,2.925625801086425781e+00,2.901470661163330078e+00,2.877711057662963867e+00,2.854337692260742188e+00,2.831340789794921875e+00,9.281365871429443359e-01,9.099219441413879395e-01,8.924105167388916016e-01,8.814741969108581543e-01,8.773275017738342285e-01,8.735892772674560547e-01,8.700206279754638672e-01,8.736511468887329102e-01,8.800798058509826660e-01,8.858525156974792480e-01,8.917014002799987793e-01,2.581733942031860352e+00,2.562905311584472656e+00,2.544349670410156250e+00,2.526060581207275391e+00,2.508032560348510742e+00,2.490259885787963867e+00,2.472737550735473633e+00,2.455459833145141602e+00,2.438422203063964844e+00,6.818414330482482910e-01,6.487022042274475098e-01,6.405163407325744629e-01,6.312986016273498535e-01,6.221734881401062012e-01,6.177471876144409180e-01,6.174192428588867188e-01,6.170917153358459473e-01,6.168554425239562988e-01,6.167316436767578125e-01,6.180250048637390137e-01,6.234583854675292969e-01,6.311108469963073730e-01,2.222521066665649414e+00,2.208553314208984375e+00,2.194760084152221680e+00,2.181138038635253906e+00,2.167684078216552734e+00,2.154395103454589844e+00,2.141268014907836914e+00,2.128299951553344727e+00,2.115488052368164062e+00,2.102829456329345703e+00,2.090321302413940430e+00,2.077961206436157227e+00,2.065746545791625977e+00,2.053674459457397461e+00,2.041742563247680664e+00
3.773923397064208984e+00,3.733825683593750000e+00,3.694571256637573242e+00,3.656133413314819336e+00,3.618487358093261719e+00,3.581608533859252930e+00,3.545473814010620117e+00,3.510061025619506836e+00,3.475348711013793945e+00,3.441316127777099609e+00,3.407943487167358398e+00,3.375212192535400391e+00,3.343103647232055664e+00,3.311599969863891602e+00,3.280684709548950195e+00,3.250341176986694336e+00,3.220553874969482422e+00,3.191307544708251953e+00,3.162587642669677734e+00,3.134380102157592773e+00,3.106671094894409180e+00,3.079447984695434570e+00,3.052697658538818359e+00,3.026408195495605469e+00,3.000567436218261719e+00,2.975164651870727539e+00,2.950187921524047852e+00,2.925627231597900391e+00,2.901472330093383789e+00,2.877712726593017578e+00,2.854339122772216797e+00,2.831342220306396484e+00,9.216301441192626953e-01,9.036023616790771484e-01,8.882633447647094727e-01,8.842104673385620117e-01,8.805548548698425293e-01,8.769291639328002930e-01,8.784164190292358398e-01,8.856122493743896484e-01,8.917198777198791504e-01,8.976469039916992188e-01,2.600842237472534180e+00,2.581735134124755859e+00,2.562906503677368164e+00,2.544350862503051758e+00,2.526061534881591797e+00,2.508033514022827148e+00,2.490261077880859375e+00,2.472738504409790039e+00,2.455460786819458008e+00,2.438422918319702148e+00,6.838281154632568359e-01,6.499788165092468262e-01,6.417609453201293945e-01,6.329330801963806152e-01,6.237610578536987305e-01,6.191663742065429688e-01,6.188368797302246094e-01,6.185078024864196777e-01,6.183428764343261719e-01,6.182184219360351562e-01,6.192938089370727539e-01,6.239657402038574219e-01,6.316307783126831055e-01,2.222522020339965820e+00,2.208554267883300781e+00,2.194761037826538086e+00,2.181138992309570312e+00,2.167685031890869141e+00,2.154395818710327148e+00,2.141268968582153320e+00,2.128300666809082031e+00,2.115488767623901367e+00,2.102830171585083008e+00,2.090322256088256836e+00,2.077962160110473633e+00,2.065747261047363281e+00,2.053675174713134766e+00,2.041743516921997070e+00
3.773925781250000000e+00,3.733828306198120117e+00,3.694573640823364258e+00,3.656135797500610352e+00,3.618489742279052734e+00,3.581610918045043945e+00,3.545476198196411133e+00,3.510063171386718750e+00,3.475350856781005859e+00,3.441318273544311523e+00,3.407945632934570312e+00,3.375214099884033203e+00,3.343105554580688477e+00,3.311601877212524414e+00,3.280686616897583008e+00,3.250343084335327148e+00,3.220555782318115234e+00,3.191309452056884766e+00,3.162589311599731445e+00,3.134382009506225586e+00,3.106673002243041992e+00,3.079449653625488281e+00,3.052699327468872070e+00,3.026409864425659180e+00,3.000569105148315430e+00,2.975166082382202148e+00,2.950189590454101562e+00,2.925628900527954102e+00,2.901473760604858398e+00,2.877714157104492188e+00,2.854340553283691406e+00,9.341843724250793457e-01,9.154452085494995117e-01,8.974429965019226074e-01,8.913471102714538574e-01,8.876322507858276367e-01,8.839481472969055176e-01,8.832338452339172363e-01,8.905092477798461914e-01,8.976656198501586914e-01,9.036721587181091309e-01,2.620235681533813477e+00,2.600843667984008789e+00,2.581736326217651367e+00,2.562907695770263672e+00,2.544351816177368164e+00,2.526062488555908203e+00,2.508034467697143555e+00,2.490262031555175781e+00,2.472739458084106445e+00,2.455461978912353516e+00,2.438424110412597656e+00,6.858264803886413574e-01,6.512604951858520508e-01,6.430103778839111328e-01,6.345760226249694824e-01,6.253566741943359375e-01,6.205920577049255371e-01,6.202610731124877930e-01,6.199625134468078613e-01,6.198374629020690918e-01,6.197124719619750977e-01,6.205678582191467285e-01,6.248015761375427246e-01,6.321516036987304688e-01,2.222522735595703125e+00,2.208554744720458984e+00,2.194761514663696289e+00,2.181139469146728516e+00,2.167685508728027344e+00,2.154396295547485352e+00,2.141269207000732422e+00,2.128301143646240234e+00,2.115489244461059570e+00,2.102830648422241211e+00,2.090322494506835938e+00,2.077962398529052734e+00,2.065747499465942383e+00,2.053675413131713867e+00,2.041743755340576172e+00
3.773928403854370117e+00,3.733830690383911133e+00,3.694576025009155273e+00,3.656138181686401367e+00,3.618492126464843750e+00,3.581613063812255859e+00,3.545478343963623047e+00,3.510065317153930664e+00,3.475353002548217773e+00,3.441320180892944336e+00,3.407947778701782227e+00,3.375216245651245117e+00,3.343107461929321289e+00,3.311603784561157227e+00,3.280688524246215820e+00,3.250344991683959961e+00,3.220557689666748047e+00,3.191311120986938477e+00,3.162591218948364258e+00,3.134383678436279297e+00,3.106674671173095703e+00,3.079451322555541992e+00,3.052700996398925781e+00,3.026411533355712891e+00,3.000570774078369141e+00,2.975167751312255859e+00,2.950191020965576172e+00,2.925630331039428711e+00,2.901475191116333008e+00,2.877715587615966797e+00,9.494577646255493164e-01,9.278303384780883789e-01,9.093427062034606934e-01,8.997187018394470215e-01,8.950601220130920410e-01,8.910804986953735352e-01,8.881044983863830566e-01,8.954607248306274414e-01,9.029397368431091309e-01,9.097787737846374512e-01,2.639920234680175781e+00,2.620236873626708984e+00,2.600844383239746094e+00,2.581737279891967773e+00,2.562908649444580078e+00,2.544352769851684570e+00,2.526063442230224609e+00,2.508035421371459961e+00,2.490262746810913086e+00,2.472740173339843750e+00,2.455462694168090820e+00,2.438424825668334961e+00,6.878364682197570801e-01,6.525472402572631836e-01,6.442646384239196777e-01,6.361897587776184082e-01,6.269605159759521484e-01,6.220242381095886230e-01,6.216917634010314941e-01,6.214649677276611328e-01,6.213393211364746094e-01,6.212136745452880859e-01,6.218471527099609375e-01,6.260983943939208984e-01,6.326732039451599121e-01,2.222522974014282227e+00,2.208555221557617188e+00,2.194761753082275391e+00,2.181139945983886719e+00,2.167685747146606445e+00,2.154396772384643555e+00,2.141269683837890625e+00,2.128301382064819336e+00,2.115489482879638672e+00,2.102830886840820312e+00,2.090322732925415039e+00,2.077962636947631836e+00,2.065747737884521484e+00,2.053675651550292969e+00,2.041743993759155273e+00
3.773931026458740234e+00,3.733833312988281250e+00,3.694578409194946289e+00,3.656140565872192383e+00,3.618494272232055664e+00,3.581615447998046875e+00,3.545480728149414062e+00,3.510067701339721680e+00,3.475355148315429688e+00,3.441322326660156250e+00,3.407949686050415039e+00,3.375218152999877930e+00,3.343109607696533203e+00,3.311605691909790039e+00,3.280690431594848633e+00,3.250346899032592773e+00,3.220559358596801758e+00,3.191313028335571289e+00,3.162592887878417969e+00,3.134385347366333008e+00,3.106676101684570312e+00,3.079452753067016602e+00,3.052702426910400391e+00,3.026412725448608398e+00,3.000571727752685547e+00,2.975168704986572266e+00,2.950192213058471680e+00,2.925631284713745117e+00,2.901476144790649414e+00,9.654780626296997070e-01,9.407150149345397949e-01,9.215621352195739746e-01,9.089127182960510254e-01,9.041585922241210938e-01,8.994540572166442871e-01,8.947981595993041992e-01,9.004674553871154785e-01,9.080308079719543457e-01,9.157221913337707520e-01,9.222233891487121582e-01,2.639920711517333984e+00,2.620237112045288086e+00,2.600844860076904297e+00,2.581737518310546875e+00,2.562908887863159180e+00,2.544353008270263672e+00,2.526063919067382812e+00,2.508035898208618164e+00,2.490262985229492188e+00,2.472740650177001953e+00,2.455462932586669922e+00,2.438425064086914062e+00,6.898036003112792969e-01,6.538390517234802246e-01,6.455239057540893555e-01,6.374175548553466797e-01,6.285725235939025879e-01,6.234630942344665527e-01,6.231290698051452637e-01,6.229746937751770020e-01,6.228483915328979492e-01,6.227221488952636719e-01,6.231317520141601562e-01,6.274006366729736328e-01,6.331956982612609863e-01,2.222523212432861328e+00,2.208555459976196289e+00,2.194762229919433594e+00,2.181140184402465820e+00,2.167686223983764648e+00,2.154397010803222656e+00,2.141269922256469727e+00,2.128301858901977539e+00,2.115489721298217773e+00,2.102831125259399414e+00,2.090322971343994141e+00,2.077962875366210938e+00,2.065748214721679688e+00,2.053675889968872070e+00,2.041744232177734375e+00
3.773933172225952148e+00,3.733835220336914062e+00,3.694580554962158203e+00,3.656142711639404297e+00,3.618496417999267578e+00,3.581616878509521484e+00,3.545482158660888672e+00,3.510069131851196289e+00,3.475356578826904297e+00,3.441323757171630859e+00,3.407950878143310547e+00,3.375219345092773438e+00,3.343110561370849609e+00,3.311606884002685547e+00,3.280691385269165039e+00,3.250347375869750977e+00,3.220560073852539062e+00,3.191313743591308594e+00,3.162593603134155273e+00,3.134386062622070312e+00,3.106676578521728516e+00,3.079453468322753906e+00,3.052702903747558594e+00,3.026413440704345703e+00,3.000572681427001953e+00,2.975169181823730469e+00,2.950192689895629883e+00,2.925631761550903320e+00,2.901476621627807617e+00,9.564391374588012695e-01,9.341143965721130371e-01,9.182964563369750977e-01,9.134440422058105469e-01,9.086426496505737305e-01,9.038125872611999512e-01,9.061911106109619141e-01,9.134515523910522461e-01,9.209587574005126953e-01,9.285842180252075195e-01,2.659902811050415039e+00,2.639921188354492188e+00,2.620237588882446289e+00,2.600845336914062500e+00,2.581738233566284180e+00,2.562909603118896484e+00,2.544353485107421875e+00,2.526064395904541016e+00,2.508036136627197266e+00,2.490263700485229492e+00,2.472741127014160156e+00,2.455463409423828125e+00,2.438425540924072266e+00,6.917570829391479492e-01,6.551360487937927246e-01,6.467880606651306152e-01,6.386501193046569824e-01,6.301929354667663574e-01,6.249086260795593262e-01,6.246187090873718262e-01,6.244917511940002441e-01,6.243648529052734375e-01,6.242380142211914062e-01,6.244215965270996094e-01,6.287082433700561523e-01,6.337190270423889160e-01,2.222523689270019531e+00,2.208555936813354492e+00,2.194762468338012695e+00,2.181140661239624023e+00,2.167686462402343750e+00,2.154397249221801758e+00,2.141270160675048828e+00,2.128302097320556641e+00,2.115490198135375977e+00,2.102831363677978516e+00,2.090323448181152344e+00,2.077963113784790039e+00,2.065748453140258789e+00,2.053676366806030273e+00,2.041744470596313477e+00
3.773934364318847656e+00,3.733836650848388672e+00,3.694581270217895508e+00,3.656143426895141602e+00,3.618497133255004883e+00,3.581618070602416992e+00,3.545482873916625977e+00,3.510069847106933594e+00,3.475357294082641602e+00,3.441324472427368164e+00,3.407951831817626953e+00,3.375219821929931641e+00,3.343111276626586914e+00,3.311607360839843750e+00,3.280692100524902344e+00,3.250348329544067383e+00,3.220560789108276367e+00,3.191314220428466797e+00,3.162594079971313477e+00,3.134386539459228516e+00,3.106677532196044922e+00,3.079453945159912109e+00,3.052703619003295898e+00,3.026413917541503906e+00,3.000573158264160156e+00,2.975170135498046875e+00,2.950193166732788086e+00,2.925632476806640625e+00,9.726979136466979980e-01,9.475679993629455566e-01,9.278760552406311035e-01,9.229220747947692871e-01,9.180170893669128418e-01,9.129971265792846680e-01,9.122641682624816895e-01,9.196226000785827637e-01,9.271007776260375977e-01,9.347015619277954102e-01,2.680189609527587891e+00,2.659903287887573242e+00,2.639921665191650391e+00,2.620238065719604492e+00,2.600845813751220703e+00,2.581738471984863281e+00,2.562909841537475586e+00,2.544353961944580078e+00,2.526064634323120117e+00,2.508036613464355469e+00,2.490263938903808594e+00,2.472741603851318359e+00,2.455463886260986328e+00,2.438425779342651367e+00,6.937217116355895996e-01,6.564381122589111328e-01,6.480571627616882324e-01,6.398874521255493164e-01,6.318216919898986816e-01,6.263608932495117188e-01,6.261438131332397461e-01,6.260162591934204102e-01,6.258887648582458496e-01,6.257612705230712891e-01,6.257168650627136230e-01,6.300213336944580078e-01,6.343854665756225586e-01,2.222524166107177734e+00,2.208556175231933594e+00,2.194762706756591797e+00,2.181140899658203125e+00,2.167686700820922852e+00,2.154397487640380859e+00,2.141270399093627930e+00,2.128302335739135742e+00,2.115490436553955078e+00,2.102831840515136719e+00,2.090323686599731445e+00,2.077963590621948242e+00,2.065748691558837891e+00,2.053676605224609375e+00,2.041744709014892578e+00
3.773935079574584961e+00,3.733837366104125977e+00,3.694582462310791016e+00,3.656144142150878906e+00,3.618497848510742188e+00,3.581618785858154297e+00,3.545484066009521484e+00,3.510070800781250000e+00,3.475358009338378906e+00,3.441325187683105469e+00,3.407952547073364258e+00,3.375221014022827148e+00,3.343112230300903320e+00,3.311608076095581055e+00,3.280692577362060547e+00,3.250349044799804688e+00,3.220561742782592773e+00,3.191315174102783203e+00,3.162594795227050781e+00,3.134387254714965820e+00,3.106678009033203125e+00,3.079454898834228516e+00,3.052704095840454102e+00,3.026414394378662109e+00,3.000573635101318359e+00,2.975170612335205078e+00,2.950193881988525391e+00,2.925632953643798828e+00,9.635240435600280762e-01,9.404842257499694824e-01,9.325989484786987305e-01,9.274941682815551758e-01,9.223701953887939453e-01,9.200121164321899414e-01,9.258776903152465820e-01,9.334583282470703125e-01,2.721705436706542969e+00,2.700788021087646484e+00,2.680189847946166992e+00,2.659903526306152344e+00,2.639922142028808594e+00,2.620238542556762695e+00,2.600846290588378906e+00,2.581738948822021484e+00,2.562910318374633789e+00,2.544354438781738281e+00,2.526065349578857422e+00,2.508037090301513672e+00,2.490264415740966797e+00,2.472741842269897461e+00,2.455464363098144531e+00,2.438426256179809570e+00,6.956764459609985352e-01,6.577454805374145508e-01,6.493312716484069824e-01,6.411296129226684570e-01,6.331325769424438477e-01,6.278199553489685059e-01,6.276764273643493652e-01,6.275482773780822754e-01,6.274201273918151855e-01,6.272920370101928711e-01,6.271639466285705566e-01,6.314328908920288086e-01,6.360033750534057617e-01,2.222524404525756836e+00,2.208556652069091797e+00,2.194763183593750000e+00,2.181141138076782227e+00,2.167687177658081055e+00,2.154397964477539062e+00,2.141270875930786133e+00,2.128302574157714844e+00,2.115490674972534180e+00,2.102832078933715820e+00,2.090323925018310547e+00,2.077963829040527344e+00,2.065748929977416992e+00,2.053676843643188477e+00,2.041744947433471680e+00
3.773936033248901367e+00,3.733838319778442383e+00,3.694583415985107422e+00,3.656145334243774414e+00,3.618498563766479492e+00,3.581619501113891602e+00,3.545484781265258789e+00,3.510071754455566406e+00,3.475359201431274414e+00,3.441325902938842773e+00,3.407953262329101562e+00,3.375221729278564453e+00,3.343112945556640625e+00,3.311609029769897461e+00,3.280693292617797852e+00,3.250349760055541992e+00,3.220562219619750977e+00,3.191315889358520508e+00,3.162595748901367188e+00,3.134387731552124023e+00,3.106678724288940430e+00,3.079455375671386719e+00,3.052704811096191406e+00,3.026415348052978516e+00,3.000574350357055664e+00,2.975171089172363281e+00,2.950194358825683594e+00,1.000525951385498047e+00,9.545215368270874023e-01,9.424588680267333984e-01,9.371688365936279297e-01,9.319377541542053223e-01,9.279860854148864746e-01,9.322183728218078613e-01,9.399036169052124023e-01,2.742949724197387695e+00,2.721705913543701172e+00,2.700788736343383789e+00,2.680190324783325195e+00,2.659904003143310547e+00,2.639922618865966797e+00,2.620239019393920898e+00,2.600846767425537109e+00,2.581739425659179688e+00,2.562910795211791992e+00,2.544354915618896484e+00,2.526065587997436523e+00,2.508037567138671875e+00,2.490264654159545898e+00,2.472742319107055664e+00,2.455464601516723633e+00,2.438426733016967773e+00,6.975836157798767090e-01,6.596501469612121582e-01,6.510225534439086914e-01,6.425361037254333496e-01,6.343486309051513672e-01,6.293454170227050781e-01,6.292276382446289062e-01,6.291765570640563965e-01,6.291254758834838867e-01,6.290743350982666016e-01,6.290975809097290039e-01,6.349410414695739746e-01,6.395626664161682129e-01,2.222524642944335938e+00,2.208556890487670898e+00,2.194763422012329102e+00,2.181141376495361328e+00,2.167687416076660156e+00,2.154398202896118164e+00,2.141271114349365234e+00,2.128303050994873047e+00,2.115490913391113281e+00,2.102832317352294922e+00,2.090324163436889648e+00,2.077964067459106445e+00,2.065749168395996094e+00,2.053677082061767578e+00,2.041745185852050781e+00
3.773936986923217773e+00,3.733839035034179688e+00,3.694584131240844727e+00,3.656146287918090820e+00,3.618499755859375000e+00,3.581620454788208008e+00,3.545485496520996094e+00,3.510072469711303711e+00,3.475359916687011719e+00,3.441327095031738281e+00,3.407953977584838867e+00,3.375222206115722656e+00,3.343113422393798828e+00,3.311609745025634766e+00,3.280694246292114258e+00,3.250350236892700195e+00,3.220562934875488281e+00,3.191316366195678711e+00,3.162596225738525391e+00,3.134388685226440430e+00,3.106679201126098633e+00,3.079455852508544922e+00,3.052705526351928711e+00,3.026415824890136719e+00,3.000575065612792969e+00,1.016048550605773926e+00,1.002939462661743164e+00,9.789746999740600586e-01,9.621074199676513672e-01,9.470475316047668457e-01,9.417058229446411133e-01,9.364242553710937500e-01,9.395598173141479492e-01,9.464386105537414551e-01,2.764528274536132812e+00,2.742950201034545898e+00,2.721706390380859375e+00,2.700789213180541992e+00,2.680191040039062500e+00,2.659904718399047852e+00,2.639923095703125000e+00,2.620239496231079102e+00,2.600847244262695312e+00,2.581739902496337891e+00,2.562911272048950195e+00,2.544355154037475586e+00,2.526066064834594727e+00,2.508038043975830078e+00,2.490265369415283203e+00,2.472742795944213867e+00,2.455465078353881836e+00,2.438426971435546875e+00,6.995014548301696777e-01,6.614884734153747559e-01,6.531488299369812012e-01,6.446071267127990723e-01,6.362860202789306641e-01,6.311667561531066895e-01,6.311153769493103027e-01,6.310639381408691406e-01,6.310124993324279785e-01,6.309611797332763672e-01,6.310696601867675781e-01,6.384884119033813477e-01,2.236670494079589844e+00,2.222524881362915039e+00,2.208557128906250000e+00,2.194763898849487305e+00,2.181141853332519531e+00,2.167687654495239258e+00,2.154398679733276367e+00,2.141271352767944336e+00,2.128303289413452148e+00,2.115491390228271484e+00,2.102832555770874023e+00,2.090324401855468750e+00,2.077964305877685547e+00,2.065749406814575195e+00,2.053677558898925781e+00,2.041745424270629883e+00
3.083146572113037109e+00,3.082663059234619141e+00,3.082179784774780273e+00,3.081696271896362305e+00,3.081213235855102539e+00,3.080730199813842773e+00,3.080247163772583008e+00,3.079764604568481445e+00,3.079281806945800781e+00,3.078799486160278320e+00,3.078317403793334961e+00,3.077835083007812500e+00,3.077353239059448242e+00,3.076871633529663086e+00,3.076389789581298828e+00,3.075908422470092773e+00,3.075427055358886719e+00,3.074945688247680664e+00,3.074464797973632812e+00,3.073983907699584961e+00,3.073503017425537109e+00,3.073022603988647461e+00,3.052706003189086914e+00,3.026416301727294922e+00,3.000575542449951172e+00,1.005821108818054199e+00,9.911622405052185059e-01,9.721573591232299805e-01,9.628342986106872559e-01,9.609544277191162109e-01,9.643975496292114258e-01,9.478776454925537109e-01,9.530650973320007324e-01,2.786448955535888672e+00,2.764528751373291016e+00,2.742950916290283203e+00,2.721706867218017578e+00,2.700789690017700195e+00,2.680191516876220703e+00,2.659905195236206055e+00,2.639923572540283203e+00,2.620239734649658203e+00,2.600847482681274414e+00,2.581740379333496094e+00,2.562911748886108398e+00,2.544355869293212891e+00,2.526066303253173828e+00,2.508038282394409180e+00,2.490265607833862305e+00,2.472743034362792969e+00,2.455465555191040039e+00,2.438427448272705078e+00,7.014297246932983398e-01,6.639386415481567383e-01,6.552889347076416016e-01,6.466916203498840332e-01,6.383169293403625488e-01,6.330661177635192871e-01,6.330143809318542480e-01,6.329626441001892090e-01,6.329109668731689453e-01,6.329044699668884277e-01,6.330541968345642090e-01,6.420755386352539062e-01,2.236670970916748047e+00,2.222525358200073242e+00,2.208557367324829102e+00,2.194764137268066406e+00,2.181142091751098633e+00,2.167688131332397461e+00,2.154398918151855469e+00,2.141271829605102539e+00,2.128303527832031250e+00,2.115491628646850586e+00,2.102833032608032227e+00,2.090324878692626953e+00,2.077964544296264648e+00,2.065749883651733398e+00,2.053677797317504883e+00,2.041745901107788086e+00
2.604869127273559570e+00,2.604523897171020508e+00,2.604178667068481445e+00,2.603833913803100586e+00,2.603488683700561523e+00,2.603143930435180664e+00,2.602799177169799805e+00,2.602454423904418945e+00,2.602109909057617188e+00,2.601765632629394531e+00,2.601421117782592773e+00,2.601076841354370117e+00,2.600732564926147461e+00,2.600388526916503906e+00,2.600044488906860352e+00,2.599700689315795898e+00,2.599356651306152344e+00,2.599012851715087891e+00,2.598669290542602539e+00,2.598325729370117188e+00,2.597982168197631836e+00,2.597638845443725586e+00,2.597295522689819336e+00,2.596952438354492188e+00,2.596609354019165039e+00,9.987637996673583984e-01,9.820863008499145508e-01,9.648323059082031250e-01,9.630720615386962891e-01,9.631178379058837891e-01,9.667109847068786621e-01,2.594209909439086914e+00,2.593867540359497070e+00,2.593525409698486328e+00,2.593183040618896484e+00,2.592840909957885742e+00,2.592499017715454102e+00,2.592156887054443359e+00,2.591815233230590820e+00,2.591473340988159180e+00,2.591131687164306641e+00,2.590790033340454102e+00,2.590448617935180664e+00,2.581740856170654297e+00,2.562911987304687500e+00,2.544356107711791992e+00,2.526067018508911133e+00,2.508038759231567383e+00,2.490266084671020508e+00,2.472743511199951172e+00,2.455465793609619141e+00,2.438427925109863281e+00,2.421624898910522461e+00,6.666844487190246582e-01,6.573974490165710449e-01,6.487895846366882324e-01,6.403608918190002441e-01,6.349769234657287598e-01,6.349248886108398438e-01,6.348729133605957031e-01,6.348208785057067871e-01,6.349005699157714844e-01,6.350511908531188965e-01,6.457033157348632812e-01,2.236671209335327148e+00,2.222525596618652344e+00,2.208557844161987305e+00,2.194764375686645508e+00,2.181142330169677734e+00,2.167688369750976562e+00,2.154399156570434570e+00,2.141272068023681641e+00,2.128303766250610352e+00,2.115491867065429688e+00,2.102833271026611328e+00,2.090325117111206055e+00,2.077965021133422852e+00,2.065750122070312500e+00,2.053678035736083984e+00,2.041746139526367188e+00
2.255051136016845703e+00,2.254792451858520508e+00,2.254533767700195312e+00,2.254275083541870117e+00,2.254016637802124023e+00,2.253758192062377930e+00,2.253499746322631836e+00,2.253241300582885742e+00,2.252983093261718750e+00,2.252724885940551758e+00,2.252466678619384766e+00,2.252208471298217773e+00,2.251950502395629883e+00,2.251692533493041992e+00,2.251434564590454102e+00,2.251176595687866211e+00,2.250918865203857422e+00,2.250661134719848633e+00,2.250403165817260742e+00,2.250145673751831055e+00,2.249888181686401367e+00,2.249630451202392578e+00,2.249372959136962891e+00,2.249115705490112305e+00,2.248858213424682617e+00,9.966162443161010742e-01,9.769937396049499512e-01,9.640836715698242188e-01,9.628418087959289551e-01,9.637230634689331055e-01,2.247315168380737305e+00,2.247058391571044922e+00,2.246801614761352539e+00,2.246544599533081055e+00,2.246287822723388672e+00,2.246031284332275391e+00,2.245774507522583008e+00,2.245517969131469727e+00,2.245261430740356445e+00,2.245004892349243164e+00,2.244748353958129883e+00,2.244492053985595703e+00,2.244235754013061523e+00,2.243979454040527344e+00,2.243723392486572266e+00,2.243467092514038086e+00,2.243211269378662109e+00,2.242955207824707031e+00,2.242699146270751953e+00,2.242443323135375977e+00,2.242187500000000000e+00,2.241931676864624023e+00,2.241675853729248047e+00,6.694530844688415527e-01,6.592232584953308105e-01,6.509011983871459961e-01,6.424179673194885254e-01,6.368993520736694336e-01,6.368469595909118652e-01,6.367946267127990723e-01,6.367577314376831055e-01,6.369093060493469238e-01,6.372023820877075195e-01,6.493722796440124512e-01,2.236671447753906250e+00,2.222526073455810547e+00,2.208558082580566406e+00,2.194764852523803711e+00,2.181142568588256836e+00,2.167688608169555664e+00,2.154399633407592773e+00,2.141272544860839844e+00,2.128304243087768555e+00,2.115492105484008789e+00,2.102833509445190430e+00,2.090325355529785156e+00,2.077965259552001953e+00,2.065750360488891602e+00,2.053678274154663086e+00,2.041746377944946289e+00
1.988066077232360840e+00,1.987865090370178223e+00,1.987663984298706055e+00,1.987462878227233887e+00,1.987262129783630371e+00,1.987061142921447754e+00,1.986860156059265137e+00,1.986659407615661621e+00,1.986458539962768555e+00,1.986257791519165039e+00,1.986057162284851074e+00,1.985856413841247559e+00,1.985655665397644043e+00,1.985455274581909180e+00,1.985254645347595215e+00,1.985054016113281250e+00,1.984853744506835938e+00,1.984653234481811523e+00,1.984452724456787109e+00,1.984252452850341797e+00,1.984052062034606934e+00,1.983851790428161621e+00,1.983651638031005859e+00,1.983451366424560547e+00,1.983251214027404785e+00,1.983051180839538574e+00,9.751997590065002441e-01,9.591058492660522461e-01,9.563652873039245605e-01,9.624530076980590820e-01,1.982051134109497070e+00,1.981851339340209961e+00,1.981651425361633301e+00,1.981451630592346191e+00,1.981252074241638184e+00,1.981052279472351074e+00,1.980852484703063965e+00,1.980653047561645508e+00,1.980453372001647949e+00,1.980253696441650391e+00,1.980054378509521484e+00,1.979854822158813477e+00,1.979655265808105469e+00,1.979456067085266113e+00,1.979256629943847656e+00,1.979057192802429199e+00,1.978858113288879395e+00,1.978658795356750488e+00,1.978459477424621582e+00,1.978260517120361328e+00,1.978061318397521973e+00,1.977862238883972168e+00,1.977663040161132812e+00,6.722447872161865234e-01,6.610592007637023926e-01,6.530267000198364258e-01,6.444882154464721680e-01,6.388334035873413086e-01,6.387807726860046387e-01,6.387280821800231934e-01,6.387782096862792969e-01,6.389306783676147461e-01,6.394312381744384766e-01,6.530832052230834961e-01,1.975277781486511230e+00,1.975079417228698730e+00,1.974880933761596680e+00,1.974682450294494629e+00,1.974484205245971680e+00,1.974285721778869629e+00,1.974087357521057129e+00,1.973889231681823730e+00,1.973690867424011230e+00,1.973492622375488281e+00,1.973294615745544434e+00,1.973096489906311035e+00,1.972898364067077637e+00,1.972700476646423340e+00,1.972502350807189941e+00,1.972304344177246094e+00
1.777607679367065430e+00,1.777446866035461426e+00,1.777286052703857422e+00,1.777125477790832520e+00,1.776964783668518066e+00,1.776803970336914062e+00,1.776643514633178711e+00,1.776482820510864258e+00,1.776322245597839355e+00,1.776161789894104004e+00,1.776001214981079102e+00,1.775840759277343750e+00,1.775680422782897949e+00,1.775519967079162598e+00,1.775359511375427246e+00,1.775199174880981445e+00,1.775038838386535645e+00,1.774878501892089844e+00,1.774718284606933594e+00,1.774558067321777344e+00,1.774397730827331543e+00,1.774237632751464844e+00,1.774077415466308594e+00,1.773917198181152344e+00,1.773757219314575195e+00,1.773597121238708496e+00,9.732742309570312500e-01,9.521442055702209473e-01,9.514380097389221191e-01,9.602700471878051758e-01,1.772797226905822754e+00,1.772637248039245605e+00,1.772477388381958008e+00,1.772317647933959961e+00,1.772157788276672363e+00,1.771997928619384766e+00,1.771838307380676270e+00,1.771678447723388672e+00,1.771518707275390625e+00,1.771359205245971680e+00,1.771199464797973633e+00,1.771039843559265137e+00,1.770880103111267090e+00,1.770720720291137695e+00,1.770561099052429199e+00,1.770401716232299805e+00,1.770242214202880859e+00,1.770082712173461914e+00,1.769923210144042969e+00,1.769763946533203125e+00,1.769604563713073730e+00,1.769445180892944336e+00,1.769286036491394043e+00,6.750598549842834473e-01,6.629055142402648926e-01,6.551601290702819824e-01,6.465719342231750488e-01,6.407792568206787109e-01,6.407262682914733887e-01,6.406732797622680664e-01,6.408115625381469727e-01,6.409649848937988281e-01,6.416757106781005859e-01,6.568366885185241699e-01,1.767376661300659180e+00,1.767217755317687988e+00,1.767058730125427246e+00,1.766899943351745605e+00,1.766741156578063965e+00,1.766582250595092773e+00,1.766423583030700684e+00,1.766264796257019043e+00,1.766106009483337402e+00,1.765947461128234863e+00,1.765788674354553223e+00,1.765630006790161133e+00,1.765471577644348145e+00,1.765312910079956055e+00,1.765154242515563965e+00,1.764995932579040527e+00
1.607442259788513184e+00,1.607310771942138672e+00,1.607179522514343262e+00,1.607048034667968750e+00,1.606916546821594238e+00,1.606785297393798828e+00,1.606653809547424316e+00,1.606522440910339355e+00,1.606391310691833496e+00,1.606259942054748535e+00,1.606128573417663574e+00,1.605997443199157715e+00,1.605866193771362305e+00,1.605734944343566895e+00,1.605603814125061035e+00,1.605472683906555176e+00,1.605341434478759766e+00,1.605210423469543457e+00,1.605079293251037598e+00,1.604948163032531738e+00,1.604817152023315430e+00,1.604686141014099121e+00,1.604555010795593262e+00,1.604424118995666504e+00,1.604293107986450195e+00,1.604162096977233887e+00,1.604031324386596680e+00,9.456790089607238770e-01,9.457225203514099121e-01,9.589065313339233398e-01,1.603507757186889648e+00,1.603376865386962891e+00,1.603246092796325684e+00,1.603115320205688477e+00,1.602984547615051270e+00,1.602853894233703613e+00,1.602723121643066406e+00,1.602592349052429199e+00,1.602461695671081543e+00,1.602331161499023438e+00,1.602200508117675781e+00,1.602069854736328125e+00,1.601939320564270020e+00,1.601808667182922363e+00,1.601678133010864258e+00,1.601547718048095703e+00,1.601417183876037598e+00,1.601286649703979492e+00,1.601156234741210938e+00,1.601025819778442383e+00,1.600895285606384277e+00,1.600764989852905273e+00,1.600634574890136719e+00,6.778985857963562012e-01,6.647620201110839844e-01,6.569735407829284668e-01,6.486691236495971680e-01,6.427370309829711914e-01,6.426836848258972168e-01,6.427035331726074219e-01,6.428579092025756836e-01,6.430122852325439453e-01,6.439360380172729492e-01,6.606336832046508789e-01,1.599071741104125977e+00,1.598941564559936523e+00,1.598811626434326172e+00,1.598681569099426270e+00,1.598551392555236816e+00,1.598421573638916016e+00,1.598291158676147461e+00,1.598160743713378906e+00,1.598030209541320801e+00,1.597899794578552246e+00,1.597769260406494141e+00,1.597638845443725586e+00,1.597508430480957031e+00,1.597378134727478027e+00,1.597247838973999023e+00,1.597117543220520020e+00
1.467009663581848145e+00,1.466900229454040527e+00,1.466790676116943359e+00,1.466681122779846191e+00,1.466571807861328125e+00,1.466462373733520508e+00,1.466352820396423340e+00,1.466243505477905273e+00,1.466134071350097656e+00,1.466024756431579590e+00,1.465915441513061523e+00,1.465806126594543457e+00,1.465696692466735840e+00,1.465587496757507324e+00,1.465478181838989258e+00,1.465368866920471191e+00,1.465259671211242676e+00,1.465150356292724609e+00,1.465041160583496094e+00,1.464932084083557129e+00,1.464822769165039062e+00,1.464713573455810547e+00,1.464604377746582031e+00,1.464495301246643066e+00,1.464386105537414551e+00,1.464277148246765137e+00,1.464167952537536621e+00,9.385189414024353027e-01,9.399616718292236328e-01,9.563529491424560547e-01,1.463731765747070312e+00,1.463622689247131348e+00,1.463513851165771484e+00,1.463404774665832520e+00,1.463295817375183105e+00,1.463186979293823242e+00,1.463077902793884277e+00,1.462968945503234863e+00,1.462860226631164551e+00,1.462751269340515137e+00,1.462642431259155273e+00,1.462533593177795410e+00,1.462424755096435547e+00,1.462315917015075684e+00,1.462207198143005371e+00,1.462098360061645508e+00,1.461989521980285645e+00,1.461880922317504883e+00,1.461772084236145020e+00,1.461663365364074707e+00,1.461554765701293945e+00,1.461446046829223633e+00,1.461337327957153320e+00,6.807612776756286621e-01,6.666290163993835449e-01,6.587969660758972168e-01,6.507799625396728516e-01,6.447067260742187500e-01,6.446530818939208984e-01,6.447619795799255371e-01,6.449173688888549805e-01,6.450727581977844238e-01,6.462122797966003418e-01,6.644747853279113770e-01,1.460032224655151367e+00,1.459923386573791504e+00,1.459814548492431641e+00,1.459705591201782227e+00,1.459596753120422363e+00,1.459487915039062500e+00,1.459379076957702637e+00,1.459270358085632324e+00,1.459161520004272461e+00,1.459052801132202148e+00,1.458943963050842285e+00,1.458835244178771973e+00,1.458726525306701660e+00,1.458617806434631348e+00,1.458509206771850586e+00,1.458400487899780273e+00
1.349143028259277344e+00,1.349050402641296387e+00,1.348957777023315430e+00,1.348865270614624023e+00,1.348772644996643066e+00,1.348680019378662109e+00,1.348587632179260254e+00,1.348495006561279297e+00,1.348402500152587891e+00,1.348309993743896484e+00,1.348217487335205078e+00,1.348124980926513672e+00,1.348032474517822266e+00,1.347940087318420410e+00,1.347847580909729004e+00,1.347755312919616699e+00,1.347662806510925293e+00,1.347570419311523438e+00,1.347477912902832031e+00,1.347385644912719727e+00,1.347293257713317871e+00,1.347200870513916016e+00,1.347108602523803711e+00,1.347016215324401855e+00,1.346923828125000000e+00,1.346831679344177246e+00,9.384676814079284668e-01,9.307784438133239746e-01,9.331217408180236816e-01,9.533537626266479492e-01,9.959161877632141113e-01,1.346278071403503418e+00,1.346185803413391113e+00,1.346093654632568359e+00,1.346001505851745605e+00,1.345909237861633301e+00,1.345817089080810547e+00,1.345724940299987793e+00,1.345632791519165039e+00,1.345540642738342285e+00,1.345448613166809082e+00,1.345356464385986328e+00,1.345264315605163574e+00,1.345172286033630371e+00,1.345080256462097168e+00,1.344988107681274414e+00,1.344896197319030762e+00,1.344804048538208008e+00,1.344712018966674805e+00,1.344619631767272949e+00,1.344527363777160645e+00,1.344434976577758789e+00,1.344342708587646484e+00,6.836482882499694824e-01,6.685065031051635742e-01,6.606305241584777832e-01,6.529046893119812012e-01,6.466885805130004883e-01,6.466773748397827148e-01,6.468336582183837891e-01,6.469900012016296387e-01,6.471464037895202637e-01,6.485047936439514160e-01,6.683608293533325195e-01,1.343235611915588379e+00,1.343143343925476074e+00,1.343051195144653320e+00,1.342959165573120117e+00,1.342866897583007812e+00,1.342774748802185059e+00,1.342682719230651855e+00,1.342590570449829102e+00,1.342498540878295898e+00,1.342406511306762695e+00,1.342314362525939941e+00,1.342222332954406738e+00,1.342130303382873535e+00,1.342038273811340332e+00,1.341946244239807129e+00,1.341854214668273926e+00
1.248807787895202637e+00,1.248728394508361816e+00,1.248649120330810547e+00,1.248569846153259277e+00,1.248490452766418457e+00,1.248411178588867188e+00,1.248331904411315918e+00,1.248252630233764648e+00,1.248173236846923828e+00,1.248094081878662109e+00,1.248014807701110840e+00,1.247935533523559570e+00,1.247856378555297852e+00,1.247777104377746582e+00,1.247697830200195312e+00,1.247618675231933594e+00,1.247539401054382324e+00,1.247460246086120605e+00,1.247381091117858887e+00,1.247301936149597168e+00,1.247222781181335449e+00,1.247143626213073730e+00,1.247064471244812012e+00,1.246985316276550293e+00,1.246906280517578125e+00,1.246827125549316406e+00,9.317868947982788086e-01,9.262752532958984375e-01,9.290425777435302734e-01,9.528393149375915527e-01,9.906646013259887695e-01,1.246352672576904297e+00,1.246273636817932129e+00,1.246194720268249512e+00,1.246115565299987793e+00,1.246036529541015625e+00,1.245957612991333008e+00,1.245878577232360840e+00,1.245799422264099121e+00,1.245720148086547852e+00,1.245640754699707031e+00,1.245561599731445312e+00,1.245482325553894043e+00,1.245403051376342773e+00,1.245323896408081055e+00,1.245244622230529785e+00,1.245165467262268066e+00,1.245086193084716797e+00,1.245006918907165527e+00,1.244927763938903809e+00,1.244848608970642090e+00,1.244769454002380371e+00,1.244690299034118652e+00,6.865599155426025391e-01,6.703946590423583984e-01,6.624743938446044922e-01,6.547390818595886230e-01,6.486826539039611816e-01,6.487614512443542480e-01,6.489186882972717285e-01,6.490759849548339844e-01,6.492335200309753418e-01,6.508135199546813965e-01,1.243820309638977051e+00,1.243741273880004883e+00,1.243662238121032715e+00,1.243583202362060547e+00,1.243504285812377930e+00,1.243425130844116211e+00,1.243346214294433594e+00,1.243267178535461426e+00,1.243188261985778809e+00,1.243109345436096191e+00,1.243030428886413574e+00,1.242951512336730957e+00,1.242872476577758789e+00,1.242793560028076172e+00,1.242714643478393555e+00,1.242635846138000488e+00,1.242556929588317871e+00
1.162363290786743164e+00,1.162294507026672363e+00,1.162225842475891113e+00,1.162157177925109863e+00,1.162088394165039062e+00,1.162019729614257812e+00,1.161950945854187012e+00,1.161882281303405762e+00,1.161813616752624512e+00,1.161744952201843262e+00,1.161676287651062012e+00,1.161607623100280762e+00,1.161538958549499512e+00,1.161470293998718262e+00,1.161401748657226562e+00,1.161333084106445312e+00,1.161264419555664062e+00,1.161195874214172363e+00,1.161127209663391113e+00,1.161058545112609863e+00,1.160989999771118164e+00,1.160921454429626465e+00,1.160852789878845215e+00,1.160784363746643066e+00,1.160715699195861816e+00,1.160647153854370117e+00,9.314063787460327148e-01,9.202404022216796875e-01,9.182930588722229004e-01,9.384022355079650879e-01,9.679127931594848633e-01,1.160234808921813965e+00,1.160166025161743164e+00,1.160097360610961914e+00,1.160028457641601562e+00,1.159959793090820312e+00,1.159891009330749512e+00,1.159822344779968262e+00,1.159753561019897461e+00,1.159684896469116211e+00,1.159616231918334961e+00,1.159547448158264160e+00,1.159478783607482910e+00,1.159410119056701660e+00,1.159341454505920410e+00,1.159272789955139160e+00,1.159204125404357910e+00,1.159135460853576660e+00,1.159066796302795410e+00,1.158998131752014160e+00,1.158929586410522461e+00,1.158860921859741211e+00,1.158792376518249512e+00,1.158723711967468262e+00,7.033907771110534668e-01,6.886783838272094727e-01,6.565501093864440918e-01,6.507006883621215820e-01,6.508588790893554688e-01,6.510172486305236816e-01,6.511755585670471191e-01,6.683377027511596680e-01,1.158106684684753418e+00,1.158038139343261719e+00,1.157969713211059570e+00,1.157901167869567871e+00,1.157832741737365723e+00,1.157764196395874023e+00,1.157695651054382324e+00,1.157627224922180176e+00,1.157558798789978027e+00,1.157490372657775879e+00,1.157421946525573730e+00,1.157353520393371582e+00,1.157285094261169434e+00,1.157216548919677734e+00,1.157148241996765137e+00,1.157079815864562988e+00,1.157011389732360840e+00,1.156943082809448242e+00
1.087111711502075195e+00,1.087051630020141602e+00,1.086991429328918457e+00,1.086931347846984863e+00,1.086871266365051270e+00,1.086811065673828125e+00,1.086750984191894531e+00,1.086690902709960938e+00,1.086630821228027344e+00,1.086570739746093750e+00,1.086510658264160156e+00,1.086450576782226562e+00,1.086390495300292969e+00,1.086330533027648926e+00,1.086270451545715332e+00,1.086210370063781738e+00,1.086150407791137695e+00,1.086090087890625000e+00,1.086029887199401855e+00,1.085969567298889160e+00,1.085909247398376465e+00,1.085849046707153320e+00,1.085788846015930176e+00,1.085728645324707031e+00,1.085668444633483887e+00,1.085608243942260742e+00,1.085548043251037598e+00,9.151864051818847656e-01,9.059348106384277344e-01,9.152654409408569336e-01,9.434502720832824707e-01,1.085247039794921875e+00,1.085186958312988281e+00,1.085126757621765137e+00,1.085066556930541992e+00,1.085006356239318848e+00,1.084946274757385254e+00,1.084886193275451660e+00,1.084825992584228516e+00,1.084765911102294922e+00,1.084705829620361328e+00,1.084645628929138184e+00,1.084585547447204590e+00,1.084525465965270996e+00,1.084465384483337402e+00,1.084405303001403809e+00,1.084345221519470215e+00,1.084285140037536621e+00,1.084225058555603027e+00,1.084164977073669434e+00,1.084105014801025391e+00,1.084044933319091797e+00,1.083984971046447754e+00,1.083924889564514160e+00,7.029832005500793457e-01,6.897399425506591797e-01,6.737352609634399414e-01,6.645019054412841797e-01,6.612223386764526367e-01,6.613198518753051758e-01,6.637372970581054688e-01,6.673866510391235352e-01,1.083384871482849121e+00,1.083324909210205078e+00,1.083265066146850586e+00,1.083205103874206543e+00,1.083145141601562500e+00,1.083085179328918457e+00,1.083025336265563965e+00,1.082965373992919922e+00,1.082905411720275879e+00,1.082845568656921387e+00,1.082785606384277344e+00,1.082725763320922852e+00,1.082665801048278809e+00,1.082605957984924316e+00,1.082545995712280273e+00,1.082486152648925781e+00,1.082426309585571289e+00,1.082366466522216797e+00
1.021011233329772949e+00,1.020958185195922852e+00,1.020905137062072754e+00,1.020852088928222656e+00,1.020799040794372559e+00,1.020746111869812012e+00,1.020692944526672363e+00,1.020639657974243164e+00,1.020586371421813965e+00,1.020533204078674316e+00,1.020480036735534668e+00,1.020426869392395020e+00,1.020373582839965820e+00,1.020320415496826172e+00,1.020267248153686523e+00,1.020214080810546875e+00,1.020160913467407227e+00,1.020107746124267578e+00,1.020054578781127930e+00,1.020001411437988281e+00,1.019948244094848633e+00,1.019895076751708984e+00,1.019841909408569336e+00,1.019788861274719238e+00,1.019735693931579590e+00,1.019682645797729492e+00,1.019629478454589844e+00,1.019576430320739746e+00,8.990684747695922852e-01,8.975781202316284180e-01,9.267259836196899414e-01,1.019363999366760254e+00,1.019310951232910156e+00,1.019257783889770508e+00,1.019204735755920410e+00,1.019151687622070312e+00,1.019098639488220215e+00,1.019045591354370117e+00,1.018992543220520020e+00,1.018939495086669922e+00,1.018886446952819824e+00,1.018833398818969727e+00,1.018780350685119629e+00,1.018727302551269531e+00,1.018674254417419434e+00,1.018621325492858887e+00,1.018568277359008789e+00,1.018515348434448242e+00,1.018462300300598145e+00,1.018409252166748047e+00,1.018356323242187500e+00,1.018303275108337402e+00,1.018250346183776855e+00,1.018197417259216309e+00,7.012969851493835449e-01,6.885071992874145508e-01,6.744503378868103027e-01,6.660261154174804688e-01,6.627922654151916504e-01,6.608213782310485840e-01,6.638113260269165039e-01,6.672552824020385742e-01,6.769036054611206055e-01,1.017668008804321289e+00,1.017615079879760742e+00,1.017562150955200195e+00,1.017509341239929199e+00,1.017456412315368652e+00,1.017403483390808105e+00,1.017350554466247559e+00,1.017297744750976562e+00,1.017244935035705566e+00,1.017192006111145020e+00,1.017139196395874023e+00,1.017086386680603027e+00,1.017033457756042480e+00,1.016980648040771484e+00,1.016927719116210938e+00,1.016874909400939941e+00,1.016822099685668945e+00
9.624873399734497070e-01,9.624399542808532715e-01,9.623926281929016113e-01,9.623453021049499512e-01,9.622980356216430664e-01,9.622507095336914062e-01,9.622034430503845215e-01,9.621561169624328613e-01,9.621087908744812012e-01,9.620615243911743164e-01,9.620141983032226562e-01,9.619669914245605469e-01,9.619196653366088867e-01,9.618724584579467773e-01,9.618251323699951172e-01,9.617778658866882324e-01,9.617306590080261230e-01,9.616833329200744629e-01,9.616361856460571289e-01,9.615888595581054688e-01,9.615417122840881348e-01,9.614944458007812500e-01,9.614471793174743652e-01,9.613999724388122559e-01,9.613527059555053711e-01,9.613055586814880371e-01,9.612582921981811523e-01,9.612112045288085938e-01,9.611639380455017090e-01,9.611166715621948242e-01,9.610695838928222656e-01,9.610223174095153809e-01,9.609752297401428223e-01,9.609279632568359375e-01,9.608808755874633789e-01,9.608336687088012695e-01,9.607864618301391602e-01,9.607393741607666016e-01,9.606921672821044922e-01,9.606450796127319336e-01,9.605978727340698242e-01,9.605507850646972656e-01,9.605036377906799316e-01,9.604564309120178223e-01,9.604093432426452637e-01,9.603621959686279297e-01,9.603151679039001465e-01,9.602679610252380371e-01,9.602209329605102539e-01,9.601737856864929199e-01,9.601266384124755859e-01,9.600796103477478027e-01,9.600324630737304688e-01,7.194131612777709961e-01,6.988676190376281738e-01,6.858453154563903809e-01,6.752740740776062012e-01,6.672549843788146973e-01,6.635431647300720215e-01,6.606433391571044922e-01,6.637494564056396484e-01,6.659803390502929688e-01,6.677184700965881348e-01,6.771572828292846680e-01,9.594677090644836426e-01,9.594207406044006348e-01,9.593737125396728516e-01,9.593267440795898438e-01,9.592796564102172852e-01,9.592327475547790527e-01,9.591856598854064941e-01,9.591386318206787109e-01,9.590916633605957031e-01,9.590446352958679199e-01,9.589977264404296875e-01,9.589506983757019043e-01,9.589037895202636719e-01,9.588567614555358887e-01,9.588097333908081055e-01,9.587628245353698730e-01
9.103078842163085938e-01,9.102655053138732910e-01,9.102231860160827637e-01,9.101808667182922363e-01,9.101385474205017090e-01,9.100962281227111816e-01,9.100539684295654297e-01,9.100115895271301270e-01,9.099692702293395996e-01,9.099270105361938477e-01,9.098846912384033203e-01,9.098424315452575684e-01,9.098001122474670410e-01,9.097578525543212891e-01,9.097155332565307617e-01,9.096732139587402344e-01,9.096310138702392578e-01,9.095886945724487305e-01,9.095464944839477539e-01,9.095041751861572266e-01,9.094619750976562500e-01,9.094196557998657227e-01,9.093773961067199707e-01,9.093351960182189941e-01,9.092928767204284668e-01,9.092507362365722656e-01,9.092084169387817383e-01,9.091662764549255371e-01,9.091240167617797852e-01,9.090816974639892578e-01,9.090395569801330566e-01,9.089972972869873047e-01,9.089551568031311035e-01,9.089128971099853516e-01,9.088707566261291504e-01,9.088284969329833984e-01,9.087862968444824219e-01,9.087441563606262207e-01,9.087018966674804688e-01,9.086597561836242676e-01,9.086175560951232910e-01,9.085754156112670898e-01,9.085332155227661133e-01,9.084910154342651367e-01,9.084488749504089355e-01,9.084066748619079590e-01,9.083645939826965332e-01,9.083223938941955566e-01,9.082803130149841309e-01,9.082381129264831543e-01,9.081959128379821777e-01,9.081538319587707520e-01,9.081116914749145508e-01,7.117673158645629883e-01,6.961985230445861816e-01,6.858463883399963379e-01,6.757242083549499512e-01,6.683520674705505371e-01,6.638450026512145996e-01,6.609625816345214844e-01,6.610602140426635742e-01,6.600809097290039062e-01,6.609202623367309570e-01,6.611611247062683105e-01,6.700022220611572266e-01,9.075643420219421387e-01,9.075222015380859375e-01,9.074801802635192871e-01,9.074380993843078613e-01,9.073960781097412109e-01,9.073539376258850098e-01,9.073118567466735840e-01,9.072698950767517090e-01,9.072277545928955078e-01,9.071857929229736328e-01,9.071437120437622070e-01,9.071016907691955566e-01,9.070596098899841309e-01,9.070175886154174805e-01,9.069755673408508301e-01
8.634951114654541016e-01,8.634569644927978516e-01,8.634189367294311523e-01,8.633807897567749023e-01,8.633427619934082031e-01,8.633046746253967285e-01,8.632666468620300293e-01,8.632285594940185547e-01,8.631904125213623047e-01,8.631523847579956055e-01,8.631142973899841309e-01,8.630763292312622070e-01,8.630381822586059570e-01,8.630002140998840332e-01,8.629621267318725586e-01,8.629240393638610840e-01,8.628860712051391602e-01,8.628479838371276855e-01,8.628100156784057617e-01,8.627719283103942871e-01,8.627339601516723633e-01,8.626958727836608887e-01,8.626578450202941895e-01,8.626198768615722656e-01,8.625817894935607910e-01,8.625438213348388672e-01,8.625057935714721680e-01,8.624678254127502441e-01,8.624297976493835449e-01,8.623917698860168457e-01,8.623538017272949219e-01,8.623157739639282227e-01,8.622778654098510742e-01,8.622398376464843750e-01,8.622018694877624512e-01,8.621639013290405273e-01,8.621258735656738281e-01,8.620879650115966797e-01,8.620499372482299805e-01,8.620120286941528320e-01,8.619740009307861328e-01,8.619360923767089844e-01,8.618981242179870605e-01,8.618601560592651367e-01,8.618222475051879883e-01,8.617842793464660645e-01,8.617463707923889160e-01,8.617084026336669922e-01,8.616704940795898438e-01,8.616325259208679199e-01,8.615945577621459961e-01,8.615567088127136230e-01,8.615187406539916992e-01,7.081074714660644531e-01,6.941235661506652832e-01,6.852315664291381836e-01,6.764268279075622559e-01,6.690732836723327637e-01,6.628452539443969727e-01,6.599969863891601562e-01,6.575392484664916992e-01,6.561515331268310547e-01,6.549822688102722168e-01,6.551926732063293457e-01,6.564224958419799805e-01,6.622034907341003418e-01,8.609881997108459473e-01,8.609503507614135742e-01,8.609124422073364258e-01,8.608746528625488281e-01,8.608367443084716797e-01,8.607988357543945312e-01,8.607610464096069336e-01,8.607231378555297852e-01,8.606853485107421875e-01,8.606474995613098145e-01,8.606097102165222168e-01,8.605718016624450684e-01,8.605339527130126953e-01,8.604961633682250977e-01
8.212615847587585449e-01,8.212271332740783691e-01,8.211926817893981934e-01,8.211581707000732422e-01,8.211237788200378418e-01,8.210893273353576660e-01,8.210549354553222656e-01,8.210204243659973145e-01,8.209860324859619141e-01,8.209515810012817383e-01,8.209171295166015625e-01,8.208827376365661621e-01,8.208482861518859863e-01,8.208138942718505859e-01,8.207794427871704102e-01,8.207449913024902344e-01,8.207105994224548340e-01,8.206762075424194336e-01,8.206418156623840332e-01,8.206073641777038574e-01,8.205730319023132324e-01,8.205385804176330566e-01,8.205041885375976562e-01,8.204697966575622559e-01,8.204354047775268555e-01,8.204010725021362305e-01,8.203666210174560547e-01,8.203322887420654297e-01,8.202978968620300293e-01,8.202634453773498535e-01,8.202291727066040039e-01,8.201947212219238281e-01,8.201604485511779785e-01,8.201259970664978027e-01,8.200917243957519531e-01,8.200573325157165527e-01,8.200229406356811523e-01,8.199886083602905273e-01,8.199542164802551270e-01,8.199199438095092773e-01,8.198855519294738770e-01,8.198512792587280273e-01,8.198168873786926270e-01,8.197824954986572266e-01,8.197482228279113770e-01,8.197138309478759766e-01,8.196795582771301270e-01,8.196452260017395020e-01,8.196109533309936523e-01,8.195765614509582520e-01,8.195422291755676270e-01,8.195079565048217773e-01,8.194736242294311523e-01,7.072684168815612793e-01,6.932736635208129883e-01,6.847941875457763672e-01,6.770969033241271973e-01,6.701710820198059082e-01,6.638190150260925293e-01,6.582738161087036133e-01,6.545724272727966309e-01,6.528260707855224609e-01,6.507558822631835938e-01,6.498402357101440430e-01,6.502076983451843262e-01,6.522374749183654785e-01,6.562077403068542480e-01,6.635847091674804688e-01,8.189250826835632324e-01,8.188908696174621582e-01,8.188565373420715332e-01,8.188222646713256836e-01,8.187880516052246094e-01,8.187537789344787598e-01,8.187195658683776855e-01,8.186852931976318359e-01,8.186510801315307617e-01,8.186168074607849121e-01,8.185825347900390625e-01,8.185483813285827637e-01
7.829666733741760254e-01,7.829354405403137207e-01,7.829040884971618652e-01,7.828727364540100098e-01,7.828414440155029297e-01,7.828100919723510742e-01,7.827788591384887695e-01,7.827475070953369141e-01,7.827162742614746094e-01,7.826849222183227539e-01,7.826536297798156738e-01,7.826223373413085938e-01,7.825910449028015137e-01,7.825597524642944336e-01,7.825284600257873535e-01,7.824972271919250488e-01,7.824659347534179688e-01,7.824345827102661133e-01,7.824033498764038086e-01,7.823720574378967285e-01,7.823408246040344238e-01,7.823095321655273438e-01,7.822782993316650391e-01,7.822470068931579590e-01,7.822157144546508789e-01,7.821844816207885742e-01,7.821531891822814941e-01,7.821220159530639648e-01,7.820907235145568848e-01,7.820594906806945801e-01,7.820282578468322754e-01,7.819969654083251953e-01,7.819657325744628906e-01,7.819344997406005859e-01,7.819032669067382812e-01,7.818720340728759766e-01,7.818408608436584473e-01,7.818095684051513672e-01,7.817783355712890625e-01,7.817471623420715332e-01,7.817158699035644531e-01,7.816846966743469238e-01,7.816534638404846191e-01,7.816222906112670898e-01,7.815910577774047852e-01,7.815598249435424805e-01,7.815286517143249512e-01,7.814974188804626465e-01,7.814662456512451172e-01,7.814350128173828125e-01,7.814038395881652832e-01,7.813726067543029785e-01,7.813414335250854492e-01,7.813102602958679199e-01,6.937315464019775391e-01,6.839731335639953613e-01,6.766356229782104492e-01,6.699999570846557617e-01,6.637156605720520020e-01,6.584503054618835449e-01,6.529208421707153320e-01,6.489477753639221191e-01,6.469020843505859375e-01,6.449261307716369629e-01,6.443897485733032227e-01,6.449548602104187012e-01,6.466552019119262695e-01,6.489079594612121582e-01,6.544374823570251465e-01,6.631782650947570801e-01,6.711081266403198242e-01,7.807492017745971680e-01,7.807181477546691895e-01,7.806869745254516602e-01,7.806558609008789062e-01,7.806246876716613770e-01,7.805936336517333984e-01,7.805624604225158691e-01,7.805312871932983398e-01,7.805002331733703613e-01
7.480840086936950684e-01,7.480554580688476562e-01,7.480268478393554688e-01,7.479982376098632812e-01,7.479696869850158691e-01,7.479410767555236816e-01,7.479125261306762695e-01,7.478839755058288574e-01,7.478554248809814453e-01,7.478268146514892578e-01,7.477982044219970703e-01,7.477696537971496582e-01,7.477411031723022461e-01,7.477125525474548340e-01,7.476839423179626465e-01,7.476554512977600098e-01,7.476268410682678223e-01,7.475982904434204102e-01,7.475697398185729980e-01,7.475411891937255859e-01,7.475126981735229492e-01,7.474840879440307617e-01,7.474555969238281250e-01,7.474270462989807129e-01,7.473984360694885254e-01,7.473699450492858887e-01,7.473413944244384766e-01,7.473129034042358398e-01,7.472843527793884277e-01,7.472558617591857910e-01,7.472273111343383789e-01,7.471987009048461914e-01,7.471702694892883301e-01,7.471417188644409180e-01,7.471132278442382812e-01,7.470846772193908691e-01,7.470561861991882324e-01,7.470276355743408203e-01,7.469990849494934082e-01,7.469706535339355469e-01,7.469421029090881348e-01,7.469136714935302734e-01,7.468851208686828613e-01,7.468566298484802246e-01,7.468281388282775879e-01,7.467995882034301758e-01,7.467711567878723145e-01,7.467426061630249023e-01,7.467141747474670410e-01,7.466856837272644043e-01,7.466572523117065430e-01,7.466287016868591309e-01,7.466002106666564941e-01,7.465717792510986328e-01,7.465432882308959961e-01,6.890732049942016602e-01,6.777918338775634766e-01,6.701339483261108398e-01,6.631753444671630859e-01,6.567769050598144531e-01,6.507002711296081543e-01,6.455003023147583008e-01,6.416181325912475586e-01,6.399533152580261230e-01,6.384447216987609863e-01,6.375612020492553711e-01,6.383208632469177246e-01,6.398543119430541992e-01,6.414607763290405273e-01,6.467301845550537109e-01,6.528162360191345215e-01,6.582610011100769043e-01,6.569932699203491211e-01,7.460026144981384277e-01,7.459742426872253418e-01,7.459458112716674805e-01,7.459173798561096191e-01,7.458889484405517578e-01,7.458605766296386719e-01,7.458320856094360352e-01
7.161769866943359375e-01,7.161508202552795410e-01,7.161245942115783691e-01,7.160983681678771973e-01,7.160722017288208008e-01,7.160459756851196289e-01,7.160198092460632324e-01,7.159935832023620605e-01,7.159674167633056641e-01,7.159411907196044922e-01,7.159150242805480957e-01,7.158888578414916992e-01,7.158626317977905273e-01,7.158365249633789062e-01,7.158102989196777344e-01,7.157841324806213379e-01,7.157579660415649414e-01,7.157317399978637695e-01,7.157056331634521484e-01,7.156794071197509766e-01,7.156533002853393555e-01,7.156270742416381836e-01,7.156009674072265625e-01,7.155748009681701660e-01,7.155485749244689941e-01,7.155224680900573730e-01,7.154963016510009766e-01,7.154701948165893555e-01,7.154440283775329590e-01,7.154178619384765625e-01,7.153916954994201660e-01,7.153655290603637695e-01,7.153394222259521484e-01,7.153132557868957520e-01,7.152871489524841309e-01,7.152609825134277344e-01,7.152348756790161133e-01,7.152087092399597168e-01,7.151825428009033203e-01,7.151564955711364746e-01,7.151303291320800781e-01,7.151042222976684570e-01,7.150780558586120605e-01,7.150520086288452148e-01,7.150258421897888184e-01,7.149996757507324219e-01,7.149736285209655762e-01,7.149474620819091797e-01,7.149214148521423340e-01,7.148952484130859375e-01,7.148692011833190918e-01,7.148430347442626953e-01,7.148169279098510742e-01,7.147908806800842285e-01,7.147647142410278320e-01,7.147386670112609863e-01,7.147125601768493652e-01,7.146864533424377441e-01,7.146603465080261230e-01,6.605360507965087891e-01,6.518293023109436035e-01,6.449614763259887695e-01,6.391990184783935547e-01,6.343278884887695312e-01,6.321429014205932617e-01,6.301282048225402832e-01,6.291391253471374512e-01,6.299959421157836914e-01,6.317055821418762207e-01,6.330845355987548828e-01,6.365731358528137207e-01,6.409707665443420410e-01,6.374776363372802734e-01,6.489214897155761719e-01,6.485365033149719238e-01,6.483952403068542480e-01,7.141910195350646973e-01,7.141649127006530762e-01,7.141388654708862305e-01,7.141128182411193848e-01
