1.933802008628845215e+00,1.960518121719360352e+00,1.987982392311096191e+00,2.016227483749389648e+00,2.045286417007446289e+00,2.075195550918579102e+00,2.105992317199707031e+00,2.137716770172119141e+00,2.170411825180053711e+00,2.204122304916381836e+00,2.238900423049926758e+00,2.274793863296508789e+00,2.311857461929321289e+00,2.350148439407348633e+00,2.389729261398315430e+00,2.430666208267211914e+00,2.473026514053344727e+00,2.516887903213500977e+00,2.562333106994628906e+00,2.609449863433837891e+00,2.658331632614135742e+00,2.709079742431640625e+00,2.761803388595581055e+00,2.816619634628295898e+00,2.873656034469604492e+00,2.933050155639648438e+00,2.994951248168945312e+00,3.059521675109863281e+00,3.126937627792358398e+00,3.197391510009765625e+00,3.271093130111694336e+00,3.348272800445556641e+00,3.429182767868041992e+00,3.514099597930908203e+00,3.603328943252563477e+00,3.697207450866699219e+00,3.796106576919555664e+00,3.900442361831665039e+00,4.010675430297851562e+00,4.127320766448974609e+00,4.250953674316406250e+00,4.382222652435302734e+00,4.521856784820556641e+00,4.670682907104492188e+00,4.829638481140136719e+00,4.999794006347656250e+00,5.000000000000000000e+00,5.000000000000000000e+00,5.000000000000000000e+00,5.000000000000000000e+00,5.000000000000000000e+00,5.000000000000000000e+00,5.000000000000000000e+00,5.000000000000000000e+00,5.000000000000000000e+00,5.000000000000000000e+00,5.000000000000000000e+00,5.000000000000000000e+00,5.000000000000000000e+00,5.000000000000000000e+00,5.000000000000000000e+00,5.000000000000000000e+00,5.000000000000000000e+00,5.000000000000000000e+00,5.000000000000000000e+00,5.000000000000000000e+00,5.000000000000000000e+00,5.000000000000000000e+00,5.000000000000000000e+00,5.000000000000000000e+00,5.000000000000000000e+00,5.000000000000000000e+00,5.000000000000000000e+00,5.000000000000000000e+00,5.000000000000000000e+00,5.000000000000000000e+00,5.000000000000000000e+00,5.000000000000000000e+00,5.000000000000000000e+00,5.000000000000000000e+00
1.933773994445800781e+00,1.960489273071289062e+00,1.987952709197998047e+00,2.016196966171264648e+00,2.045255184173583984e+00,2.075163125991821289e+00,2.105958938598632812e+00,2.137682437896728516e+00,2.170376300811767578e+00,2.204085826873779297e+00,2.238858938217163086e+00,2.274746894836425781e+00,2.311807394027709961e+00,2.350096702575683594e+00,2.389675855636596680e+00,2.430610895156860352e+00,2.472972869873046875e+00,2.516837596893310547e+00,2.562283754348754883e+00,2.609398365020751953e+00,2.658278226852416992e+00,2.709024429321289062e+00,2.761745691299438477e+00,2.816559791564941406e+00,2.873593807220458984e+00,2.932985305786132812e+00,2.994883775711059570e+00,3.059451103210449219e+00,3.126863718032836914e+00,3.197314262390136719e+00,3.271012544631958008e+00,3.348188400268554688e+00,3.429094076156616211e+00,3.514006853103637695e+00,3.603231430053710938e+00,3.697104930877685547e+00,3.796000242233276367e+00,3.900330305099487305e+00,4.010556697845458984e+00,4.127194881439208984e+00,4.250820636749267578e+00,4.382081031799316406e+00,4.521706104278564453e+00,4.670521736145019531e+00,4.829465866088867188e+00,4.999609947204589844e+00,5.000000000000000000e+00,5.000000000000000000e+00,5.000000000000000000e+00,5.000000000000000000e+00,5.000000000000000000e+00,5.000000000000000000e+00,5.000000000000000000e+00,5.000000000000000000e+00,5.000000000000000000e+00,5.000000000000000000e+00,5.000000000000000000e+00,5.000000000000000000e+00,5.000000000000000000e+00,5.000000000000000000e+00,5.000000000000000000e+00,5.000000000000000000e+00,5.000000000000000000e+00,5.000000000000000000e+00,5.000000000000000000e+00,5.000000000000000000e+00,5.000000000000000000e+00,5.000000000000000000e+00,5.000000000000000000e+00,5.000000000000000000e+00,5.000000000000000000e+00,5.000000000000000000e+00,5.000000000000000000e+00,5.000000000000000000e+00,5.000000000000000000e+00,5.000000000000000000e+00,5.000000000000000000e+00,5.000000000000000000e+00,5.000000000000000000e+00,5.000000000000000000e+00
1.933745861053466797e+00,1.960460424423217773e+00,1.987923026084899902e+00,2.016166210174560547e+00,2.045223712921142578e+00,2.075130939483642578e+00,2.105925559997558594e+00,2.137648105621337891e+00,2.170341014862060547e+00,2.204049348831176758e+00,2.238821268081665039e+00,2.274708032608032227e+00,2.311764001846313477e+00,2.350047111511230469e+00,2.389622449874877930e+00,2.430555820465087891e+00,2.472915649414062500e+00,2.516778469085693359e+00,2.562225341796875000e+00,2.609343767166137695e+00,2.658225059509277344e+00,2.708969116210937500e+00,2.761688232421875000e+00,2.816499948501586914e+00,2.873531579971313477e+00,2.932920455932617188e+00,2.994816064834594727e+00,3.059380531311035156e+00,3.126790046691894531e+00,3.197237253189086914e+00,3.270931720733642578e+00,3.348103761672973633e+00,3.429005622863769531e+00,3.513913631439208984e+00,3.603133440017700195e+00,3.697001695632934570e+00,3.795892000198364258e+00,3.900217771530151367e+00,4.010437965393066406e+00,4.127068996429443359e+00,4.250687122344970703e+00,4.381939411163330078e+00,4.521555423736572266e+00,4.670360565185546875e+00,4.829294204711914062e+00,4.999425411224365234e+00,5.000000000000000000e+00,5.000000000000000000e+00,5.000000000000000000e+00,5.000000000000000000e+00,5.000000000000000000e+00,5.000000000000000000e+00,5.000000000000000000e+00,5.000000000000000000e+00,5.000000000000000000e+00,5.000000000000000000e+00,5.000000000000000000e+00,5.000000000000000000e+00,5.000000000000000000e+00,5.000000000000000000e+00,5.000000000000000000e+00,5.000000000000000000e+00,5.000000000000000000e+00,5.000000000000000000e+00,5.000000000000000000e+00,5.000000000000000000e+00,5.000000000000000000e+00,5.000000000000000000e+00,5.000000000000000000e+00,5.000000000000000000e+00,5.000000000000000000e+00,5.000000000000000000e+00,5.000000000000000000e+00,5.000000000000000000e+00,5.000000000000000000e+00,5.000000000000000000e+00,5.000000000000000000e+00,5.000000000000000000e+00,5.000000000000000000e+00,5.000000000000000000e+00
1.933717846870422363e+00,1.960431456565856934e+00,1.987893342971801758e+00,2.016135692596435547e+00,2.045192241668701172e+00,2.075098514556884766e+00,2.105892419815063477e+00,2.137613773345947266e+00,2.170305490493774414e+00,2.204012870788574219e+00,2.238783597946166992e+00,2.274669170379638672e+00,2.311723709106445312e+00,2.350005626678466797e+00,2.389576673507690430e+00,2.430503368377685547e+00,2.472858428955078125e+00,2.516719102859497070e+00,2.562163829803466797e+00,2.609279870986938477e+00,2.658161163330078125e+00,2.708909273147583008e+00,2.761630773544311523e+00,2.816440105438232422e+00,2.873469352722167969e+00,2.932855606079101562e+00,2.994748353958129883e+00,3.059309959411621094e+00,3.126716375350952148e+00,3.197160243988037109e+00,3.270851373672485352e+00,3.348019599914550781e+00,3.428917169570922852e+00,3.513820648193359375e+00,3.603035449981689453e+00,3.696898698806762695e+00,3.795783281326293945e+00,3.900103092193603516e+00,4.010318756103515625e+00,4.126943588256835938e+00,4.250553607940673828e+00,4.381797790527343750e+00,4.521404743194580078e+00,4.670199871063232422e+00,4.829122066497802734e+00,4.999240875244140625e+00,5.000000000000000000e+00,5.000000000000000000e+00,5.000000000000000000e+00,5.000000000000000000e+00,5.000000000000000000e+00,5.000000000000000000e+00,5.000000000000000000e+00,5.000000000000000000e+00,5.000000000000000000e+00,5.000000000000000000e+00,5.000000000000000000e+00,5.000000000000000000e+00,5.000000000000000000e+00,5.000000000000000000e+00,5.000000000000000000e+00,5.000000000000000000e+00,5.000000000000000000e+00,5.000000000000000000e+00,5.000000000000000000e+00,5.000000000000000000e+00,4.626901626586914062e+00,4.585240840911865234e+00,5.000000000000000000e+00,5.000000000000000000e+00,5.000000000000000000e+00,5.000000000000000000e+00,5.000000000000000000e+00,5.000000000000000000e+00,5.000000000000000000e+00,5.000000000000000000e+00,5.000000000000000000e+00,5.000000000000000000e+00,5.000000000000000000e+00,5.000000000000000000e+00
1.933689713478088379e+00,1.960402607917785645e+00,1.987863659858703613e+00,2.016105175018310547e+00,2.045160770416259766e+00,2.075066089630126953e+00,2.105859041213989258e+00,2.137579679489135742e+00,2.170270204544067383e+00,2.203976392745971680e+00,2.238745927810668945e+00,2.274630308151245117e+00,2.311683654785156250e+00,2.349964141845703125e+00,2.389533996582031250e+00,2.430459022521972656e+00,2.472810268402099609e+00,2.516664028167724609e+00,2.562102317810058594e+00,2.609216213226318359e+00,2.658095121383666992e+00,2.708840370178222656e+00,2.761560916900634766e+00,2.816374301910400391e+00,2.873407125473022461e+00,2.932790756225585938e+00,2.994680881500244141e+00,3.059239387512207031e+00,3.126642942428588867e+00,3.197083473205566406e+00,3.270770788192749023e+00,3.347935199737548828e+00,3.428828477859497070e+00,3.513727426528930664e+00,3.602937698364257812e+00,3.696795701980590820e+00,3.795674562454223633e+00,3.899988412857055664e+00,4.010197639465332031e+00,4.126817226409912109e+00,4.250420570373535156e+00,4.381656169891357422e+00,4.521253585815429688e+00,4.670038700103759766e+00,4.828949451446533203e+00,4.999056339263916016e+00,5.000000000000000000e+00,5.000000000000000000e+00,5.000000000000000000e+00,5.000000000000000000e+00,5.000000000000000000e+00,5.000000000000000000e+00,5.000000000000000000e+00,5.000000000000000000e+00,5.000000000000000000e+00,5.000000000000000000e+00,5.000000000000000000e+00,5.000000000000000000e+00,5.000000000000000000e+00,5.000000000000000000e+00,5.000000000000000000e+00,5.000000000000000000e+00,5.000000000000000000e+00,5.000000000000000000e+00,5.000000000000000000e+00,5.000000000000000000e+00,4.620227336883544922e+00,4.583178520202636719e+00,4.632056713104248047e+00,5.000000000000000000e+00,5.000000000000000000e+00,5.000000000000000000e+00,5.000000000000000000e+00,5.000000000000000000e+00,5.000000000000000000e+00,5.000000000000000000e+00,5.000000000000000000e+00,5.000000000000000000e+00,5.000000000000000000e+00,5.000000000000000000e+00
1.933661699295043945e+00,1.960373759269714355e+00,1.987833976745605469e+00,2.016074657440185547e+00,2.045129537582397461e+00,2.075033903121948242e+00,2.105825662612915039e+00,2.137545347213745117e+00,2.170234918594360352e+00,2.203939914703369141e+00,2.238708257675170898e+00,2.274591445922851562e+00,2.311643600463867188e+00,2.349922657012939453e+00,2.389491081237792969e+00,2.430414676666259766e+00,2.472764492034912109e+00,2.516616344451904297e+00,2.562051534652709961e+00,2.609157800674438477e+00,2.658029079437255859e+00,2.708771705627441406e+00,2.761489629745483398e+00,2.816299915313720703e+00,2.873330354690551758e+00,2.932718276977539062e+00,2.994612693786621094e+00,3.059169054031372070e+00,3.126569271087646484e+00,3.197006225585937500e+00,3.270690202713012695e+00,3.347850561141967773e+00,3.428739786148071289e+00,3.513634443283081055e+00,3.602839708328247070e+00,3.696692705154418945e+00,3.795566082000732422e+00,3.899873733520507812e+00,4.010076522827148438e+00,4.126688957214355469e+00,4.250286102294921875e+00,4.381514072418212891e+00,4.521102905273437500e+00,4.669878005981445312e+00,4.828777790069580078e+00,4.998872280120849609e+00,5.000000000000000000e+00,5.000000000000000000e+00,5.000000000000000000e+00,5.000000000000000000e+00,5.000000000000000000e+00,5.000000000000000000e+00,5.000000000000000000e+00,5.000000000000000000e+00,5.000000000000000000e+00,5.000000000000000000e+00,5.000000000000000000e+00,5.000000000000000000e+00,5.000000000000000000e+00,5.000000000000000000e+00,5.000000000000000000e+00,5.000000000000000000e+00,5.000000000000000000e+00,5.000000000000000000e+00,5.000000000000000000e+00,5.000000000000000000e+00,5.000000000000000000e+00,4.627766609191894531e+00,4.579336643218994141e+00,4.477274894714355469e+00,5.000000000000000000e+00,5.000000000000000000e+00,5.000000000000000000e+00,5.000000000000000000e+00,5.000000000000000000e+00,5.000000000000000000e+00,5.000000000000000000e+00,5.000000000000000000e+00,5.000000000000000000e+00,5.000000000000000000e+00
1.933633565902709961e+00,1.960344910621643066e+00,1.987804293632507324e+00,2.016044139862060547e+00,2.045098066329956055e+00,2.075001478195190430e+00,2.105792284011840820e+00,2.137511014938354492e+00,2.170199394226074219e+00,2.203903436660766602e+00,2.238670825958251953e+00,2.274552583694458008e+00,2.311603307723999023e+00,2.349881172180175781e+00,2.389448165893554688e+00,2.430370330810546875e+00,2.472718477249145508e+00,2.516568899154663086e+00,2.562002420425415039e+00,2.609106779098510742e+00,2.657975196838378906e+00,2.708709716796875000e+00,2.761418581008911133e+00,2.816225767135620117e+00,2.873253107070922852e+00,2.932637929916381836e+00,2.994528770446777344e+00,3.059088468551635742e+00,3.126493453979492188e+00,3.196929216384887695e+00,3.270609378814697266e+00,3.347766160964965820e+00,3.428651094436645508e+00,3.513541221618652344e+00,3.602741956710815430e+00,3.696589708328247070e+00,3.795457363128662109e+00,3.899759054183959961e+00,4.009955406188964844e+00,4.126560211181640625e+00,4.250149726867675781e+00,4.381371021270751953e+00,4.520951747894287109e+00,4.669716835021972656e+00,4.828605651855468750e+00,4.998687744140625000e+00,5.000000000000000000e+00,5.000000000000000000e+00,5.000000000000000000e+00,5.000000000000000000e+00,5.000000000000000000e+00,5.000000000000000000e+00,5.000000000000000000e+00,5.000000000000000000e+00,5.000000000000000000e+00,5.000000000000000000e+00,5.000000000000000000e+00,5.000000000000000000e+00,5.000000000000000000e+00,5.000000000000000000e+00,5.000000000000000000e+00,5.000000000000000000e+00,5.000000000000000000e+00,5.000000000000000000e+00,5.000000000000000000e+00,5.000000000000000000e+00,4.783342838287353516e+00,4.570407867431640625e+00,4.493388652801513672e+00,4.432355880737304688e+00,4.422728538513183594e+00,5.000000000000000000e+00,5.000000000000000000e+00,5.000000000000000000e+00,5.000000000000000000e+00,5.000000000000000000e+00,5.000000000000000000e+00,5.000000000000000000e+00,5.000000000000000000e+00,5.000000000000000000e+00
1.933605432510375977e+00,1.960316061973571777e+00,1.987774610519409180e+00,2.016013622283935547e+00,2.045066595077514648e+00,2.074969053268432617e+00,2.105759143829345703e+00,2.137476682662963867e+00,2.170164108276367188e+00,2.203866958618164062e+00,2.238633155822753906e+00,2.274513721466064453e+00,2.311563253402709961e+00,2.349839925765991211e+00,2.389405250549316406e+00,2.430325984954833984e+00,2.472672700881958008e+00,2.516521215438842773e+00,2.561953067779541016e+00,2.609055519104003906e+00,2.657922267913818359e+00,2.708654642105102539e+00,2.761361122131347656e+00,2.816159725189208984e+00,2.873177289962768555e+00,2.932557106018066406e+00,2.994444847106933594e+00,3.059000968933105469e+00,3.126402139663696289e+00,3.196840047836303711e+00,3.270524978637695312e+00,3.347681522369384766e+00,3.428562402725219727e+00,3.513448238372802734e+00,3.602643966674804688e+00,3.696486473083496094e+00,3.795348882675170898e+00,3.899644374847412109e+00,4.009833812713623047e+00,4.126431941986083984e+00,4.250013828277587891e+00,4.381226062774658203e+00,4.520799160003662109e+00,4.669556140899658203e+00,4.828433513641357422e+00,4.998503208160400391e+00,5.000000000000000000e+00,5.000000000000000000e+00,5.000000000000000000e+00,5.000000000000000000e+00,5.000000000000000000e+00,5.000000000000000000e+00,5.000000000000000000e+00,5.000000000000000000e+00,5.000000000000000000e+00,5.000000000000000000e+00,5.000000000000000000e+00,5.000000000000000000e+00,5.000000000000000000e+00,5.000000000000000000e+00,5.000000000000000000e+00,5.000000000000000000e+00,5.000000000000000000e+00,5.000000000000000000e+00,5.000000000000000000e+00,4.770120620727539062e+00,4.613668441772460938e+00,4.529634475708007812e+00,4.497348308563232422e+00,4.459691524505615234e+00,4.426103115081787109e+00,5.000000000000000000e+00,5.000000000000000000e+00,5.000000000000000000e+00,5.000000000000000000e+00,5.000000000000000000e+00,5.000000000000000000e+00,5.000000000000000000e+00,5.000000000000000000e+00,5.000000000000000000e+00
1.933577418327331543e+00,1.960287213325500488e+00,1.987745046615600586e+00,2.015983104705810547e+00,2.045035123825073242e+00,2.074936866760253906e+00,2.105725765228271484e+00,2.137442350387573242e+00,2.170128822326660156e+00,2.203830480575561523e+00,2.238595485687255859e+00,2.274474859237670898e+00,2.311523199081420898e+00,2.349798440933227539e+00,2.389362335205078125e+00,2.430281639099121094e+00,2.472626686096191406e+00,2.516473770141601562e+00,2.561903715133666992e+00,2.609004497528076172e+00,2.657869100570678711e+00,2.708599567413330078e+00,2.761303901672363281e+00,2.816100358963012695e+00,2.873115301132202148e+00,2.932486772537231445e+00,2.994363546371459961e+00,3.058913469314575195e+00,3.126310348510742188e+00,3.196744441986083984e+00,3.270424842834472656e+00,3.347582101821899414e+00,3.428468227386474609e+00,3.513355255126953125e+00,3.602546215057373047e+00,3.696383476257324219e+00,3.795240163803100586e+00,3.899529695510864258e+00,4.009712696075439453e+00,4.126303672790527344e+00,4.249877452850341797e+00,4.381081581115722656e+00,4.520645141601562500e+00,4.669393062591552734e+00,4.828261375427246094e+00,4.998318672180175781e+00,5.000000000000000000e+00,5.000000000000000000e+00,5.000000000000000000e+00,5.000000000000000000e+00,5.000000000000000000e+00,5.000000000000000000e+00,5.000000000000000000e+00,5.000000000000000000e+00,5.000000000000000000e+00,5.000000000000000000e+00,5.000000000000000000e+00,5.000000000000000000e+00,5.000000000000000000e+00,5.000000000000000000e+00,5.000000000000000000e+00,5.000000000000000000e+00,5.000000000000000000e+00,5.000000000000000000e+00,5.000000000000000000e+00,4.726232528686523438e+00,4.597996234893798828e+00,4.539196014404296875e+00,4.509240627288818359e+00,4.467059612274169922e+00,4.427438259124755859e+00,5.000000000000000000e+00,5.000000000000000000e+00,5.000000000000000000e+00,5.000000000000000000e+00,5.000000000000000000e+00,5.000000000000000000e+00,5.000000000000000000e+00,5.000000000000000000e+00,5.000000000000000000e+00
1.933549284934997559e+00,1.960258364677429199e+00,1.987715363502502441e+00,2.015952587127685547e+00,2.045003890991210938e+00,2.074904441833496094e+00,2.105692386627197266e+00,2.137408018112182617e+00,2.170093297958374023e+00,2.203794002532958984e+00,2.238557815551757812e+00,2.274435997009277344e+00,2.311482906341552734e+00,2.349756956100463867e+00,2.389319419860839844e+00,2.430237293243408203e+00,2.472580671310424805e+00,2.516426086425781250e+00,2.561854362487792969e+00,2.608953237533569336e+00,2.657816171646118164e+00,2.708544492721557617e+00,2.761246681213378906e+00,2.816040754318237305e+00,2.873053312301635742e+00,2.932422161102294922e+00,2.994296312332153320e+00,3.058838129043579102e+00,3.126223087310791016e+00,3.196648836135864258e+00,3.270324707031250000e+00,3.347477197647094727e+00,3.428358316421508789e+00,3.513244152069091797e+00,3.602440357208251953e+00,3.696280479431152344e+00,3.795131683349609375e+00,3.899415016174316406e+00,4.009591579437255859e+00,4.126175403594970703e+00,4.249741554260253906e+00,4.380937099456787109e+00,4.520491123199462891e+00,4.669228553771972656e+00,4.828086853027343750e+00,4.998134613037109375e+00,5.000000000000000000e+00,5.000000000000000000e+00,5.000000000000000000e+00,5.000000000000000000e+00,5.000000000000000000e+00,5.000000000000000000e+00,5.000000000000000000e+00,5.000000000000000000e+00,5.000000000000000000e+00,5.000000000000000000e+00,5.000000000000000000e+00,5.000000000000000000e+00,5.000000000000000000e+00,5.000000000000000000e+00,5.000000000000000000e+00,5.000000000000000000e+00,5.000000000000000000e+00,5.000000000000000000e+00,5.000000000000000000e+00,4.828235149383544922e+00,4.592102527618408203e+00,4.532918930053710938e+00,4.515923500061035156e+00,4.495059490203857422e+00,4.438423633575439453e+00,5.000000000000000000e+00,5.000000000000000000e+00,5.000000000000000000e+00,5.000000000000000000e+00,5.000000000000000000e+00,5.000000000000000000e+00,5.000000000000000000e+00,5.000000000000000000e+00,5.000000000000000000e+00
1.933521270751953125e+00,1.960229516029357910e+00,1.987685680389404297e+00,2.015922069549560547e+00,2.044972419738769531e+00,2.074872016906738281e+00,2.105659246444702148e+00,2.137373685836791992e+00,2.170058012008666992e+00,2.203757524490356445e+00,2.238520145416259766e+00,2.274397134780883789e+00,2.311442852020263672e+00,2.349715471267700195e+00,2.389276504516601562e+00,2.430192947387695312e+00,2.472534894943237305e+00,2.516378641128540039e+00,2.561805248260498047e+00,2.608902215957641602e+00,2.657763004302978516e+00,2.708489418029785156e+00,2.761189460754394531e+00,2.815981149673461914e+00,2.872991323471069336e+00,2.932357788085937500e+00,2.994229078292846680e+00,3.058767795562744141e+00,3.126149892807006836e+00,3.196567773818969727e+00,3.270230770111083984e+00,3.347372293472290039e+00,3.428248167037963867e+00,3.513128519058227539e+00,3.602318763732910156e+00,3.696156024932861328e+00,3.795012235641479492e+00,3.899300575256347656e+00,4.009470462799072266e+00,4.126047134399414062e+00,4.249605655670166016e+00,4.380792617797851562e+00,4.520337104797363281e+00,4.669064044952392578e+00,4.827910900115966797e+00,4.997946739196777344e+00,5.000000000000000000e+00,5.000000000000000000e+00,5.000000000000000000e+00,5.000000000000000000e+00,5.000000000000000000e+00,5.000000000000000000e+00,5.000000000000000000e+00,5.000000000000000000e+00,5.000000000000000000e+00,5.000000000000000000e+00,5.000000000000000000e+00,5.000000000000000000e+00,5.000000000000000000e+00,5.000000000000000000e+00,5.000000000000000000e+00,5.000000000000000000e+00,5.000000000000000000e+00,5.000000000000000000e+00,5.000000000000000000e+00,4.833866596221923828e+00,4.582455635070800781e+00,4.519853591918945312e+00,4.503931999206542969e+00,5.000000000000000000e+00,4.437213897705078125e+00,5.000000000000000000e+00,5.000000000000000000e+00,5.000000000000000000e+00,5.000000000000000000e+00,5.000000000000000000e+00,5.000000000000000000e+00,5.000000000000000000e+00,5.000000000000000000e+00,5.000000000000000000e+00
1.933493137359619141e+00,1.960200667381286621e+00,1.987655997276306152e+00,2.015891551971435547e+00,2.044940948486328125e+00,2.074839830398559570e+00,2.105625867843627930e+00,2.137339353561401367e+00,2.170022726058959961e+00,2.203721046447753906e+00,2.238482475280761719e+00,2.274358272552490234e+00,2.311402797698974609e+00,2.349673986434936523e+00,2.389233827590942383e+00,2.430148601531982422e+00,2.472488880157470703e+00,2.516330957412719727e+00,2.561755895614624023e+00,2.608851194381713867e+00,2.657710075378417969e+00,2.708434343338012695e+00,2.761132240295410156e+00,2.815921545028686523e+00,2.872929334640502930e+00,2.932293176651000977e+00,2.994161605834960938e+00,3.058697700500488281e+00,3.126076459884643555e+00,3.196491003036499023e+00,3.270150423049926758e+00,3.347285270690917969e+00,3.428146362304687500e+00,3.513013124465942383e+00,3.602197408676147461e+00,3.696027994155883789e+00,3.794877529144287109e+00,3.899159669876098633e+00,4.009335041046142578e+00,4.125917911529541016e+00,4.249469280242919922e+00,4.380647659301757812e+00,4.520183086395263672e+00,4.668899536132812500e+00,4.827734947204589844e+00,4.997758388519287109e+00,5.000000000000000000e+00,5.000000000000000000e+00,5.000000000000000000e+00,5.000000000000000000e+00,5.000000000000000000e+00,5.000000000000000000e+00,5.000000000000000000e+00,5.000000000000000000e+00,5.000000000000000000e+00,5.000000000000000000e+00,5.000000000000000000e+00,5.000000000000000000e+00,5.000000000000000000e+00,5.000000000000000000e+00,5.000000000000000000e+00,5.000000000000000000e+00,5.000000000000000000e+00,5.000000000000000000e+00,5.000000000000000000e+00,4.826738357543945312e+00,4.589961051940917969e+00,4.525066375732421875e+00,4.495361804962158203e+00,4.536768436431884766e+00,4.427309989929199219e+00,5.000000000000000000e+00,5.000000000000000000e+00,5.000000000000000000e+00,5.000000000000000000e+00,5.000000000000000000e+00,5.000000000000000000e+00,5.000000000000000000e+00,5.000000000000000000e+00,5.000000000000000000e+00
1.933465123176574707e+00,1.960171699523925781e+00,1.987626314163208008e+00,2.015861034393310547e+00,2.044909477233886719e+00,2.074807405471801758e+00,2.105592489242553711e+00,2.137305021286010742e+00,2.169987201690673828e+00,2.203684568405151367e+00,2.238444805145263672e+00,2.274319648742675781e+00,2.311362504959106445e+00,2.349632501602172852e+00,2.389190912246704102e+00,2.430104255676269531e+00,2.472443103790283203e+00,2.516283512115478516e+00,2.561706542968750000e+00,2.608799934387207031e+00,2.657656908035278320e+00,2.708379268646240234e+00,2.761075019836425781e+00,2.815862178802490234e+00,2.872867345809936523e+00,2.932228565216064453e+00,2.994094371795654297e+00,3.058627367019653320e+00,3.126003026962280273e+00,3.196414232254028320e+00,3.270070075988769531e+00,3.347201108932495117e+00,3.428058147430419922e+00,3.512918472290039062e+00,3.602086782455444336e+00,3.695899963378906250e+00,3.794742822647094727e+00,3.899017333984375000e+00,4.009184360504150391e+00,4.125758647918701172e+00,4.249314785003662109e+00,4.380499839782714844e+00,4.520029067993164062e+00,4.668735504150390625e+00,4.827559471130371094e+00,4.997570037841796875e+00,5.000000000000000000e+00,5.000000000000000000e+00,5.000000000000000000e+00,5.000000000000000000e+00,5.000000000000000000e+00,5.000000000000000000e+00,5.000000000000000000e+00,5.000000000000000000e+00,5.000000000000000000e+00,5.000000000000000000e+00,5.000000000000000000e+00,5.000000000000000000e+00,5.000000000000000000e+00,5.000000000000000000e+00,5.000000000000000000e+00,5.000000000000000000e+00,5.000000000000000000e+00,5.000000000000000000e+00,5.000000000000000000e+00,4.744662761688232422e+00,4.623519897460937500e+00,4.494986057281494141e+00,4.479465007781982422e+00,4.517832756042480469e+00,4.416475296020507812e+00,5.000000000000000000e+00,5.000000000000000000e+00,5.000000000000000000e+00,5.000000000000000000e+00,5.000000000000000000e+00,5.000000000000000000e+00,5.000000000000000000e+00,5.000000000000000000e+00,5.000000000000000000e+00
1.933436989784240723e+00,1.960142850875854492e+00,1.987596631050109863e+00,2.015830516815185547e+00,2.044878244400024414e+00,2.074775218963623047e+00,2.105559349060058594e+00,2.137270689010620117e+00,2.169951915740966797e+00,2.203648090362548828e+00,2.238407373428344727e+00,2.274280786514282227e+00,2.311322450637817383e+00,2.349591016769409180e+00,2.389147996902465820e+00,2.430059909820556641e+00,2.472397089004516602e+00,2.516235828399658203e+00,2.561657428741455078e+00,2.608748912811279297e+00,2.657603979110717773e+00,2.708324193954467773e+00,2.761017560958862305e+00,2.815802574157714844e+00,2.872805356979370117e+00,2.932163953781127930e+00,2.994027137756347656e+00,3.058557033538818359e+00,3.125929594039916992e+00,3.196337461471557617e+00,3.269989967346191406e+00,3.347116947174072266e+00,3.427969932556152344e+00,3.512825965881347656e+00,3.601989269256591797e+00,3.695797204971313477e+00,3.794621706008911133e+00,3.898876905441284180e+00,4.009033679962158203e+00,4.125598907470703125e+00,4.249145507812500000e+00,4.380319595336914062e+00,4.519851207733154297e+00,4.668564319610595703e+00,4.827383995056152344e+00,4.997382164001464844e+00,5.000000000000000000e+00,5.000000000000000000e+00,5.000000000000000000e+00,5.000000000000000000e+00,5.000000000000000000e+00,5.000000000000000000e+00,5.000000000000000000e+00,5.000000000000000000e+00,5.000000000000000000e+00,5.000000000000000000e+00,5.000000000000000000e+00,5.000000000000000000e+00,5.000000000000000000e+00,5.000000000000000000e+00,5.000000000000000000e+00,5.000000000000000000e+00,5.000000000000000000e+00,5.000000000000000000e+00,5.000000000000000000e+00,4.669561386108398438e+00,4.543193340301513672e+00,4.475732326507568359e+00,4.470654487609863281e+00,4.454869747161865234e+00,4.415350437164306641e+00,5.000000000000000000e+00,5.000000000000000000e+00,5.000000000000000000e+00,5.000000000000000000e+00,5.000000000000000000e+00,5.000000000000000000e+00,5.000000000000000000e+00,5.000000000000000000e+00,5.000000000000000000e+00
1.933408975601196289e+00,1.960114002227783203e+00,1.987566947937011719e+00,2.015799999237060547e+00,2.044846773147583008e+00,2.074742794036865234e+00,2.105525970458984375e+00,2.137236356735229492e+00,2.169916629791259766e+00,2.203611612319946289e+00,2.238369703292846680e+00,2.274241924285888672e+00,2.311282396316528320e+00,2.349549531936645508e+00,2.389105081558227539e+00,2.430015563964843750e+00,2.472351312637329102e+00,2.516188383102416992e+00,2.561608076095581055e+00,2.608697652816772461e+00,2.657550811767578125e+00,2.708269119262695312e+00,2.760960340499877930e+00,2.815742969512939453e+00,2.872743368148803711e+00,2.932099342346191406e+00,2.993959665298461914e+00,3.058486700057983398e+00,3.125856161117553711e+00,3.196260929107666016e+00,3.269909620285034180e+00,3.347032785415649414e+00,3.427881479263305664e+00,3.512733221054077148e+00,3.601891994476318359e+00,3.695694684982299805e+00,3.794513702392578125e+00,3.898762702941894531e+00,4.008901119232177734e+00,4.125443935394287109e+00,4.248976230621337891e+00,4.380140304565429688e+00,4.519659996032714844e+00,4.668360233306884766e+00,4.827178001403808594e+00,4.997181892395019531e+00,5.000000000000000000e+00,5.000000000000000000e+00,5.000000000000000000e+00,5.000000000000000000e+00,5.000000000000000000e+00,5.000000000000000000e+00,5.000000000000000000e+00,5.000000000000000000e+00,5.000000000000000000e+00,5.000000000000000000e+00,5.000000000000000000e+00,5.000000000000000000e+00,5.000000000000000000e+00,5.000000000000000000e+00,5.000000000000000000e+00,5.000000000000000000e+00,5.000000000000000000e+00,5.000000000000000000e+00,4.772051811218261719e+00,4.658618450164794922e+00,4.513652324676513672e+00,4.468278884887695312e+00,4.494416236877441406e+00,5.000000000000000000e+00,4.405440330505371094e+00,5.000000000000000000e+00,5.000000000000000000e+00,5.000000000000000000e+00,5.000000000000000000e+00,5.000000000000000000e+00,5.000000000000000000e+00,5.000000000000000000e+00,5.000000000000000000e+00,5.000000000000000000e+00
1.933380842208862305e+00,1.960084915161132812e+00,1.987537264823913574e+00,2.015769481658935547e+00,2.044815301895141602e+00,2.074710369110107422e+00,2.105492591857910156e+00,2.137202024459838867e+00,2.169881105422973633e+00,2.203575134277343750e+00,2.238332033157348633e+00,2.274202823638916016e+00,2.311242341995239258e+00,2.349508047103881836e+00,2.389062166213989258e+00,2.429970979690551758e+00,2.472305297851562500e+00,2.516140699386596680e+00,2.561558723449707031e+00,2.608646392822265625e+00,2.657497882843017578e+00,2.708213806152343750e+00,2.760903120040893555e+00,2.815683126449584961e+00,2.872681379318237305e+00,2.932034492492675781e+00,2.993892431259155273e+00,3.058416366577148438e+00,3.125782728195190430e+00,3.196183919906616211e+00,3.269829273223876953e+00,3.346948385238647461e+00,3.427793264389038086e+00,3.512640237808227539e+00,3.601794481277465820e+00,3.695591688156127930e+00,3.794405460357666016e+00,3.898648023605346680e+00,4.008780479431152344e+00,4.125315666198730469e+00,4.248829364776611328e+00,4.379967689514160156e+00,4.519468784332275391e+00,4.668156147003173828e+00,4.826959609985351562e+00,4.996948242187500000e+00,5.000000000000000000e+00,5.000000000000000000e+00,5.000000000000000000e+00,5.000000000000000000e+00,5.000000000000000000e+00,5.000000000000000000e+00,5.000000000000000000e+00,5.000000000000000000e+00,5.000000000000000000e+00,5.000000000000000000e+00,5.000000000000000000e+00,5.000000000000000000e+00,5.000000000000000000e+00,5.000000000000000000e+00,5.000000000000000000e+00,5.000000000000000000e+00,5.000000000000000000e+00,5.000000000000000000e+00,5.000000000000000000e+00,4.647274971008300781e+00,4.500692844390869141e+00,4.480572700500488281e+00,5.000000000000000000e+00,5.000000000000000000e+00,5.000000000000000000e+00,5.000000000000000000e+00,5.000000000000000000e+00,5.000000000000000000e+00,5.000000000000000000e+00,5.000000000000000000e+00,5.000000000000000000e+00,5.000000000000000000e+00,5.000000000000000000e+00,5.000000000000000000e+00
1.933352828025817871e+00,1.960056066513061523e+00,1.987507581710815430e+00,2.015738964080810547e+00,2.044784069061279297e+00,2.074677944183349609e+00,2.105459451675415039e+00,2.137167692184448242e+00,2.169845819473266602e+00,2.203538656234741211e+00,2.238294363021850586e+00,2.274163961410522461e+00,2.311202049255371094e+00,2.349466562271118164e+00,2.389019489288330078e+00,2.429926633834838867e+00,2.472259521484375000e+00,2.516093015670776367e+00,2.561509370803833008e+00,2.608595371246337891e+00,2.657444715499877930e+00,2.708158731460571289e+00,2.760845899581909180e+00,2.815623760223388672e+00,2.872619390487670898e+00,2.931970119476318359e+00,2.993825197219848633e+00,3.058346033096313477e+00,3.125709533691406250e+00,3.196107149124145508e+00,3.269748926162719727e+00,3.346864223480224609e+00,3.427705049514770508e+00,3.512547492980957031e+00,3.601696968078613281e+00,3.695489168167114258e+00,3.794297218322753906e+00,3.898534059524536133e+00,4.008659362792968750e+00,4.125187873840332031e+00,4.248693943023681641e+00,4.379823684692382812e+00,4.519305229187011719e+00,4.667962551116943359e+00,4.826741695404052734e+00,4.996714591979980469e+00,5.000000000000000000e+00,5.000000000000000000e+00,5.000000000000000000e+00,5.000000000000000000e+00,5.000000000000000000e+00,5.000000000000000000e+00,5.000000000000000000e+00,5.000000000000000000e+00,5.000000000000000000e+00,5.000000000000000000e+00,5.000000000000000000e+00,5.000000000000000000e+00,5.000000000000000000e+00,5.000000000000000000e+00,5.000000000000000000e+00,5.000000000000000000e+00,5.000000000000000000e+00,5.000000000000000000e+00,5.000000000000000000e+00,4.642329692840576172e+00,4.490156173706054688e+00,4.498553752899169922e+00,5.000000000000000000e+00,5.000000000000000000e+00,5.000000000000000000e+00,5.000000000000000000e+00,5.000000000000000000e+00,5.000000000000000000e+00,5.000000000000000000e+00,5.000000000000000000e+00,5.000000000000000000e+00,5.000000000000000000e+00,5.000000000000000000e+00,5.000000000000000000e+00
1.933324694633483887e+00,1.960027217864990234e+00,1.987478017807006836e+00,2.015708446502685547e+00,2.044752597808837891e+00,2.074645757675170898e+00,2.105426073074340820e+00,2.137133359909057617e+00,2.169810533523559570e+00,2.203502178192138672e+00,2.238256692886352539e+00,2.274125099182128906e+00,2.311161994934082031e+00,2.349425077438354492e+00,2.388976573944091797e+00,2.429882287979125977e+00,2.472213506698608398e+00,2.516045570373535156e+00,2.561460256576538086e+00,2.608544349670410156e+00,2.657391786575317383e+00,2.708103656768798828e+00,2.760788679122924805e+00,2.815564155578613281e+00,2.872557401657104492e+00,2.931905508041381836e+00,2.993757724761962891e+00,3.058275699615478516e+00,3.125636100769042969e+00,3.196030378341674805e+00,3.269668579101562500e+00,3.346780061721801758e+00,3.427616834640502930e+00,3.512454748153686523e+00,3.601599693298339844e+00,3.695386648178100586e+00,3.794189214706420898e+00,3.898419857025146484e+00,4.008538722991943359e+00,4.125060081481933594e+00,4.248558521270751953e+00,4.379679679870605469e+00,4.519151687622070312e+00,4.667798995971679688e+00,4.826558113098144531e+00,4.996496200561523438e+00,5.000000000000000000e+00,5.000000000000000000e+00,5.000000000000000000e+00,5.000000000000000000e+00,5.000000000000000000e+00,5.000000000000000000e+00,5.000000000000000000e+00,5.000000000000000000e+00,5.000000000000000000e+00,5.000000000000000000e+00,5.000000000000000000e+00,5.000000000000000000e+00,5.000000000000000000e+00,5.000000000000000000e+00,5.000000000000000000e+00,5.000000000000000000e+00,5.000000000000000000e+00,5.000000000000000000e+00,5.000000000000000000e+00,4.644265651702880859e+00,4.501399040222167969e+00,4.506210803985595703e+00,5.000000000000000000e+00,5.000000000000000000e+00,5.000000000000000000e+00,5.000000000000000000e+00,5.000000000000000000e+00,5.000000000000000000e+00,5.000000000000000000e+00,5.000000000000000000e+00,5.000000000000000000e+00,5.000000000000000000e+00,5.000000000000000000e+00,5.000000000000000000e+00
1.933296680450439453e+00,1.959998369216918945e+00,1.987448334693908691e+00,2.015677928924560547e+00,2.044721126556396484e+00,2.074613332748413086e+00,2.105392932891845703e+00,2.137099027633666992e+00,2.169775009155273438e+00,2.203465700149536133e+00,2.238219261169433594e+00,2.274086236953735352e+00,2.311121940612792969e+00,2.349383592605590820e+00,2.388933658599853516e+00,2.429837942123413086e+00,2.472167730331420898e+00,2.515998125076293945e+00,2.561410903930664062e+00,2.608493089675903320e+00,2.657338857650756836e+00,2.708048582077026367e+00,2.760731458663940430e+00,2.815504550933837891e+00,2.872495412826538086e+00,2.931840896606445312e+00,2.993690490722656250e+00,3.058205604553222656e+00,3.125562667846679688e+00,3.195953607559204102e+00,3.269588470458984375e+00,3.346695899963378906e+00,3.427528619766235352e+00,3.512362241744995117e+00,3.601502180099487305e+00,3.695284128189086914e+00,3.794081211090087891e+00,3.898305654525756836e+00,4.008418083190917969e+00,4.124932289123535156e+00,4.248422622680664062e+00,4.379535198211669922e+00,4.518998146057128906e+00,4.667635440826416016e+00,4.826383113861083984e+00,4.996308803558349609e+00,5.000000000000000000e+00,5.000000000000000000e+00,5.000000000000000000e+00,5.000000000000000000e+00,5.000000000000000000e+00,5.000000000000000000e+00,5.000000000000000000e+00,5.000000000000000000e+00,5.000000000000000000e+00,5.000000000000000000e+00,5.000000000000000000e+00,5.000000000000000000e+00,5.000000000000000000e+00,5.000000000000000000e+00,5.000000000000000000e+00,5.000000000000000000e+00,5.000000000000000000e+00,5.000000000000000000e+00,5.000000000000000000e+00,5.000000000000000000e+00,4.549671649932861328e+00,4.506946563720703125e+00,5.000000000000000000e+00,5.000000000000000000e+00,5.000000000000000000e+00,5.000000000000000000e+00,5.000000000000000000e+00,5.000000000000000000e+00,5.000000000000000000e+00,5.000000000000000000e+00,5.000000000000000000e+00,5.000000000000000000e+00,5.000000000000000000e+00,5.000000000000000000e+00
1.933268547058105469e+00,1.959969520568847656e+00,1.987418651580810547e+00,2.015647411346435547e+00,2.044689655303955078e+00,2.074581146240234375e+00,2.105359554290771484e+00,2.137064695358276367e+00,2.169739723205566406e+00,2.203429222106933594e+00,2.238181591033935547e+00,2.274047613143920898e+00,2.311081647872924805e+00,2.349342107772827148e+00,2.388890743255615234e+00,2.429793596267700195e+00,2.472121715545654297e+00,2.515950441360473633e+00,2.561361551284790039e+00,2.608442068099975586e+00,2.657285690307617188e+00,2.707993507385253906e+00,2.760674238204956055e+00,2.815444946289062500e+00,2.872433423995971680e+00,2.931776285171508789e+00,2.993623256683349609e+00,3.058135271072387695e+00,3.125489473342895508e+00,3.195876836776733398e+00,3.269508123397827148e+00,3.346611738204956055e+00,3.427440404891967773e+00,3.512269496917724609e+00,3.601404905319213867e+00,3.695181369781494141e+00,3.793972969055175781e+00,3.898191452026367188e+00,4.008297443389892578e+00,4.124804496765136719e+00,4.248287200927734375e+00,4.379391193389892578e+00,4.518845081329345703e+00,4.667471885681152344e+00,4.826208114624023438e+00,4.996121406555175781e+00,5.000000000000000000e+00,5.000000000000000000e+00,5.000000000000000000e+00,5.000000000000000000e+00,5.000000000000000000e+00,5.000000000000000000e+00,5.000000000000000000e+00,5.000000000000000000e+00,5.000000000000000000e+00,5.000000000000000000e+00,5.000000000000000000e+00,5.000000000000000000e+00,5.000000000000000000e+00,5.000000000000000000e+00,5.000000000000000000e+00,5.000000000000000000e+00,5.000000000000000000e+00,5.000000000000000000e+00,5.000000000000000000e+00,5.000000000000000000e+00,4.593376159667968750e+00,4.521056652069091797e+00,4.722447395324707031e+00,5.000000000000000000e+00,5.000000000000000000e+00,5.000000000000000000e+00,5.000000000000000000e+00,5.000000000000000000e+00,5.000000000000000000e+00,5.000000000000000000e+00,5.000000000000000000e+00,5.000000000000000000e+00,5.000000000000000000e+00,5.000000000000000000e+00
1.933240532875061035e+00,1.959940671920776367e+00,1.987388968467712402e+00,2.015616893768310547e+00,2.044658422470092773e+00,2.074548721313476562e+00,2.105326175689697266e+00,2.137030601501464844e+00,2.169704437255859375e+00,2.203392744064331055e+00,2.238143920898437500e+00,2.274008750915527344e+00,2.311041593551635742e+00,2.349300622940063477e+00,2.388848066329956055e+00,2.429749250411987305e+00,2.472075939178466797e+00,2.515902996063232422e+00,2.561312437057495117e+00,2.608391046524047852e+00,2.657232761383056641e+00,2.707938432693481445e+00,2.760617017745971680e+00,2.815385580062866211e+00,2.872371435165405273e+00,2.931711673736572266e+00,2.993555784225463867e+00,3.058065176010131836e+00,3.125416040420532227e+00,3.195800304412841797e+00,3.269427776336669922e+00,3.346527814865112305e+00,3.427352190017700195e+00,3.512176990509033203e+00,3.601307392120361328e+00,3.695078849792480469e+00,3.793864965438842773e+00,3.898077487945556641e+00,4.008176803588867188e+00,4.124676704406738281e+00,4.248151779174804688e+00,4.379247188568115234e+00,4.518691539764404297e+00,4.667308330535888672e+00,4.826033115386962891e+00,4.995934009552001953e+00,5.000000000000000000e+00,5.000000000000000000e+00,5.000000000000000000e+00,5.000000000000000000e+00,5.000000000000000000e+00,5.000000000000000000e+00,5.000000000000000000e+00,5.000000000000000000e+00,5.000000000000000000e+00,5.000000000000000000e+00,5.000000000000000000e+00,5.000000000000000000e+00,5.000000000000000000e+00,5.000000000000000000e+00,5.000000000000000000e+00,5.000000000000000000e+00,5.000000000000000000e+00,5.000000000000000000e+00,5.000000000000000000e+00,5.000000000000000000e+00,5.000000000000000000e+00,4.535651683807373047e+00,5.000000000000000000e+00,4.760054588317871094e+00,5.000000000000000000e+00,5.000000000000000000e+00,5.000000000000000000e+00,5.000000000000000000e+00,5.000000000000000000e+00,5.000000000000000000e+00,5.000000000000000000e+00,5.000000000000000000e+00,5.000000000000000000e+00,5.000000000000000000e+00
1.933212399482727051e+00,1.959911823272705078e+00,1.987359285354614258e+00,2.015586376190185547e+00,2.044626951217651367e+00,2.074516296386718750e+00,2.105293035507202148e+00,2.136996269226074219e+00,2.169669151306152344e+00,2.203356266021728516e+00,2.238106250762939453e+00,2.273969888687133789e+00,2.311001539230346680e+00,2.349259138107299805e+00,2.388805150985717773e+00,2.429704904556274414e+00,2.472029924392700195e+00,2.515855312347412109e+00,2.561263084411621094e+00,2.608339786529541016e+00,2.657179594039916992e+00,2.707883358001708984e+00,2.760559797286987305e+00,2.815325975418090820e+00,2.872309446334838867e+00,2.931647300720214844e+00,2.993488550186157227e+00,3.057994842529296875e+00,3.125342607498168945e+00,3.195723533630371094e+00,3.269347429275512695e+00,3.346443653106689453e+00,3.427263975143432617e+00,3.512084245681762695e+00,3.601210117340087891e+00,3.694976329803466797e+00,3.793756723403930664e+00,3.897963285446166992e+00,4.008056163787841797e+00,4.124548912048339844e+00,4.248016357421875000e+00,4.379103183746337891e+00,4.518538475036621094e+00,4.667144775390625000e+00,4.825858592987060547e+00,4.995746612548828125e+00,5.000000000000000000e+00,5.000000000000000000e+00,5.000000000000000000e+00,5.000000000000000000e+00,5.000000000000000000e+00,5.000000000000000000e+00,5.000000000000000000e+00,5.000000000000000000e+00,5.000000000000000000e+00,5.000000000000000000e+00,5.000000000000000000e+00,5.000000000000000000e+00,5.000000000000000000e+00,5.000000000000000000e+00,5.000000000000000000e+00,5.000000000000000000e+00,5.000000000000000000e+00,5.000000000000000000e+00,5.000000000000000000e+00,5.000000000000000000e+00,5.000000000000000000e+00,4.552126884460449219e+00,5.000000000000000000e+00,4.761203765869140625e+00,5.000000000000000000e+00,5.000000000000000000e+00,5.000000000000000000e+00,5.000000000000000000e+00,5.000000000000000000e+00,5.000000000000000000e+00,5.000000000000000000e+00,5.000000000000000000e+00,5.000000000000000000e+00,5.000000000000000000e+00
1.933184385299682617e+00,1.959882974624633789e+00,1.987329602241516113e+00,2.015555858612060547e+00,2.044595479965209961e+00,2.074484109878540039e+00,2.105259656906127930e+00,2.136961936950683594e+00,2.169633626937866211e+00,2.203319787979125977e+00,2.238068580627441406e+00,2.273931026458740234e+00,2.310961484909057617e+00,2.349217653274536133e+00,2.388762235641479492e+00,2.429660558700561523e+00,2.471984148025512695e+00,2.515807867050170898e+00,2.561213731765747070e+00,2.608288764953613281e+00,2.657126665115356445e+00,2.707828283309936523e+00,2.760502576828002930e+00,2.815266370773315430e+00,2.872247457504272461e+00,2.931582689285278320e+00,2.993421316146850586e+00,3.057924509048461914e+00,3.125269174575805664e+00,3.195646762847900391e+00,3.269267320632934570e+00,3.346359491348266602e+00,3.427175760269165039e+00,3.511991500854492188e+00,3.601112604141235352e+00,3.694873809814453125e+00,3.793648719787597656e+00,3.897849321365356445e+00,4.007935523986816406e+00,4.124421596527099609e+00,4.247880458831787109e+00,4.378959178924560547e+00,4.518384933471679688e+00,4.666981220245361328e+00,4.825683593750000000e+00,4.995559215545654297e+00,5.000000000000000000e+00,5.000000000000000000e+00,5.000000000000000000e+00,5.000000000000000000e+00,5.000000000000000000e+00,5.000000000000000000e+00,5.000000000000000000e+00,5.000000000000000000e+00,5.000000000000000000e+00,5.000000000000000000e+00,5.000000000000000000e+00,5.000000000000000000e+00,5.000000000000000000e+00,5.000000000000000000e+00,5.000000000000000000e+00,5.000000000000000000e+00,5.000000000000000000e+00,5.000000000000000000e+00,5.000000000000000000e+00,5.000000000000000000e+00,5.000000000000000000e+00,4.571691513061523438e+00,5.000000000000000000e+00,4.757781028747558594e+00,5.000000000000000000e+00,5.000000000000000000e+00,5.000000000000000000e+00,5.000000000000000000e+00,5.000000000000000000e+00,5.000000000000000000e+00,5.000000000000000000e+00,5.000000000000000000e+00,5.000000000000000000e+00,5.000000000000000000e+00
1.933156371116638184e+00,1.959854125976562500e+00,1.987300038337707520e+00,2.015525341033935547e+00,2.044564247131347656e+00,2.074451684951782227e+00,2.105226278305053711e+00,2.136927604675292969e+00,2.169598340988159180e+00,2.203283309936523438e+00,2.238031148910522461e+00,2.273892164230346680e+00,2.310921430587768555e+00,2.349176406860351562e+00,2.388719320297241211e+00,2.429616212844848633e+00,2.471938133239746094e+00,2.515760421752929688e+00,2.561164617538452148e+00,2.608237743377685547e+00,2.657073497772216797e+00,2.707773208618164062e+00,2.760445356369018555e+00,2.815207004547119141e+00,2.872185707092285156e+00,2.931518077850341797e+00,2.993354082107543945e+00,3.057854413986206055e+00,3.125195980072021484e+00,3.195570230484008789e+00,3.269186973571777344e+00,3.346275568008422852e+00,3.427087545394897461e+00,3.511898994445800781e+00,3.601015329360961914e+00,3.694771289825439453e+00,3.793540716171264648e+00,3.897735118865966797e+00,4.007814884185791016e+00,4.124293804168701172e+00,4.247745037078857422e+00,4.378815174102783203e+00,4.518231868743896484e+00,4.666817665100097656e+00,4.821222305297851562e+00,4.820038795471191406e+00,4.818855762481689453e+00,4.817673206329345703e+00,4.816491127014160156e+00,4.815310001373291016e+00,4.814129352569580078e+00,4.812949180603027344e+00,4.811769008636474609e+00,4.810590267181396484e+00,4.809412002563476562e+00,4.808234214782714844e+00,4.807056427001953125e+00,4.805879592895507812e+00,4.804703712463378906e+00,4.803528308868408203e+00,4.802352905273437500e+00,4.801178455352783203e+00,4.800004959106445312e+00,4.798831462860107422e+00,4.797658920288085938e+00,4.569955825805664062e+00,4.539356708526611328e+00,4.794144153594970703e+00,4.792973518371582031e+00,4.791803836822509766e+00,4.790634632110595703e+00,4.789465904235839844e+00,4.788297653198242188e+00,4.787130355834960938e+00,4.785963535308837891e+00,4.784796714782714844e+00,4.783630847930908203e+00,4.782465457916259766e+00,4.781301021575927734e+00,4.780136585235595703e+00
1.933128237724304199e+00,1.959825277328491211e+00,1.987270355224609375e+00,2.015494823455810547e+00,2.044532775878906250e+00,2.074419498443603516e+00,2.105193138122558594e+00,2.136893272399902344e+00,2.169563055038452148e+00,2.203246831893920898e+00,2.237993478775024414e+00,2.273853302001953125e+00,2.310881137847900391e+00,2.349134922027587891e+00,2.388676643371582031e+00,2.429571866989135742e+00,2.471892356872558594e+00,2.515712738037109375e+00,2.561115264892578125e+00,2.608186483383178711e+00,2.657020568847656250e+00,2.707718133926391602e+00,2.760388135910034180e+00,2.815147399902343750e+00,2.872123718261718750e+00,2.931453704833984375e+00,2.993286609649658203e+00,3.057784080505371094e+00,3.125122547149658203e+00,3.195493459701538086e+00,3.269106626510620117e+00,3.346191406250000000e+00,3.426999330520629883e+00,3.511806249618530273e+00,3.600917816162109375e+00,3.694668769836425781e+00,3.751472949981689453e+00,3.750756025314331055e+00,3.750039577484130859e+00,3.749323368072509766e+00,3.748607158660888672e+00,3.747891664505004883e+00,3.747175931930541992e+00,3.746460914611816406e+00,3.745746135711669922e+00,3.745031595230102539e+00,3.744317531585693359e+00,3.743603229522705078e+00,3.742889404296875000e+00,3.742176055908203125e+00,3.741462945938110352e+00,3.740750074386596680e+00,3.740037679672241211e+00,3.739325284957885742e+00,3.738613367080688477e+00,3.737901210784912109e+00,3.737189531326293945e+00,3.736478328704833984e+00,3.735767602920532227e+00,3.735056877136230469e+00,3.734346389770507812e+00,3.733636379241943359e+00,3.732926368713378906e+00,3.732216358184814453e+00,3.731507062911987305e+00,3.730798006057739258e+00,3.730089187622070312e+00,3.729380846023559570e+00,3.728672504425048828e+00,3.727964639663696289e+00,3.727256298065185547e+00,3.726548910140991211e+00,3.725841760635375977e+00,3.725134849548339844e+00,3.724428176879882812e+00,3.723721981048583984e+00,3.723015785217285156e+00,3.722309827804565430e+00,3.721603870391845703e+00,3.720898628234863281e+00
1.933100223541259766e+00,1.959796428680419922e+00,1.987240672111511230e+00,2.015464305877685547e+00,2.044501304626464844e+00,2.074387073516845703e+00,2.105159759521484375e+00,2.136858940124511719e+00,2.169527530670166016e+00,2.203210353851318359e+00,2.237955808639526367e+00,2.273814439773559570e+00,2.310841083526611328e+00,2.349093437194824219e+00,2.388633728027343750e+00,2.429527521133422852e+00,2.471846342086791992e+00,2.515665292739868164e+00,2.561066150665283203e+00,2.608135461807250977e+00,2.656967639923095703e+00,2.707663059234619141e+00,2.760330915451049805e+00,2.815087795257568359e+00,2.872061729431152344e+00,2.931389093399047852e+00,2.993219375610351562e+00,3.057713985443115234e+00,3.070238351821899414e+00,3.069758176803588867e+00,3.069278001785278320e+00,3.068798303604125977e+00,3.068318843841552734e+00,3.067839145660400391e+00,3.067359924316406250e+00,3.066880464553833008e+00,3.066401481628417969e+00,3.065922260284423828e+00,3.065443754196166992e+00,3.064965248107910156e+00,3.064486503601074219e+00,3.064008235931396484e+00,3.063529968261718750e+00,3.063051939010620117e+00,3.062574148178100586e+00,3.062096357345581055e+00,3.061618804931640625e+00,3.061141252517700195e+00,3.060663938522338867e+00,3.060186862945556641e+00,3.059710025787353516e+00,3.059233188629150391e+00,3.058756589889526367e+00,3.058280229568481445e+00,3.057803630828857422e+00,3.057327508926391602e+00,3.056851387023925781e+00,3.056375741958618164e+00,3.055899858474731445e+00,3.055424451828002930e+00,3.054949045181274414e+00,3.054473638534545898e+00,3.053998231887817383e+00,3.053523302078247070e+00,3.053048610687255859e+00,3.052573919296264648e+00,3.052099227905273438e+00,3.051625013351440430e+00,3.051150798797607422e+00,3.050676584243774414e+00,3.050202369689941406e+00,3.049728631973266602e+00,3.049254894256591797e+00,3.048781394958496094e+00,3.048308134078979492e+00,3.047834873199462891e+00,3.047361850738525391e+00,3.046888828277587891e+00,3.046416044235229492e+00,3.045943498611450195e+00
1.933072090148925781e+00,1.959767580032348633e+00,1.987210988998413086e+00,2.015433788299560547e+00,2.044470071792602539e+00,2.074354887008666992e+00,2.105126619338989258e+00,2.136824846267700195e+00,2.169492244720458984e+00,2.203173875808715820e+00,2.237918138504028320e+00,2.273775577545166016e+00,2.310801029205322266e+00,2.349051952362060547e+00,2.388590812683105469e+00,2.429483175277709961e+00,2.471800565719604492e+00,2.515617847442626953e+00,2.561016798019409180e+00,2.598737001419067383e+00,2.598392724990844727e+00,2.598048925399780273e+00,2.597705364227294922e+00,2.597361326217651367e+00,2.597017765045166016e+00,2.596674203872680664e+00,2.596330881118774414e+00,2.595987558364868164e+00,2.595644235610961914e+00,2.595301151275634766e+00,2.594957828521728516e+00,2.594614982604980469e+00,2.594272136688232422e+00,2.593929052352905273e+00,2.593586444854736328e+00,2.593243598937988281e+00,2.592901229858398438e+00,2.592558622360229492e+00,2.592216491699218750e+00,2.591874122619628906e+00,2.591531753540039062e+00,2.591189861297607422e+00,2.590847730636596680e+00,2.590505838394165039e+00,2.590164184570312500e+00,2.589822292327880859e+00,2.589480638504028320e+00,2.589138984680175781e+00,2.588797569274902344e+00,2.588456392288208008e+00,2.588114976882934570e+00,2.587773799896240234e+00,2.587432861328125000e+00,2.587091684341430664e+00,2.586750745773315430e+00,2.586410045623779297e+00,2.586069345474243164e+00,2.585728883743286133e+00,2.585388422012329102e+00,2.585047960281372070e+00,2.584707736968994141e+00,2.584367275238037109e+00,2.584027051925659180e+00,2.583687067031860352e+00,2.583347082138061523e+00,2.583007335662841797e+00,2.582667589187622070e+00,2.582327842712402344e+00,2.581988334655761719e+00,2.581648588180541992e+00,2.581309080123901367e+00,2.580969810485839844e+00,2.580630540847778320e+00,2.580291509628295898e+00,2.579952478408813477e+00,2.579613447189331055e+00,2.579274415969848633e+00,2.578935623168945312e+00,2.578596830368041992e+00,2.578258275985717773e+00
1.933044075965881348e+00,1.959738731384277344e+00,1.987181305885314941e+00,2.015403270721435547e+00,2.044438600540161133e+00,2.074322462081909180e+00,2.105093240737915039e+00,2.136790513992309570e+00,2.169456958770751953e+00,2.203137397766113281e+00,2.237880706787109375e+00,2.252516269683837891e+00,2.252257823944091797e+00,2.251999378204345703e+00,2.251741170883178711e+00,2.251482963562011719e+00,2.251224517822265625e+00,2.250966548919677734e+00,2.250708341598510742e+00,2.250450372695922852e+00,2.250192165374755859e+00,2.249934434890747070e+00,2.249676704406738281e+00,2.249418735504150391e+00,2.249161005020141602e+00,2.248903274536132812e+00,2.248645782470703125e+00,2.248388290405273438e+00,2.248130559921264648e+00,2.247873306274414062e+00,2.247615814208984375e+00,2.247358560562133789e+00,2.247101306915283203e+00,2.246844053268432617e+00,2.246586799621582031e+00,2.246329784393310547e+00,2.246072769165039062e+00,2.245815753936767578e+00,2.245558738708496094e+00,2.245301961898803711e+00,2.245045185089111328e+00,2.244788408279418945e+00,2.244531631469726562e+00,2.244275093078613281e+00,2.244018554687500000e+00,2.243762016296386719e+00,2.243505477905273438e+00,2.243249177932739258e+00,2.242992877960205078e+00,2.242736577987670898e+00,2.242480278015136719e+00,2.242224216461181641e+00,2.241968154907226562e+00,2.241712093353271484e+00,2.241456031799316406e+00,2.241200208663940430e+00,2.240944385528564453e+00,2.240688562393188477e+00,2.240432977676391602e+00,2.240177154541015625e+00,2.239921569824218750e+00,2.239665985107421875e+00,2.239410638809204102e+00,2.239155292510986328e+00,2.238899946212768555e+00,2.238644599914550781e+00,2.238389253616333008e+00,2.238134145736694336e+00,2.237879037857055664e+00,2.237623929977416992e+00,2.237368822097778320e+00,2.237113952636718750e+00,2.236859083175659180e+00,2.236604213714599609e+00,2.236349582672119141e+00,2.236094713211059570e+00,2.235840082168579102e+00,2.235585451126098633e+00,2.235330820083618164e+00,2.235076427459716797e+00
1.933015942573547363e+00,1.959709882736206055e+00,1.987151741981506348e+00,1.987701654434204102e+00,1.987500309944152832e+00,1.987299323081970215e+00,1.987098097801208496e+00,1.986896872520446777e+00,1.986695647239685059e+00,1.986494779586791992e+00,1.986293673515319824e+00,1.986092686653137207e+00,1.985891938209533691e+00,1.985690951347351074e+00,1.985490083694458008e+00,1.985289454460144043e+00,1.985088586807250977e+00,1.984887719154357910e+00,1.984686970710754395e+00,1.984486460685729980e+00,1.984285831451416016e+00,1.984085202217102051e+00,1.983884811401367188e+00,1.983684301376342773e+00,1.983483791351318359e+00,1.983283281326293945e+00,1.983083128929138184e+00,1.982882738113403320e+00,1.982682347297668457e+00,1.982482314109802246e+00,1.982282042503356934e+00,1.982081770896911621e+00,1.981881856918334961e+00,1.981681704521179199e+00,1.981481552124023438e+00,1.981281518936157227e+00,1.981081724166870117e+00,1.980881690979003906e+00,1.980681777000427246e+00,1.980482101440429688e+00,1.980282187461853027e+00,1.980082392692565918e+00,1.979882597923278809e+00,1.979683041572570801e+00,1.979483366012573242e+00,1.979283690452575684e+00,1.979084253311157227e+00,1.978884696960449219e+00,1.978685140609741211e+00,1.978485941886901855e+00,1.978286385536193848e+00,1.978086948394775391e+00,1.977887630462646484e+00,1.977688550949096680e+00,1.977489233016967773e+00,1.977289915084838867e+00,1.977090954780578613e+00,1.976891756057739258e+00,1.976692557334899902e+00,1.976493477821350098e+00,1.976294636726379395e+00,1.976095676422119141e+00,1.975896835327148438e+00,1.975697875022888184e+00,1.975499272346496582e+00,1.975300431251525879e+00,1.975101828575134277e+00,1.974902987480163574e+00,1.974704265594482422e+00,1.974505782127380371e+00,1.974307060241699219e+00,1.974108695983886719e+00,1.973910093307495117e+00,1.973711848258972168e+00,1.973513364791870117e+00,1.973314881324768066e+00,1.973116636276245117e+00,1.972918272018432617e+00,1.972720146179199219e+00,1.972521901130676270e+00
1.777796864509582520e+00,1.777635693550109863e+00,1.777474880218505859e+00,1.777313947677612305e+00,1.777152895927429199e+00,1.776992201805114746e+00,1.776831269264221191e+00,1.776670455932617188e+00,1.776509523391723633e+00,1.776348948478698730e+00,1.776188135147094727e+00,1.776027441024780273e+00,1.775866866111755371e+00,1.775706171989440918e+00,1.775545477867126465e+00,1.775385022163391113e+00,1.775224447250366211e+00,1.775063872337341309e+00,1.774903297424316406e+00,1.774742960929870605e+00,1.774582386016845703e+00,1.774421930313110352e+00,1.774261713027954102e+00,1.774101257324218750e+00,1.773940920829772949e+00,1.773780584335327148e+00,1.773620367050170898e+00,1.773460030555725098e+00,1.773299813270568848e+00,1.773139715194702148e+00,1.772979497909545898e+00,1.772819399833679199e+00,1.772659420967102051e+00,1.772499322891235352e+00,1.772339224815368652e+00,1.772179126739501953e+00,1.772019267082214355e+00,1.771859288215637207e+00,1.771699309349060059e+00,1.771539449691772461e+00,1.771379590034484863e+00,1.771219730377197266e+00,1.771059751510620117e+00,1.770900130271911621e+00,1.770740389823913574e+00,1.770580530166625977e+00,1.770421028137207031e+00,1.770261287689208984e+00,1.770101547241210938e+00,1.769942164421081543e+00,1.769782423973083496e+00,1.769622921943664551e+00,1.769463300704956055e+00,1.769303917884826660e+00,1.769144415855407715e+00,1.768984913825988770e+00,1.768825650215148926e+00,1.768666148185729980e+00,1.768506765365600586e+00,1.768347382545471191e+00,1.768188238143920898e+00,1.768028974533081055e+00,1.767869591712951660e+00,1.767710566520690918e+00,1.767551302909851074e+00,1.767392277717590332e+00,1.767233133316040039e+00,1.767073988914489746e+00,1.766915082931518555e+00,1.766755938529968262e+00,1.766597151756286621e+00,1.766438126564025879e+00,1.766279220581054688e+00,1.766120314598083496e+00,1.765961408615112305e+00,1.765802621841430664e+00,1.765643715858459473e+00,1.765485048294067383e+00,1.765326261520385742e+00,1.765167713165283203e+00
1.607595086097717285e+00,1.607463359832763672e+00,1.607331871986389160e+00,1.607200264930725098e+00,1.607068657875061035e+00,1.606937170028686523e+00,1.606805562973022461e+00,1.606674075126647949e+00,1.606542468070983887e+00,1.606411099433898926e+00,1.606279611587524414e+00,1.606148123741149902e+00,1.606016874313354492e+00,1.605885386466979980e+00,1.605754017829895020e+00,1.605622768402099609e+00,1.605491399765014648e+00,1.605360031127929688e+00,1.605228662490844727e+00,1.605097532272338867e+00,1.604966282844543457e+00,1.604835033416748047e+00,1.604703903198242188e+00,1.604572653770446777e+00,1.604441523551940918e+00,1.604310274124145508e+00,1.604179263114929199e+00,1.604048132896423340e+00,1.603917002677917480e+00,1.603786110877990723e+00,1.603655099868774414e+00,1.603523969650268555e+00,1.603393077850341797e+00,1.603262066841125488e+00,1.603131175041198730e+00,1.603000164031982422e+00,1.602869391441345215e+00,1.602738499641418457e+00,1.602607607841491699e+00,1.602476835250854492e+00,1.602345943450927734e+00,1.602215170860290527e+00,1.602084398269653320e+00,1.601953744888305664e+00,1.601822972297668457e+00,1.601692199707031250e+00,1.601561665534973145e+00,1.601430892944335938e+00,1.601300239562988281e+00,1.601169705390930176e+00,1.601039052009582520e+00,1.600908398628234863e+00,1.600777864456176758e+00,1.600647449493408203e+00,1.600516915321350098e+00,1.600386381149291992e+00,1.600255966186523438e+00,1.600125432014465332e+00,1.599995017051696777e+00,1.599864482879638672e+00,1.599734187126159668e+00,1.599603891372680664e+00,1.599473476409912109e+00,1.599343299865722656e+00,1.599212884902954102e+00,1.599082589149475098e+00,1.598952412605285645e+00,1.598822116851806641e+00,1.598691940307617188e+00,1.598561763763427734e+00,1.598431587219238281e+00,1.598301529884338379e+00,1.598171353340148926e+00,1.598041176795959473e+00,1.597911238670349121e+00,1.597781181335449219e+00,1.597651243209838867e+00,1.597521066665649414e+00,1.597391247749328613e+00,1.597261190414428711e+00
1.467135310173034668e+00,1.467025637626647949e+00,1.466916084289550781e+00,1.466806411743164062e+00,1.466696858406066895e+00,1.466587305068969727e+00,1.466477751731872559e+00,1.466368079185485840e+00,1.466258525848388672e+00,1.466149091720581055e+00,1.466039538383483887e+00,1.465930104255676270e+00,1.465820670127868652e+00,1.465711236000061035e+00,1.465601682662963867e+00,1.465492367744445801e+00,1.465382933616638184e+00,1.465273499488830566e+00,1.465164065361022949e+00,1.465054869651794434e+00,1.464945435523986816e+00,1.464836120605468750e+00,1.464726924896240234e+00,1.464617609977722168e+00,1.464508295059204102e+00,1.464398980140686035e+00,1.464289784431457520e+00,1.464180588722229004e+00,1.464071273803710938e+00,1.463962197303771973e+00,1.463853001594543457e+00,1.463743805885314941e+00,1.463634729385375977e+00,1.463525533676147461e+00,1.463416457176208496e+00,1.463307261466979980e+00,1.463198304176330566e+00,1.463089227676391602e+00,1.462980151176452637e+00,1.462871193885803223e+00,1.462762117385864258e+00,1.462653040885925293e+00,1.462544083595275879e+00,1.462435245513916016e+00,1.462326169013977051e+00,1.462217211723327637e+00,1.462108373641967773e+00,1.461999535560607910e+00,1.461890578269958496e+00,1.461781740188598633e+00,1.461672902107238770e+00,1.461564064025878906e+00,1.461455225944519043e+00,1.461346507072448730e+00,1.461237668991088867e+00,1.461128830909729004e+00,1.461020231246948242e+00,1.460911393165588379e+00,1.460802674293518066e+00,1.460693955421447754e+00,1.460585355758666992e+00,1.460476636886596680e+00,1.460367918014526367e+00,1.460259318351745605e+00,1.460150718688964844e+00,1.460042119026184082e+00,1.459933519363403320e+00,1.459824919700622559e+00,1.459716320037841797e+00,1.459607720375061035e+00,1.459499359130859375e+00,1.459390759468078613e+00,1.459282279014587402e+00,1.459173917770385742e+00,1.459065318107604980e+00,1.458956956863403320e+00,1.458848595619201660e+00,1.458740234375000000e+00,1.458631753921508789e+00,1.458523392677307129e+00
1.349247932434082031e+00,1.349155187606811523e+00,1.349062561988830566e+00,1.348969817161560059e+00,1.348877072334289551e+00,1.348784446716308594e+00,1.348691821098327637e+00,1.348599076271057129e+00,1.348506450653076172e+00,1.348413825035095215e+00,1.348321199417114258e+00,1.348228573799133301e+00,1.348136067390441895e+00,1.348043441772460938e+00,1.347950816154479980e+00,1.347858309745788574e+00,1.347765803337097168e+00,1.347673177719116211e+00,1.347580671310424805e+00,1.347488164901733398e+00,1.347395658493041992e+00,1.347303152084350586e+00,1.347210764884948730e+00,1.347118377685546875e+00,1.347025871276855469e+00,1.346933364868164062e+00,1.346841096878051758e+00,1.346748590469360352e+00,1.346656203269958496e+00,1.346563935279846191e+00,1.346471548080444336e+00,1.346379160881042480e+00,1.346286892890930176e+00,1.346194505691528320e+00,1.346102118492126465e+00,1.346009850502014160e+00,1.345917582511901855e+00,1.345825314521789551e+00,1.345732927322387695e+00,1.345640778541564941e+00,1.345548510551452637e+00,1.345456242561340332e+00,1.345363974571228027e+00,1.345271825790405273e+00,1.345179677009582520e+00,1.345087409019470215e+00,1.344995379447937012e+00,1.344903230667114258e+00,1.344810962677001953e+00,1.344718933105468750e+00,1.344626784324645996e+00,1.344534635543823242e+00,1.344442486763000488e+00,1.344350576400756836e+00,1.344258427619934082e+00,1.344166398048400879e+00,1.344074368476867676e+00,1.343982338905334473e+00,1.343890309333801270e+00,1.343798279762268066e+00,1.343706369400024414e+00,1.343614339828491211e+00,1.343522310256958008e+00,1.343430399894714355e+00,1.343338489532470703e+00,1.343246579170227051e+00,1.343154668807983398e+00,1.343062758445739746e+00,1.342970848083496094e+00,1.342878937721252441e+00,1.342787146568298340e+00,1.342695236206054688e+00,1.342603325843811035e+00,1.342511653900146484e+00,1.342419743537902832e+00,1.342327952384948730e+00,1.342236280441284180e+00,1.342144489288330078e+00,1.342052578926086426e+00,1.341960906982421875e+00
1.248896598815917969e+00,1.248817086219787598e+00,1.248737692832946777e+00,1.248658299446105957e+00,1.248578786849975586e+00,1.248499512672424316e+00,1.248420000076293945e+00,1.248340606689453125e+00,1.248261213302612305e+00,1.248181939125061035e+00,1.248102545738220215e+00,1.248023152351379395e+00,1.247943878173828125e+00,1.247864484786987305e+00,1.247785091400146484e+00,1.247705936431884766e+00,1.247626543045043945e+00,1.247547268867492676e+00,1.247467875480651855e+00,1.247388720512390137e+00,1.247309446334838867e+00,1.247230172157287598e+00,1.247151017189025879e+00,1.247071743011474609e+00,1.246992468833923340e+00,1.246913194656372070e+00,1.246834039688110352e+00,1.246754884719848633e+00,1.246675610542297363e+00,1.246596574783325195e+00,1.246517300605773926e+00,1.246438145637512207e+00,1.246359109878540039e+00,1.246279954910278320e+00,1.246200799942016602e+00,1.246121644973754883e+00,1.246042609214782715e+00,1.245963454246520996e+00,1.245884418487548828e+00,1.245805382728576660e+00,1.245726227760314941e+00,1.245647192001342773e+00,1.245568156242370605e+00,1.245489120483398438e+00,1.245410084724426270e+00,1.245331048965454102e+00,1.245252132415771484e+00,1.245173096656799316e+00,1.245094060897827148e+00,1.245015144348144531e+00,1.244936227798461914e+00,1.244857192039489746e+00,1.244778275489807129e+00,1.244699358940124512e+00,1.244620442390441895e+00,1.244541525840759277e+00,1.244462609291076660e+00,1.244383692741394043e+00,1.244304895401000977e+00,1.244225978851318359e+00,1.244147181510925293e+00,1.244068264961242676e+00,1.243989348411560059e+00,1.243910670280456543e+00,1.243831753730773926e+00,1.243752956390380859e+00,1.243674159049987793e+00,1.243595361709594727e+00,1.243516564369201660e+00,1.243437767028808594e+00,1.243359088897705078e+00,1.243280291557312012e+00,1.243201494216918945e+00,1.243122816085815430e+00,1.243044137954711914e+00,1.242965340614318848e+00,1.242886781692504883e+00,1.242807984352111816e+00,1.242729306221008301e+00,1.242650628089904785e+00
1.162439227104187012e+00,1.162370443344116211e+00,1.162301659584045410e+00,1.162232756614685059e+00,1.162163972854614258e+00,1.162095189094543457e+00,1.162026405334472656e+00,1.161957621574401855e+00,1.161888837814331055e+00,1.161820054054260254e+00,1.161751270294189453e+00,1.161682486534118652e+00,1.161613821983337402e+00,1.161545038223266602e+00,1.161476254463195801e+00,1.161407589912414551e+00,1.161338925361633301e+00,1.161270141601562500e+00,1.161201477050781250e+00,1.161132812500000000e+00,1.161064147949218750e+00,1.160995483398437500e+00,1.160926818847656250e+00,1.160858154296875000e+00,1.160789489746093750e+00,1.160720825195312500e+00,1.160652279853820801e+00,1.160583615303039551e+00,1.160514950752258301e+00,1.160446405410766602e+00,1.160377740859985352e+00,1.160309195518493652e+00,1.160240650177001953e+00,1.160171985626220703e+00,1.160103440284729004e+00,1.160034775733947754e+00,1.159966349601745605e+00,1.159897804260253906e+00,1.159829258918762207e+00,1.159760713577270508e+00,1.159692168235778809e+00,1.159623622894287109e+00,1.159555077552795410e+00,1.159486651420593262e+00,1.159418225288391113e+00,1.159349679946899414e+00,1.159281253814697266e+00,1.159212827682495117e+00,1.159144282341003418e+00,1.159075856208801270e+00,1.159007430076599121e+00,1.158939003944396973e+00,1.158870577812194824e+00,1.158802151679992676e+00,1.158733725547790527e+00,1.158665299415588379e+00,1.158596992492675781e+00,1.158528566360473633e+00,1.158460140228271484e+00,1.158391833305358887e+00,1.158323526382446289e+00,1.158255219459533691e+00,1.158186793327331543e+00,1.158118486404418945e+00,1.158050179481506348e+00,1.157981872558593750e+00,1.157913565635681152e+00,1.157845258712768555e+00,1.157776951789855957e+00,1.157708644866943359e+00,1.157640457153320312e+00,1.157572150230407715e+00,1.157503843307495117e+00,1.157435655593872070e+00,1.157367348670959473e+00,1.157299160957336426e+00,1.157230973243713379e+00,1.157162666320800781e+00,1.157094478607177734e+00,1.157026290893554688e+00
1.087177276611328125e+00,1.087117075920104980e+00,1.087056875228881836e+00,1.086996674537658691e+00,1.086936473846435547e+00,1.086876273155212402e+00,1.086816072463989258e+00,1.086755871772766113e+00,1.086695671081542969e+00,1.086635589599609375e+00,1.086575508117675781e+00,1.086515307426452637e+00,1.086455225944519043e+00,1.086395025253295898e+00,1.086334943771362305e+00,1.086274862289428711e+00,1.086214661598205566e+00,1.086154580116271973e+00,1.086094498634338379e+00,1.086034417152404785e+00,1.085974335670471191e+00,1.085914254188537598e+00,1.085854172706604004e+00,1.085794091224670410e+00,1.085734009742736816e+00,1.085673928260803223e+00,1.085613965988159180e+00,1.085553884506225586e+00,1.085493922233581543e+00,1.085433840751647949e+00,1.085373878479003906e+00,1.085313796997070312e+00,1.085253834724426270e+00,1.085193872451782227e+00,1.085133790969848633e+00,1.085073828697204590e+00,1.085013866424560547e+00,1.084953904151916504e+00,1.084893941879272461e+00,1.084833979606628418e+00,1.084774017333984375e+00,1.084714055061340332e+00,1.084654092788696289e+00,1.084594249725341797e+00,1.084534287452697754e+00,1.084474325180053711e+00,1.084414482116699219e+00,1.084354519844055176e+00,1.084294676780700684e+00,1.084234833717346191e+00,1.084174871444702148e+00,1.084115028381347656e+00,1.084055066108703613e+00,1.083995342254638672e+00,1.083935379981994629e+00,1.083875536918640137e+00,1.083815693855285645e+00,1.083755850791931152e+00,1.083696007728576660e+00,1.083636164665222168e+00,1.083576440811157227e+00,1.083516597747802734e+00,1.083456754684448242e+00,1.083397030830383301e+00,1.083337187767028809e+00,1.083277344703674316e+00,1.083217620849609375e+00,1.083157896995544434e+00,1.083098053932189941e+00,1.083038330078125000e+00,1.082978606224060059e+00,1.082918882369995117e+00,1.082859039306640625e+00,1.082799434661865234e+00,1.082739591598510742e+00,1.082679867744445801e+00,1.082620263099670410e+00,1.082560539245605469e+00,1.082500815391540527e+00,1.082441091537475586e+00
1.021068334579467773e+00,1.021015167236328125e+00,1.020962119102478027e+00,1.020908951759338379e+00,1.020855903625488281e+00,1.020802855491638184e+00,1.020749688148498535e+00,1.020696640014648438e+00,1.020643591880798340e+00,1.020590543746948242e+00,1.020537495613098145e+00,1.020484328269958496e+00,1.020431399345397949e+00,1.020378351211547852e+00,1.020325183868408203e+00,1.020272254943847656e+00,1.020219206809997559e+00,1.020166158676147461e+00,1.020113110542297363e+00,1.020060181617736816e+00,1.020007133483886719e+00,1.019954085350036621e+00,1.019901156425476074e+00,1.019848108291625977e+00,1.019795179367065430e+00,1.019742131233215332e+00,1.019689202308654785e+00,1.019636273384094238e+00,1.019583225250244141e+00,1.019530415534973145e+00,1.019477367401123047e+00,1.019424438476562500e+00,1.019371509552001953e+00,1.019318580627441406e+00,1.019265651702880859e+00,1.019212722778320312e+00,1.019159793853759766e+00,1.019106864929199219e+00,1.019053936004638672e+00,1.019001126289367676e+00,1.018948197364807129e+00,1.018895268440246582e+00,1.018842339515686035e+00,1.018789529800415039e+00,1.018736600875854492e+00,1.018683791160583496e+00,1.018630981445312500e+00,1.018578052520751953e+00,1.018525242805480957e+00,1.018472433090209961e+00,1.018419504165649414e+00,1.018366694450378418e+00,1.018313884735107422e+00,1.018261075019836426e+00,1.018208265304565430e+00,1.018155336380004883e+00,1.018102645874023438e+00,1.018049836158752441e+00,1.017997026443481445e+00,1.017944216728210449e+00,1.017891407012939453e+00,1.017838597297668457e+00,1.017785787582397461e+00,1.017733097076416016e+00,1.017680287361145020e+00,1.017627596855163574e+00,1.017574787139892578e+00,1.017522096633911133e+00,1.017469286918640137e+00,1.017416596412658691e+00,1.017363905906677246e+00,1.017311096191406250e+00,1.017258405685424805e+00,1.017205715179443359e+00,1.017153024673461914e+00,1.017100214958190918e+00,1.017047643661499023e+00,1.016994953155517578e+00,1.016942143440246582e+00,1.016889452934265137e+00
9.625384211540222168e-01,9.624911546707153320e-01,9.624440073966979980e-01,9.623968601226806641e-01,9.623495936393737793e-01,9.623024463653564453e-01,9.622552990913391113e-01,9.622080922126770020e-01,9.621609449386596680e-01,9.621138572692871094e-01,9.620665907859802246e-01,9.620195031166076660e-01,9.619724154472351074e-01,9.619252085685729980e-01,9.618781208992004395e-01,9.618309736251831055e-01,9.617838263511657715e-01,9.617367386817932129e-01,9.616895318031311035e-01,9.616424441337585449e-01,9.615954160690307617e-01,9.615482091903686523e-01,9.615011811256408691e-01,9.614540934562683105e-01,9.614069461822509766e-01,9.613599181175231934e-01,9.613128304481506348e-01,9.612656831741333008e-01,9.612186551094055176e-01,9.611716270446777344e-01,9.611244797706604004e-01,9.610775113105773926e-01,9.610304832458496094e-01,9.609833359718322754e-01,9.609363675117492676e-01,9.608892202377319336e-01,9.608422517776489258e-01,9.607952237129211426e-01,9.607481360435485840e-01,9.607011675834655762e-01,9.606541991233825684e-01,9.606071114540100098e-01,9.605601429939270020e-01,9.605131745338439941e-01,9.604660868644714355e-01,9.604191780090332031e-01,9.603722095489501953e-01,9.603251218795776367e-01,9.602782130241394043e-01,9.602312445640563965e-01,9.601842164993286133e-01,9.601373076438903809e-01,9.600902795791625977e-01,9.600433707237243652e-01,9.599964022636413574e-01,9.599494338035583496e-01,9.599025249481201172e-01,9.598556160926818848e-01,9.598085880279541016e-01,9.597617387771606445e-01,9.597148299217224121e-01,9.596678614616394043e-01,9.596209526062011719e-01,9.595741033554077148e-01,9.595271348953247070e-01,9.594802260398864746e-01,9.594333767890930176e-01,9.593864083290100098e-01,9.593395590782165527e-01,9.592925906181335449e-01,9.592458009719848633e-01,9.591989517211914062e-01,9.591519832611083984e-01,9.591051936149597168e-01,9.590583443641662598e-01,9.590114355087280273e-01,9.589645862579345703e-01,9.589177966117858887e-01,9.588708877563476562e-01,9.588240981101989746e-01
9.103547930717468262e-01,9.103125929832458496e-01,9.102704524993896484e-01,9.102281332015991211e-01,9.101859927177429199e-01,9.101437926292419434e-01,9.101015329360961914e-01,9.100593924522399902e-01,9.100171327590942383e-01,9.099749922752380371e-01,9.099328517913818359e-01,9.098905920982360840e-01,9.098484516143798828e-01,9.098063111305236816e-01,9.097641110420227051e-01,9.097219705581665039e-01,9.096798300743103027e-01,9.096376299858093262e-01,9.095954895019531250e-01,9.095533490180969238e-01,9.095111489295959473e-01,9.094690680503845215e-01,9.094269871711730957e-01,9.093847870826721191e-01,9.093427062034606934e-01,9.093005061149597168e-01,9.092584252357482910e-01,9.092163443565368652e-01,9.091741442680358887e-01,9.091320633888244629e-01,9.090899825096130371e-01,9.090478420257568359e-01,9.090057611465454102e-01,9.089637398719787598e-01,9.089215397834777832e-01,9.088795185089111328e-01,9.088374376296997070e-01,9.087953567504882812e-01,9.087532758712768555e-01,9.087112545967102051e-01,9.086691141128540039e-01,9.086270928382873535e-01,9.085849523544311523e-01,9.085429310798645020e-01,9.085009694099426270e-01,9.084588289260864258e-01,9.084168076515197754e-01,9.083748459815979004e-01,9.083327054977416992e-01,9.082907438278198242e-01,9.082487225532531738e-01,9.082066416740417480e-01,9.081646800041198730e-01,9.081226587295532227e-01,9.080806374549865723e-01,9.080386161804199219e-01,9.079966545104980469e-01,9.079546332359313965e-01,9.079126715660095215e-01,9.078705906867980957e-01,9.078286290168762207e-01,9.077866673469543457e-01,9.077446460723876953e-01,9.077026844024658203e-01,9.076607823371887207e-01,9.076187610626220703e-01,9.075767993927001953e-01,9.075348973274230957e-01,9.074928760528564453e-01,9.074509143829345703e-01,9.074090123176574707e-01,9.073670506477355957e-01,9.073250889778137207e-01,9.072831869125366211e-01,9.072412252426147461e-01,9.071993231773376465e-01,9.071574211120605469e-01,9.071154594421386719e-01,9.070735573768615723e-01,9.070315957069396973e-01
8.635385036468505859e-01,8.635004162788391113e-01,8.634625077247619629e-01,8.634245395660400391e-01,8.633865118026733398e-01,8.633485436439514160e-01,8.633106350898742676e-01,8.632726073265075684e-01,8.632346391677856445e-01,8.631967306137084961e-01,8.631587028503417969e-01,8.631207942962646484e-01,8.630828857421875000e-01,8.630448579788208008e-01,8.630069494247436523e-01,8.629690408706665039e-01,8.629310727119445801e-01,8.628931641578674316e-01,8.628551363945007324e-01,8.628172874450683594e-01,8.627793788909912109e-01,8.627414107322692871e-01,8.627035021781921387e-01,8.626656532287597656e-01,8.626276850700378418e-01,8.625897765159606934e-01,8.625519275665283203e-01,8.625139594078063965e-01,8.624761104583740234e-01,8.624382019042968750e-01,8.624002933502197266e-01,8.623623847961425781e-01,8.623245358467102051e-01,8.622866272926330566e-01,8.622487783432006836e-01,8.622108697891235352e-01,8.621730208396911621e-01,8.621351718902587891e-01,8.620972633361816406e-01,8.620594143867492676e-01,8.620215654373168945e-01,8.619836568832397461e-01,8.619458675384521484e-01,8.619080185890197754e-01,8.618701696395874023e-01,8.618323206901550293e-01,8.617945313453674316e-01,8.617566227912902832e-01,8.617188334465026855e-01,8.616810441017150879e-01,8.616431355476379395e-01,8.616053462028503418e-01,8.615674972534179688e-01,8.615297079086303711e-01,8.614919185638427734e-01,8.614540696144104004e-01,8.614162802696228027e-01,8.613784909248352051e-01,8.613406419754028320e-01,8.613029122352600098e-01,8.612651228904724121e-01,8.612272739410400391e-01,8.611895442008972168e-01,8.611518144607543945e-01,8.611139655113220215e-01,8.610762357711791992e-01,8.610384464263916016e-01,8.610006570816040039e-01,8.609629273414611816e-01,8.609250783920288086e-01,8.608873486518859863e-01,8.608496785163879395e-01,8.608118295669555664e-01,8.607740998268127441e-01,8.607364296913146973e-01,8.606985807418823242e-01,8.606609106063842773e-01,8.606231808662414551e-01,8.605853915214538574e-01,8.605477213859558105e-01
8.213017582893371582e-01,8.212674260139465332e-01,8.212330937385559082e-01,8.211987018585205078e-01,8.211643695831298828e-01,8.211300373077392578e-01,8.210956454277038574e-01,8.210613131523132324e-01,8.210269212722778320e-01,8.209926486015319824e-01,8.209583163261413574e-01,8.209239244461059570e-01,8.208896517753601074e-01,8.208553194999694824e-01,8.208209872245788574e-01,8.207866549491882324e-01,8.207523822784423828e-01,8.207179903984069824e-01,8.206837177276611328e-01,8.206494450569152832e-01,8.206151127815246582e-01,8.205808401107788086e-01,8.205465674400329590e-01,8.205121755599975586e-01,8.204779028892517090e-01,8.204435706138610840e-01,8.204092979431152344e-01,8.203750848770141602e-01,8.203406929969787598e-01,8.203064799308776855e-01,8.202722072601318359e-01,8.202378749847412109e-01,8.202036619186401367e-01,8.201693892478942871e-01,8.201350569725036621e-01,8.201008439064025879e-01,8.200666308403015137e-01,8.200322985649108887e-01,8.199980854988098145e-01,8.199638724327087402e-01,8.199295401573181152e-01,8.198953270912170410e-01,8.198610544204711914e-01,8.198268413543701172e-01,8.197926282882690430e-01,8.197582960128784180e-01,8.197240829467773438e-01,8.196899294853210449e-01,8.196556568145751953e-01,8.196214437484741211e-01,8.195872306823730469e-01,8.195529580116271973e-01,8.195188045501708984e-01,8.194845914840698242e-01,8.194503188133239746e-01,8.194161653518676758e-01,8.193819522857666016e-01,8.193477392196655273e-01,8.193135261535644531e-01,8.192793130874633789e-01,8.192451596260070801e-01,8.192109465599060059e-01,8.191767334938049316e-01,8.191425800323486328e-01,8.191084265708923340e-01,8.190742135047912598e-01,8.190400600433349609e-01,8.190059065818786621e-01,8.189716935157775879e-01,8.189375400543212891e-01,8.189033865928649902e-01,8.188691735267639160e-01,8.188350796699523926e-01,8.188009262084960938e-01,8.187667131423950195e-01,8.187326192855834961e-01,8.186984658241271973e-01,8.186642527580261230e-01,8.186301589012145996e-01,8.185959458351135254e-01
7.830041646957397461e-01,7.829729318618774414e-01,7.829416990280151367e-01,7.829105257987976074e-01,7.828792333602905273e-01,7.828480601310729980e-01,7.828168272972106934e-01,7.827855944633483887e-01,7.827543616294860840e-01,7.827231884002685547e-01,7.826919555664062500e-01,7.826607823371887207e-01,7.826296091079711914e-01,7.825983166694641113e-01,7.825671434402465820e-01,7.825359702110290527e-01,7.825047373771667480e-01,7.824735641479492188e-01,7.824423313140869141e-01,7.824111580848693848e-01,7.823799848556518555e-01,7.823488116264343262e-01,7.823176383972167969e-01,7.822864651679992676e-01,7.822552323341369629e-01,7.822241187095642090e-01,7.821929454803466797e-01,7.821617722511291504e-01,7.821305990219116211e-01,7.820994853973388672e-01,7.820682525634765625e-01,7.820371389389038086e-01,7.820059657096862793e-01,7.819747924804687500e-01,7.819436788558959961e-01,7.819124460220336914e-01,7.818813323974609375e-01,7.818502187728881836e-01,7.818190455436706543e-01,7.817879319190979004e-01,7.817568182945251465e-01,7.817256450653076172e-01,7.816945314407348633e-01,7.816634178161621094e-01,7.816322445869445801e-01,7.816011905670166016e-01,7.815700769424438477e-01,7.815389037132263184e-01,7.815077900886535645e-01,7.814767360687255859e-01,7.814455628395080566e-01,7.814145088195800781e-01,7.813833355903625488e-01,7.813522219657897949e-01,7.813211679458618164e-01,7.812900543212890625e-01,7.812589406967163086e-01,7.812278866767883301e-01,7.811967730522155762e-01,7.811656594276428223e-01,7.811346054077148438e-01,7.811034917831420898e-01,7.810724377632141113e-01,7.810413837432861328e-01,7.810102701187133789e-01,7.809792160987854004e-01,7.809481620788574219e-01,7.809170484542846680e-01,7.808859944343566895e-01,7.808548808097839355e-01,7.808238863945007324e-01,7.807928323745727539e-01,7.807617187500000000e-01,7.807307243347167969e-01,7.806996703147888184e-01,7.806685566902160645e-01,7.806375622749328613e-01,7.806065678596496582e-01,7.805754542350769043e-01,7.805444598197937012e-01
7.481190562248229980e-01,7.480905652046203613e-01,7.480620741844177246e-01,7.480335235595703125e-01,7.480050325393676758e-01,7.479766011238098145e-01,7.479480504989624023e-01,7.479195594787597656e-01,7.478910088539123535e-01,7.478625178337097168e-01,7.478340864181518555e-01,7.478055357933044434e-01,7.477771043777465820e-01,7.477486133575439453e-01,7.477200627326965332e-01,7.476916313171386719e-01,7.476631999015808105e-01,7.476346492767333984e-01,7.476062178611755371e-01,7.475777268409729004e-01,7.475492358207702637e-01,7.475208044052124023e-01,7.474923729896545410e-01,7.474638223648071289e-01,7.474353909492492676e-01,7.474068999290466309e-01,7.473784685134887695e-01,7.473500370979309082e-01,7.473215460777282715e-01,7.472931146621704102e-01,7.472646832466125488e-01,7.472361922264099121e-01,7.472077608108520508e-01,7.471793889999389648e-01,7.471508979797363281e-01,7.471224665641784668e-01,7.470940351486206055e-01,7.470656037330627441e-01,7.470371723175048828e-01,7.470087409019470215e-01,7.469803094863891602e-01,7.469518780708312988e-01,7.469234466552734375e-01,7.468950152397155762e-01,7.468666434288024902e-01,7.468381524085998535e-01,7.468097805976867676e-01,7.467814087867736816e-01,7.467529177665710449e-01,7.467245459556579590e-01,7.466961741447448730e-01,7.466677427291870117e-01,7.466393709182739258e-01,7.466109991073608398e-01,7.465825080871582031e-01,7.465541362762451172e-01,7.465257644653320312e-01,7.464973330497741699e-01,7.464689612388610840e-01,7.464405894279479980e-01,7.464122176170349121e-01,7.463838458061218262e-01,7.463554143905639648e-01,7.463270425796508789e-01,7.462987303733825684e-01,7.462702989578247070e-01,7.462419271469116211e-01,7.462136149406433105e-01,7.461851835250854492e-01,7.461568713188171387e-01,7.461284995079040527e-01,7.461001276969909668e-01,7.460717558860778809e-01,7.460434436798095703e-01,7.460150718688964844e-01,7.459867000579833984e-01,7.459583878517150879e-01,7.459300160408020020e-01,7.459017038345336914e-01,7.458732724189758301e-01
7.162098884582519531e-01,7.161837220191955566e-01,7.161576151847839355e-01,7.161315083503723145e-01,7.161053419113159180e-01,7.160792350769042969e-01,7.160531282424926758e-01,7.160269618034362793e-01,7.160008549690246582e-01,7.159747481346130371e-01,7.159485816955566406e-01,7.159225344657897949e-01,7.158964276313781738e-01,7.158702611923217773e-01,7.158442139625549316e-01,7.158181071281433105e-01,7.157920002937316895e-01,7.157658934593200684e-01,7.157397270202636719e-01,7.157136797904968262e-01,7.156876325607299805e-01,7.156614661216735840e-01,7.156354188919067383e-01,7.156093120574951172e-01,7.155832052230834961e-01,7.155571579933166504e-01,7.155311107635498047e-01,7.155049443244934082e-01,7.154788970947265625e-01,7.154528498649597168e-01,7.154267430305480957e-01,7.154006958007812500e-01,7.153746485710144043e-01,7.153485417366027832e-01,7.153224945068359375e-01,7.152963876724243164e-01,7.152703404426574707e-01,7.152442932128906250e-01,7.152181863784790039e-01,7.151921391487121582e-01,7.151660919189453125e-01,7.151400446891784668e-01,7.151139974594116211e-01,7.150879502296447754e-01,7.150618433952331543e-01,7.150358557701110840e-01,7.150098085403442383e-01,7.149837613105773926e-01,7.149577140808105469e-01,7.149316668510437012e-01,7.149056196212768555e-01,7.148796319961547852e-01,7.148535251617431641e-01,7.148275375366210938e-01,7.148014903068542480e-01,7.147754430770874023e-01,7.147494554519653320e-01,7.147234082221984863e-01,7.146973609924316406e-01,7.146713733673095703e-01,7.146453857421875000e-01,7.146193385124206543e-01,7.145933508872985840e-01,7.145673036575317383e-01,7.145412564277648926e-01,7.145152688026428223e-01,7.144892811775207520e-01,7.144632339477539062e-01,7.144373059272766113e-01,7.144112586975097656e-01,7.143852710723876953e-01,7.143592834472656250e-01,7.143332362174987793e-01,7.143072485923767090e-01,7.142813205718994141e-01,7.142552733421325684e-01,7.142292857170104980e-01,7.142033576965332031e-01,7.141773104667663574e-01,7.141513228416442871e-01
6.869112849235534668e-01,6.868872642517089844e-01,6.868632435798645020e-01,6.868391633033752441e-01,6.868152022361755371e-01,6.867911815643310547e-01,6.867671012878417969e-01,6.867430806159973145e-01,6.867190599441528320e-01,6.866950392723083496e-01,6.866710186004638672e-01,6.866469979286193848e-01,6.866229772567749023e-01,6.865989565849304199e-01,6.865749359130859375e-01,6.865509152412414551e-01,6.865269541740417480e-01,6.865028738975524902e-01,6.864789128303527832e-01,6.864548921585083008e-01,6.864308714866638184e-01,6.864069104194641113e-01,6.863828897476196289e-01,6.863588690757751465e-01,6.863349080085754395e-01,6.863108873367309570e-01,6.862868666648864746e-01,6.862629055976867676e-01,6.862388849258422852e-01,6.862149238586425781e-01,6.861909627914428711e-01,6.861669421195983887e-01,6.861429810523986816e-01,6.861189603805541992e-01,6.860949993133544922e-01,6.860710382461547852e-01,6.860470771789550781e-01,6.860230565071105957e-01,6.859990954399108887e-01,6.859751343727111816e-01,6.859511137008666992e-01,6.859271526336669922e-01,6.859031915664672852e-01,6.858792304992675781e-01,6.858552694320678711e-01,6.858312487602233887e-01,6.858073472976684570e-01,6.857833862304687500e-01,6.857594251632690430e-01,6.857354640960693359e-01,6.857115030288696289e-01,6.856875419616699219e-01,6.856635808944702148e-01,6.856396794319152832e-01,6.856157183647155762e-01,6.855917572975158691e-01,6.855678558349609375e-01,6.855438351631164551e-01,6.855199337005615234e-01,6.854959726333618164e-01,6.854720711708068848e-01,6.854481101036071777e-01,6.854241490364074707e-01,6.854002475738525391e-01,6.853763461112976074e-01,6.853523850440979004e-01,6.853284835815429688e-01,6.853045225143432617e-01,6.852805614471435547e-01,6.852566599845886230e-01,6.852327585220336914e-01,6.852088570594787598e-01,6.851849555969238281e-01,6.851610541343688965e-01,6.851370930671691895e-01,6.851131916046142578e-01,6.850892901420593262e-01,6.850653290748596191e-01,6.850414872169494629e-01,6.850175261497497559e-01
6.599156260490417480e-01,6.598934531211853027e-01,6.598712801933288574e-01,6.598491072654724121e-01,6.598268747329711914e-01,6.598047018051147461e-01,6.597825884819030762e-01,6.597603559494018555e-01,6.597381830215454102e-01,6.597160696983337402e-01,6.596938371658325195e-01,6.596716642379760742e-01,6.596495509147644043e-01,6.596273183822631836e-01,6.596052050590515137e-01,6.595830321311950684e-01,6.595608592033386230e-01,6.595386862754821777e-01,6.595165133476257324e-01,6.594944000244140625e-01,6.594722270965576172e-01,6.594500541687011719e-01,6.594279408454895020e-01,6.594057679176330566e-01,6.593835949897766113e-01,6.593614816665649414e-01,6.593393683433532715e-01,6.593171358108520508e-01,6.592950224876403809e-01,6.592729091644287109e-01,6.592507362365722656e-01,6.592286229133605957e-01,6.592065095901489258e-01,6.591843366622924805e-01,6.591622233390808105e-01,6.591400504112243652e-01,6.591179370880126953e-01,6.590958237648010254e-01,6.590736508369445801e-01,6.590515375137329102e-01,6.590294241905212402e-01,6.590072512626647949e-01,6.589851379394531250e-01,6.589630842208862305e-01,6.589409112930297852e-01,6.589187979698181152e-01,6.588966846466064453e-01,6.588745713233947754e-01,6.588524580001831055e-01,6.588303446769714355e-01,6.588082313537597656e-01,6.587861180305480957e-01,6.587640047073364258e-01,6.587418913841247559e-01,6.587197780609130859e-01,6.586976647377014160e-01,6.586755514144897461e-01,6.586534976959228516e-01,6.586313843727111816e-01,6.586092710494995117e-01,6.585872173309326172e-01,6.585650444030761719e-01,6.585429906845092773e-01,6.585209369659423828e-01,6.584988236427307129e-01,6.584767103195190430e-01,6.584546566009521484e-01,6.584325432777404785e-01,6.584104895591735840e-01,6.583883762359619141e-01,6.583662629127502441e-01,6.583442091941833496e-01,6.583220958709716797e-01,6.583000421524047852e-01,6.582779884338378906e-01,6.582558751106262207e-01,6.582338213920593262e-01,6.582117676734924316e-01,6.581896543502807617e-01,6.581676006317138672e-01
6.349615454673767090e-01,6.349410414695739746e-01,6.349205374717712402e-01,6.348999738693237305e-01,6.348794102668762207e-01,6.348589062690734863e-01,6.348383426666259766e-01,6.348178386688232422e-01,6.347972750663757324e-01,6.347767710685729980e-01,6.347562670707702637e-01,6.347357034683227539e-01,6.347151994705200195e-01,6.346946954727172852e-01,6.346741318702697754e-01,6.346536278724670410e-01,6.346331238746643066e-01,6.346125602722167969e-01,6.345920562744140625e-01,6.345715522766113281e-01,6.345510482788085938e-01,6.345305442810058594e-01,6.345100402832031250e-01,6.344894766807556152e-01,6.344690322875976562e-01,6.344484686851501465e-01,6.344279646873474121e-01,6.344075202941894531e-01,6.343869566917419434e-01,6.343664526939392090e-01,6.343460083007812500e-01,6.343254446983337402e-01,6.343050003051757812e-01,6.342844963073730469e-01,6.342639923095703125e-01,6.342434883117675781e-01,6.342230439186096191e-01,6.342024803161621094e-01,6.341820359230041504e-01,6.341615915298461914e-01,6.341410279273986816e-01,6.341205835342407227e-01,6.341000795364379883e-01,6.340795755386352539e-01,6.340591311454772949e-01,6.340386271476745605e-01,6.340181827545166016e-01,6.339976787567138672e-01,6.339771747589111328e-01,6.339567303657531738e-01,6.339362859725952148e-01,6.339157819747924805e-01,6.338953375816345215e-01,6.338748335838317871e-01,6.338543891906738281e-01,6.338339447975158691e-01,6.338134407997131348e-01,6.337929964065551758e-01,6.337725520133972168e-01,6.337520480155944824e-01,6.337316036224365234e-01,6.337111592292785645e-01,6.336906552314758301e-01,6.336702108383178711e-01,6.336497664451599121e-01,6.336292624473571777e-01,6.336088180541992188e-01,6.335884332656860352e-01,6.335679292678833008e-01,6.335474848747253418e-01,6.335270404815673828e-01,6.335065960884094238e-01,6.334861516952514648e-01,6.334657669067382812e-01,6.334452629089355469e-01,6.334248185157775879e-01,6.334044337272644043e-01,6.333839297294616699e-01,6.333635449409484863e-01,6.333430409431457520e-01
