1.933657646179199219e+00,1.960365533828735352e+00,1.987820863723754883e+00,2.016056299209594727e+00,2.045105218887329102e+00,2.075003623962402344e+00,2.105789184570312500e+00,2.137501955032348633e+00,2.170184612274169922e+00,2.203881978988647461e+00,2.238642454147338867e+00,2.274517059326171875e+00,2.311560153961181641e+00,2.349829912185668945e+00,2.389388084411621094e+00,2.430300712585449219e+00,2.472639322280883789e+00,2.516478776931762695e+00,2.561901092529296875e+00,2.608993291854858398e+00,2.657849073410034180e+00,2.708569765090942383e+00,2.761263608932495117e+00,2.816048383712768555e+00,2.873051166534423828e+00,2.932409524917602539e+00,2.994272232055664062e+00,3.058801412582397461e+00,3.126171350479125977e+00,3.196576595306396484e+00,3.270225763320922852e+00,3.347348690032958984e+00,3.428197145462036133e+00,3.513047933578491211e+00,3.602205514907836914e+00,3.696006059646606445e+00,3.794822931289672852e+00,3.899068593978881836e+00,4.009202957153320312e+00,4.125740528106689453e+00,4.249255657196044922e+00,4.380394458770751953e+00,4.519885540008544922e+00,4.668552875518798828e+00,5.000000000000000000e+00,5.000000000000000000e+00,5.000000000000000000e+00,5.000000000000000000e+00,5.000000000000000000e+00,5.000000000000000000e+00,5.000000000000000000e+00,5.000000000000000000e+00,5.000000000000000000e+00,5.000000000000000000e+00,5.000000000000000000e+00,5.000000000000000000e+00,5.000000000000000000e+00,5.000000000000000000e+00,5.000000000000000000e+00,5.000000000000000000e+00,5.000000000000000000e+00,5.000000000000000000e+00,5.000000000000000000e+00,5.000000000000000000e+00,5.000000000000000000e+00,5.000000000000000000e+00,5.000000000000000000e+00,5.000000000000000000e+00,1.686338782310485840e+00,1.633621811866760254e+00,1.593072891235351562e+00,1.563549160957336426e+00,1.550556778907775879e+00,1.531378746032714844e+00,1.515612125396728516e+00,1.500221252441406250e+00,1.491560816764831543e+00,1.490493178367614746e+00,1.489810585975646973e+00,1.516748189926147461e+00
1.933622598648071289e+00,1.960332274436950684e+00,1.987789988517761230e+00,2.016025781631469727e+00,2.045073747634887695e+00,2.074971437454223633e+00,2.105755805969238281e+00,2.137467622756958008e+00,2.170149326324462891e+00,2.203845500946044922e+00,2.238605022430419922e+00,2.274478435516357422e+00,2.311520099639892578e+00,2.349788427352905273e+00,2.389345169067382812e+00,2.430256605148315430e+00,2.472593307495117188e+00,2.516431331634521484e+00,2.561851978302001953e+00,2.608942270278930664e+00,2.657795906066894531e+00,2.708514451980590820e+00,2.761206150054931641e+00,2.815989017486572266e+00,2.872989177703857422e+00,2.932344913482666016e+00,2.994204998016357422e+00,3.058731079101562500e+00,3.126099586486816406e+00,3.196501016616821289e+00,3.270147085189819336e+00,3.347266197204589844e+00,3.428110599517822266e+00,3.512957096099853516e+00,3.602109909057617188e+00,3.695905447006225586e+00,3.794716596603393555e+00,3.898956537246704102e+00,4.009084224700927734e+00,4.125615119934082031e+00,4.249122619628906250e+00,4.380253314971923828e+00,4.519735336303710938e+00,4.668392181396484375e+00,4.827160835266113281e+00,5.000000000000000000e+00,5.000000000000000000e+00,5.000000000000000000e+00,5.000000000000000000e+00,5.000000000000000000e+00,5.000000000000000000e+00,5.000000000000000000e+00,5.000000000000000000e+00,5.000000000000000000e+00,5.000000000000000000e+00,5.000000000000000000e+00,5.000000000000000000e+00,5.000000000000000000e+00,5.000000000000000000e+00,5.000000000000000000e+00,5.000000000000000000e+00,5.000000000000000000e+00,5.000000000000000000e+00,5.000000000000000000e+00,5.000000000000000000e+00,5.000000000000000000e+00,5.000000000000000000e+00,5.000000000000000000e+00,1.675932407379150391e+00,1.626411318778991699e+00,1.599333047866821289e+00,1.571758747100830078e+00,1.546995639801025391e+00,1.528412938117980957e+00,1.512716293334960938e+00,1.496890902519226074e+00,1.484683632850646973e+00,1.483591318130493164e+00,1.483243703842163086e+00,1.498495578765869141e+00
1.933587670326232910e+00,1.960296392440795898e+00,1.987753033638000488e+00,2.015989780426025391e+00,2.045040607452392578e+00,2.074939012527465820e+00,2.105722665786743164e+00,2.137433528900146484e+00,2.170113801956176758e+00,2.203809022903442383e+00,2.238567352294921875e+00,2.274439573287963867e+00,2.311480045318603516e+00,2.349746942520141602e+00,2.389302253723144531e+00,2.430212259292602539e+00,2.472547531127929688e+00,2.516383886337280273e+00,2.561802625656127930e+00,2.608891010284423828e+00,2.657742977142333984e+00,2.708459377288818359e+00,2.761148929595947266e+00,2.815929412841796875e+00,2.872927188873291016e+00,2.932280540466308594e+00,2.994137763977050781e+00,3.058660745620727539e+00,3.126026391983032227e+00,3.196425914764404297e+00,3.270067930221557617e+00,3.347183704376220703e+00,3.428024053573608398e+00,3.512866020202636719e+00,3.602014541625976562e+00,3.695805072784423828e+00,3.794610500335693359e+00,3.898844242095947266e+00,4.008965969085693359e+00,4.125489711761474609e+00,4.248989582061767578e+00,4.380112171173095703e+00,4.519584655761718750e+00,4.668231487274169922e+00,4.826989173889160156e+00,4.996924400329589844e+00,5.000000000000000000e+00,5.000000000000000000e+00,5.000000000000000000e+00,5.000000000000000000e+00,5.000000000000000000e+00,5.000000000000000000e+00,5.000000000000000000e+00,5.000000000000000000e+00,5.000000000000000000e+00,5.000000000000000000e+00,5.000000000000000000e+00,5.000000000000000000e+00,5.000000000000000000e+00,5.000000000000000000e+00,5.000000000000000000e+00,5.000000000000000000e+00,5.000000000000000000e+00,5.000000000000000000e+00,5.000000000000000000e+00,5.000000000000000000e+00,5.000000000000000000e+00,5.000000000000000000e+00,1.688593268394470215e+00,1.638798356056213379e+00,1.598583579063415527e+00,1.573529481887817383e+00,1.549138784408569336e+00,1.526450634002685547e+00,1.508762121200561523e+00,1.491047501564025879e+00,1.478828072547912598e+00,1.479424595832824707e+00,1.480021476745605469e+00,1.492355108261108398e+00
1.933554649353027344e+00,1.960260391235351562e+00,1.987716317176818848e+00,2.015951871871948242e+00,2.045001506805419922e+00,2.074900388717651367e+00,2.105686902999877930e+00,2.137399196624755859e+00,2.170078516006469727e+00,2.203772783279418945e+00,2.238529682159423828e+00,2.274400711059570312e+00,2.311439990997314453e+00,2.349705457687377930e+00,2.389259576797485352e+00,2.430167913436889648e+00,2.472501516342163086e+00,2.516336441040039062e+00,2.561753273010253906e+00,2.608839988708496094e+00,2.657690048217773438e+00,2.708404302597045898e+00,2.761091947555541992e+00,2.815869808197021484e+00,2.872865200042724609e+00,2.932215929031372070e+00,2.994070291519165039e+00,3.058590888977050781e+00,3.125952959060668945e+00,3.196349143981933594e+00,3.269989252090454102e+00,3.347101211547851562e+00,3.427937507629394531e+00,3.512775182723999023e+00,3.601918458938598633e+00,3.695704460144042969e+00,3.794504642486572266e+00,3.898732423782348633e+00,4.008847713470458984e+00,4.125364303588867188e+00,4.248856544494628906e+00,4.379970550537109375e+00,4.519433975219726562e+00,4.668070793151855469e+00,4.826817512512207031e+00,4.996740341186523438e+00,5.000000000000000000e+00,5.000000000000000000e+00,5.000000000000000000e+00,5.000000000000000000e+00,5.000000000000000000e+00,5.000000000000000000e+00,5.000000000000000000e+00,5.000000000000000000e+00,5.000000000000000000e+00,5.000000000000000000e+00,5.000000000000000000e+00,5.000000000000000000e+00,5.000000000000000000e+00,5.000000000000000000e+00,5.000000000000000000e+00,5.000000000000000000e+00,5.000000000000000000e+00,5.000000000000000000e+00,5.000000000000000000e+00,5.000000000000000000e+00,5.000000000000000000e+00,5.000000000000000000e+00,1.736758232116699219e+00,1.643286466598510742e+00,1.603407859802246094e+00,1.580582261085510254e+00,1.558397412300109863e+00,1.520620226860046387e+00,1.502543926239013672e+00,1.481382489204406738e+00,1.473571777343750000e+00,1.474999904632568359e+00,1.476151108741760254e+00,1.490698218345642090e+00
1.933526396751403809e+00,1.960229992866516113e+00,1.987681627273559570e+00,2.015913963317871094e+00,2.044962406158447266e+00,2.074860095977783203e+00,2.105645418167114258e+00,2.137357711791992188e+00,2.170039653778076172e+00,2.203736305236816406e+00,2.238492012023925781e+00,2.274361848831176758e+00,2.311399936676025391e+00,2.349663972854614258e+00,2.389216661453247070e+00,2.430123567581176758e+00,2.472455739974975586e+00,2.516288757324218750e+00,2.561704158782958984e+00,2.608788967132568359e+00,2.657636880874633789e+00,2.708349227905273438e+00,2.761034727096557617e+00,2.815810203552246094e+00,2.872803688049316406e+00,2.932151317596435547e+00,2.994003057479858398e+00,3.058520555496215820e+00,3.125879526138305664e+00,3.196272611618041992e+00,3.269908905029296875e+00,3.347018003463745117e+00,3.427851200103759766e+00,3.512684345245361328e+00,3.601823091506958008e+00,3.695603609085083008e+00,3.794398546218872070e+00,3.898620367050170898e+00,4.008729457855224609e+00,4.125238895416259766e+00,4.248723506927490234e+00,4.379829406738281250e+00,4.519283294677734375e+00,4.667910575866699219e+00,4.826645374298095703e+00,4.996556758880615234e+00,5.000000000000000000e+00,5.000000000000000000e+00,5.000000000000000000e+00,5.000000000000000000e+00,5.000000000000000000e+00,5.000000000000000000e+00,5.000000000000000000e+00,5.000000000000000000e+00,5.000000000000000000e+00,5.000000000000000000e+00,5.000000000000000000e+00,5.000000000000000000e+00,5.000000000000000000e+00,5.000000000000000000e+00,5.000000000000000000e+00,5.000000000000000000e+00,5.000000000000000000e+00,5.000000000000000000e+00,5.000000000000000000e+00,5.000000000000000000e+00,5.000000000000000000e+00,5.000000000000000000e+00,1.750604033470153809e+00,1.652846097946166992e+00,1.605638146400451660e+00,1.594937801361083984e+00,1.572350978851318359e+00,1.511116862297058105e+00,1.489871501922607422e+00,1.469583272933959961e+00,1.467775225639343262e+00,1.470188260078430176e+00,1.474962830543518066e+00,1.489470124244689941e+00
1.933498024940490723e+00,1.960201025009155273e+00,1.987651705741882324e+00,2.015882253646850586e+00,2.044926404953002930e+00,2.074819803237915039e+00,2.105603933334350586e+00,2.137314796447753906e+00,2.169995784759521484e+00,2.203691482543945312e+00,2.238450050354003906e+00,2.274322986602783203e+00,2.311359643936157227e+00,2.349622726440429688e+00,2.389173746109008789e+00,2.430079221725463867e+00,2.472409963607788086e+00,2.516241312026977539e+00,2.561655044555664062e+00,2.608737945556640625e+00,2.657583951950073242e+00,2.708294391632080078e+00,2.760977506637573242e+00,2.815750837326049805e+00,2.872741699218750000e+00,2.932086944580078125e+00,2.993936061859130859e+00,3.058450222015380859e+00,3.125806093215942383e+00,3.196196079254150391e+00,3.269828557968139648e+00,3.346934318542480469e+00,3.427763938903808594e+00,3.512593507766723633e+00,3.601727485656738281e+00,3.695502996444702148e+00,3.794292688369750977e+00,3.898508548736572266e+00,4.008611202239990234e+00,4.125113487243652344e+00,4.248590469360351562e+00,4.379687786102294922e+00,4.519133090972900391e+00,4.667749881744384766e+00,4.826474189758300781e+00,4.996372699737548828e+00,5.000000000000000000e+00,5.000000000000000000e+00,5.000000000000000000e+00,5.000000000000000000e+00,5.000000000000000000e+00,5.000000000000000000e+00,5.000000000000000000e+00,5.000000000000000000e+00,5.000000000000000000e+00,5.000000000000000000e+00,5.000000000000000000e+00,5.000000000000000000e+00,5.000000000000000000e+00,5.000000000000000000e+00,5.000000000000000000e+00,5.000000000000000000e+00,5.000000000000000000e+00,5.000000000000000000e+00,5.000000000000000000e+00,5.000000000000000000e+00,5.000000000000000000e+00,5.000000000000000000e+00,1.697661757469177246e+00,1.671477675437927246e+00,1.624330163002014160e+00,1.606283307075500488e+00,1.519788146018981934e+00,1.498458385467529297e+00,1.481066584587097168e+00,1.464572072029113770e+00,1.465138792991638184e+00,1.466404318809509277e+00,1.475878357887268066e+00,1.491677403450012207e+00
1.933469772338867188e+00,1.960171937942504883e+00,1.987621784210205078e+00,2.015851497650146484e+00,2.044894695281982422e+00,2.074786901473999023e+00,2.105566263198852539e+00,2.137272357940673828e+00,2.169951677322387695e+00,2.203646183013916016e+00,2.238403320312500000e+00,2.274274587631225586e+00,2.311314344406127930e+00,2.349580526351928711e+00,2.389131069183349609e+00,2.430035114288330078e+00,2.472363948822021484e+00,2.516193628311157227e+00,2.561605691909790039e+00,2.608686923980712891e+00,2.657531023025512695e+00,2.708239316940307617e+00,2.760920286178588867e+00,2.815691471099853516e+00,2.872679710388183594e+00,2.932022333145141602e+00,2.993868589401245117e+00,3.058380126953125000e+00,3.125733137130737305e+00,3.196119308471679688e+00,3.269748210906982422e+00,3.346850156784057617e+00,3.427675724029541016e+00,3.512501955032348633e+00,3.601632118225097656e+00,3.695402383804321289e+00,3.794186115264892578e+00,3.898396730422973633e+00,4.008492469787597656e+00,4.124988079071044922e+00,4.248457431793212891e+00,4.379546642303466797e+00,4.518982887268066406e+00,4.667589187622070312e+00,4.826302528381347656e+00,4.996188640594482422e+00,5.000000000000000000e+00,5.000000000000000000e+00,5.000000000000000000e+00,5.000000000000000000e+00,5.000000000000000000e+00,5.000000000000000000e+00,5.000000000000000000e+00,5.000000000000000000e+00,5.000000000000000000e+00,5.000000000000000000e+00,5.000000000000000000e+00,5.000000000000000000e+00,5.000000000000000000e+00,5.000000000000000000e+00,5.000000000000000000e+00,5.000000000000000000e+00,5.000000000000000000e+00,5.000000000000000000e+00,5.000000000000000000e+00,5.000000000000000000e+00,5.000000000000000000e+00,5.000000000000000000e+00,1.680483102798461914e+00,1.653334736824035645e+00,1.634811878204345703e+00,1.635660767555236816e+00,1.511979222297668457e+00,1.494392633438110352e+00,1.477646827697753906e+00,1.461272239685058594e+00,1.461019039154052734e+00,1.465381383895874023e+00,1.477642416954040527e+00,1.421262025833129883e+00
1.933441519737243652e+00,1.960142850875854492e+00,1.987591981887817383e+00,2.015820980072021484e+00,2.044863224029541016e+00,2.074754476547241211e+00,2.105532646179199219e+00,2.137237787246704102e+00,2.169912338256835938e+00,2.203601360321044922e+00,2.238356590270996094e+00,2.274226188659667969e+00,2.311264276504516602e+00,2.349528789520263672e+00,2.389081716537475586e+00,2.429988861083984375e+00,2.472318172454833984e+00,2.516146421432495117e+00,2.561556339263916016e+00,2.608635663986206055e+00,2.657478094100952148e+00,2.708184242248535156e+00,2.760863065719604492e+00,2.815631866455078125e+00,2.872617721557617188e+00,2.931957960128784180e+00,2.993801355361938477e+00,3.058309793472290039e+00,3.125659704208374023e+00,3.196042537689208984e+00,3.269668340682983398e+00,3.346765995025634766e+00,3.427587509155273438e+00,3.512409210205078125e+00,3.601535558700561523e+00,3.695302009582519531e+00,3.794080257415771484e+00,3.898284435272216797e+00,4.008374214172363281e+00,4.124862670898437500e+00,4.248324871063232422e+00,4.379405498504638672e+00,4.518832206726074219e+00,4.667428970336914062e+00,4.826130867004394531e+00,4.996005058288574219e+00,5.000000000000000000e+00,5.000000000000000000e+00,5.000000000000000000e+00,5.000000000000000000e+00,5.000000000000000000e+00,5.000000000000000000e+00,5.000000000000000000e+00,5.000000000000000000e+00,5.000000000000000000e+00,5.000000000000000000e+00,5.000000000000000000e+00,5.000000000000000000e+00,5.000000000000000000e+00,5.000000000000000000e+00,5.000000000000000000e+00,5.000000000000000000e+00,5.000000000000000000e+00,5.000000000000000000e+00,5.000000000000000000e+00,5.000000000000000000e+00,5.000000000000000000e+00,1.676455497741699219e+00,1.650093555450439453e+00,1.633998394012451172e+00,1.629711508750915527e+00,1.543519020080566406e+00,1.508007764816284180e+00,1.491172194480895996e+00,1.474947333335876465e+00,1.459465026855468750e+00,1.461034417152404785e+00,1.464546918869018555e+00,1.479468703269958496e+00,1.408571720123291016e+00
1.933413386344909668e+00,1.960113763809204102e+00,1.987562298774719238e+00,2.015790224075317383e+00,2.044831514358520508e+00,2.074721813201904297e+00,2.105499267578125000e+00,2.137203216552734375e+00,2.169876813888549805e+00,2.203564643859863281e+00,2.238315343856811523e+00,2.274179458618164062e+00,2.311214447021484375e+00,2.349477052688598633e+00,2.389028310775756836e+00,2.429933786392211914e+00,2.472264289855957031e+00,2.516095876693725586e+00,2.561507225036621094e+00,2.608584880828857422e+00,2.657424926757812500e+00,2.708129167556762695e+00,2.760805845260620117e+00,2.815572500228881836e+00,2.872555971145629883e+00,2.931893348693847656e+00,2.993734121322631836e+00,3.058239936828613281e+00,3.125586271286010742e+00,3.195965766906738281e+00,3.269587993621826172e+00,3.346681833267211914e+00,3.427499532699584961e+00,3.512316465377807617e+00,3.601438045501708984e+00,3.695200204849243164e+00,3.793974161148071289e+00,3.898172616958618164e+00,4.008255481719970703e+00,4.124737262725830078e+00,4.248191833496093750e+00,4.379263877868652344e+00,4.518682003021240234e+00,4.667268276214599609e+00,4.825959205627441406e+00,4.995820999145507812e+00,5.000000000000000000e+00,5.000000000000000000e+00,5.000000000000000000e+00,5.000000000000000000e+00,5.000000000000000000e+00,5.000000000000000000e+00,5.000000000000000000e+00,5.000000000000000000e+00,5.000000000000000000e+00,5.000000000000000000e+00,5.000000000000000000e+00,5.000000000000000000e+00,5.000000000000000000e+00,5.000000000000000000e+00,5.000000000000000000e+00,5.000000000000000000e+00,5.000000000000000000e+00,5.000000000000000000e+00,5.000000000000000000e+00,5.000000000000000000e+00,1.688305854797363281e+00,1.659911394119262695e+00,1.636453032493591309e+00,1.631335377693176270e+00,1.626437306404113770e+00,1.530463933944702148e+00,1.505954980850219727e+00,1.489408612251281738e+00,1.473300457000732422e+00,1.461324214935302734e+00,1.465628385543823242e+00,1.470362663269042969e+00,1.484587550163269043e+00,1.408848047256469727e+00
1.933385133743286133e+00,1.960084676742553711e+00,1.987532377243041992e+00,2.015759468078613281e+00,2.044799804687500000e+00,2.074689388275146484e+00,2.105465650558471680e+00,2.137168884277343750e+00,2.169841289520263672e+00,2.203527927398681641e+00,2.238277435302734375e+00,2.274140357971191406e+00,2.311171054840087891e+00,2.349427700042724609e+00,2.388974905014038086e+00,2.429878711700439453e+00,2.472207307815551758e+00,2.516036987304687500e+00,2.561448574066162109e+00,2.608529806137084961e+00,2.657371997833251953e+00,2.708074331283569336e+00,2.760748624801635742e+00,2.815512895584106445e+00,2.872493982315063477e+00,2.931828975677490234e+00,2.993666887283325195e+00,3.058169603347778320e+00,3.125512838363647461e+00,3.195889472961425781e+00,3.269507884979248047e+00,3.346597671508789062e+00,3.427411317825317383e+00,3.512223958969116211e+00,3.601341009140014648e+00,3.695097684860229492e+00,3.793866634368896484e+00,3.898061037063598633e+00,4.008137226104736328e+00,4.124612331390380859e+00,4.248058795928955078e+00,4.379122734069824219e+00,4.518531322479248047e+00,4.667108058929443359e+00,4.825787544250488281e+00,4.995637416839599609e+00,5.000000000000000000e+00,5.000000000000000000e+00,5.000000000000000000e+00,5.000000000000000000e+00,5.000000000000000000e+00,5.000000000000000000e+00,5.000000000000000000e+00,5.000000000000000000e+00,5.000000000000000000e+00,5.000000000000000000e+00,5.000000000000000000e+00,5.000000000000000000e+00,5.000000000000000000e+00,5.000000000000000000e+00,5.000000000000000000e+00,5.000000000000000000e+00,5.000000000000000000e+00,5.000000000000000000e+00,5.000000000000000000e+00,5.000000000000000000e+00,1.677042007446289062e+00,1.649757385253906250e+00,1.635276317596435547e+00,1.630458474159240723e+00,1.625163793563842773e+00,1.524621009826660156e+00,1.504156231880187988e+00,1.487649321556091309e+00,1.472727537155151367e+00,1.465786933898925781e+00,1.470251321792602539e+00,1.478005170822143555e+00,1.424881935119628906e+00,5.000000000000000000e+00
1.933356761932373047e+00,1.960055589675903320e+00,1.987502455711364746e+00,2.015728712081909180e+00,2.044768333435058594e+00,2.074656963348388672e+00,2.105432271957397461e+00,2.137134313583374023e+00,2.169805526733398438e+00,2.203491210937500000e+00,2.238239526748657227e+00,2.274101257324218750e+00,2.311130762100219727e+00,2.349386215209960938e+00,2.388929367065429688e+00,2.429826498031616211e+00,2.472150087356567383e+00,2.515977621078491211e+00,2.561387300491333008e+00,2.608466148376464844e+00,2.657308101654052734e+00,2.708014011383056641e+00,2.760691404342651367e+00,2.815453529357910156e+00,2.872431993484497070e+00,2.931764364242553711e+00,2.993599653244018555e+00,3.058099269866943359e+00,3.125439882278442383e+00,3.195812702178955078e+00,3.269427537918090820e+00,3.346513986587524414e+00,3.427323102951049805e+00,3.512131214141845703e+00,3.601243734359741211e+00,3.694995164871215820e+00,3.793758869171142578e+00,3.897947072982788086e+00,4.008018970489501953e+00,4.124486923217773438e+00,4.247925758361816406e+00,4.378981113433837891e+00,4.518381118774414062e+00,4.666947364807128906e+00,4.825616359710693359e+00,4.995453357696533203e+00,5.000000000000000000e+00,5.000000000000000000e+00,5.000000000000000000e+00,5.000000000000000000e+00,5.000000000000000000e+00,5.000000000000000000e+00,5.000000000000000000e+00,5.000000000000000000e+00,5.000000000000000000e+00,5.000000000000000000e+00,5.000000000000000000e+00,5.000000000000000000e+00,5.000000000000000000e+00,5.000000000000000000e+00,5.000000000000000000e+00,5.000000000000000000e+00,5.000000000000000000e+00,5.000000000000000000e+00,5.000000000000000000e+00,5.000000000000000000e+00,1.668397784233093262e+00,1.639717340469360352e+00,1.633733868598937988e+00,1.629052758216857910e+00,1.627947807312011719e+00,1.519199013710021973e+00,1.502362012863159180e+00,1.486816763877868652e+00,1.472155213356018066e+00,1.470276951789855957e+00,1.474903583526611328e+00,1.485727190971374512e+00,1.499280452728271484e+00,1.374178886413574219e+00
1.933328509330749512e+00,1.960026860237121582e+00,1.987472534179687500e+00,2.015697956085205078e+00,2.044736623764038086e+00,2.074624300003051758e+00,2.105398654937744141e+00,2.137099742889404297e+00,2.169770002365112305e+00,2.203454732894897461e+00,2.238201618194580078e+00,2.274062156677246094e+00,2.311090469360351562e+00,2.349344491958618164e+00,2.388886213302612305e+00,2.429781913757324219e+00,2.472102165222167969e+00,2.515922784805297852e+00,2.561326026916503906e+00,2.608402490615844727e+00,2.657242059707641602e+00,2.707945346832275391e+00,2.760621309280395508e+00,2.815387248992919922e+00,2.872370004653930664e+00,2.931699991226196289e+00,2.993532419204711914e+00,3.058029174804687500e+00,3.125366449356079102e+00,3.195735931396484375e+00,3.269347190856933594e+00,3.346429824829101562e+00,3.427234888076782227e+00,3.512038946151733398e+00,3.601146221160888672e+00,3.694892644882202148e+00,3.793650865554809570e+00,3.897832870483398438e+00,4.007898807525634766e+00,4.124361515045166016e+00,4.247792720794677734e+00,4.378839969635009766e+00,4.518230438232421875e+00,4.666787147521972656e+00,4.825444698333740234e+00,4.995269298553466797e+00,5.000000000000000000e+00,5.000000000000000000e+00,5.000000000000000000e+00,5.000000000000000000e+00,5.000000000000000000e+00,5.000000000000000000e+00,5.000000000000000000e+00,5.000000000000000000e+00,5.000000000000000000e+00,5.000000000000000000e+00,5.000000000000000000e+00,5.000000000000000000e+00,5.000000000000000000e+00,5.000000000000000000e+00,5.000000000000000000e+00,5.000000000000000000e+00,5.000000000000000000e+00,5.000000000000000000e+00,5.000000000000000000e+00,1.687464118003845215e+00,1.658485412597656250e+00,1.636367559432983398e+00,1.632156133651733398e+00,1.627514004707336426e+00,1.585512518882751465e+00,1.517368555068969727e+00,1.501178145408630371e+00,1.486233353614807129e+00,1.471583247184753418e+00,1.474794626235961914e+00,1.479585409164428711e+00,1.492877364158630371e+00,5.000000000000000000e+00,5.000000000000000000e+00
1.933300256729125977e+00,1.959997773170471191e+00,1.987442612648010254e+00,2.015667200088500977e+00,2.044705152511596680e+00,2.074591875076293945e+00,2.105365276336669922e+00,2.137065172195434570e+00,2.169734477996826172e+00,2.203417778015136719e+00,2.238163709640502930e+00,2.274023056030273438e+00,2.311049938201904297e+00,2.349302768707275391e+00,2.388843297958374023e+00,2.429737329483032227e+00,2.472055912017822266e+00,2.515874862670898438e+00,2.561275243759155273e+00,2.608344316482543945e+00,2.657176017761230469e+00,2.707876920700073242e+00,2.760550260543823242e+00,2.815313339233398438e+00,2.872292995452880859e+00,2.931627035140991211e+00,2.993463993072509766e+00,3.057959079742431641e+00,3.125293254852294922e+00,3.195659399032592773e+00,3.269267320632934570e+00,3.346345901489257812e+00,3.427146673202514648e+00,3.511946439743041992e+00,3.601048946380615234e+00,3.694790363311767578e+00,3.793542861938476562e+00,3.897718906402587891e+00,4.007778167724609375e+00,4.124233722686767578e+00,4.247659683227539062e+00,4.378698825836181641e+00,4.518080234527587891e+00,4.666626453399658203e+00,4.825273036956787109e+00,4.995085716247558594e+00,5.000000000000000000e+00,5.000000000000000000e+00,5.000000000000000000e+00,5.000000000000000000e+00,5.000000000000000000e+00,5.000000000000000000e+00,5.000000000000000000e+00,5.000000000000000000e+00,5.000000000000000000e+00,5.000000000000000000e+00,5.000000000000000000e+00,5.000000000000000000e+00,5.000000000000000000e+00,5.000000000000000000e+00,5.000000000000000000e+00,5.000000000000000000e+00,5.000000000000000000e+00,5.000000000000000000e+00,5.000000000000000000e+00,1.677688241004943848e+00,1.647208213806152344e+00,1.634686470031738281e+00,1.630483627319335938e+00,1.625978469848632812e+00,1.576119303703308105e+00,1.515587925910949707e+00,1.499933838844299316e+00,1.484599828720092773e+00,1.474460721015930176e+00,1.479551434516906738e+00,1.486528873443603516e+00,1.499830007553100586e+00,5.000000000000000000e+00,5.000000000000000000e+00
1.933272123336791992e+00,1.959968686103820801e+00,1.987412929534912109e+00,2.015636682510375977e+00,2.044673442840576172e+00,2.074559211730957031e+00,2.105331659317016602e+00,2.137030601501464844e+00,2.169698715209960938e+00,2.203381299972534180e+00,2.238126039505004883e+00,2.273983955383300781e+00,2.311009645462036133e+00,2.349261045455932617e+00,2.388799905776977539e+00,2.429692745208740234e+00,2.472009658813476562e+00,2.515826940536499023e+00,2.561225652694702148e+00,2.608293056488037109e+00,2.657122373580932617e+00,2.707815170288085938e+00,2.760479450225830078e+00,2.815238952636718750e+00,2.872215747833251953e+00,2.931546688079833984e+00,2.993380069732666016e+00,3.057878255844116211e+00,3.125217199325561523e+00,3.195582866668701172e+00,3.269186973571777344e+00,3.346261739730834961e+00,3.427058935165405273e+00,3.511853694915771484e+00,3.600951433181762695e+00,3.694687843322753906e+00,3.793434619903564453e+00,3.897605180740356445e+00,4.007657527923583984e+00,4.124105930328369141e+00,4.247524261474609375e+00,4.378557205200195312e+00,4.517930030822753906e+00,4.666466236114501953e+00,4.825101852416992188e+00,4.994901657104492188e+00,5.000000000000000000e+00,5.000000000000000000e+00,5.000000000000000000e+00,5.000000000000000000e+00,5.000000000000000000e+00,5.000000000000000000e+00,5.000000000000000000e+00,5.000000000000000000e+00,5.000000000000000000e+00,5.000000000000000000e+00,5.000000000000000000e+00,5.000000000000000000e+00,5.000000000000000000e+00,5.000000000000000000e+00,5.000000000000000000e+00,5.000000000000000000e+00,5.000000000000000000e+00,5.000000000000000000e+00,5.000000000000000000e+00,1.667154908180236816e+00,1.637426018714904785e+00,1.632602214813232422e+00,1.628814458847045898e+00,1.627407789230346680e+00,1.567723393440246582e+00,1.512172222137451172e+00,1.496588230133056641e+00,1.481469273567199707e+00,1.479749798774719238e+00,1.484877109527587891e+00,1.494717121124267578e+00,5.000000000000000000e+00,5.000000000000000000e+00,5.000000000000000000e+00
1.933243870735168457e+00,1.959939599037170410e+00,1.987383127212524414e+00,2.015605926513671875e+00,2.044641971588134766e+00,2.074526786804199219e+00,2.105298280715942383e+00,2.136996269226074219e+00,2.169663190841674805e+00,2.203344583511352539e+00,2.238088130950927734e+00,2.273944854736328125e+00,2.310969114303588867e+00,2.349219322204589844e+00,2.388756752014160156e+00,2.429648160934448242e+00,2.471963644027709961e+00,2.515779256820678711e+00,2.561176061630249023e+00,2.608241558074951172e+00,2.657068967819213867e+00,2.707759618759155273e+00,2.760421752929687500e+00,2.815173149108886719e+00,2.872140645980834961e+00,2.931466341018676758e+00,2.993296384811401367e+00,3.057790756225585938e+00,3.125125885009765625e+00,3.195493221282958984e+00,3.269102334976196289e+00,3.346178054809570312e+00,3.426970720291137695e+00,3.511761188507080078e+00,3.600854396820068359e+00,3.694585323333740234e+00,3.793326616287231445e+00,3.897490978240966797e+00,4.007536888122558594e+00,4.123978614807128906e+00,4.247388839721679688e+00,4.378413200378417969e+00,4.517778396606445312e+00,4.666305541992187500e+00,4.824929714202880859e+00,4.994718074798583984e+00,5.000000000000000000e+00,5.000000000000000000e+00,5.000000000000000000e+00,5.000000000000000000e+00,5.000000000000000000e+00,5.000000000000000000e+00,5.000000000000000000e+00,5.000000000000000000e+00,5.000000000000000000e+00,5.000000000000000000e+00,5.000000000000000000e+00,5.000000000000000000e+00,5.000000000000000000e+00,5.000000000000000000e+00,5.000000000000000000e+00,5.000000000000000000e+00,5.000000000000000000e+00,5.000000000000000000e+00,1.688653588294982910e+00,1.657740235328674316e+00,1.634618401527404785e+00,1.629146337509155273e+00,1.625489592552185059e+00,1.632422924041748047e+00,1.560509800910949707e+00,1.508771896362304688e+00,1.493257522583007812e+00,1.482109189033508301e+00,1.485076904296875000e+00,1.490369200706481934e+00,1.503032326698303223e+00,5.000000000000000000e+00,5.000000000000000000e+00,5.000000000000000000e+00
1.933215498924255371e+00,1.959910511970520020e+00,1.987353205680847168e+00,2.015575170516967773e+00,2.044610500335693359e+00,2.074494123458862305e+00,2.105264663696289062e+00,2.136961698532104492e+00,2.169627666473388672e+00,2.203307867050170898e+00,2.238050222396850586e+00,2.273905992507934570e+00,2.310929059982299805e+00,2.349177598953247070e+00,2.388713836669921875e+00,2.429603338241577148e+00,2.471917390823364258e+00,2.515731334686279297e+00,2.561126470565795898e+00,2.608190059661865234e+00,2.657015800476074219e+00,2.707704305648803711e+00,2.760364294052124023e+00,2.815113306045532227e+00,2.872078180313110352e+00,2.931396007537841797e+00,2.993215560913085938e+00,3.057703733444213867e+00,3.125034570693969727e+00,3.195397853851318359e+00,3.269002676010131836e+00,3.346078157424926758e+00,3.426876068115234375e+00,3.511668920516967773e+00,3.600757122039794922e+00,3.694482803344726562e+00,3.793219089508056641e+00,3.897377014160156250e+00,4.007416725158691406e+00,4.123850822448730469e+00,4.247253417968750000e+00,4.378269195556640625e+00,4.517625331878662109e+00,4.666143894195556641e+00,4.824758529663085938e+00,4.994534492492675781e+00,5.000000000000000000e+00,5.000000000000000000e+00,5.000000000000000000e+00,5.000000000000000000e+00,5.000000000000000000e+00,5.000000000000000000e+00,5.000000000000000000e+00,5.000000000000000000e+00,5.000000000000000000e+00,5.000000000000000000e+00,5.000000000000000000e+00,5.000000000000000000e+00,5.000000000000000000e+00,5.000000000000000000e+00,5.000000000000000000e+00,5.000000000000000000e+00,5.000000000000000000e+00,5.000000000000000000e+00,1.678995251655578613e+00,1.643330693244934082e+00,1.631820321083068848e+00,1.625705122947692871e+00,1.626238703727722168e+00,1.636789798736572266e+00,1.550779342651367188e+00,1.505386710166931152e+00,1.491970896720886230e+00,1.482749938964843750e+00,1.490442395210266113e+00,1.498635768890380859e+00,1.507203340530395508e+00,5.000000000000000000e+00,5.000000000000000000e+00,5.000000000000000000e+00
1.933187246322631836e+00,1.959881663322448730e+00,1.987323284149169922e+00,2.015544414520263672e+00,2.044578790664672852e+00,2.074461698532104492e+00,2.105231046676635742e+00,2.136927127838134766e+00,2.169592142105102539e+00,2.203271150588989258e+00,2.238012313842773438e+00,2.273866653442382812e+00,2.310888528823852539e+00,2.349135875701904297e+00,2.388670682907104492e+00,2.429558753967285156e+00,2.471871137619018555e+00,2.515683650970458984e+00,2.561077117919921875e+00,2.608138799667358398e+00,2.656962394714355469e+00,2.707648754119873047e+00,2.760306835174560547e+00,2.815053462982177734e+00,2.872015714645385742e+00,2.931330919265747070e+00,2.993148088455200195e+00,3.057628393173217773e+00,3.124948024749755859e+00,3.195302486419677734e+00,3.268902540206909180e+00,3.345973491668701172e+00,3.426766157150268555e+00,3.511557102203369141e+00,3.600650787353515625e+00,3.694380760192871094e+00,3.793110847473144531e+00,3.897262811660766602e+00,4.007296085357666016e+00,4.123723506927490234e+00,4.247117996215820312e+00,4.378125190734863281e+00,4.517472267150878906e+00,4.665980815887451172e+00,4.824585437774658203e+00,4.994350433349609375e+00,5.000000000000000000e+00,5.000000000000000000e+00,5.000000000000000000e+00,5.000000000000000000e+00,5.000000000000000000e+00,5.000000000000000000e+00,5.000000000000000000e+00,5.000000000000000000e+00,5.000000000000000000e+00,5.000000000000000000e+00,5.000000000000000000e+00,5.000000000000000000e+00,5.000000000000000000e+00,5.000000000000000000e+00,5.000000000000000000e+00,5.000000000000000000e+00,5.000000000000000000e+00,5.000000000000000000e+00,1.666299104690551758e+00,1.638813614845275879e+00,1.629031658172607422e+00,1.622278213500976562e+00,1.631522417068481445e+00,5.000000000000000000e+00,1.541169404983520508e+00,1.502016901969909668e+00,1.492619991302490234e+00,1.488002896308898926e+00,1.495846986770629883e+00,1.504583597183227539e+00,5.000000000000000000e+00,5.000000000000000000e+00,5.000000000000000000e+00,5.000000000000000000e+00
1.933158993721008301e+00,1.959852576255798340e+00,1.987293362617492676e+00,2.015513658523559570e+00,2.044547319412231445e+00,2.074429273605346680e+00,2.105197668075561523e+00,2.136892557144165039e+00,2.169556617736816406e+00,2.203234434127807617e+00,2.237974405288696289e+00,2.273827552795410156e+00,2.310847997665405273e+00,2.349094152450561523e+00,2.388627529144287109e+00,2.429514169692993164e+00,2.471825122833251953e+00,2.515635728836059570e+00,2.561027288436889648e+00,2.608087301254272461e+00,2.656908988952636719e+00,2.707593441009521484e+00,2.760249376296997070e+00,2.814993619918823242e+00,2.871953487396240234e+00,2.931266069412231445e+00,2.993080377578735352e+00,3.057557582855224609e+00,3.124874114990234375e+00,3.195221424102783203e+00,3.268808841705322266e+00,3.345869064331054688e+00,3.426656723022460938e+00,3.511441707611083984e+00,3.600529432296752930e+00,3.694255113601684570e+00,3.792990922927856445e+00,3.897149324417114258e+00,4.007175445556640625e+00,4.123595714569091797e+00,4.246982574462890625e+00,4.377981662750244141e+00,4.517318725585937500e+00,4.665817260742187500e+00,4.824410915374755859e+00,4.994164943695068359e+00,5.000000000000000000e+00,5.000000000000000000e+00,5.000000000000000000e+00,5.000000000000000000e+00,5.000000000000000000e+00,5.000000000000000000e+00,5.000000000000000000e+00,5.000000000000000000e+00,5.000000000000000000e+00,5.000000000000000000e+00,5.000000000000000000e+00,5.000000000000000000e+00,5.000000000000000000e+00,5.000000000000000000e+00,5.000000000000000000e+00,5.000000000000000000e+00,5.000000000000000000e+00,1.689918756484985352e+00,1.651343226432800293e+00,1.636001229286193848e+00,1.626251220703125000e+00,1.627974748611450195e+00,1.647343754768371582e+00,5.000000000000000000e+00,1.533210515975952148e+00,1.502348661422729492e+00,1.493113636970520020e+00,1.493732333183288574e+00,1.501972913742065430e+00,1.508123159408569336e+00,5.000000000000000000e+00,5.000000000000000000e+00,5.000000000000000000e+00,5.000000000000000000e+00
1.933130860328674316e+00,1.959823489189147949e+00,1.987263798713684082e+00,2.015483140945434570e+00,2.044515609741210938e+00,2.074396610260009766e+00,2.105164289474487305e+00,2.136857986450195312e+00,2.169520854949951172e+00,2.203197717666625977e+00,2.237936735153198242e+00,2.273788690567016602e+00,2.310807943344116211e+00,2.349052429199218750e+00,2.388584375381469727e+00,2.429469585418701172e+00,2.471778869628906250e+00,2.515587806701660156e+00,2.560977935791015625e+00,2.608036041259765625e+00,2.656855583190917969e+00,2.707538127899169922e+00,2.760191679000854492e+00,2.814933776855468750e+00,2.871891021728515625e+00,2.931201219558715820e+00,2.993012428283691406e+00,3.057486772537231445e+00,3.124800443649291992e+00,3.195144414901733398e+00,3.268728494644165039e+00,3.345781564712524414e+00,3.426555156707763672e+00,3.511326789855957031e+00,3.600408554077148438e+00,3.694127798080444336e+00,3.792856693267822266e+00,3.897007703781127930e+00,4.007039546966552734e+00,4.123466014862060547e+00,4.246847152709960938e+00,4.377837657928466797e+00,4.517166137695312500e+00,4.665654182434082031e+00,4.824235916137695312e+00,4.993977546691894531e+00,5.000000000000000000e+00,5.000000000000000000e+00,5.000000000000000000e+00,5.000000000000000000e+00,5.000000000000000000e+00,5.000000000000000000e+00,5.000000000000000000e+00,5.000000000000000000e+00,5.000000000000000000e+00,5.000000000000000000e+00,5.000000000000000000e+00,5.000000000000000000e+00,5.000000000000000000e+00,5.000000000000000000e+00,5.000000000000000000e+00,5.000000000000000000e+00,5.000000000000000000e+00,1.687072038650512695e+00,1.649295687675476074e+00,1.634742140769958496e+00,1.623380541801452637e+00,1.640283703804016113e+00,5.000000000000000000e+00,5.000000000000000000e+00,1.531688451766967773e+00,1.503323078155517578e+00,1.497143864631652832e+00,1.500209212303161621e+00,1.507438659667968750e+00,1.516675114631652832e+00,5.000000000000000000e+00,5.000000000000000000e+00,5.000000000000000000e+00,5.000000000000000000e+00
1.933102607727050781e+00,1.959794402122497559e+00,1.987233877182006836e+00,2.015452384948730469e+00,2.044483900070190430e+00,2.074363946914672852e+00,2.105130672454833984e+00,2.136823654174804688e+00,2.169485330581665039e+00,2.203161001205444336e+00,2.237898826599121094e+00,2.273749589920043945e+00,2.310767412185668945e+00,2.349010705947875977e+00,2.388541221618652344e+00,2.429425001144409180e+00,2.471732854843139648e+00,2.515540122985839844e+00,2.560928344726562500e+00,2.607984542846679688e+00,2.656802177429199219e+00,2.707482576370239258e+00,2.760133981704711914e+00,2.814873695373535156e+00,2.871829032897949219e+00,2.931136369705200195e+00,2.992944955825805664e+00,3.057416439056396484e+00,3.124726533889770508e+00,3.195067167282104492e+00,3.268647432327270508e+00,3.345696926116943359e+00,3.426466464996337891e+00,3.511232376098632812e+00,3.600298404693603516e+00,3.694000482559204102e+00,3.792721986770629883e+00,3.896865606307983398e+00,4.006889820098876953e+00,4.123307228088378906e+00,4.246692180633544922e+00,4.377688884735107422e+00,4.517012596130371094e+00,4.665490627288818359e+00,4.824061393737792969e+00,4.993790626525878906e+00,5.000000000000000000e+00,5.000000000000000000e+00,5.000000000000000000e+00,5.000000000000000000e+00,5.000000000000000000e+00,5.000000000000000000e+00,5.000000000000000000e+00,5.000000000000000000e+00,5.000000000000000000e+00,5.000000000000000000e+00,5.000000000000000000e+00,5.000000000000000000e+00,5.000000000000000000e+00,5.000000000000000000e+00,5.000000000000000000e+00,5.000000000000000000e+00,5.000000000000000000e+00,1.687981128692626953e+00,1.653335332870483398e+00,1.639031648635864258e+00,1.630358338356018066e+00,1.626854658126831055e+00,1.643443822860717773e+00,1.657928586006164551e+00,1.543177366256713867e+00,1.509492874145507812e+00,1.503943920135498047e+00,1.502440214157104492e+00,1.506656050682067871e+00,1.517511010169982910e+00,5.000000000000000000e+00,5.000000000000000000e+00,5.000000000000000000e+00,5.000000000000000000e+00
1.933074355125427246e+00,1.959765315055847168e+00,1.987203955650329590e+00,2.015421628952026367e+00,2.044452428817749023e+00,2.074331521987915039e+00,2.105097293853759766e+00,2.136789083480834961e+00,2.169449806213378906e+00,2.203124284744262695e+00,2.237860918045043945e+00,2.273710489273071289e+00,2.310727119445800781e+00,2.348968982696533203e+00,2.388498067855834961e+00,2.429380416870117188e+00,2.471686601638793945e+00,2.515492200851440430e+00,2.560878515243530273e+00,2.607933044433593750e+00,2.656749010086059570e+00,2.707427263259887695e+00,2.760076522827148438e+00,2.814813852310180664e+00,2.871766567230224609e+00,2.931071281433105469e+00,2.992877244949340820e+00,3.057345628738403320e+00,3.124652624130249023e+00,3.194989919662475586e+00,3.268567085266113281e+00,3.345612525939941406e+00,3.426377773284912109e+00,3.511138916015625000e+00,3.600200414657592773e+00,3.693897247314453125e+00,3.792601585388183594e+00,3.896725654602050781e+00,4.006739616394042969e+00,4.123148441314697266e+00,4.246523380279541016e+00,4.377510070800781250e+00,4.516834259033203125e+00,4.665318489074707031e+00,4.823886871337890625e+00,4.993603229522705078e+00,5.000000000000000000e+00,5.000000000000000000e+00,5.000000000000000000e+00,5.000000000000000000e+00,5.000000000000000000e+00,5.000000000000000000e+00,5.000000000000000000e+00,5.000000000000000000e+00,5.000000000000000000e+00,5.000000000000000000e+00,5.000000000000000000e+00,5.000000000000000000e+00,5.000000000000000000e+00,5.000000000000000000e+00,5.000000000000000000e+00,5.000000000000000000e+00,5.000000000000000000e+00,5.000000000000000000e+00,1.670466661453247070e+00,1.646689414978027344e+00,1.645825624465942383e+00,1.644303917884826660e+00,1.642784833908081055e+00,1.641268491744995117e+00,1.567367672920227051e+00,1.521525144577026367e+00,1.514475226402282715e+00,1.506063103675842285e+00,1.506341338157653809e+00,1.513008832931518555e+00,1.529506206512451172e+00,5.000000000000000000e+00,5.000000000000000000e+00,5.000000000000000000e+00
1.933046102523803711e+00,1.959736466407775879e+00,1.987174034118652344e+00,2.015390872955322266e+00,2.044420719146728516e+00,2.074299097061157227e+00,2.105063676834106445e+00,2.136754512786865234e+00,2.169414281845092773e+00,2.203087806701660156e+00,2.237823247909545898e+00,2.273671388626098633e+00,2.310686826705932617e+00,2.348927259445190430e+00,2.388454914093017578e+00,2.429335832595825195e+00,2.471640348434448242e+00,2.515444517135620117e+00,2.560829162597656250e+00,2.607881784439086914e+00,2.656695604324340820e+00,2.707371711730957031e+00,2.760018825531005859e+00,2.814754009246826172e+00,2.871704101562500000e+00,2.931006193161010742e+00,2.992809534072875977e+00,3.057275056838989258e+00,3.124578952789306641e+00,3.194912910461425781e+00,3.268486022949218750e+00,3.345527887344360352e+00,3.426289081573486328e+00,3.511045694351196289e+00,3.600102186203002930e+00,3.693794250488281250e+00,3.792493104934692383e+00,3.896611213684082031e+00,4.006607055664062500e+00,4.122993946075439453e+00,4.246355056762695312e+00,4.377330780029296875e+00,4.516643524169921875e+00,4.665115356445312500e+00,4.823679924011230469e+00,4.993402957916259766e+00,5.000000000000000000e+00,5.000000000000000000e+00,5.000000000000000000e+00,5.000000000000000000e+00,5.000000000000000000e+00,5.000000000000000000e+00,5.000000000000000000e+00,5.000000000000000000e+00,5.000000000000000000e+00,5.000000000000000000e+00,5.000000000000000000e+00,5.000000000000000000e+00,5.000000000000000000e+00,5.000000000000000000e+00,5.000000000000000000e+00,5.000000000000000000e+00,5.000000000000000000e+00,5.000000000000000000e+00,5.000000000000000000e+00,1.683472871780395508e+00,1.665056705474853516e+00,1.654521226882934570e+00,1.652867674827575684e+00,1.652305483818054199e+00,1.650211572647094727e+00,1.547455430030822754e+00,1.525829911231994629e+00,1.515411615371704102e+00,1.509506464004516602e+00,1.509617090225219727e+00,1.521203160285949707e+00,5.000000000000000000e+00,5.000000000000000000e+00,5.000000000000000000e+00
1.933017730712890625e+00,1.959707379341125488e+00,1.987144112586975098e+00,2.015360116958618164e+00,2.044389247894287109e+00,2.074266672134399414e+00,2.105030298233032227e+00,2.136720180511474609e+00,2.169378519058227539e+00,2.203051090240478516e+00,2.237785339355468750e+00,2.273632287979125977e+00,2.310646295547485352e+00,2.348885774612426758e+00,2.388411998748779297e+00,2.429291248321533203e+00,2.471594333648681641e+00,2.515396595001220703e+00,2.560779571533203125e+00,2.607830286026000977e+00,2.656642198562622070e+00,2.707316398620605469e+00,2.759961366653442383e+00,2.814694166183471680e+00,2.871641874313354492e+00,2.930941581726074219e+00,2.992741823196411133e+00,3.057204484939575195e+00,3.124505043029785156e+00,3.194835662841796875e+00,3.268405199050903320e+00,3.345443487167358398e+00,3.426200389862060547e+00,3.510952711105346680e+00,3.600004434585571289e+00,3.693691015243530273e+00,3.792384147644042969e+00,3.896496295928955078e+00,4.006485939025878906e+00,4.122865676879882812e+00,4.246208667755126953e+00,4.377159595489501953e+00,4.516453266143798828e+00,4.664911746978759766e+00,4.823462486267089844e+00,4.993170261383056641e+00,5.000000000000000000e+00,5.000000000000000000e+00,5.000000000000000000e+00,5.000000000000000000e+00,5.000000000000000000e+00,5.000000000000000000e+00,5.000000000000000000e+00,5.000000000000000000e+00,5.000000000000000000e+00,5.000000000000000000e+00,5.000000000000000000e+00,5.000000000000000000e+00,5.000000000000000000e+00,5.000000000000000000e+00,5.000000000000000000e+00,5.000000000000000000e+00,5.000000000000000000e+00,5.000000000000000000e+00,5.000000000000000000e+00,5.000000000000000000e+00,1.700307726860046387e+00,1.684833645820617676e+00,1.671548128128051758e+00,1.658132314682006836e+00,1.655747652053833008e+00,1.653517246246337891e+00,1.537356138229370117e+00,1.525916934013366699e+00,1.515517115592956543e+00,1.512965679168701172e+00,1.514788746833801270e+00,5.000000000000000000e+00,5.000000000000000000e+00,5.000000000000000000e+00
1.932989716529846191e+00,1.959678292274475098e+00,1.987114548683166504e+00,2.015329599380493164e+00,2.044357538223266602e+00,2.074234008789062500e+00,2.104996681213378906e+00,2.136685609817504883e+00,2.169342994689941406e+00,2.203014373779296875e+00,2.237747430801391602e+00,2.273593187332153320e+00,2.310606002807617188e+00,2.348844051361083984e+00,2.388368844985961914e+00,2.429246664047241211e+00,2.471548080444335938e+00,2.515348672866821289e+00,2.560729980468750000e+00,2.607779026031494141e+00,2.656589031219482422e+00,2.707261085510253906e+00,2.759903669357299805e+00,2.814634323120117188e+00,2.871579408645629883e+00,2.930876493453979492e+00,2.992674112319946289e+00,3.057133674621582031e+00,3.124431371688842773e+00,3.194758653640747070e+00,3.268324613571166992e+00,3.345358610153198242e+00,3.426111698150634766e+00,3.510859489440917969e+00,3.599906444549560547e+00,3.693587779998779297e+00,3.792275428771972656e+00,3.896381855010986328e+00,4.006364345550537109e+00,4.122736930847167969e+00,4.246072292327880859e+00,4.377014636993408203e+00,4.516290187835693359e+00,4.664720058441162109e+00,4.823245525360107422e+00,4.992937088012695312e+00,5.000000000000000000e+00,5.000000000000000000e+00,5.000000000000000000e+00,5.000000000000000000e+00,5.000000000000000000e+00,5.000000000000000000e+00,5.000000000000000000e+00,5.000000000000000000e+00,5.000000000000000000e+00,5.000000000000000000e+00,5.000000000000000000e+00,5.000000000000000000e+00,5.000000000000000000e+00,5.000000000000000000e+00,5.000000000000000000e+00,5.000000000000000000e+00,5.000000000000000000e+00,5.000000000000000000e+00,5.000000000000000000e+00,5.000000000000000000e+00,5.000000000000000000e+00,5.000000000000000000e+00,1.692264914512634277e+00,1.674335241317749023e+00,1.662325859069824219e+00,1.659075379371643066e+00,1.559777498245239258e+00,1.536103010177612305e+00,1.522269964218139648e+00,1.518863916397094727e+00,1.516253232955932617e+00,5.000000000000000000e+00,5.000000000000000000e+00,5.000000000000000000e+00
1.932961463928222656e+00,1.959649324417114258e+00,1.987084627151489258e+00,2.015298843383789062e+00,2.044326066970825195e+00,2.074201345443725586e+00,2.104963302612304688e+00,2.136651039123535156e+00,2.169307470321655273e+00,2.202977657318115234e+00,2.237709522247314453e+00,2.273554086685180664e+00,2.310565710067749023e+00,2.348802089691162109e+00,2.388325691223144531e+00,2.429202079772949219e+00,2.471501827239990234e+00,2.515300989151000977e+00,2.560680389404296875e+00,2.607727527618408203e+00,2.656535387039184570e+00,2.707205533981323242e+00,2.759845972061157227e+00,2.814574241638183594e+00,2.871517419815063477e+00,2.930811643600463867e+00,2.992606401443481445e+00,3.057063102722167969e+00,3.124357461929321289e+00,3.194681406021118164e+00,3.268243789672851562e+00,3.345273971557617188e+00,3.426022768020629883e+00,3.510766506195068359e+00,3.599808692932128906e+00,3.693485021591186523e+00,3.792166948318481445e+00,3.896266937255859375e+00,4.006243228912353516e+00,4.122608661651611328e+00,4.245936393737792969e+00,4.376869678497314453e+00,4.516135692596435547e+00,4.664555549621582031e+00,4.823062419891357422e+00,4.992720127105712891e+00,5.000000000000000000e+00,5.000000000000000000e+00,5.000000000000000000e+00,5.000000000000000000e+00,5.000000000000000000e+00,5.000000000000000000e+00,5.000000000000000000e+00,5.000000000000000000e+00,5.000000000000000000e+00,5.000000000000000000e+00,5.000000000000000000e+00,5.000000000000000000e+00,5.000000000000000000e+00,5.000000000000000000e+00,5.000000000000000000e+00,5.000000000000000000e+00,5.000000000000000000e+00,5.000000000000000000e+00,5.000000000000000000e+00,5.000000000000000000e+00,5.000000000000000000e+00,5.000000000000000000e+00,5.000000000000000000e+00,1.695523262023925781e+00,1.676372408866882324e+00,1.666540384292602539e+00,1.576641559600830078e+00,1.540764093399047852e+00,1.527771711349487305e+00,1.524385452270507812e+00,1.521755933761596680e+00,5.000000000000000000e+00,5.000000000000000000e+00,5.000000000000000000e+00
1.932933092117309570e+00,1.959620237350463867e+00,1.987054705619812012e+00,2.015268087387084961e+00,2.044294595718383789e+00,2.074168920516967773e+00,2.104929685592651367e+00,2.136616468429565430e+00,2.169271945953369141e+00,2.202940940856933594e+00,2.237671613693237305e+00,2.273515224456787109e+00,2.310525417327880859e+00,2.348760604858398438e+00,2.388282537460327148e+00,2.429157495498657227e+00,2.471455574035644531e+00,2.515253067016601562e+00,2.560630798339843750e+00,2.607676029205322266e+00,2.656481981277465820e+00,2.707150220870971680e+00,2.759788751602172852e+00,2.814514636993408203e+00,2.871454954147338867e+00,2.930746555328369141e+00,2.992538690567016602e+00,3.056992530822753906e+00,3.124283552169799805e+00,3.194604158401489258e+00,3.268163204193115234e+00,3.345189571380615234e+00,3.425934314727783203e+00,3.510673284530639648e+00,3.599710702896118164e+00,3.693381786346435547e+00,3.792057991027832031e+00,3.896152019500732422e+00,4.006121635437011719e+00,4.122480392456054688e+00,4.245800018310546875e+00,4.376725196838378906e+00,4.515981674194335938e+00,4.664391040802001953e+00,4.822886466979980469e+00,4.992531776428222656e+00,5.000000000000000000e+00,5.000000000000000000e+00,5.000000000000000000e+00,5.000000000000000000e+00,5.000000000000000000e+00,5.000000000000000000e+00,5.000000000000000000e+00,5.000000000000000000e+00,5.000000000000000000e+00,5.000000000000000000e+00,5.000000000000000000e+00,5.000000000000000000e+00,5.000000000000000000e+00,5.000000000000000000e+00,5.000000000000000000e+00,5.000000000000000000e+00,5.000000000000000000e+00,5.000000000000000000e+00,5.000000000000000000e+00,5.000000000000000000e+00,5.000000000000000000e+00,5.000000000000000000e+00,5.000000000000000000e+00,1.716842412948608398e+00,1.697750091552734375e+00,1.678506016731262207e+00,1.591896533966064453e+00,1.545453190803527832e+00,1.533517837524414062e+00,1.530007004737854004e+00,1.527298688888549805e+00,1.551955103874206543e+00,5.000000000000000000e+00,5.000000000000000000e+00
1.932904839515686035e+00,1.959591388702392578e+00,1.987024784088134766e+00,2.015237569808959961e+00,2.044262886047363281e+00,2.074136495590209961e+00,2.104896306991577148e+00,2.136581897735595703e+00,2.169236421585083008e+00,2.202904462814331055e+00,2.237633943557739258e+00,2.273476123809814453e+00,2.310484886169433594e+00,2.348718881607055664e+00,2.388239383697509766e+00,2.429112672805786133e+00,2.471409559249877930e+00,2.515205383300781250e+00,2.560581445693969727e+00,2.607624769210815430e+00,2.656428813934326172e+00,2.707094907760620117e+00,2.759731054306030273e+00,2.814454555511474609e+00,2.871392488479614258e+00,2.930681705474853516e+00,2.992471218109130859e+00,3.056921958923339844e+00,3.124210119247436523e+00,3.194527149200439453e+00,3.268082380294799805e+00,3.345104932785034180e+00,3.425845384597778320e+00,3.510579824447631836e+00,3.599612474441528320e+00,3.693278789520263672e+00,3.791949748992919922e+00,3.896037578582763672e+00,4.006000518798828125e+00,4.122351646423339844e+00,4.245663642883300781e+00,4.376580238342285156e+00,4.515827655792236328e+00,4.664226531982421875e+00,4.822710990905761719e+00,4.992343425750732422e+00,5.000000000000000000e+00,5.000000000000000000e+00,5.000000000000000000e+00,5.000000000000000000e+00,5.000000000000000000e+00,5.000000000000000000e+00,5.000000000000000000e+00,5.000000000000000000e+00,5.000000000000000000e+00,5.000000000000000000e+00,5.000000000000000000e+00,5.000000000000000000e+00,5.000000000000000000e+00,5.000000000000000000e+00,5.000000000000000000e+00,5.000000000000000000e+00,5.000000000000000000e+00,5.000000000000000000e+00,5.000000000000000000e+00,5.000000000000000000e+00,5.000000000000000000e+00,5.000000000000000000e+00,5.000000000000000000e+00,5.000000000000000000e+00,5.000000000000000000e+00,1.701084136962890625e+00,1.604415535926818848e+00,1.550171256065368652e+00,1.539307236671447754e+00,1.535819530487060547e+00,1.532882094383239746e+00,1.553940296173095703e+00,5.000000000000000000e+00,5.000000000000000000e+00
1.932876586914062500e+00,1.959562301635742188e+00,1.986994981765747070e+00,2.015206813812255859e+00,2.044231414794921875e+00,2.074104070663452148e+00,2.104862928390502930e+00,2.136547565460205078e+00,2.169200897216796875e+00,2.202867507934570312e+00,2.237596035003662109e+00,2.273436784744262695e+00,2.310444593429565430e+00,2.348677158355712891e+00,2.388196468353271484e+00,2.429068326950073242e+00,2.471363306045532227e+00,2.515157461166381836e+00,2.560531854629516602e+00,2.607573270797729492e+00,2.656375408172607422e+00,2.707039356231689453e+00,2.759673357009887695e+00,2.814394950866699219e+00,2.871330261230468750e+00,2.930616855621337891e+00,2.992403268814086914e+00,3.056851148605346680e+00,3.124136209487915039e+00,3.194449901580810547e+00,3.268001556396484375e+00,3.345020294189453125e+00,3.425756931304931641e+00,3.510487079620361328e+00,3.599514722824096680e+00,3.693175554275512695e+00,3.791840791702270508e+00,3.895922660827636719e+00,4.005879402160644531e+00,4.122223377227783203e+00,4.245527267456054688e+00,4.376435756683349609e+00,4.515673637390136719e+00,4.664062023162841797e+00,4.822534561157226562e+00,4.992155075073242188e+00,5.000000000000000000e+00,5.000000000000000000e+00,5.000000000000000000e+00,5.000000000000000000e+00,5.000000000000000000e+00,5.000000000000000000e+00,5.000000000000000000e+00,5.000000000000000000e+00,5.000000000000000000e+00,5.000000000000000000e+00,5.000000000000000000e+00,5.000000000000000000e+00,5.000000000000000000e+00,5.000000000000000000e+00,5.000000000000000000e+00,5.000000000000000000e+00,5.000000000000000000e+00,5.000000000000000000e+00,5.000000000000000000e+00,5.000000000000000000e+00,5.000000000000000000e+00,5.000000000000000000e+00,5.000000000000000000e+00,5.000000000000000000e+00,5.000000000000000000e+00,5.000000000000000000e+00,1.617133140563964844e+00,1.554917931556701660e+00,1.545140624046325684e+00,1.541676521301269531e+00,1.538552880287170410e+00,1.555930733680725098e+00,5.000000000000000000e+00,5.000000000000000000e+00
1.932848334312438965e+00,1.959533214569091797e+00,1.986965298652648926e+00,2.015176057815551758e+00,2.044199705123901367e+00,2.074071407318115234e+00,2.104829311370849609e+00,2.136512994766235352e+00,2.169165134429931641e+00,2.202830791473388672e+00,2.237558364868164062e+00,2.273397922515869141e+00,2.310404300689697266e+00,2.348635435104370117e+00,2.388153314590454102e+00,2.429023504257202148e+00,2.471317052841186523e+00,2.515109539031982422e+00,2.560482025146484375e+00,2.607522010803222656e+00,2.656322240829467773e+00,2.706984043121337891e+00,2.759615898132324219e+00,2.814334869384765625e+00,2.871267795562744141e+00,2.930551767349243164e+00,2.992335557937622070e+00,3.056780576705932617e+00,3.124062538146972656e+00,3.194373130798339844e+00,3.267920970916748047e+00,3.344935894012451172e+00,3.425668001174926758e+00,3.510393619537353516e+00,3.599416732788085938e+00,3.693072319030761719e+00,3.791732072830200195e+00,3.895808219909667969e+00,4.005758285522460938e+00,4.122095108032226562e+00,4.245391368865966797e+00,4.376290798187255859e+00,4.515519618988037109e+00,4.663897991180419922e+00,4.822359085083007812e+00,4.991966724395751953e+00,5.000000000000000000e+00,5.000000000000000000e+00,5.000000000000000000e+00,5.000000000000000000e+00,5.000000000000000000e+00,5.000000000000000000e+00,5.000000000000000000e+00,5.000000000000000000e+00,5.000000000000000000e+00,5.000000000000000000e+00,5.000000000000000000e+00,5.000000000000000000e+00,5.000000000000000000e+00,5.000000000000000000e+00,5.000000000000000000e+00,5.000000000000000000e+00,5.000000000000000000e+00,5.000000000000000000e+00,5.000000000000000000e+00,5.000000000000000000e+00,5.000000000000000000e+00,5.000000000000000000e+00,5.000000000000000000e+00,5.000000000000000000e+00,5.000000000000000000e+00,5.000000000000000000e+00,5.000000000000000000e+00,1.561388611793518066e+00,1.552164077758789062e+00,1.547765374183654785e+00,1.544602632522583008e+00,1.561082005500793457e+00,1.710227966308593750e+00,5.000000000000000000e+00
1.932820200920104980e+00,1.959504127502441406e+00,1.986935377120971680e+00,2.015145301818847656e+00,2.044167995452880859e+00,2.074038982391357422e+00,2.104795932769775391e+00,2.136478662490844727e+00,2.169129610061645508e+00,2.202794313430786133e+00,2.237520456314086914e+00,2.273358821868896484e+00,2.310364007949829102e+00,2.348593711853027344e+00,2.388110160827636719e+00,2.428979158401489258e+00,2.471271038055419922e+00,2.515061855316162109e+00,2.560432672500610352e+00,2.607470512390136719e+00,2.656268835067749023e+00,2.706928730010986328e+00,2.759558200836181641e+00,2.814275026321411133e+00,2.871205806732177734e+00,2.930487155914306641e+00,2.992268085479736328e+00,3.056710004806518555e+00,3.123988628387451172e+00,3.194295883178710938e+00,3.267840147018432617e+00,3.344851016998291016e+00,3.425579309463500977e+00,3.510300397872924805e+00,3.599318981170654297e+00,3.692969560623168945e+00,3.791623592376708984e+00,3.895693302154541016e+00,4.005636692047119141e+00,4.121966361999511719e+00,4.245254993438720703e+00,4.376146316528320312e+00,4.515365123748779297e+00,4.663733482360839844e+00,4.822183609008789062e+00,4.991778373718261719e+00,5.000000000000000000e+00,5.000000000000000000e+00,5.000000000000000000e+00,5.000000000000000000e+00,5.000000000000000000e+00,5.000000000000000000e+00,5.000000000000000000e+00,5.000000000000000000e+00,5.000000000000000000e+00,5.000000000000000000e+00,5.000000000000000000e+00,5.000000000000000000e+00,5.000000000000000000e+00,5.000000000000000000e+00,5.000000000000000000e+00,5.000000000000000000e+00,5.000000000000000000e+00,5.000000000000000000e+00,5.000000000000000000e+00,5.000000000000000000e+00,5.000000000000000000e+00,5.000000000000000000e+00,5.000000000000000000e+00,5.000000000000000000e+00,5.000000000000000000e+00,5.000000000000000000e+00,5.000000000000000000e+00,1.571664571762084961e+00,1.559811711311340332e+00,1.554353356361389160e+00,1.551163673400878906e+00,1.566992163658142090e+00,1.707469224929809570e+00,5.000000000000000000e+00
1.932791948318481445e+00,1.959475040435791016e+00,1.986905574798583984e+00,2.015114784240722656e+00,2.044136524200439453e+00,2.074006557464599609e+00,2.104762315750122070e+00,2.136444091796875000e+00,2.169094085693359375e+00,2.202757596969604492e+00,2.237482547760009766e+00,2.273319721221923828e+00,2.310323715209960938e+00,2.348552227020263672e+00,2.388067007064819336e+00,2.428934335708618164e+00,2.471224784851074219e+00,2.515013933181762695e+00,2.560383081436157227e+00,2.607419013977050781e+00,2.656215429306030273e+00,2.706873416900634766e+00,2.759500741958618164e+00,2.814215183258056641e+00,2.871143341064453125e+00,2.930422067642211914e+00,2.992200374603271484e+00,3.056639432907104492e+00,3.123914718627929688e+00,3.194218635559082031e+00,3.267759799957275391e+00,3.344766855239868164e+00,3.425490856170654297e+00,3.510207414627075195e+00,3.599220991134643555e+00,3.692866325378417969e+00,3.791514873504638672e+00,3.895578384399414062e+00,4.005515575408935547e+00,4.121838092803955078e+00,4.245119094848632812e+00,4.376001358032226562e+00,4.515211105346679688e+00,4.663568973541259766e+00,4.821177482604980469e+00,4.819991111755371094e+00,4.818804740905761719e+00,4.817619800567626953e+00,4.816434860229492188e+00,4.815250873565673828e+00,4.814066886901855469e+00,4.812883853912353516e+00,4.811701774597167969e+00,4.810519695281982422e+00,4.809338092803955078e+00,4.808157444000244141e+00,4.806977272033691406e+00,4.805797576904296875e+00,4.804618835449218750e+00,4.803440093994140625e+00,4.802262783050537109e+00,4.801084995269775391e+00,4.799908161163330078e+00,4.798732280731201172e+00,4.797556877136230469e+00,4.796381950378417969e+00,4.795207500457763672e+00,4.794033527374267578e+00,4.792860507965087891e+00,4.791687965393066406e+00,4.790515899658203125e+00,4.789344310760498047e+00,4.788173675537109375e+00,1.582685708999633789e+00,1.567535042762756348e+00,1.561104297637939453e+00,1.557780742645263672e+00,1.572327136993408203e+00,4.781159877777099609e+00,4.779992580413818359e+00
1.932763695716857910e+00,1.959446310997009277e+00,1.986875653266906738e+00,2.015084028244018555e+00,2.044104814529418945e+00,2.073973894119262695e+00,2.104728698730468750e+00,2.136409521102905273e+00,2.169058561325073242e+00,2.202720880508422852e+00,2.237444639205932617e+00,2.273280620574951172e+00,2.310283184051513672e+00,2.348510503768920898e+00,2.388023853302001953e+00,2.428889751434326172e+00,2.471178770065307617e+00,2.514966249465942383e+00,2.560333728790283203e+00,2.607367753982543945e+00,2.656162261962890625e+00,2.706817865371704102e+00,2.759443283081054688e+00,2.814155340194702148e+00,2.871080875396728516e+00,2.930357217788696289e+00,2.992132902145385742e+00,3.056568861007690430e+00,3.123841285705566406e+00,3.194141626358032227e+00,3.267678976058959961e+00,3.344681978225708008e+00,3.425401926040649414e+00,3.510114192962646484e+00,3.599123001098632812e+00,3.692763090133666992e+00,3.751466274261474609e+00,3.750747919082641602e+00,3.750029563903808594e+00,3.749311685562133789e+00,3.748594284057617188e+00,3.747876644134521484e+00,3.747159481048583984e+00,3.746442794799804688e+00,3.745726108551025391e+00,3.745009899139404297e+00,3.744294166564941406e+00,3.743578195571899414e+00,3.742862701416015625e+00,3.742147684097290039e+00,3.741432666778564453e+00,3.740718126296997070e+00,3.740003824234008789e+00,3.739289999008178711e+00,3.738575935363769531e+00,3.737862586975097656e+00,3.737149238586425781e+00,3.736435890197753906e+00,3.735723495483398438e+00,3.735011100769042969e+00,3.734298706054687500e+00,3.733586788177490234e+00,3.732875347137451172e+00,3.732163667678833008e+00,3.731452703475952148e+00,3.730741977691650391e+00,3.730031251907348633e+00,3.729321002960205078e+00,3.728611230850219727e+00,3.727901220321655273e+00,3.727191925048828125e+00,3.726482868194580078e+00,3.725773572921752930e+00,1.597791671752929688e+00,1.575335144996643066e+00,1.567997813224792480e+00,1.564454436302185059e+00,1.577698469161987305e+00,3.721525907516479492e+00,3.720818519592285156e+00
1.932735443115234375e+00,1.959417223930358887e+00,1.986845731735229492e+00,2.015053272247314453e+00,2.044073343276977539e+00,2.073941469192504883e+00,2.104695320129394531e+00,2.136375188827514648e+00,2.169023036956787109e+00,2.202684164047241211e+00,2.237406730651855469e+00,2.273241519927978516e+00,2.310242891311645508e+00,2.348468542098999023e+00,2.387980937957763672e+00,2.428845167160034180e+00,2.471132516860961914e+00,2.514918327331542969e+00,2.560284137725830078e+00,2.607316255569458008e+00,2.656108856201171875e+00,2.706762552261352539e+00,2.759385585784912109e+00,2.814095497131347656e+00,2.871018886566162109e+00,2.930292367935180664e+00,2.992064952850341797e+00,3.056498050689697266e+00,3.070247411727905273e+00,3.069765806198120117e+00,3.069284915924072266e+00,3.068804025650024414e+00,3.068322896957397461e+00,3.067842483520507812e+00,3.067362070083618164e+00,3.066881895065307617e+00,3.066401481628417969e+00,3.065921545028686523e+00,3.065441846847534180e+00,3.064961910247802734e+00,3.064482450485229492e+00,3.064002990722656250e+00,3.063523530960083008e+00,3.063044548034667969e+00,3.062565565109252930e+00,3.062086582183837891e+00,3.061607837677001953e+00,3.061129570007324219e+00,3.060650825500488281e+00,3.060172796249389648e+00,3.059694766998291016e+00,3.059216499328613281e+00,3.058738946914672852e+00,3.058261394500732422e+00,3.057783603668212891e+00,3.057306289672851562e+00,3.056829214096069336e+00,3.056351900100708008e+00,3.055875062942504883e+00,3.055398464202880859e+00,3.054922103881835938e+00,3.054445266723632812e+00,3.053969144821166992e+00,3.053493022918701172e+00,3.053016901016235352e+00,3.052541017532348633e+00,3.052065372467041016e+00,3.051589727401733398e+00,3.051114320755004883e+00,3.050639152526855469e+00,3.050163984298706055e+00,3.049689054489135742e+00,3.049214363098144531e+00,1.624351143836975098e+00,1.583213329315185547e+00,1.574952483177185059e+00,1.571324348449707031e+00,3.046842336654663086e+00,3.046368360519409180e+00,3.045894384384155273e+00
1.932707190513610840e+00,1.959388136863708496e+00,1.986816167831420898e+00,2.015022754669189453e+00,2.044041872024536133e+00,2.073908805847167969e+00,2.104661941528320312e+00,2.136340618133544922e+00,2.168987512588500977e+00,2.202647447586059570e+00,2.237369060516357422e+00,2.273202657699584961e+00,2.310202598571777344e+00,2.348427057266235352e+00,2.387937784194946289e+00,2.428800582885742188e+00,2.471086502075195312e+00,2.514870643615722656e+00,2.560234308242797852e+00,2.598753690719604492e+00,2.598408937454223633e+00,2.598064184188842773e+00,2.597719430923461914e+00,2.597375154495239258e+00,2.597030639648437500e+00,2.596686363220214844e+00,2.596342086791992188e+00,2.595997810363769531e+00,2.595653772354125977e+00,2.595309972763061523e+00,2.594965934753417969e+00,2.594622135162353516e+00,2.594278573989868164e+00,2.593934774398803711e+00,2.593591213226318359e+00,2.593247890472412109e+00,2.592904567718505859e+00,2.592561244964599609e+00,2.592218160629272461e+00,2.591875076293945312e+00,2.591531991958618164e+00,2.591189146041870117e+00,2.590846538543701172e+00,2.590503692626953125e+00,2.590161085128784180e+00,2.589818716049194336e+00,2.589476108551025391e+00,2.589133739471435547e+00,2.588791608810424805e+00,2.588449478149414062e+00,2.588107347488403320e+00,2.587765455245971680e+00,2.587423563003540039e+00,2.587081670761108398e+00,2.586740016937255859e+00,2.586398363113403320e+00,2.586056947708129883e+00,2.585715532302856445e+00,2.585374116897583008e+00,2.585032939910888672e+00,2.584691762924194336e+00,2.584350585937500000e+00,2.584009647369384766e+00,2.583668708801269531e+00,2.583327770233154297e+00,2.582987308502197266e+00,2.582646608352661133e+00,2.582306146621704102e+00,2.581965684890747070e+00,2.581625223159790039e+00,2.581285238265991211e+00,2.580944776535034180e+00,2.580604791641235352e+00,1.749911427497863770e+00,1.602584242820739746e+00,1.590870857238769531e+00,1.587125062942504883e+00,2.578905582427978516e+00,2.578566074371337891e+00,2.578226804733276367e+00
1.932679057121276855e+00,1.959359049797058105e+00,1.986786246299743652e+00,2.014991998672485352e+00,2.044010162353515625e+00,2.073876380920410156e+00,2.104628562927246094e+00,2.136306047439575195e+00,2.168951988220214844e+00,2.202610969543457031e+00,2.237331151962280273e+00,2.252536058425903320e+00,2.252276897430419922e+00,2.252017974853515625e+00,2.251759052276611328e+00,2.251500129699707031e+00,2.251241445541381836e+00,2.250982761383056641e+00,2.250723838806152344e+00,2.250465393066406250e+00,2.250206708908081055e+00,2.249948024749755859e+00,2.249689817428588867e+00,2.249431371688842773e+00,2.249172925949096680e+00,2.248914718627929688e+00,2.248656511306762695e+00,2.248398542404174805e+00,2.248140335083007812e+00,2.247882366180419922e+00,2.247624397277832031e+00,2.247366428375244141e+00,2.247108459472656250e+00,2.246850728988647461e+00,2.246592998504638672e+00,2.246335268020629883e+00,2.246077775955200195e+00,2.245820045471191406e+00,2.245562553405761719e+00,2.245305061340332031e+00,2.245047569274902344e+00,2.244790315628051758e+00,2.244533061981201172e+00,2.244275808334350586e+00,2.244018793106079102e+00,2.243761777877807617e+00,2.243504762649536133e+00,2.243247509002685547e+00,2.242990732192993164e+00,2.242733955383300781e+00,2.242476940155029297e+00,2.242220401763916016e+00,2.241963624954223633e+00,2.241707086563110352e+00,2.241450548171997070e+00,2.241194009780883789e+00,2.240937471389770508e+00,2.240681171417236328e+00,2.240424871444702148e+00,2.240168333053588867e+00,2.239912271499633789e+00,2.239656209945678711e+00,2.239399909973144531e+00,2.239144086837768555e+00,2.238888025283813477e+00,2.238631963729858398e+00,2.238376140594482422e+00,2.238120555877685547e+00,2.237864732742309570e+00,2.237608909606933594e+00,2.237353324890136719e+00,2.237097978591918945e+00,2.236842393875122070e+00,1.609177350997924805e+00,1.596039772033691406e+00,1.590541005134582520e+00,1.589012384414672852e+00,1.610971212387084961e+00,2.235310316085815430e+00,2.235055446624755859e+00
1.932650804519653320e+00,1.959329962730407715e+00,1.986756324768066406e+00,1.987722635269165039e+00,1.987520813941955566e+00,1.987319350242614746e+00,1.987117528915405273e+00,1.986915946006774902e+00,1.986714482307434082e+00,1.986512899398803711e+00,1.986311316490173340e+00,1.986110091209411621e+00,1.985908627510070801e+00,1.985707163810729980e+00,1.985506057739257812e+00,1.985304713249206543e+00,1.985103368759155273e+00,1.984902381896972656e+00,1.984701156616210938e+00,1.984499931335449219e+00,1.984298944473266602e+00,1.984097838401794434e+00,1.983896851539611816e+00,1.983695983886718750e+00,1.983494997024536133e+00,1.983294129371643066e+00,1.983093380928039551e+00,1.982892513275146484e+00,1.982691764831542969e+00,1.982491135597229004e+00,1.982290387153625488e+00,1.982089996337890625e+00,1.981889367103576660e+00,1.981688737869262695e+00,1.981488347053527832e+00,1.981287837028503418e+00,1.981087327003479004e+00,1.980887055397033691e+00,1.980686664581298828e+00,1.980486273765563965e+00,1.980286240577697754e+00,1.980085849761962891e+00,1.979885578155517578e+00,1.979685664176940918e+00,1.979485511779785156e+00,1.979285359382629395e+00,1.979085445404052734e+00,1.978885412216186523e+00,1.978685379028320312e+00,1.978485703468322754e+00,1.978285670280456543e+00,1.978085875511169434e+00,1.977886199951171875e+00,1.977686405181884766e+00,1.977486610412597656e+00,1.977287173271179199e+00,1.977087378501892090e+00,1.976887822151184082e+00,1.976688385009765625e+00,1.976488828659057617e+00,1.976289272308349609e+00,1.976090073585510254e+00,1.975890636444091797e+00,1.975691199302673340e+00,1.975492000579833984e+00,1.975292682647705078e+00,1.975093364715576172e+00,1.974894404411315918e+00,1.974695205688476562e+00,1.974496006965637207e+00,1.974297165870666504e+00,1.619858026504516602e+00,1.601707816123962402e+00,1.590721249580383301e+00,1.583848834037780762e+00,1.582619547843933105e+00,1.590327262878417969e+00,1.605881690979003906e+00,1.972706198692321777e+00,1.972507476806640625e+00
1.777816176414489746e+00,1.777654767036437988e+00,1.777493596076965332e+00,1.777332186698913574e+00,1.777170896530151367e+00,1.777009725570678711e+00,1.776848435401916504e+00,1.776687145233154297e+00,1.776526093482971191e+00,1.776364922523498535e+00,1.776203751564025879e+00,1.776042819023132324e+00,1.775881648063659668e+00,1.775720596313476562e+00,1.775559782981872559e+00,1.775398731231689453e+00,1.775237917900085449e+00,1.775076985359191895e+00,1.774916052818298340e+00,1.774755358695983887e+00,1.774594426155090332e+00,1.774433612823486328e+00,1.774272918701171875e+00,1.774112105369567871e+00,1.773951411247253418e+00,1.773790836334228516e+00,1.773630142211914062e+00,1.773469448089599609e+00,1.773308992385864258e+00,1.773148417472839355e+00,1.772987842559814453e+00,1.772827386856079102e+00,1.772666931152343750e+00,1.772506356239318848e+00,1.772346138954162598e+00,1.772185683250427246e+00,1.772025227546691895e+00,1.771865010261535645e+00,1.771704673767089844e+00,1.771544337272644043e+00,1.771384239196777344e+00,1.771224021911621094e+00,1.771063685417175293e+00,1.770903706550598145e+00,1.770743489265441895e+00,1.770583391189575195e+00,1.770423412322998047e+00,1.770263314247131348e+00,1.770103216171264648e+00,1.769943475723266602e+00,1.769783377647399902e+00,1.769623398780822754e+00,1.769463658332824707e+00,1.769303679466247559e+00,1.769144058227539062e+00,1.768984198570251465e+00,1.768824338912963867e+00,1.768664717674255371e+00,1.768504977226257324e+00,1.768345236778259277e+00,1.768185615539550781e+00,1.768025994300842285e+00,1.767866253852844238e+00,1.767706871032714844e+00,1.767547249794006348e+00,1.767387628555297852e+00,1.767228364944458008e+00,1.767068743705749512e+00,1.766909360885620117e+00,1.613010406494140625e+00,1.597423195838928223e+00,1.584456562995910645e+00,1.576822876930236816e+00,1.567249059677124023e+00,1.566311359405517578e+00,1.578955173492431641e+00,1.765635013580322266e+00,1.765475869178771973e+00,1.765316843986511230e+00,1.765157580375671387e+00
1.607612252235412598e+00,1.607480406761169434e+00,1.607348322868347168e+00,1.607216358184814453e+00,1.607084631919860840e+00,1.606952667236328125e+00,1.606820821762084961e+00,1.606689095497131348e+00,1.606557250022888184e+00,1.606425404548645020e+00,1.606293797492980957e+00,1.606161952018737793e+00,1.606030225753784180e+00,1.605898618698120117e+00,1.605766892433166504e+00,1.605635166168212891e+00,1.605503678321838379e+00,1.605371952056884766e+00,1.605240345001220703e+00,1.605108857154846191e+00,1.604977369308471680e+00,1.604845762252807617e+00,1.604714393615722656e+00,1.604582786560058594e+00,1.604451298713684082e+00,1.604319930076599121e+00,1.604188561439514160e+00,1.604057073593139648e+00,1.603925824165344238e+00,1.603794455528259277e+00,1.603662967681884766e+00,1.603531837463378906e+00,1.603400468826293945e+00,1.603269219398498535e+00,1.603137969970703125e+00,1.603006720542907715e+00,1.602875471115112305e+00,1.602744460105895996e+00,1.602613210678100586e+00,1.602482199668884277e+00,1.602351069450378418e+00,1.602219939231872559e+00,1.602088928222656250e+00,1.601957798004150391e+00,1.601826786994934082e+00,1.601695895195007324e+00,1.601564764976501465e+00,1.601433753967285156e+00,1.601302981376647949e+00,1.601171970367431641e+00,1.601041078567504883e+00,1.600910305976867676e+00,1.600779414176940918e+00,1.600648522377014160e+00,1.600517749786376953e+00,1.600386977195739746e+00,1.600256085395812988e+00,1.600125432014465332e+00,1.599994659423828125e+00,1.599863886833190918e+00,1.599733352661132812e+00,1.599602580070495605e+00,1.599471926689147949e+00,1.599341392517089844e+00,1.599210739135742188e+00,1.599080085754394531e+00,1.598949670791625977e+00,1.598819136619567871e+00,1.598688483238220215e+00,1.598558187484741211e+00,1.598427653312683105e+00,1.598297119140625000e+00,1.563513398170471191e+00,1.598036289215087891e+00,1.597905874252319336e+00,1.597775697708129883e+00,1.597645282745361328e+00,1.597514867782592773e+00,1.597384691238403320e+00,1.597254395484924316e+00
1.467150568962097168e+00,1.467040777206420898e+00,1.466930866241455078e+00,1.466820955276489258e+00,1.466711163520812988e+00,1.466601252555847168e+00,1.466491460800170898e+00,1.466381669044494629e+00,1.466271877288818359e+00,1.466162085533142090e+00,1.466052412986755371e+00,1.465942621231079102e+00,1.465832829475402832e+00,1.465723276138305664e+00,1.465613484382629395e+00,1.465503811836242676e+00,1.465394258499145508e+00,1.465284466743469238e+00,1.465174794197082520e+00,1.465065360069274902e+00,1.464955687522888184e+00,1.464846014976501465e+00,1.464736580848693848e+00,1.464627027511596680e+00,1.464517474174499512e+00,1.464408040046691895e+00,1.464298486709594727e+00,1.464189052581787109e+00,1.464079618453979492e+00,1.463970065116882324e+00,1.463860750198364258e+00,1.463751316070556641e+00,1.463641881942749023e+00,1.463532567024230957e+00,1.463423132896423340e+00,1.463313817977905273e+00,1.463204503059387207e+00,1.463095188140869141e+00,1.462985873222351074e+00,1.462876677513122559e+00,1.462767362594604492e+00,1.462658047676086426e+00,1.462548971176147461e+00,1.462439656257629395e+00,1.462330460548400879e+00,1.462221384048461914e+00,1.462112069129943848e+00,1.462002873420715332e+00,1.461893916130065918e+00,1.461784720420837402e+00,1.461675643920898438e+00,1.461566567420959473e+00,1.461457490921020508e+00,1.461348414421081543e+00,1.461239457130432129e+00,1.461130380630493164e+00,1.461021304130554199e+00,1.460912466049194336e+00,1.460803389549255371e+00,1.460694432258605957e+00,1.460585594177246094e+00,1.460476636886596680e+00,1.460367679595947266e+00,1.460258841514587402e+00,1.460150003433227539e+00,1.460041165351867676e+00,1.459932327270507812e+00,1.459823369979858398e+00,1.459714651107788086e+00,1.459605813026428223e+00,1.459497094154357910e+00,1.459388375282287598e+00,1.459279537200927734e+00,1.459170818328857422e+00,1.459062218666076660e+00,1.458953499794006348e+00,1.458844780921936035e+00,1.458736181259155273e+00,1.458627462387084961e+00,1.458518743515014648e+00
1.349261760711669922e+00,1.349168896675109863e+00,1.349075913429260254e+00,1.348982930183410645e+00,1.348890066146850586e+00,1.348797202110290527e+00,1.348704218864440918e+00,1.348611474037170410e+00,1.348518490791320801e+00,1.348425626754760742e+00,1.348332881927490234e+00,1.348240017890930176e+00,1.348147273063659668e+00,1.348054409027099609e+00,1.347961664199829102e+00,1.347868919372558594e+00,1.347776174545288086e+00,1.347683429718017578e+00,1.347590684890747070e+00,1.347497940063476562e+00,1.347405195236206055e+00,1.347312569618225098e+00,1.347219944000244141e+00,1.347127199172973633e+00,1.347034573554992676e+00,1.346941947937011719e+00,1.346849322319030762e+00,1.346756696701049805e+00,1.346664071083068848e+00,1.346571445465087891e+00,1.346478939056396484e+00,1.346386313438415527e+00,1.346293807029724121e+00,1.346201300621032715e+00,1.346108675003051758e+00,1.346016168594360352e+00,1.345923781394958496e+00,1.345831155776977539e+00,1.345738649368286133e+00,1.345646262168884277e+00,1.345553755760192871e+00,1.345461368560791016e+00,1.345368981361389160e+00,1.345276474952697754e+00,1.345184087753295898e+00,1.345091819763183594e+00,1.344999313354492188e+00,1.344906926155090332e+00,1.344814658164978027e+00,1.344722270965576172e+00,1.344630002975463867e+00,1.344537734985351562e+00,1.344445347785949707e+00,1.344353079795837402e+00,1.344260811805725098e+00,1.344168543815612793e+00,1.344076275825500488e+00,1.343984007835388184e+00,1.343891739845275879e+00,1.343799710273742676e+00,1.343707442283630371e+00,1.343615174293518066e+00,1.343523144721984863e+00,1.343430876731872559e+00,1.343338727951049805e+00,1.343246579170227051e+00,1.343154430389404297e+00,1.343062281608581543e+00,1.342970252037048340e+00,1.342878222465515137e+00,1.342786073684692383e+00,1.342694044113159180e+00,1.342602014541625977e+00,1.342509865760803223e+00,1.342417955398559570e+00,1.342325925827026367e+00,1.342233896255493164e+00,1.342141985893249512e+00,1.342049956321716309e+00,1.341957926750183105e+00
1.248909235000610352e+00,1.248829483985900879e+00,1.248749971389770508e+00,1.248670339584350586e+00,1.248590707778930664e+00,1.248511075973510742e+00,1.248431563377380371e+00,1.248351931571960449e+00,1.248272299766540527e+00,1.248192906379699707e+00,1.248113274574279785e+00,1.248033761978149414e+00,1.247954249382019043e+00,1.247874736785888672e+00,1.247795104980468750e+00,1.247715711593627930e+00,1.247636198997497559e+00,1.247556686401367188e+00,1.247477293014526367e+00,1.247397780418395996e+00,1.247318267822265625e+00,1.247238993644714355e+00,1.247159481048583984e+00,1.247080087661743164e+00,1.247000694274902344e+00,1.246921300888061523e+00,1.246841907501220703e+00,1.246762514114379883e+00,1.246683120727539062e+00,1.246603727340698242e+00,1.246524453163146973e+00,1.246445059776306152e+00,1.246365785598754883e+00,1.246286511421203613e+00,1.246207118034362793e+00,1.246127963066101074e+00,1.246048569679260254e+00,1.245969295501708984e+00,1.245890140533447266e+00,1.245810866355895996e+00,1.245731592178344727e+00,1.245652318000793457e+00,1.245573163032531738e+00,1.245493888854980469e+00,1.245414733886718750e+00,1.245335459709167480e+00,1.245256304740905762e+00,1.245177149772644043e+00,1.245097994804382324e+00,1.245018839836120605e+00,1.244939684867858887e+00,1.244860529899597168e+00,1.244781374931335449e+00,1.244702339172363281e+00,1.244623184204101562e+00,1.244544029235839844e+00,1.244465112686157227e+00,1.244385957717895508e+00,1.244306921958923340e+00,1.244227886199951172e+00,1.244148850440979004e+00,1.244069695472717285e+00,1.243990778923034668e+00,1.243911743164062500e+00,1.243832707405090332e+00,1.243753790855407715e+00,1.243674755096435547e+00,1.243595719337463379e+00,1.243516802787780762e+00,1.243437886238098145e+00,1.243358850479125977e+00,1.243280053138732910e+00,1.243201017379760742e+00,1.243122220039367676e+00,1.243043303489685059e+00,1.242964386940002441e+00,1.242885589599609375e+00,1.242806673049926758e+00,1.242727756500244141e+00,1.242648959159851074e+00
1.162450909614562988e+00,1.162381887435913086e+00,1.162312865257263184e+00,1.162243962287902832e+00,1.162174940109252930e+00,1.162105917930603027e+00,1.162037014961242676e+00,1.161968111991882324e+00,1.161899089813232422e+00,1.161830186843872070e+00,1.161761283874511719e+00,1.161692380905151367e+00,1.161623477935791016e+00,1.161554574966430664e+00,1.161485671997070312e+00,1.161416769027709961e+00,1.161347866058349609e+00,1.161278963088989258e+00,1.161210179328918457e+00,1.161141395568847656e+00,1.161072611808776855e+00,1.161003708839416504e+00,1.160934805870056152e+00,1.160866141319274902e+00,1.160797238349914551e+00,1.160728454589843750e+00,1.160659670829772949e+00,1.160590887069702148e+00,1.160522103309631348e+00,1.160453319549560547e+00,1.160384535789489746e+00,1.160315752029418945e+00,1.160247087478637695e+00,1.160178303718566895e+00,1.160109639167785645e+00,1.160040974617004395e+00,1.159972190856933594e+00,1.159903407096862793e+00,1.159834861755371094e+00,1.159766077995300293e+00,1.159697413444519043e+00,1.159628748893737793e+00,1.159560084342956543e+00,1.159491419792175293e+00,1.159422874450683594e+00,1.159354209899902344e+00,1.159285545349121094e+00,1.159217000007629395e+00,1.159148335456848145e+00,1.159079670906066895e+00,1.159011125564575195e+00,1.158942461013793945e+00,1.158873915672302246e+00,1.158805370330810547e+00,1.158736824989318848e+00,1.158668160438537598e+00,1.158599734306335449e+00,1.158531188964843750e+00,1.158462643623352051e+00,1.158394098281860352e+00,1.158325672149658203e+00,1.158257126808166504e+00,1.158188581466674805e+00,1.158120155334472656e+00,1.158051729202270508e+00,1.157983183860778809e+00,1.157914757728576660e+00,1.157846331596374512e+00,1.157777786254882812e+00,1.157709360122680664e+00,1.157640933990478516e+00,1.157572507858276367e+00,1.157504081726074219e+00,1.157435774803161621e+00,1.157367348670959473e+00,1.157298922538757324e+00,1.157230496406555176e+00,1.157162189483642578e+00,1.157093763351440430e+00,1.157025456428527832e+00
1.087188005447387695e+00,1.087127566337585449e+00,1.087067246437072754e+00,1.087006926536560059e+00,1.086946606636047363e+00,1.086886286735534668e+00,1.086825966835021973e+00,1.086765646934509277e+00,1.086705327033996582e+00,1.086645007133483887e+00,1.086584687232971191e+00,1.086524486541748047e+00,1.086464166641235352e+00,1.086403965950012207e+00,1.086343646049499512e+00,1.086283445358276367e+00,1.086223125457763672e+00,1.086162924766540527e+00,1.086102724075317383e+00,1.086042404174804688e+00,1.085982203483581543e+00,1.085922002792358398e+00,1.085861802101135254e+00,1.085801601409912109e+00,1.085741400718688965e+00,1.085681200027465820e+00,1.085621118545532227e+00,1.085560917854309082e+00,1.085500717163085938e+00,1.085440516471862793e+00,1.085380434989929199e+00,1.085320234298706055e+00,1.085260152816772461e+00,1.085199952125549316e+00,1.085139870643615723e+00,1.085079789161682129e+00,1.085019588470458984e+00,1.084959506988525391e+00,1.084899425506591797e+00,1.084839344024658203e+00,1.084779143333435059e+00,1.084719181060791016e+00,1.084658980369567871e+00,1.084598898887634277e+00,1.084538936614990234e+00,1.084478855133056641e+00,1.084418892860412598e+00,1.084358811378479004e+00,1.084298729896545410e+00,1.084238767623901367e+00,1.084178686141967773e+00,1.084118604660034180e+00,1.084058642387390137e+00,1.083998680114746094e+00,1.083938598632812500e+00,1.083878755569458008e+00,1.083818674087524414e+00,1.083758711814880371e+00,1.083698749542236328e+00,1.083638787269592285e+00,1.083578824996948242e+00,1.083518862724304199e+00,1.083458900451660156e+00,1.083398938179016113e+00,1.083339095115661621e+00,1.083279132843017578e+00,1.083219170570373535e+00,1.083159327507019043e+00,1.083099365234375000e+00,1.083039522171020508e+00,1.082979679107666016e+00,1.082919716835021973e+00,1.082859873771667480e+00,1.082800030708312988e+00,1.082740187644958496e+00,1.082680225372314453e+00,1.082620501518249512e+00,1.082560539245605469e+00,1.082500696182250977e+00,1.082440972328186035e+00
1.021078228950500488e+00,1.021024942398071289e+00,1.020971775054931641e+00,1.020918607711791992e+00,1.020865321159362793e+00,1.020812153816223145e+00,1.020758867263793945e+00,1.020705699920654297e+00,1.020652532577514648e+00,1.020599365234375000e+00,1.020546078681945801e+00,1.020493030548095703e+00,1.020439743995666504e+00,1.020386576652526855e+00,1.020333528518676758e+00,1.020280361175537109e+00,1.020227193832397461e+00,1.020174026489257812e+00,1.020120859146118164e+00,1.020067691802978516e+00,1.020014643669128418e+00,1.019961476325988770e+00,1.019908308982849121e+00,1.019855260848999023e+00,1.019802212715148926e+00,1.019749045372009277e+00,1.019695997238159180e+00,1.019642829895019531e+00,1.019589781761169434e+00,1.019536733627319336e+00,1.019483685493469238e+00,1.019430637359619141e+00,1.019377589225769043e+00,1.019324421882629395e+00,1.019271492958068848e+00,1.019218444824218750e+00,1.019165277481079102e+00,1.019112348556518555e+00,1.019059300422668457e+00,1.019006252288818359e+00,1.018953204154968262e+00,1.018900275230407715e+00,1.018847227096557617e+00,1.018794298171997070e+00,1.018741250038146973e+00,1.018688201904296875e+00,1.018635272979736328e+00,1.018582224845886230e+00,1.018529295921325684e+00,1.018476366996765137e+00,1.018423318862915039e+00,1.018370389938354492e+00,1.018317461013793945e+00,1.018264532089233398e+00,1.018211603164672852e+00,1.018158674240112305e+00,1.018105745315551758e+00,1.018052816390991211e+00,1.017999887466430664e+00,1.017946958541870117e+00,1.017894029617309570e+00,1.017841219902038574e+00,1.017788290977478027e+00,1.017735362052917480e+00,1.017682433128356934e+00,1.017629623413085938e+00,1.017576694488525391e+00,1.017523884773254395e+00,1.017470955848693848e+00,1.017418146133422852e+00,1.017365336418151855e+00,1.017312407493591309e+00,1.017259597778320312e+00,1.017206788063049316e+00,1.017153859138488770e+00,1.017101168632507324e+00,1.017048239707946777e+00,1.016995429992675781e+00,1.016942739486694336e+00,1.016889810562133789e+00
9.625477194786071777e-01,9.625003337860107422e-01,9.624530673027038574e-01,9.624058008193969727e-01,9.623584151268005371e-01,9.623111486434936523e-01,9.622639417648315430e-01,9.622165560722351074e-01,9.621693491935729980e-01,9.621221423149108887e-01,9.620747566223144531e-01,9.620275497436523438e-01,9.619803428649902344e-01,9.619330167770385742e-01,9.618858098983764648e-01,9.618386030197143555e-01,9.617913961410522461e-01,9.617441296577453613e-01,9.616969227790832520e-01,9.616497159004211426e-01,9.616024494171142578e-01,9.615552425384521484e-01,9.615080952644348145e-01,9.614608287811279297e-01,9.614136815071105957e-01,9.613664746284484863e-01,9.613192081451416016e-01,9.612721204757690430e-01,9.612249732017517090e-01,9.611777067184448242e-01,9.611305594444274902e-01,9.610834121704101562e-01,9.610362052917480469e-01,9.609890580177307129e-01,9.609419703483581543e-01,9.608947634696960449e-01,9.608476161956787109e-01,9.608005285263061523e-01,9.607533216476440430e-01,9.607062339782714844e-01,9.606591463088989258e-01,9.606119394302368164e-01,9.605648517608642578e-01,9.605178236961364746e-01,9.604706168174743652e-01,9.604235291481018066e-01,9.603765010833740234e-01,9.603292942047119141e-01,9.602822661399841309e-01,9.602352380752563477e-01,9.601880908012390137e-01,9.601410627365112305e-01,9.600939750671386719e-01,9.600468873977661133e-01,9.599998593330383301e-01,9.599528312683105469e-01,9.599056839942932129e-01,9.598586559295654297e-01,9.598116874694824219e-01,9.597645401954650879e-01,9.597175717353820801e-01,9.596706032752990723e-01,9.596234560012817383e-01,9.595764875411987305e-01,9.595295190811157227e-01,9.594824314117431641e-01,9.594354629516601562e-01,9.593884944915771484e-01,9.593414664268493652e-01,9.592944979667663574e-01,9.592475295066833496e-01,9.592005014419555664e-01,9.591535329818725586e-01,9.591066241264343262e-01,9.590595364570617676e-01,9.590126276016235352e-01,9.589657187461853027e-01,9.589186906814575195e-01,9.588717818260192871e-01,9.588248729705810547e-01
9.103634953498840332e-01,9.103211760520935059e-01,9.102789163589477539e-01,9.102365374565124512e-01,9.101942777633666992e-01,9.101520180702209473e-01,9.101096391677856445e-01,9.100673794746398926e-01,9.100251197814941406e-01,9.099828004837036133e-01,9.099405407905578613e-01,9.098982810974121094e-01,9.098559617996215820e-01,9.098137021064758301e-01,9.097715020179748535e-01,9.097291827201843262e-01,9.096869230270385742e-01,9.096447229385375977e-01,9.096024036407470703e-01,9.095602035522460938e-01,9.095180034637451172e-01,9.094756841659545898e-01,9.094334840774536133e-01,9.093912839889526367e-01,9.093489646911621094e-01,9.093068242073059082e-01,9.092646241188049316e-01,9.092223048210144043e-01,9.091801643371582031e-01,9.091379642486572266e-01,9.090957045555114746e-01,9.090535640716552734e-01,9.090113639831542969e-01,9.089691042900085449e-01,9.089269638061523438e-01,9.088848233222961426e-01,9.088425636291503906e-01,9.088004231452941895e-01,9.087582826614379883e-01,9.087162017822265625e-01,9.086739420890808105e-01,9.086318016052246094e-01,9.085897207260131836e-01,9.085474610328674316e-01,9.085053801536560059e-01,9.084632396697998047e-01,9.084210395812988281e-01,9.083789587020874023e-01,9.083368778228759766e-01,9.082946777343750000e-01,9.082525968551635742e-01,9.082104563713073730e-01,9.081683158874511719e-01,9.081262350082397461e-01,9.080841541290283203e-01,9.080420136451721191e-01,9.079999327659606934e-01,9.079578518867492676e-01,9.079157114028930664e-01,9.078736305236816406e-01,9.078316092491149902e-01,9.077894091606140137e-01,9.077473878860473633e-01,9.077053666114807129e-01,9.076632261276245117e-01,9.076212048530578613e-01,9.075791835784912109e-01,9.075370430946350098e-01,9.074950218200683594e-01,9.074530005455017090e-01,9.074109196662902832e-01,9.073688983917236328e-01,9.073268771171569824e-01,9.072847962379455566e-01,9.072427749633789062e-01,9.072008132934570312e-01,9.071587324142456055e-01,9.071167111396789551e-01,9.070747494697570801e-01,9.070326685905456543e-01
8.635466694831848145e-01,8.635086417198181152e-01,8.634704947471618652e-01,8.634324669837951660e-01,8.633944392204284668e-01,8.633562922477722168e-01,8.633182644844055176e-01,8.632802367210388184e-01,8.632421493530273438e-01,8.632041215896606445e-01,8.631660938262939453e-01,8.631280064582824707e-01,8.630899786949157715e-01,8.630519509315490723e-01,8.630138635635375977e-01,8.629758954048156738e-01,8.629378676414489746e-01,8.628997802734375000e-01,8.628618121147155762e-01,8.628238439559936523e-01,8.627857565879821777e-01,8.627477884292602539e-01,8.627098202705383301e-01,8.626717329025268555e-01,8.626337647438049316e-01,8.625957965850830078e-01,8.625577688217163086e-01,8.625198006629943848e-01,8.624818325042724609e-01,8.624438047409057617e-01,8.624058365821838379e-01,8.623679280281066895e-01,8.623299002647399902e-01,8.622919321060180664e-01,8.622540235519409180e-01,8.622159957885742188e-01,8.621780872344970703e-01,8.621401190757751465e-01,8.621020913124084473e-01,8.620641827583312988e-01,8.620262742042541504e-01,8.619883060455322266e-01,8.619503974914550781e-01,8.619124889373779297e-01,8.618744611740112305e-01,8.618366122245788574e-01,8.617987036705017090e-01,8.617607355117797852e-01,8.617228269577026367e-01,8.616849184036254883e-01,8.616469502449035645e-01,8.616091012954711914e-01,8.615711927413940430e-01,8.615332245826721191e-01,8.614953756332397461e-01,8.614575266838073730e-01,8.614195585250854492e-01,8.613817095756530762e-01,8.613438606262207031e-01,8.613058924674987793e-01,8.612680435180664062e-01,8.612301945686340332e-01,8.611922860145568848e-01,8.611544370651245117e-01,8.611165881156921387e-01,8.610787987709045410e-01,8.610408902168273926e-01,8.610030412673950195e-01,8.609651923179626465e-01,8.609272837638854980e-01,8.608894944190979004e-01,8.608517050743103027e-01,8.608137965202331543e-01,8.607759475708007812e-01,8.607381582260131836e-01,8.607003092765808105e-01,8.606625199317932129e-01,8.606247305870056152e-01,8.605868220329284668e-01,8.605490326881408691e-01
