1.933359503746032715e+00,1.960058569908142090e+00,1.987505316734313965e+00,2.015731573104858398e+00,2.044771432876586914e+00,2.074660062789916992e+00,2.105435609817504883e+00,2.137137651443481445e+00,2.169809103012084961e+00,2.203494787216186523e+00,2.238243103027343750e+00,2.274105072021484375e+00,2.311134815216064453e+00,2.349390268325805664e+00,2.388933658599853516e+00,2.429831027984619141e+00,2.472154855728149414e+00,2.515982627868652344e+00,2.561392545700073242e+00,2.608471632003784180e+00,2.657313823699951172e+00,2.708019971847534180e+00,2.760697364807128906e+00,2.815459728240966797e+00,2.872438430786132812e+00,2.931771039962768555e+00,2.993606328964233398e+00,3.058106660842895508e+00,3.125447034835815430e+00,3.195820331573486328e+00,3.269435405731201172e+00,3.346522331237792969e+00,3.427331924438476562e+00,3.512140512466430664e+00,3.601253271102905273e+00,3.695005178451538086e+00,3.793769359588623047e+00,3.897957801818847656e+00,4.008030891418457031e+00,4.124499797821044922e+00,4.247939586639404297e+00,4.378995895385742188e+00,4.518395900726318359e+00,4.666963100433349609e+00,4.825632572174072266e+00,4.995470523834228516e+00,5.000000000000000000e+00,5.000000000000000000e+00,5.000000000000000000e+00,5.000000000000000000e+00,5.000000000000000000e+00,5.000000000000000000e+00,5.000000000000000000e+00,5.000000000000000000e+00,5.000000000000000000e+00,5.000000000000000000e+00,5.000000000000000000e+00,5.000000000000000000e+00,5.000000000000000000e+00,5.000000000000000000e+00,5.000000000000000000e+00,5.000000000000000000e+00,1.625932097434997559e+00,1.594806432723999023e+00,1.574913144111633301e+00,1.570975899696350098e+00,1.566569924354553223e+00,1.568012118339538574e+00,1.574052929878234863e+00,1.496964335441589355e+00,1.460591554641723633e+00,1.444682121276855469e+00,1.430552005767822266e+00,1.419669151306152344e+00,1.425359010696411133e+00,1.431526184082031250e+00,1.446228384971618652e+00,5.000000000000000000e+00,5.000000000000000000e+00,5.000000000000000000e+00
1.933331131935119629e+00,1.960029363632202148e+00,1.987475395202636719e+00,2.015700817108154297e+00,2.044739723205566406e+00,2.074627399444580078e+00,2.105401754379272461e+00,2.137102842330932617e+00,2.169773340225219727e+00,2.203458070755004883e+00,2.238205194473266602e+00,2.274065732955932617e+00,2.311094284057617188e+00,2.349348306655883789e+00,2.388890266418457031e+00,2.429785966873168945e+00,2.472106456756591797e+00,2.515927076339721680e+00,2.561330795288085938e+00,2.608407735824584961e+00,2.657247304916381836e+00,2.707951068878173828e+00,2.760627269744873047e+00,2.815393209457397461e+00,2.872376203536987305e+00,2.931706190109252930e+00,2.993538856506347656e+00,3.058036088943481445e+00,3.125373601913452148e+00,3.195743322372436523e+00,3.269355297088623047e+00,3.346437931060791016e+00,3.427243232727050781e+00,3.512047529220581055e+00,3.601155519485473633e+00,3.694902420043945312e+00,3.793660640716552734e+00,3.897843360900878906e+00,4.007909774780273438e+00,4.124372959136962891e+00,4.247806072235107422e+00,4.378854274749755859e+00,4.518245220184326172e+00,4.666802406311035156e+00,4.825460433959960938e+00,4.995285987854003906e+00,5.000000000000000000e+00,5.000000000000000000e+00,5.000000000000000000e+00,5.000000000000000000e+00,5.000000000000000000e+00,5.000000000000000000e+00,5.000000000000000000e+00,5.000000000000000000e+00,5.000000000000000000e+00,5.000000000000000000e+00,5.000000000000000000e+00,5.000000000000000000e+00,5.000000000000000000e+00,5.000000000000000000e+00,5.000000000000000000e+00,5.000000000000000000e+00,1.609337449073791504e+00,1.577032208442687988e+00,1.571707606315612793e+00,1.567792057991027832e+00,1.563624262809753418e+00,1.569631338119506836e+00,1.575955033302307129e+00,1.498039364814758301e+00,1.460891246795654297e+00,1.445963382720947266e+00,1.431829690933227539e+00,1.424444437026977539e+00,1.430172681808471680e+00,1.438880443572998047e+00,1.452887296676635742e+00,5.000000000000000000e+00,5.000000000000000000e+00,5.000000000000000000e+00
1.933302640914916992e+00,1.960000276565551758e+00,1.987445235252380371e+00,2.015669822692871094e+00,2.044708013534545898e+00,2.074594736099243164e+00,2.105368137359619141e+00,2.137068271636962891e+00,2.169737577438354492e+00,2.203421115875244141e+00,2.238167047500610352e+00,2.274026393890380859e+00,2.311053514480590820e+00,2.349306344985961914e+00,2.388846874237060547e+00,2.429741144180297852e+00,2.472059965133666992e+00,2.515878915786743164e+00,2.561279535293579102e+00,2.608348846435546875e+00,2.657181024551391602e+00,2.707881927490234375e+00,2.760555744171142578e+00,2.815318822860717773e+00,2.872298955917358398e+00,2.931633234024047852e+00,2.993470430374145508e+00,3.057965517044067383e+00,3.125299930572509766e+00,3.195666313171386719e+00,3.269274711608886719e+00,3.346353530883789062e+00,3.427154779434204102e+00,3.511954545974731445e+00,3.601057767868041992e+00,3.694799423217773438e+00,3.793552160263061523e+00,3.897729158401489258e+00,4.007788658142089844e+00,4.124245166778564453e+00,4.247671127319335938e+00,4.378712654113769531e+00,4.518094062805175781e+00,4.666641235351562500e+00,4.825288772583007812e+00,4.995101928710937500e+00,5.000000000000000000e+00,5.000000000000000000e+00,5.000000000000000000e+00,5.000000000000000000e+00,5.000000000000000000e+00,5.000000000000000000e+00,5.000000000000000000e+00,5.000000000000000000e+00,5.000000000000000000e+00,5.000000000000000000e+00,5.000000000000000000e+00,5.000000000000000000e+00,5.000000000000000000e+00,5.000000000000000000e+00,5.000000000000000000e+00,1.624962806701660156e+00,1.592003822326660156e+00,1.571505308151245117e+00,1.568310379981994629e+00,1.564615249633789062e+00,1.565234422683715820e+00,1.573040604591369629e+00,5.000000000000000000e+00,1.495590925216674805e+00,1.461710691452026367e+00,1.447268843650817871e+00,1.432914972305297852e+00,1.429335474967956543e+00,1.435018897056579590e+00,1.445554733276367188e+00,5.000000000000000000e+00,5.000000000000000000e+00,5.000000000000000000e+00,5.000000000000000000e+00
1.933274388313293457e+00,1.959970951080322266e+00,1.987415313720703125e+00,2.015639066696166992e+00,2.044676065444946289e+00,2.074561834335327148e+00,2.105334520339965820e+00,2.137033462524414062e+00,2.169701814651489258e+00,2.203384160995483398e+00,2.238128900527954102e+00,2.273987054824829102e+00,2.311012744903564453e+00,2.349264383316040039e+00,2.388803482055664062e+00,2.429696321487426758e+00,2.472013473510742188e+00,2.515830993652343750e+00,2.561229705810546875e+00,2.608297109603881836e+00,2.657126665115356445e+00,2.707819700241088867e+00,2.760484218597412109e+00,2.815244197845458984e+00,2.872221469879150391e+00,2.931552410125732422e+00,2.993386268615722656e+00,3.057884693145751953e+00,3.125223875045776367e+00,3.195589303970336914e+00,3.269193887710571289e+00,3.346269130706787109e+00,3.427066087722778320e+00,3.511861801147460938e+00,3.600960016250610352e+00,3.694696426391601562e+00,3.793443679809570312e+00,3.897614717483520508e+00,4.007667541503906250e+00,4.124116897583007812e+00,4.247535228729248047e+00,4.378568649291992188e+00,4.517943382263183594e+00,4.666480541229248047e+00,4.825116634368896484e+00,4.994917392730712891e+00,5.000000000000000000e+00,5.000000000000000000e+00,5.000000000000000000e+00,5.000000000000000000e+00,5.000000000000000000e+00,5.000000000000000000e+00,5.000000000000000000e+00,5.000000000000000000e+00,5.000000000000000000e+00,5.000000000000000000e+00,5.000000000000000000e+00,5.000000000000000000e+00,5.000000000000000000e+00,5.000000000000000000e+00,5.000000000000000000e+00,1.607765674591064453e+00,1.574470877647399902e+00,1.566591382026672363e+00,1.563416242599487305e+00,1.561264753341674805e+00,1.570137023925781250e+00,1.578198790550231934e+00,5.000000000000000000e+00,1.493421673774719238e+00,1.461255669593811035e+00,1.446319937705993652e+00,1.432486772537231445e+00,1.434916257858276367e+00,1.440626621246337891e+00,1.453181147575378418e+00,5.000000000000000000e+00,5.000000000000000000e+00,5.000000000000000000e+00,5.000000000000000000e+00
1.933245897293090820e+00,1.959941864013671875e+00,1.987385153770446777e+00,2.015608072280883789e+00,2.044644355773925781e+00,2.074529170989990234e+00,2.105300664901733398e+00,2.136998891830444336e+00,2.169666051864624023e+00,2.203347206115722656e+00,2.238090991973876953e+00,2.273947715759277344e+00,2.310972213745117188e+00,2.349222421646118164e+00,2.388760089874267578e+00,2.429651498794555664e+00,2.471967220306396484e+00,2.515782833099365234e+00,2.561179876327514648e+00,2.608245372772216797e+00,2.657073020935058594e+00,2.707763910293579102e+00,2.760426521301269531e+00,2.815177917480468750e+00,2.872145414352416992e+00,2.931471586227416992e+00,2.993301868438720703e+00,3.057796955108642578e+00,3.125132083892822266e+00,3.195499897003173828e+00,3.269109249114990234e+00,3.346184730529785156e+00,3.426977634429931641e+00,3.511768817901611328e+00,3.600862264633178711e+00,3.694593667984008789e+00,3.793335199356079102e+00,3.897500038146972656e+00,4.007546424865722656e+00,4.123988628387451172e+00,4.247399330139160156e+00,4.378424167633056641e+00,4.517790317535400391e+00,4.666319370269775391e+00,4.824944496154785156e+00,4.994733333587646484e+00,5.000000000000000000e+00,5.000000000000000000e+00,5.000000000000000000e+00,5.000000000000000000e+00,5.000000000000000000e+00,5.000000000000000000e+00,5.000000000000000000e+00,5.000000000000000000e+00,5.000000000000000000e+00,5.000000000000000000e+00,5.000000000000000000e+00,5.000000000000000000e+00,5.000000000000000000e+00,5.000000000000000000e+00,1.623842835426330566e+00,1.585940241813659668e+00,1.569508910179138184e+00,1.561707854270935059e+00,1.558552503585815430e+00,1.565381884574890137e+00,1.574474811553955078e+00,5.000000000000000000e+00,5.000000000000000000e+00,1.492749333381652832e+00,1.459978103637695312e+00,1.445068359375000000e+00,1.434537291526794434e+00,1.440541028976440430e+00,1.447715163230895996e+00,1.460895419120788574e+00,5.000000000000000000e+00,5.000000000000000000e+00,5.000000000000000000e+00,5.000000000000000000e+00
1.933217525482177734e+00,1.959912538528442383e+00,1.987355351448059082e+00,2.015577316284179688e+00,2.044612407684326172e+00,2.074496507644653320e+00,2.105267047882080078e+00,2.136964082717895508e+00,2.169630289077758789e+00,2.203310489654541016e+00,2.238052845001220703e+00,2.273908376693725586e+00,2.310931682586669922e+00,2.349180698394775391e+00,2.388716936111450195e+00,2.429606676101684570e+00,2.471920728683471680e+00,2.515734672546386719e+00,2.561130046844482422e+00,2.608193635940551758e+00,2.657019376754760742e+00,2.707708358764648438e+00,2.760368585586547852e+00,2.815117597579956055e+00,2.872082710266113281e+00,2.931400537490844727e+00,2.993220567703247070e+00,3.057708978652954102e+00,3.125040292739868164e+00,3.195404052734375000e+00,3.269008874893188477e+00,3.346084833145141602e+00,3.426883220672607422e+00,3.511675834655761719e+00,3.600764513015747070e+00,3.694490671157836914e+00,3.793227195739746094e+00,3.897385597229003906e+00,4.007425785064697266e+00,4.123860359191894531e+00,4.247263431549072266e+00,4.378279685974121094e+00,4.517636299133300781e+00,4.666155338287353516e+00,4.824772357940673828e+00,4.994549274444580078e+00,5.000000000000000000e+00,5.000000000000000000e+00,5.000000000000000000e+00,5.000000000000000000e+00,5.000000000000000000e+00,5.000000000000000000e+00,5.000000000000000000e+00,5.000000000000000000e+00,5.000000000000000000e+00,5.000000000000000000e+00,5.000000000000000000e+00,5.000000000000000000e+00,5.000000000000000000e+00,5.000000000000000000e+00,1.602407574653625488e+00,1.573363304138183594e+00,1.564577817916870117e+00,1.556854724884033203e+00,1.560484528541564941e+00,1.572158575057983398e+00,1.636904001235961914e+00,5.000000000000000000e+00,5.000000000000000000e+00,1.492077589035034180e+00,1.458702802658081055e+00,1.445298910140991211e+00,1.438423991203308105e+00,1.446209788322448730e+00,1.455777168273925781e+00,1.464716792106628418e+00,5.000000000000000000e+00,5.000000000000000000e+00,5.000000000000000000e+00,5.000000000000000000e+00
1.933189034461975098e+00,1.959883451461791992e+00,1.987325191497802734e+00,2.015546321868896484e+00,2.044580698013305664e+00,2.074463605880737305e+00,2.105233430862426758e+00,2.136929273605346680e+00,2.169594526290893555e+00,2.203273534774780273e+00,2.238014698028564453e+00,2.273869276046752930e+00,2.310891151428222656e+00,2.349138498306274414e+00,2.388673543930053711e+00,2.429561853408813477e+00,2.471874237060546875e+00,2.515686511993408203e+00,2.561080217361450195e+00,2.608141899108886719e+00,2.656965732574462891e+00,2.707652330398559570e+00,2.760310649871826172e+00,2.815057516098022461e+00,2.872020006179809570e+00,2.931335210800170898e+00,2.993152379989624023e+00,3.057632923126220703e+00,3.124952554702758789e+00,3.195307731628417969e+00,3.268908262252807617e+00,3.345979452133178711e+00,3.426772832870483398e+00,3.511564254760742188e+00,3.600658178329467773e+00,3.694387674331665039e+00,3.793118715286254883e+00,3.897271156311035156e+00,4.007304668426513672e+00,4.123732089996337891e+00,4.247127532958984375e+00,4.378135204315185547e+00,4.517482757568359375e+00,4.665991783142089844e+00,4.824596881866455078e+00,4.994364738464355469e+00,5.000000000000000000e+00,5.000000000000000000e+00,5.000000000000000000e+00,5.000000000000000000e+00,5.000000000000000000e+00,5.000000000000000000e+00,5.000000000000000000e+00,5.000000000000000000e+00,5.000000000000000000e+00,5.000000000000000000e+00,5.000000000000000000e+00,5.000000000000000000e+00,5.000000000000000000e+00,1.622942209243774414e+00,1.582759857177734375e+00,1.568025231361389160e+00,1.559407472610473633e+00,1.557870626449584961e+00,1.571564555168151855e+00,1.585501313209533691e+00,5.000000000000000000e+00,5.000000000000000000e+00,5.000000000000000000e+00,1.490584611892700195e+00,1.457429766654968262e+00,1.447386264801025391e+00,1.443974852561950684e+00,1.451923608779907227e+00,1.461985707283020020e+00,5.000000000000000000e+00,5.000000000000000000e+00,5.000000000000000000e+00,5.000000000000000000e+00,5.000000000000000000e+00
1.933160781860351562e+00,1.959854125976562500e+00,1.987295269966125488e+00,2.015515565872192383e+00,2.044548988342285156e+00,2.074430942535400391e+00,2.105199813842773438e+00,2.136894702911376953e+00,2.169558763504028320e+00,2.203236579895019531e+00,2.237976789474487305e+00,2.273829936981201172e+00,2.310850620269775391e+00,2.349096536636352539e+00,2.388630151748657227e+00,2.429516792297363281e+00,2.471827745437622070e+00,2.515638589859008789e+00,2.561030387878417969e+00,2.608090162277221680e+00,2.656912088394165039e+00,2.707596540451049805e+00,2.760252714157104492e+00,2.814997196197509766e+00,2.871957302093505859e+00,2.931269884109497070e+00,2.993084192276000977e+00,3.057561874389648438e+00,3.124878406524658203e+00,3.195225954055786133e+00,3.268814086914062500e+00,3.345874309539794922e+00,3.426662206649780273e+00,3.511448144912719727e+00,3.600536346435546875e+00,3.694262504577636719e+00,3.792998552322387695e+00,3.897156476974487305e+00,4.007183551788330078e+00,4.123603820800781250e+00,4.246991157531738281e+00,4.377990722656250000e+00,4.517328739166259766e+00,4.665827751159667969e+00,4.824421405792236328e+00,4.994176387786865234e+00,5.000000000000000000e+00,5.000000000000000000e+00,5.000000000000000000e+00,5.000000000000000000e+00,5.000000000000000000e+00,5.000000000000000000e+00,5.000000000000000000e+00,5.000000000000000000e+00,5.000000000000000000e+00,5.000000000000000000e+00,5.000000000000000000e+00,5.000000000000000000e+00,5.000000000000000000e+00,1.613807559013366699e+00,1.575166583061218262e+00,1.565263271331787109e+00,1.555935740470886230e+00,1.567210793495178223e+00,1.584897160530090332e+00,5.000000000000000000e+00,5.000000000000000000e+00,5.000000000000000000e+00,5.000000000000000000e+00,1.486121058464050293e+00,1.458342194557189941e+00,1.449479699134826660e+00,1.449568867683410645e+00,1.458382368087768555e+00,1.465812683105468750e+00,5.000000000000000000e+00,5.000000000000000000e+00,5.000000000000000000e+00,5.000000000000000000e+00,5.000000000000000000e+00
1.933132290840148926e+00,1.959825038909912109e+00,1.987265110015869141e+00,2.015484571456909180e+00,2.044517278671264648e+00,2.074398279190063477e+00,2.105165958404541016e+00,2.136859893798828125e+00,2.169522762298583984e+00,2.203199625015258789e+00,2.237938642501831055e+00,2.273790597915649414e+00,2.310809850692749023e+00,2.349054574966430664e+00,2.388586759567260742e+00,2.429471969604492188e+00,2.471781492233276367e+00,2.515590429306030273e+00,2.560980558395385742e+00,2.608038663864135742e+00,2.656858444213867188e+00,2.707540988922119141e+00,2.760194778442382812e+00,2.814936876296997070e+00,2.871894598007202148e+00,2.931204795837402344e+00,2.993016242980957031e+00,3.057490825653076172e+00,3.124804258346557617e+00,3.195148468017578125e+00,3.268732786178588867e+00,3.345786333084106445e+00,3.426560163497924805e+00,3.511332273483276367e+00,3.600414276123046875e+00,3.694133996963500977e+00,3.792863130569458008e+00,3.897014856338500977e+00,4.007047176361083984e+00,4.123474121093750000e+00,4.246855258941650391e+00,4.377846240997314453e+00,4.517174720764160156e+00,4.665663242340087891e+00,4.824245929718017578e+00,4.993988037109375000e+00,5.000000000000000000e+00,5.000000000000000000e+00,5.000000000000000000e+00,5.000000000000000000e+00,5.000000000000000000e+00,5.000000000000000000e+00,5.000000000000000000e+00,5.000000000000000000e+00,5.000000000000000000e+00,5.000000000000000000e+00,5.000000000000000000e+00,5.000000000000000000e+00,5.000000000000000000e+00,1.615371108055114746e+00,1.578533649444580078e+00,1.567550659179687500e+00,1.560200333595275879e+00,1.562396168708801270e+00,1.584606528282165527e+00,5.000000000000000000e+00,5.000000000000000000e+00,5.000000000000000000e+00,5.000000000000000000e+00,1.486024022102355957e+00,1.460067033767700195e+00,1.452827811241149902e+00,1.455762028694152832e+00,1.463929295539855957e+00,1.471924066543579102e+00,5.000000000000000000e+00,5.000000000000000000e+00,5.000000000000000000e+00,5.000000000000000000e+00,5.000000000000000000e+00
1.933103919029235840e+00,1.959795832633972168e+00,1.987235307693481445e+00,2.015453815460205078e+00,2.044485330581665039e+00,2.074365615844726562e+00,2.105132341384887695e+00,2.136825323104858398e+00,2.169486999511718750e+00,2.203162908554077148e+00,2.237900495529174805e+00,2.273751258850097656e+00,2.310769319534301758e+00,2.349012613296508789e+00,2.388543367385864258e+00,2.429427146911621094e+00,2.471735000610351562e+00,2.515542268753051758e+00,2.560930490493774414e+00,2.607986927032470703e+00,2.656804800033569336e+00,2.707485198974609375e+00,2.760136842727661133e+00,2.814876794815063477e+00,2.871831893920898438e+00,2.931139469146728516e+00,2.992948055267333984e+00,3.057419776916503906e+00,3.124729871749877930e+00,3.195070743560791016e+00,3.268651723861694336e+00,3.345701217651367188e+00,3.426470994949340820e+00,3.511236667633056641e+00,3.600303173065185547e+00,3.694005489349365234e+00,3.792728185653686523e+00,3.896871805191040039e+00,4.006896495819091797e+00,4.123314857482910156e+00,4.246700286865234375e+00,4.377697467803955078e+00,4.517021179199218750e+00,4.665499210357666016e+00,4.824070930480957031e+00,4.993800163269042969e+00,5.000000000000000000e+00,5.000000000000000000e+00,5.000000000000000000e+00,5.000000000000000000e+00,5.000000000000000000e+00,5.000000000000000000e+00,5.000000000000000000e+00,5.000000000000000000e+00,5.000000000000000000e+00,5.000000000000000000e+00,5.000000000000000000e+00,5.000000000000000000e+00,5.000000000000000000e+00,1.627224087715148926e+00,1.595767498016357422e+00,1.575683951377868652e+00,1.571227550506591797e+00,1.565266609191894531e+00,1.570364594459533691e+00,1.589820861816406250e+00,5.000000000000000000e+00,5.000000000000000000e+00,5.000000000000000000e+00,1.489431262016296387e+00,1.463990449905395508e+00,1.458566069602966309e+00,1.459884405136108398e+00,1.468121767044067383e+00,1.476751565933227539e+00,5.000000000000000000e+00,5.000000000000000000e+00,5.000000000000000000e+00,5.000000000000000000e+00,5.000000000000000000e+00
1.933075428009033203e+00,1.959766745567321777e+00,1.987205147743225098e+00,2.015422821044921875e+00,2.044453620910644531e+00,2.074332952499389648e+00,2.105098485946655273e+00,2.136790513992309570e+00,2.169451236724853516e+00,2.203125953674316406e+00,2.237862586975097656e+00,2.273711919784545898e+00,2.310728788375854492e+00,2.348970651626586914e+00,2.388499975204467773e+00,2.429382324218750000e+00,2.471688508987426758e+00,2.515494108200073242e+00,2.560880661010742188e+00,2.607935190200805664e+00,2.656751155853271484e+00,2.707429409027099609e+00,2.760078668594360352e+00,2.814816474914550781e+00,2.871769189834594727e+00,2.931074142456054688e+00,2.992880105972290039e+00,3.057348728179931641e+00,3.124655723571777344e+00,3.194993257522583008e+00,3.268570184707641602e+00,3.345616102218627930e+00,3.426381587982177734e+00,3.511142969131469727e+00,3.600204706192016602e+00,3.693901777267456055e+00,3.792606353759765625e+00,3.896730661392211914e+00,4.006745338439941406e+00,4.123154640197753906e+00,4.246530532836914062e+00,4.377517223358154297e+00,4.516842365264892578e+00,4.665327548980712891e+00,4.823895454406738281e+00,4.993612289428710938e+00,5.000000000000000000e+00,5.000000000000000000e+00,5.000000000000000000e+00,5.000000000000000000e+00,5.000000000000000000e+00,5.000000000000000000e+00,5.000000000000000000e+00,5.000000000000000000e+00,5.000000000000000000e+00,5.000000000000000000e+00,5.000000000000000000e+00,5.000000000000000000e+00,5.000000000000000000e+00,5.000000000000000000e+00,1.620232701301574707e+00,1.592590332031250000e+00,1.577539563179016113e+00,1.574584960937500000e+00,1.570365905761718750e+00,1.577835202217102051e+00,1.594138741493225098e+00,5.000000000000000000e+00,5.000000000000000000e+00,1.510600566864013672e+00,1.471723675727844238e+00,1.467676281929016113e+00,1.463730573654174805e+00,1.466443300247192383e+00,1.473734974861145020e+00,1.485476732254028320e+00,5.000000000000000000e+00,5.000000000000000000e+00,5.000000000000000000e+00,5.000000000000000000e+00
1.933047175407409668e+00,1.959737420082092285e+00,1.987175226211547852e+00,2.015392065048217773e+00,2.044421911239624023e+00,2.074300289154052734e+00,2.105064868927001953e+00,2.136755943298339844e+00,2.169415473937988281e+00,2.203088998794555664e+00,2.237824440002441406e+00,2.273672819137573242e+00,2.310688257217407227e+00,2.348928928375244141e+00,2.388456583023071289e+00,2.429337501525878906e+00,2.471642017364501953e+00,2.515446186065673828e+00,2.560830831527709961e+00,2.607883453369140625e+00,2.656697511672973633e+00,2.707373857498168945e+00,2.760020971298217773e+00,2.814756393432617188e+00,2.871706485748291016e+00,2.931008815765380859e+00,2.992811918258666992e+00,3.057277679443359375e+00,3.124581575393676758e+00,3.194915771484375000e+00,3.268488883972167969e+00,3.345531225204467773e+00,3.426292419433593750e+00,3.511049270629882812e+00,3.600106000900268555e+00,3.693798065185546875e+00,3.792496919631958008e+00,3.896615266799926758e+00,4.006611824035644531e+00,4.122999191284179688e+00,4.246360778808593750e+00,4.377337455749511719e+00,4.516650676727294922e+00,4.665122985839843750e+00,4.823688507080078125e+00,4.993412017822265625e+00,5.000000000000000000e+00,5.000000000000000000e+00,5.000000000000000000e+00,5.000000000000000000e+00,5.000000000000000000e+00,5.000000000000000000e+00,5.000000000000000000e+00,5.000000000000000000e+00,5.000000000000000000e+00,5.000000000000000000e+00,5.000000000000000000e+00,5.000000000000000000e+00,5.000000000000000000e+00,5.000000000000000000e+00,5.000000000000000000e+00,1.613300919532775879e+00,1.594945549964904785e+00,1.579399824142456055e+00,1.576438069343566895e+00,1.573030710220336914e+00,1.586777329444885254e+00,5.000000000000000000e+00,5.000000000000000000e+00,5.000000000000000000e+00,1.497250437736511230e+00,1.480462312698364258e+00,1.473420143127441406e+00,1.468757152557373047e+00,1.470581412315368652e+00,1.479500889778137207e+00,5.000000000000000000e+00,5.000000000000000000e+00,5.000000000000000000e+00,5.000000000000000000e+00
1.933018684387207031e+00,1.959708333015441895e+00,1.987145066261291504e+00,2.015361070632934570e+00,2.044390201568603516e+00,2.074267387390136719e+00,2.105031251907348633e+00,2.136721134185791016e+00,2.169379711151123047e+00,2.203052282333374023e+00,2.237786531448364258e+00,2.273633480072021484e+00,2.310647487640380859e+00,2.348886966705322266e+00,2.388413190841674805e+00,2.429292678833007812e+00,2.471595764160156250e+00,2.515398025512695312e+00,2.560781002044677734e+00,2.607831954956054688e+00,2.656643867492675781e+00,2.707318067550659180e+00,2.759963035583496094e+00,2.814696073532104492e+00,2.871643781661987305e+00,2.930943489074707031e+00,2.992743968963623047e+00,3.057206630706787109e+00,3.124507427215576172e+00,3.194838047027587891e+00,3.268407821655273438e+00,3.345446109771728516e+00,3.426203250885009766e+00,3.510955572128295898e+00,3.600007534027099609e+00,3.693694353103637695e+00,3.792387723922729492e+00,3.896499872207641602e+00,4.006489753723144531e+00,4.122869968414306641e+00,4.246212959289550781e+00,4.377164363861083984e+00,4.516458988189697266e+00,4.664917945861816406e+00,4.823469638824462891e+00,4.993177413940429688e+00,5.000000000000000000e+00,5.000000000000000000e+00,5.000000000000000000e+00,5.000000000000000000e+00,5.000000000000000000e+00,5.000000000000000000e+00,5.000000000000000000e+00,5.000000000000000000e+00,5.000000000000000000e+00,5.000000000000000000e+00,5.000000000000000000e+00,5.000000000000000000e+00,5.000000000000000000e+00,5.000000000000000000e+00,5.000000000000000000e+00,5.000000000000000000e+00,1.613945364952087402e+00,1.592109918594360352e+00,1.578754663467407227e+00,1.574995517730712891e+00,1.581883072853088379e+00,5.000000000000000000e+00,5.000000000000000000e+00,5.000000000000000000e+00,5.000000000000000000e+00,1.493472933769226074e+00,1.486143231391906738e+00,1.475860238075256348e+00,1.474132895469665527e+00,1.475241541862487793e+00,1.497722625732421875e+00,5.000000000000000000e+00,5.000000000000000000e+00,5.000000000000000000e+00
1.932990312576293945e+00,1.959679007530212402e+00,1.987115263938903809e+00,2.015330314636230469e+00,2.044358491897583008e+00,2.074234724044799805e+00,2.104997396469116211e+00,2.136686325073242188e+00,2.169343948364257812e+00,2.203015327453613281e+00,2.237748384475708008e+00,2.273594141006469727e+00,2.310606956481933594e+00,2.348845005035400391e+00,2.388369798660278320e+00,2.429247617721557617e+00,2.471549272537231445e+00,2.515349864959716797e+00,2.560731172561645508e+00,2.607780218124389648e+00,2.656590223312377930e+00,2.707262277603149414e+00,2.759905099868774414e+00,2.814635753631591797e+00,2.871581315994262695e+00,2.930878162384033203e+00,2.992675781250000000e+00,3.057135581970214844e+00,3.124433279037475586e+00,3.194760560989379883e+00,3.268326520919799805e+00,3.345360755920410156e+00,3.426114082336425781e+00,3.510862112045288086e+00,3.599909067153930664e+00,3.693590641021728516e+00,3.792278289794921875e+00,3.896384477615356445e+00,4.006367683410644531e+00,4.122740268707275391e+00,4.246076107025146484e+00,4.377018451690673828e+00,4.516294002532958984e+00,4.664724349975585938e+00,4.823250770568847656e+00,4.992943286895751953e+00,5.000000000000000000e+00,5.000000000000000000e+00,5.000000000000000000e+00,5.000000000000000000e+00,5.000000000000000000e+00,5.000000000000000000e+00,5.000000000000000000e+00,5.000000000000000000e+00,5.000000000000000000e+00,5.000000000000000000e+00,5.000000000000000000e+00,5.000000000000000000e+00,5.000000000000000000e+00,5.000000000000000000e+00,5.000000000000000000e+00,5.000000000000000000e+00,1.624088287353515625e+00,1.601979255676269531e+00,1.581734657287597656e+00,1.576964974403381348e+00,1.577018737792968750e+00,1.595677256584167480e+00,5.000000000000000000e+00,5.000000000000000000e+00,5.000000000000000000e+00,1.529527425765991211e+00,1.499087929725646973e+00,1.486809611320495605e+00,1.481288194656372070e+00,1.479548096656799316e+00,1.493327498435974121e+00,5.000000000000000000e+00,5.000000000000000000e+00,5.000000000000000000e+00
1.932961821556091309e+00,1.959649920463562012e+00,1.987085103988647461e+00,2.015299320220947266e+00,2.044326543807983398e+00,2.074202060699462891e+00,2.104963779449462891e+00,2.136651754379272461e+00,2.169308185577392578e+00,2.202978372573852539e+00,2.237710237503051758e+00,2.273554801940917969e+00,2.310566425323486328e+00,2.348803043365478516e+00,2.388326406478881836e+00,2.429202795028686523e+00,2.471502780914306641e+00,2.515301942825317383e+00,2.560681343078613281e+00,2.607728481292724609e+00,2.656536579132080078e+00,2.707206726074218750e+00,2.759847164154052734e+00,2.814575433731079102e+00,2.871518611907958984e+00,2.930813074111938477e+00,2.992607831954956055e+00,3.057064533233642578e+00,3.124358892440795898e+00,3.194683074951171875e+00,3.268245458602905273e+00,3.345275640487670898e+00,3.426024913787841797e+00,3.510768413543701172e+00,3.599810600280761719e+00,3.693486928939819336e+00,3.792169094085693359e+00,3.896269083023071289e+00,4.006245613098144531e+00,4.122611522674560547e+00,4.245939254760742188e+00,4.376873016357421875e+00,4.516139030456542969e+00,4.664558887481689453e+00,4.823066234588623047e+00,4.992724418640136719e+00,5.000000000000000000e+00,5.000000000000000000e+00,5.000000000000000000e+00,5.000000000000000000e+00,5.000000000000000000e+00,5.000000000000000000e+00,5.000000000000000000e+00,5.000000000000000000e+00,5.000000000000000000e+00,5.000000000000000000e+00,5.000000000000000000e+00,5.000000000000000000e+00,5.000000000000000000e+00,5.000000000000000000e+00,5.000000000000000000e+00,5.000000000000000000e+00,5.000000000000000000e+00,1.611971855163574219e+00,1.588910102844238281e+00,1.579700231552124023e+00,1.575179457664489746e+00,1.590831756591796875e+00,5.000000000000000000e+00,5.000000000000000000e+00,5.000000000000000000e+00,5.000000000000000000e+00,1.509217262268066406e+00,1.495909929275512695e+00,1.488077044486999512e+00,1.486217498779296875e+00,1.493409276008605957e+00,5.000000000000000000e+00,5.000000000000000000e+00,5.000000000000000000e+00
1.932933568954467773e+00,1.959620714187622070e+00,1.987055182456970215e+00,2.015268564224243164e+00,2.044294834136962891e+00,2.074169397354125977e+00,2.104930162429809570e+00,2.136616945266723633e+00,2.169272422790527344e+00,2.202941417694091797e+00,2.237672328948974609e+00,2.273515701293945312e+00,2.310525894165039062e+00,2.348761081695556641e+00,2.388283014297485352e+00,2.429157972335815430e+00,2.471456527709960938e+00,2.515253782272338867e+00,2.560631513595581055e+00,2.607676744461059570e+00,2.656482934951782227e+00,2.707150936126708984e+00,2.759789228439331055e+00,2.814515352249145508e+00,2.871455907821655273e+00,2.930747747421264648e+00,2.992539644241333008e+00,3.056993484497070312e+00,3.124284744262695312e+00,3.194605350494384766e+00,3.268164157867431641e+00,3.345190525054931641e+00,3.425935745239257812e+00,3.510674715042114258e+00,3.599712133407592773e+00,3.693383216857910156e+00,3.792059898376464844e+00,3.896153688430786133e+00,4.006123542785644531e+00,4.122482299804687500e+00,4.245801925659179688e+00,4.376727581024169922e+00,4.515984058380126953e+00,4.664393424987792969e+00,4.822889328002929688e+00,4.992534637451171875e+00,5.000000000000000000e+00,5.000000000000000000e+00,5.000000000000000000e+00,5.000000000000000000e+00,5.000000000000000000e+00,5.000000000000000000e+00,5.000000000000000000e+00,5.000000000000000000e+00,5.000000000000000000e+00,5.000000000000000000e+00,5.000000000000000000e+00,5.000000000000000000e+00,5.000000000000000000e+00,5.000000000000000000e+00,5.000000000000000000e+00,5.000000000000000000e+00,5.000000000000000000e+00,1.622089743614196777e+00,1.598719716072082520e+00,1.582968831062316895e+00,1.577670931816101074e+00,1.586015582084655762e+00,5.000000000000000000e+00,5.000000000000000000e+00,5.000000000000000000e+00,5.000000000000000000e+00,1.516109824180603027e+00,1.502681136131286621e+00,1.495031952857971191e+00,1.492923378944396973e+00,1.493490815162658691e+00,5.000000000000000000e+00,5.000000000000000000e+00,5.000000000000000000e+00
1.932905077934265137e+00,1.959591627120971680e+00,1.987025022506713867e+00,2.015237808227539062e+00,2.044263124465942383e+00,2.074136734008789062e+00,2.104896545410156250e+00,2.136582374572753906e+00,2.169236660003662109e+00,2.202904701232910156e+00,2.237634181976318359e+00,2.273476362228393555e+00,2.310485363006591797e+00,2.348719120025634766e+00,2.388239860534667969e+00,2.429113149642944336e+00,2.471410036087036133e+00,2.515205621719360352e+00,2.560581684112548828e+00,2.607625007629394531e+00,2.656429290771484375e+00,2.707095384597778320e+00,2.759731531143188477e+00,2.814455032348632812e+00,2.871393203735351562e+00,2.930682420730590820e+00,2.992471694946289062e+00,3.056922435760498047e+00,3.124210596084594727e+00,3.194527864456176758e+00,3.268083095550537109e+00,3.345105648040771484e+00,3.425846338272094727e+00,3.510581016540527344e+00,3.599613666534423828e+00,3.693279504776000977e+00,3.791950464248657227e+00,3.896038293838500977e+00,4.006001949310302734e+00,4.122353076934814453e+00,4.245665073394775391e+00,4.376581668853759766e+00,4.515829086303710938e+00,4.664227962493896484e+00,4.822712421417236328e+00,4.992345333099365234e+00,5.000000000000000000e+00,5.000000000000000000e+00,5.000000000000000000e+00,5.000000000000000000e+00,5.000000000000000000e+00,5.000000000000000000e+00,5.000000000000000000e+00,5.000000000000000000e+00,5.000000000000000000e+00,5.000000000000000000e+00,5.000000000000000000e+00,5.000000000000000000e+00,5.000000000000000000e+00,5.000000000000000000e+00,5.000000000000000000e+00,5.000000000000000000e+00,5.000000000000000000e+00,1.632335662841796875e+00,1.608651280403137207e+00,1.586652278900146484e+00,1.582058429718017578e+00,1.581882596015930176e+00,1.601345181465148926e+00,5.000000000000000000e+00,5.000000000000000000e+00,5.000000000000000000e+00,1.534734368324279785e+00,1.509514212608337402e+00,1.502072095870971680e+00,1.499762654304504395e+00,1.497801303863525391e+00,5.000000000000000000e+00,5.000000000000000000e+00,5.000000000000000000e+00
1.932876586914062500e+00,1.959562301635742188e+00,1.986995220184326172e+00,2.015206813812255859e+00,2.044231414794921875e+00,2.074104070663452148e+00,2.104862928390502930e+00,2.136547565460205078e+00,2.169200897216796875e+00,2.202867746353149414e+00,2.237596273422241211e+00,2.273437023162841797e+00,2.310444831848144531e+00,2.348677158355712891e+00,2.388196468353271484e+00,2.429068326950073242e+00,2.471363306045532227e+00,2.515157699584960938e+00,2.560531854629516602e+00,2.607573509216308594e+00,2.656375646591186523e+00,2.707039594650268555e+00,2.759673595428466797e+00,2.814394950866699219e+00,2.871330261230468750e+00,2.930617094039916992e+00,2.992403745651245117e+00,3.056851387023925781e+00,3.124136447906494141e+00,3.194450378417968750e+00,3.268001794815063477e+00,3.345020532608032227e+00,3.425756931304931641e+00,3.510487318038940430e+00,3.599515199661254883e+00,3.693176031112670898e+00,3.791841268539428711e+00,3.895923137664794922e+00,4.005879878997802734e+00,4.122223854064941406e+00,4.245527744293212891e+00,4.376436233520507812e+00,4.515674114227294922e+00,4.664062976837158203e+00,4.822535514831542969e+00,4.992156028747558594e+00,5.000000000000000000e+00,5.000000000000000000e+00,5.000000000000000000e+00,5.000000000000000000e+00,5.000000000000000000e+00,5.000000000000000000e+00,5.000000000000000000e+00,5.000000000000000000e+00,5.000000000000000000e+00,5.000000000000000000e+00,5.000000000000000000e+00,5.000000000000000000e+00,5.000000000000000000e+00,5.000000000000000000e+00,5.000000000000000000e+00,5.000000000000000000e+00,5.000000000000000000e+00,5.000000000000000000e+00,1.619561195373535156e+00,1.596336841583251953e+00,1.586989998817443848e+00,1.582357048988342285e+00,1.595682740211486816e+00,5.000000000000000000e+00,5.000000000000000000e+00,5.000000000000000000e+00,1.557701468467712402e+00,1.516705632209777832e+00,1.509178996086120605e+00,1.506847620010375977e+00,1.504612326622009277e+00,1.528921008110046387e+00,5.000000000000000000e+00,5.000000000000000000e+00
1.932848334312438965e+00,1.959533214569091797e+00,1.986965060234069824e+00,2.015176057815551758e+00,2.044199466705322266e+00,2.074071407318115234e+00,2.104829072952270508e+00,2.136512994766235352e+00,2.169165134429931641e+00,2.202830791473388672e+00,2.237558126449584961e+00,2.273397684097290039e+00,2.310404062271118164e+00,2.348635435104370117e+00,2.388153076171875000e+00,2.429023504257202148e+00,2.471317052841186523e+00,2.515109539031982422e+00,2.560482025146484375e+00,2.607521772384643555e+00,2.656322002410888672e+00,2.706983804702758789e+00,2.759615659713745117e+00,2.814334630966186523e+00,2.871267557144165039e+00,2.930551767349243164e+00,2.992335557937622070e+00,3.056780576705932617e+00,3.124062299728393555e+00,3.194372653961181641e+00,3.267920732498168945e+00,3.344935417175292969e+00,3.425667762756347656e+00,3.510393619537353516e+00,3.599416732788085938e+00,3.693072319030761719e+00,3.791732072830200195e+00,3.895807743072509766e+00,4.005757808685302734e+00,4.122094631195068359e+00,4.245390892028808594e+00,4.376290798187255859e+00,4.515519142150878906e+00,4.663897514343261719e+00,4.822358608245849609e+00,4.991966724395751953e+00,5.000000000000000000e+00,5.000000000000000000e+00,5.000000000000000000e+00,5.000000000000000000e+00,5.000000000000000000e+00,5.000000000000000000e+00,5.000000000000000000e+00,5.000000000000000000e+00,5.000000000000000000e+00,5.000000000000000000e+00,5.000000000000000000e+00,5.000000000000000000e+00,5.000000000000000000e+00,5.000000000000000000e+00,5.000000000000000000e+00,5.000000000000000000e+00,5.000000000000000000e+00,5.000000000000000000e+00,5.000000000000000000e+00,1.607234120368957520e+00,1.591373324394226074e+00,1.587290525436401367e+00,1.591499686241149902e+00,5.000000000000000000e+00,5.000000000000000000e+00,5.000000000000000000e+00,1.579980731010437012e+00,1.524455308914184570e+00,1.516353487968444824e+00,1.513999819755554199e+00,1.511668682098388672e+00,1.532620787620544434e+00,5.000000000000000000e+00,5.000000000000000000e+00
1.932819843292236328e+00,1.959503889083862305e+00,1.986935138702392578e+00,2.015145063400268555e+00,2.044167757034301758e+00,2.074038505554199219e+00,2.104795455932617188e+00,2.136478185653686523e+00,2.169129371643066406e+00,2.202794075012207031e+00,2.237519979476928711e+00,2.273358583450317383e+00,2.310363531112670898e+00,2.348593473434448242e+00,2.388109683990478516e+00,2.428978443145751953e+00,2.471270561218261719e+00,2.515061616897583008e+00,2.560432195663452148e+00,2.607470035552978516e+00,2.656268358230590820e+00,2.706928253173828125e+00,2.759557723999023438e+00,2.814274549484252930e+00,2.871205091476440430e+00,2.930486679077148438e+00,2.992267608642578125e+00,3.056709527969360352e+00,3.123988151550292969e+00,3.194295167922973633e+00,3.267839670181274414e+00,3.344850540161132812e+00,3.425578594207763672e+00,3.510300159454345703e+00,3.599318265914916992e+00,3.692968606948852539e+00,3.791622638702392578e+00,3.895692348480224609e+00,4.005635738372802734e+00,4.121965408325195312e+00,4.245254039764404297e+00,4.376145362854003906e+00,4.515364170074462891e+00,4.663732051849365234e+00,4.822182178497314453e+00,4.991777420043945312e+00,5.000000000000000000e+00,5.000000000000000000e+00,5.000000000000000000e+00,5.000000000000000000e+00,5.000000000000000000e+00,5.000000000000000000e+00,5.000000000000000000e+00,5.000000000000000000e+00,5.000000000000000000e+00,5.000000000000000000e+00,5.000000000000000000e+00,5.000000000000000000e+00,5.000000000000000000e+00,5.000000000000000000e+00,5.000000000000000000e+00,5.000000000000000000e+00,5.000000000000000000e+00,5.000000000000000000e+00,5.000000000000000000e+00,1.618281245231628418e+00,1.597555994987487793e+00,1.591823697090148926e+00,1.587591171264648438e+00,1.616319298744201660e+00,5.000000000000000000e+00,5.000000000000000000e+00,5.000000000000000000e+00,1.535412192344665527e+00,1.524840712547302246e+00,1.521849989891052246e+00,1.519528627395629883e+00,1.536721587181091309e+00,5.000000000000000000e+00,5.000000000000000000e+00
1.932791471481323242e+00,1.959474682807922363e+00,1.986905097961425781e+00,2.015114307403564453e+00,2.044136047363281250e+00,2.074005842208862305e+00,2.104761838912963867e+00,2.136443614959716797e+00,2.169093608856201172e+00,2.202756881713867188e+00,2.237482070922851562e+00,2.273319244384765625e+00,2.310322999954223633e+00,2.348551511764526367e+00,2.388066291809082031e+00,2.428933620452880859e+00,2.471224069595336914e+00,2.515013217926025391e+00,2.560382366180419922e+00,2.607418537139892578e+00,2.656214714050292969e+00,2.706872463226318359e+00,2.759500026702880859e+00,2.814214229583740234e+00,2.871142387390136719e+00,2.930421113967895508e+00,2.992199420928955078e+00,3.056638479232788086e+00,3.123914003372192383e+00,3.194217681884765625e+00,3.267758369445800781e+00,3.344765424728393555e+00,3.425489425659179688e+00,3.510205984115600586e+00,3.599219799041748047e+00,3.692865133285522461e+00,3.791513442993164062e+00,3.895576953887939453e+00,4.005514144897460938e+00,4.121836662292480469e+00,4.245117187500000000e+00,4.375999450683593750e+00,4.515209197998046875e+00,4.663567066192626953e+00,4.821203708648681641e+00,4.820016860961914062e+00,4.818830966949462891e+00,4.817645549774169922e+00,4.816460609436035156e+00,4.815276145935058594e+00,4.814092159271240234e+00,4.812909126281738281e+00,4.811726570129394531e+00,4.810544490814208984e+00,4.809362888336181641e+00,4.808182239532470703e+00,4.807001590728759766e+00,4.805821895599365234e+00,4.804642677307128906e+00,4.803464412689208984e+00,4.802286148071289062e+00,4.801109313964843750e+00,4.799932479858398438e+00,4.798756122589111328e+00,4.797580718994140625e+00,4.796405315399169922e+00,1.607089281082153320e+00,1.596122622489929199e+00,1.592274427413940430e+00,1.620118498802185059e+00,4.790538787841796875e+00,4.789367198944091797e+00,4.788196086883544922e+00,1.547875285148620605e+00,1.535673737525939941e+00,1.529879689216613770e+00,1.527470588684082031e+00,1.540617346763610840e+00,4.781181335449218750e+00,4.780014514923095703e+00
1.932762980461120605e+00,1.959445595741271973e+00,1.986875176429748535e+00,2.015083312988281250e+00,2.044104337692260742e+00,2.073973178863525391e+00,2.104728221893310547e+00,2.136408805847167969e+00,2.169057846069335938e+00,2.202720165252685547e+00,2.237443923950195312e+00,2.273279905319213867e+00,2.310282468795776367e+00,2.348509550094604492e+00,2.388023138046264648e+00,2.428888797760009766e+00,2.471177816390991211e+00,2.514965295791625977e+00,2.560332775115966797e+00,2.607366800308227539e+00,2.656161308288574219e+00,2.706816911697387695e+00,2.759442090988159180e+00,2.814154148101806641e+00,2.871079683303833008e+00,2.930355787277221680e+00,2.992131471633911133e+00,3.056567430496215820e+00,3.123839855194091797e+00,3.194140195846557617e+00,3.267677307128906250e+00,3.344680309295654297e+00,3.425400257110595703e+00,3.510112524032592773e+00,3.599121332168579102e+00,3.692761421203613281e+00,3.751489400863647461e+00,3.750770568847656250e+00,3.750052452087402344e+00,3.749334812164306641e+00,3.748617172241210938e+00,3.747900009155273438e+00,3.747182607650756836e+00,3.746465921401977539e+00,3.745748996734619141e+00,3.745033025741577148e+00,3.744317054748535156e+00,3.743601083755493164e+00,3.742885828018188477e+00,3.742170333862304688e+00,3.741455554962158203e+00,3.740740537643432617e+00,3.740026473999023438e+00,3.739311933517456055e+00,3.738598346710205078e+00,3.737884521484375000e+00,3.737171411514282227e+00,3.736458063125610352e+00,3.735745429992675781e+00,3.735032796859741211e+00,3.734320640563964844e+00,3.733608484268188477e+00,3.732897043228149414e+00,3.732185363769531250e+00,3.731474399566650391e+00,3.730763196945190430e+00,3.730052709579467773e+00,1.611616373062133789e+00,1.601555466651916504e+00,1.602784991264343262e+00,1.625254869461059570e+00,3.726503849029541016e+00,3.725794553756713867e+00,1.571114540100097656e+00,1.546661853790283203e+00,1.538166284561157227e+00,1.535495996475219727e+00,1.544532656669616699e+00,3.721546173095703125e+00,3.720839262008666992e+00
1.932734727859497070e+00,1.959416270256042480e+00,1.986845016479492188e+00,2.015052556991577148e+00,2.044072628021240234e+00,2.073940515518188477e+00,2.104694366455078125e+00,2.136374235153198242e+00,2.169022083282470703e+00,2.202683210372924805e+00,2.237406015396118164e+00,2.273240804672241211e+00,2.310241937637329102e+00,2.348467588424682617e+00,2.387979745864868164e+00,2.428843975067138672e+00,2.471131324768066406e+00,2.514917135238647461e+00,2.560282945632934570e+00,2.607315063476562500e+00,2.656107664108276367e+00,2.706761121749877930e+00,2.759384155273437500e+00,2.814093828201293945e+00,2.871016979217529297e+00,2.930290460586547852e+00,2.992063522338867188e+00,3.056496381759643555e+00,3.070266962051391602e+00,3.069785833358764648e+00,3.069304704666137695e+00,3.068823814392089844e+00,3.068342924118041992e+00,3.067862272262573242e+00,3.067381858825683594e+00,3.066901683807373047e+00,3.066421508789062500e+00,3.065941333770751953e+00,3.065461635589599609e+00,3.064981937408447266e+00,3.064502477645874023e+00,3.064022779464721680e+00,3.063543558120727539e+00,3.063064575195312500e+00,3.062585592269897461e+00,3.062106609344482422e+00,3.061628103256225586e+00,3.061149597167968750e+00,3.060671091079711914e+00,3.060192823410034180e+00,3.059714555740356445e+00,3.059236764907836914e+00,3.058758974075317383e+00,3.058281183242797852e+00,3.057803630828857422e+00,3.057326078414916992e+00,3.056849002838134766e+00,3.056371688842773438e+00,3.055894851684570312e+00,3.055418014526367188e+00,3.054941415786743164e+00,3.054464817047119141e+00,3.053988456726074219e+00,3.053512096405029297e+00,3.053036212921142578e+00,3.052560329437255859e+00,3.052084684371948242e+00,1.606635808944702148e+00,1.598002910614013672e+00,1.600582361221313477e+00,1.605864167213439941e+00,3.049708127975463867e+00,3.049233198165893555e+00,3.048758506774902344e+00,1.557808041572570801e+00,1.546543002128601074e+00,1.543798327445983887e+00,1.548468232154846191e+00,3.046386957168579102e+00,3.045913219451904297e+00
1.932706236839294434e+00,1.959387183189392090e+00,1.986815214157104492e+00,2.015021562576293945e+00,2.044040918350219727e+00,2.073907852172851562e+00,2.104660749435424805e+00,2.136339426040649414e+00,2.168986320495605469e+00,2.202646255493164062e+00,2.237367868423461914e+00,2.273201465606689453e+00,2.310201406478881836e+00,2.348425865173339844e+00,2.387936353683471680e+00,2.428799152374267578e+00,2.471084833145141602e+00,2.514868974685668945e+00,2.560233116149902344e+00,2.598770856857299805e+00,2.598426342010498047e+00,2.598081588745117188e+00,2.597737073898315430e+00,2.597392320632934570e+00,2.597048044204711914e+00,2.596703767776489258e+00,2.596359491348266602e+00,2.596015214920043945e+00,2.595671176910400391e+00,2.595327377319335938e+00,2.594983577728271484e+00,2.594639778137207031e+00,2.594295978546142578e+00,2.593952417373657227e+00,2.593608856201171875e+00,2.593265533447265625e+00,2.592921972274780273e+00,2.592578887939453125e+00,2.592235803604125977e+00,2.591892719268798828e+00,2.591549634933471680e+00,2.591206789016723633e+00,2.590864181518554688e+00,2.590521574020385742e+00,2.590178966522216797e+00,2.589836359024047852e+00,2.589493989944458008e+00,2.589151620864868164e+00,2.588809490203857422e+00,2.588467121124267578e+00,2.588125228881835938e+00,2.587783336639404297e+00,2.587441205978393555e+00,2.587099552154541016e+00,2.586757659912109375e+00,2.586416006088256836e+00,2.586074590682983398e+00,2.585733175277709961e+00,2.585391759872436523e+00,2.585050344467163086e+00,2.584709405899047852e+00,2.584367990493774414e+00,2.584027051925659180e+00,2.583686113357543945e+00,2.583345413208007812e+00,2.583004474639892578e+00,1.608367204666137695e+00,1.597699880599975586e+00,1.596611022949218750e+00,1.600576162338256836e+00,1.602939009666442871e+00,2.580961942672729492e+00,2.580621957778930664e+00,2.580281734466552734e+00,1.581983804702758789e+00,1.566960573196411133e+00,1.559537649154663086e+00,1.584395289421081543e+00,2.578583002090454102e+00,2.578243494033813477e+00
1.932677984237670898e+00,1.959357976913452148e+00,1.986785054206848145e+00,2.014990806579589844e+00,2.044008970260620117e+00,2.073875188827514648e+00,2.104627132415771484e+00,2.136304855346679688e+00,2.168950557708740234e+00,2.202609539031982422e+00,2.237329721450805664e+00,2.252551555633544922e+00,2.252292394638061523e+00,2.252033472061157227e+00,2.251774549484252930e+00,2.251515626907348633e+00,2.251256942749023438e+00,2.250998258590698242e+00,2.250739336013793945e+00,2.250480890274047852e+00,2.250222206115722656e+00,2.249963760375976562e+00,2.249705314636230469e+00,2.249446868896484375e+00,2.249188661575317383e+00,2.248930454254150391e+00,2.248672246932983398e+00,2.248414039611816406e+00,2.248155832290649414e+00,2.247897863388061523e+00,2.247639894485473633e+00,2.247381925582885742e+00,2.247124195098876953e+00,2.246866464614868164e+00,2.246608734130859375e+00,2.246351003646850586e+00,2.246093273162841797e+00,2.245835781097412109e+00,2.245578289031982422e+00,2.245320796966552734e+00,2.245063304901123047e+00,2.244806051254272461e+00,2.244548797607421875e+00,2.244291782379150391e+00,2.244034528732299805e+00,2.243777513504028320e+00,2.243520498275756836e+00,2.243263483047485352e+00,2.243006706237792969e+00,2.242749691009521484e+00,2.242492914199829102e+00,2.242236137390136719e+00,2.241979598999023438e+00,2.241722822189331055e+00,2.241466283798217773e+00,2.241209745407104492e+00,2.240953207015991211e+00,2.240696907043457031e+00,2.240440607070922852e+00,2.240184307098388672e+00,2.239928007125854492e+00,2.239671945571899414e+00,2.239415884017944336e+00,2.239159584045410156e+00,2.238903760910034180e+00,1.604944229125976562e+00,1.592343688011169434e+00,1.598194956779479980e+00,1.611139774322509766e+00,2.237624406814575195e+00,2.237368822097778320e+00,2.237113237380981445e+00,2.236857891082763672e+00,2.236602306365966797e+00,1.578076481819152832e+00,1.569185733795166016e+00,1.563690304756164551e+00,1.571390151977539062e+00,2.235325813293457031e+00,2.235070466995239258e+00
1.932649493217468262e+00,1.959328889846801758e+00,1.986755013465881348e+00,1.987736463546752930e+00,1.987534761428833008e+00,1.987333178520202637e+00,1.987131476402282715e+00,1.986930012702941895e+00,1.986728429794311523e+00,1.986526727676391602e+00,1.986325502395629883e+00,1.986123919486999512e+00,1.985922694206237793e+00,1.985721230506896973e+00,1.985519886016845703e+00,1.985318779945373535e+00,1.985117435455322266e+00,1.984916448593139648e+00,1.984715223312377930e+00,1.984513998031616211e+00,1.984313011169433594e+00,1.984111905097961426e+00,1.983910918235778809e+00,1.983710050582885742e+00,1.983509063720703125e+00,1.983308434486389160e+00,1.983107447624206543e+00,1.982906579971313477e+00,1.982706069946289062e+00,1.982505202293395996e+00,1.982304692268371582e+00,1.982104063034057617e+00,1.981903314590454102e+00,1.981702923774719238e+00,1.981502413749694824e+00,1.981301903724670410e+00,1.981101632118225098e+00,1.980901122093200684e+00,1.980700969696044922e+00,1.980500578880310059e+00,1.980300188064575195e+00,1.980100154876708984e+00,1.979899883270263672e+00,1.979699850082397461e+00,1.979499697685241699e+00,1.979299545288085938e+00,1.979099750518798828e+00,1.978899598121643066e+00,1.978699684143066406e+00,1.978499889373779297e+00,1.978299975395202637e+00,1.978100299835205078e+00,1.977900385856628418e+00,1.977700591087341309e+00,1.977501034736633301e+00,1.977301359176635742e+00,1.977101922035217285e+00,1.976902246475219727e+00,1.976702570915222168e+00,1.976503252983093262e+00,1.976303696632385254e+00,1.976104259490966797e+00,1.975904822349548340e+00,1.975705623626708984e+00,1.593191862106323242e+00,1.587401628494262695e+00,1.584185123443603516e+00,1.974908590316772461e+00,1.974709391593933105e+00,1.974510192871093750e+00,1.974311351776123047e+00,1.974112153053283691e+00,1.588146686553955078e+00,1.572436809539794922e+00,1.563587427139282227e+00,1.559918165206909180e+00,1.561854600906372070e+00,1.574756026268005371e+00,1.972720146179199219e+00,1.972521424293518066e+00
1.777828812599182129e+00,1.777667522430419922e+00,1.777506113052368164e+00,1.777344942092895508e+00,1.777183651924133301e+00,1.777022361755371094e+00,1.776861190795898438e+00,1.776700019836425781e+00,1.776538729667663574e+00,1.776377677917480469e+00,1.776216506958007812e+00,1.776055574417114258e+00,1.775894522666931152e+00,1.775733351707458496e+00,1.775572538375854492e+00,1.775411486625671387e+00,1.775250673294067383e+00,1.775089740753173828e+00,1.774928808212280273e+00,1.774768114089965820e+00,1.774607181549072266e+00,1.774446368217468262e+00,1.774285674095153809e+00,1.774124860763549805e+00,1.773964285850524902e+00,1.773803591728210449e+00,1.773642897605895996e+00,1.773482441902160645e+00,1.773321747779846191e+00,1.773161292076110840e+00,1.773000717163085938e+00,1.772840142250061035e+00,1.772679805755615234e+00,1.772519350051879883e+00,1.772358775138854980e+00,1.772198557853698730e+00,1.772038102149963379e+00,1.771878004074096680e+00,1.771717548370361328e+00,1.771557211875915527e+00,1.771397113800048828e+00,1.771236896514892578e+00,1.771076798439025879e+00,1.770916581153869629e+00,1.770756363868713379e+00,1.770596504211425781e+00,1.770436286926269531e+00,1.770276427268981934e+00,1.770116329193115234e+00,1.769956350326538086e+00,1.769796490669250488e+00,1.769636511802673340e+00,1.769476532936096191e+00,1.769316792488098145e+00,1.769156932830810547e+00,1.768997192382812500e+00,1.768837332725524902e+00,1.768677592277526855e+00,1.768517971038818359e+00,1.768358230590820312e+00,1.768198728561401367e+00,1.768038988113403320e+00,1.767879366874694824e+00,1.767719864845275879e+00,1.588525056838989258e+00,1.767400741577148438e+00,1.767241120338439941e+00,1.767081856727600098e+00,1.766922354698181152e+00,1.597916841506958008e+00,1.588211059570312500e+00,1.571789622306823730e+00,1.562377810478210449e+00,1.552557945251464844e+00,1.545714855194091797e+00,1.546934008598327637e+00,1.561918258666992188e+00,1.765488624572753906e+00,1.765329599380493164e+00,1.765170454978942871e+00
1.607623934745788574e+00,1.607491970062255859e+00,1.607360124588012695e+00,1.607228159904479980e+00,1.607096195220947266e+00,1.606964468955993652e+00,1.606832504272460938e+00,1.606700778007507324e+00,1.606568932533264160e+00,1.606437087059020996e+00,1.606305480003356934e+00,1.606173634529113770e+00,1.606041908264160156e+00,1.605910301208496094e+00,1.605778574943542480e+00,1.605646967887878418e+00,1.605515360832214355e+00,1.605383634567260742e+00,1.605252146720886230e+00,1.605120539665222168e+00,1.604989171028137207e+00,1.604857563972473145e+00,1.604725956916809082e+00,1.604594588279724121e+00,1.604463100433349609e+00,1.604331612586975098e+00,1.604200363159179688e+00,1.604068875312805176e+00,1.603937625885009766e+00,1.603806257247924805e+00,1.603674769401550293e+00,1.603543639183044434e+00,1.603412270545959473e+00,1.603281140327453613e+00,1.603149771690368652e+00,1.603018522262573242e+00,1.602887511253356934e+00,1.602756261825561523e+00,1.602625012397766113e+00,1.602494001388549805e+00,1.602362871170043945e+00,1.602231860160827637e+00,1.602100729942321777e+00,1.601969599723815918e+00,1.601838707923889160e+00,1.601707577705383301e+00,1.601576685905456543e+00,1.601445794105529785e+00,1.601314783096313477e+00,1.601183891296386719e+00,1.601052999496459961e+00,1.600922107696533203e+00,1.600791335105895996e+00,1.600660443305969238e+00,1.600529670715332031e+00,1.600398898124694824e+00,1.600268006324768066e+00,1.600137352943420410e+00,1.600006580352783203e+00,1.599875926971435547e+00,1.599745273590087891e+00,1.599614500999450684e+00,1.599483966827392578e+00,1.599353313446044922e+00,1.599222779273986816e+00,1.599092125892639160e+00,1.598961591720581055e+00,1.598831176757812500e+00,1.598700523376464844e+00,1.598569989204406738e+00,1.598439455032348633e+00,1.558017730712890625e+00,1.539754867553710938e+00,1.536846041679382324e+00,1.538057923316955566e+00,1.597787499427795410e+00,1.597657084465026855e+00,1.597526788711547852e+00,1.597396492958068848e+00,1.597266197204589844e+00
1.467161417007446289e+00,1.467051506042480469e+00,1.466941595077514648e+00,1.466831684112548828e+00,1.466721892356872559e+00,1.466612100601196289e+00,1.466502308845520020e+00,1.466392517089843750e+00,1.466282606124877930e+00,1.466172933578491211e+00,1.466063141822814941e+00,1.465953469276428223e+00,1.465843677520751953e+00,1.465734004974365234e+00,1.465624332427978516e+00,1.465514659881591797e+00,1.465404987335205078e+00,1.465295433998107910e+00,1.465185761451721191e+00,1.465076208114624023e+00,1.464966535568237305e+00,1.464856982231140137e+00,1.464747428894042969e+00,1.464637875556945801e+00,1.464528441429138184e+00,1.464418888092041016e+00,1.464309334754943848e+00,1.464199900627136230e+00,1.464090466499328613e+00,1.463980913162231445e+00,1.463871598243713379e+00,1.463762164115905762e+00,1.463652849197387695e+00,1.463543415069580078e+00,1.463433980941772461e+00,1.463324785232543945e+00,1.463215351104736328e+00,1.463106155395507812e+00,1.462996840476989746e+00,1.462887525558471680e+00,1.462778329849243164e+00,1.462669014930725098e+00,1.462559700012207031e+00,1.462450623512268066e+00,1.462341427803039551e+00,1.462232232093811035e+00,1.462123036384582520e+00,1.462013840675354004e+00,1.461904883384704590e+00,1.461795687675476074e+00,1.461686611175537109e+00,1.461577534675598145e+00,1.461468458175659180e+00,1.461359500885009766e+00,1.461250424385070801e+00,1.461141347885131836e+00,1.461032390594482422e+00,1.460923314094543457e+00,1.460814476013183594e+00,1.460705518722534180e+00,1.460596561431884766e+00,1.460487723350524902e+00,1.460378766059875488e+00,1.460269927978515625e+00,1.460160970687866211e+00,1.460052132606506348e+00,1.459943294525146484e+00,1.459834456443786621e+00,1.459725618362426758e+00,1.459616899490356445e+00,1.459508061408996582e+00,1.459399461746215820e+00,1.459290623664855957e+00,1.459181904792785645e+00,1.459073066711425781e+00,1.458964467048645020e+00,1.458855748176574707e+00,1.458747029304504395e+00,1.458638429641723633e+00,1.458529829978942871e+00
1.349271893501281738e+00,1.349178910255432129e+00,1.349085927009582520e+00,1.348993062973022461e+00,1.348900079727172852e+00,1.348807215690612793e+00,1.348714351654052734e+00,1.348621368408203125e+00,1.348528623580932617e+00,1.348435759544372559e+00,1.348343014717102051e+00,1.348250150680541992e+00,1.348157286643981934e+00,1.348064541816711426e+00,1.347971677780151367e+00,1.347878932952880859e+00,1.347786188125610352e+00,1.347693443298339844e+00,1.347600817680358887e+00,1.347508072853088379e+00,1.347415328025817871e+00,1.347322702407836914e+00,1.347229957580566406e+00,1.347137331962585449e+00,1.347044706344604492e+00,1.346951961517333984e+00,1.346859455108642578e+00,1.346766829490661621e+00,1.346674084663391113e+00,1.346581578254699707e+00,1.346488952636718750e+00,1.346396446228027344e+00,1.346303939819335938e+00,1.346211314201354980e+00,1.346118927001953125e+00,1.346026301383972168e+00,1.345933914184570312e+00,1.345841407775878906e+00,1.345748782157897949e+00,1.345656394958496094e+00,1.345564007759094238e+00,1.345471620559692383e+00,1.345379114151000977e+00,1.345286607742309570e+00,1.345194339752197266e+00,1.345101952552795410e+00,1.345009446144104004e+00,1.344917178153991699e+00,1.344824790954589844e+00,1.344732522964477539e+00,1.344640135765075684e+00,1.344547867774963379e+00,1.344455599784851074e+00,1.344363212585449219e+00,1.344271063804626465e+00,1.344178795814514160e+00,1.344086408615112305e+00,1.343994259834289551e+00,1.343901991844177246e+00,1.343809723854064941e+00,1.343717694282531738e+00,1.343625426292419434e+00,1.343533277511596680e+00,1.343441128730773926e+00,1.343348860740661621e+00,1.343256831169128418e+00,1.343164682388305664e+00,1.343072652816772461e+00,1.342980504035949707e+00,1.342888355255126953e+00,1.342796325683593750e+00,1.342704296112060547e+00,1.342612147331237793e+00,1.342520236968994141e+00,1.342428207397460938e+00,1.342336177825927734e+00,1.342244148254394531e+00,1.342152118682861328e+00,1.342060208320617676e+00,1.341968297958374023e+00
1.248918533325195312e+00,1.248838901519775391e+00,1.248759269714355469e+00,1.248679637908935547e+00,1.248600125312805176e+00,1.248520493507385254e+00,1.248440861701965332e+00,1.248361349105834961e+00,1.248281717300415039e+00,1.248202204704284668e+00,1.248122692108154297e+00,1.248043060302734375e+00,1.247963666915893555e+00,1.247884035110473633e+00,1.247804641723632812e+00,1.247725129127502441e+00,1.247645616531372070e+00,1.247566103935241699e+00,1.247486710548400879e+00,1.247407197952270508e+00,1.247327804565429688e+00,1.247248291969299316e+00,1.247168898582458496e+00,1.247089505195617676e+00,1.247010111808776855e+00,1.246930718421936035e+00,1.246851325035095215e+00,1.246772050857543945e+00,1.246692538261413574e+00,1.246613264083862305e+00,1.246533870697021484e+00,1.246454596519470215e+00,1.246375203132629395e+00,1.246295928955078125e+00,1.246216654777526855e+00,1.246137380599975586e+00,1.246058106422424316e+00,1.245978713035583496e+00,1.245899558067321777e+00,1.245820283889770508e+00,1.245741128921508789e+00,1.245661854743957520e+00,1.245582580566406250e+00,1.245503425598144531e+00,1.245424151420593262e+00,1.245344877243041992e+00,1.245265841484069824e+00,1.245186567306518555e+00,1.245107531547546387e+00,1.245028257369995117e+00,1.244949102401733398e+00,1.244870066642761230e+00,1.244790911674499512e+00,1.244711875915527344e+00,1.244632720947265625e+00,1.244553565979003906e+00,1.244474530220031738e+00,1.244395494461059570e+00,1.244316458702087402e+00,1.244237422943115234e+00,1.244158267974853516e+00,1.244079351425170898e+00,1.244000315666198730e+00,1.243921279907226562e+00,1.243842244148254395e+00,1.243763208389282227e+00,1.243684291839599609e+00,1.243605375289916992e+00,1.243526339530944824e+00,1.243447422981262207e+00,1.243368506431579590e+00,1.243289589881896973e+00,1.243210673332214355e+00,1.243131756782531738e+00,1.243052840232849121e+00,1.242973923683166504e+00,1.242895007133483887e+00,1.242816209793090820e+00,1.242737293243408203e+00,1.242658495903015137e+00
1.162459611892700195e+00,1.162390589714050293e+00,1.162321567535400391e+00,1.162252664566040039e+00,1.162183642387390137e+00,1.162114739418029785e+00,1.162045836448669434e+00,1.161976814270019531e+00,1.161907911300659180e+00,1.161839008331298828e+00,1.161769986152648926e+00,1.161701202392578125e+00,1.161632299423217773e+00,1.161563396453857422e+00,1.161494493484497070e+00,1.161425590515136719e+00,1.161356806755065918e+00,1.161287903785705566e+00,1.161219000816345215e+00,1.161150217056274414e+00,1.161081314086914062e+00,1.161012530326843262e+00,1.160943627357482910e+00,1.160874843597412109e+00,1.160806059837341309e+00,1.160737276077270508e+00,1.160668492317199707e+00,1.160599708557128906e+00,1.160530924797058105e+00,1.160462141036987305e+00,1.160393357276916504e+00,1.160324692726135254e+00,1.160255908966064453e+00,1.160187125205993652e+00,1.160118460655212402e+00,1.160049796104431152e+00,1.159981012344360352e+00,1.159912347793579102e+00,1.159843683242797852e+00,1.159775018692016602e+00,1.159706354141235352e+00,1.159637570381164551e+00,1.159569025039672852e+00,1.159500360488891602e+00,1.159431695938110352e+00,1.159363031387329102e+00,1.159294366836547852e+00,1.159225821495056152e+00,1.159157156944274902e+00,1.159088611602783203e+00,1.159020066261291504e+00,1.158951401710510254e+00,1.158882856369018555e+00,1.158814311027526855e+00,1.158745646476745605e+00,1.158677220344543457e+00,1.158608555793762207e+00,1.158540129661560059e+00,1.158471584320068359e+00,1.158403038978576660e+00,1.158334612846374512e+00,1.158266067504882812e+00,1.158197522163391113e+00,1.158129096031188965e+00,1.158060550689697266e+00,1.157992124557495117e+00,1.157923698425292969e+00,1.157855153083801270e+00,1.157786726951599121e+00,1.157718300819396973e+00,1.157649874687194824e+00,1.157581448554992676e+00,1.157513022422790527e+00,1.157444715499877930e+00,1.157376289367675781e+00,1.157307863235473633e+00,1.157239437103271484e+00,1.157171130180358887e+00,1.157102823257446289e+00,1.157034397125244141e+00
1.087196230888366699e+00,1.087135791778564453e+00,1.087075471878051758e+00,1.087015151977539062e+00,1.086954832077026367e+00,1.086894512176513672e+00,1.086834192276000977e+00,1.086773991584777832e+00,1.086713552474975586e+00,1.086653232574462891e+00,1.086593031883239746e+00,1.086532711982727051e+00,1.086472511291503906e+00,1.086412191390991211e+00,1.086351871490478516e+00,1.086291670799255371e+00,1.086231470108032227e+00,1.086171269416809082e+00,1.086110949516296387e+00,1.086050748825073242e+00,1.085990548133850098e+00,1.085930347442626953e+00,1.085870027542114258e+00,1.085809946060180664e+00,1.085749745368957520e+00,1.085689544677734375e+00,1.085629343986511230e+00,1.085569143295288086e+00,1.085509061813354492e+00,1.085448861122131348e+00,1.085388779640197754e+00,1.085328578948974609e+00,1.085268378257751465e+00,1.085208296775817871e+00,1.085148215293884277e+00,1.085088133811950684e+00,1.085027933120727539e+00,1.084967851638793945e+00,1.084907770156860352e+00,1.084847688674926758e+00,1.084787487983703613e+00,1.084727525711059570e+00,1.084667325019836426e+00,1.084607362747192383e+00,1.084547281265258789e+00,1.084487199783325195e+00,1.084427237510681152e+00,1.084367156028747559e+00,1.084307074546813965e+00,1.084247112274169922e+00,1.084187030792236328e+00,1.084127068519592285e+00,1.084066987037658691e+00,1.084007024765014648e+00,1.083947062492370605e+00,1.083886981010437012e+00,1.083827137947082520e+00,1.083767056465148926e+00,1.083707094192504883e+00,1.083647131919860840e+00,1.083587169647216797e+00,1.083527326583862305e+00,1.083467364311218262e+00,1.083407402038574219e+00,1.083347439765930176e+00,1.083287596702575684e+00,1.083227634429931641e+00,1.083167791366577148e+00,1.083107829093933105e+00,1.083047986030578613e+00,1.082988023757934570e+00,1.082928180694580078e+00,1.082868337631225586e+00,1.082808375358581543e+00,1.082748532295227051e+00,1.082688689231872559e+00,1.082628846168518066e+00,1.082569003105163574e+00,1.082509160041809082e+00,1.082449316978454590e+00
1.021085977554321289e+00,1.021032810211181641e+00,1.020979523658752441e+00,1.020926356315612793e+00,1.020873188972473145e+00,1.020819902420043945e+00,1.020766735076904297e+00,1.020713567733764648e+00,1.020660400390625000e+00,1.020607113838195801e+00,1.020553946495056152e+00,1.020500779151916504e+00,1.020447611808776855e+00,1.020394444465637207e+00,1.020341277122497559e+00,1.020288109779357910e+00,1.020235061645507812e+00,1.020181894302368164e+00,1.020128726959228516e+00,1.020075559616088867e+00,1.020022511482238770e+00,1.019969344139099121e+00,1.019916176795959473e+00,1.019863128662109375e+00,1.019810080528259277e+00,1.019756913185119629e+00,1.019703745841979980e+00,1.019650697708129883e+00,1.019597649574279785e+00,1.019544601440429688e+00,1.019491553306579590e+00,1.019438385963439941e+00,1.019385457038879395e+00,1.019332289695739746e+00,1.019279360771179199e+00,1.019226193428039551e+00,1.019173145294189453e+00,1.019120216369628906e+00,1.019067168235778809e+00,1.019014120101928711e+00,1.018961071968078613e+00,1.018908143043518066e+00,1.018855094909667969e+00,1.018802046775817871e+00,1.018749117851257324e+00,1.018696188926696777e+00,1.018643140792846680e+00,1.018590211868286133e+00,1.018537163734436035e+00,1.018484234809875488e+00,1.018431305885314941e+00,1.018378257751464844e+00,1.018325328826904297e+00,1.018272399902343750e+00,1.018219470977783203e+00,1.018166542053222656e+00,1.018113613128662109e+00,1.018060684204101562e+00,1.018007755279541016e+00,1.017954826354980469e+00,1.017902016639709473e+00,1.017849087715148926e+00,1.017796158790588379e+00,1.017743349075317383e+00,1.017690420150756836e+00,1.017637610435485840e+00,1.017584681510925293e+00,1.017531752586364746e+00,1.017478942871093750e+00,1.017426013946533203e+00,1.017373204231262207e+00,1.017320394515991211e+00,1.017267465591430664e+00,1.017214775085449219e+00,1.017161846160888672e+00,1.017109036445617676e+00,1.017056226730346680e+00,1.017003417015075684e+00,1.016950607299804688e+00,1.016897797584533691e+00
9.625551104545593262e-01,9.625077247619628906e-01,9.624604582786560059e-01,9.624131917953491211e-01,9.623658061027526855e-01,9.623185992240905762e-01,9.622713327407836914e-01,9.622240662574768066e-01,9.621767401695251465e-01,9.621295332908630371e-01,9.620822668075561523e-01,9.620349407196044922e-01,9.619877338409423828e-01,9.619405269622802734e-01,9.618932008743286133e-01,9.618459939956665039e-01,9.617987871170043945e-01,9.617515206336975098e-01,9.617043137550354004e-01,9.616571068763732910e-01,9.616099596023559570e-01,9.615626335144042969e-01,9.615154862403869629e-01,9.614683389663696289e-01,9.614210128784179688e-01,9.613738656044006348e-01,9.613267183303833008e-01,9.612794518470764160e-01,9.612323045730590820e-01,9.611851572990417480e-01,9.611379504203796387e-01,9.610908031463623047e-01,9.610437154769897461e-01,9.609965682029724121e-01,9.609493613243103027e-01,9.609022140502929688e-01,9.608551263809204102e-01,9.608079195022583008e-01,9.607608318328857422e-01,9.607136845588684082e-01,9.606665372848510742e-01,9.606194496154785156e-01,9.605723619461059570e-01,9.605251550674438477e-01,9.604780673980712891e-01,9.604310393333435059e-01,9.603839516639709473e-01,9.603368043899536133e-01,9.602897763252258301e-01,9.602426886558532715e-01,9.601955413818359375e-01,9.601485133171081543e-01,9.601014852523803711e-01,9.600543379783630371e-01,9.600073099136352539e-01,9.599602818489074707e-01,9.599131941795349121e-01,9.598661661148071289e-01,9.598191380500793457e-01,9.597721695899963379e-01,9.597250223159790039e-01,9.596780538558959961e-01,9.596310853958129883e-01,9.595839381217956543e-01,9.595369696617126465e-01,9.594900012016296387e-01,9.594429135322570801e-01,9.593959450721740723e-01,9.593489766120910645e-01,9.593019485473632812e-01,9.592549800872802734e-01,9.592080712318420410e-01,9.591611027717590332e-01,9.591140747070312500e-01,9.590671062469482422e-01,9.590201973915100098e-01,9.589731693267822266e-01,9.589262604713439941e-01,9.588792920112609863e-01,9.588323235511779785e-01
9.103704690933227539e-01,9.103282094001770020e-01,9.102859497070312500e-01,9.102435708045959473e-01,9.102013111114501953e-01,9.101589918136596680e-01,9.101167321205139160e-01,9.100744128227233887e-01,9.100321531295776367e-01,9.099898934364318848e-01,9.099475145339965820e-01,9.099053144454956055e-01,9.098630547523498535e-01,9.098207354545593262e-01,9.097784757614135742e-01,9.097362756729125977e-01,9.096939563751220703e-01,9.096516966819763184e-01,9.096094965934753418e-01,9.095672965049743652e-01,9.095249772071838379e-01,9.094827771186828613e-01,9.094405770301818848e-01,9.093982577323913574e-01,9.093560576438903809e-01,9.093139171600341797e-01,9.092715978622436523e-01,9.092293977737426758e-01,9.091872572898864746e-01,9.091450572013854980e-01,9.091027975082397461e-01,9.090606570243835449e-01,9.090184569358825684e-01,9.089761972427368164e-01,9.089340567588806152e-01,9.088919162750244141e-01,9.088496565818786621e-01,9.088075160980224609e-01,9.087653756141662598e-01,9.087231755256652832e-01,9.086810350418090820e-01,9.086388945579528809e-01,9.085968136787414551e-01,9.085545539855957031e-01,9.085124731063842773e-01,9.084703326225280762e-01,9.084281325340270996e-01,9.083860516548156738e-01,9.083439111709594727e-01,9.083017706871032715e-01,9.082596302032470703e-01,9.082175493240356445e-01,9.081754088401794434e-01,9.081333279609680176e-01,9.080912470817565918e-01,9.080491662025451660e-01,9.080069661140441895e-01,9.079649448394775391e-01,9.079228639602661133e-01,9.078807234764099121e-01,9.078386425971984863e-01,9.077966213226318359e-01,9.077544808387756348e-01,9.077123999595642090e-01,9.076703786849975586e-01,9.076282382011413574e-01,9.075862169265747070e-01,9.075441956520080566e-01,9.075021743774414062e-01,9.074600934982299805e-01,9.074180722236633301e-01,9.073760509490966797e-01,9.073339700698852539e-01,9.072919487953186035e-01,9.072499275207519531e-01,9.072078466415405273e-01,9.071658849716186523e-01,9.071238636970520020e-01,9.070817828178405762e-01,9.070398211479187012e-01
8.635533452033996582e-01,8.635152578353881836e-01,8.634772300720214844e-01,8.634390830993652344e-01,8.634010553359985352e-01,8.633630275726318359e-01,8.633249402046203613e-01,8.632869124412536621e-01,8.632488846778869629e-01,8.632107377052307129e-01,8.631727695465087891e-01,8.631347417831420898e-01,8.630966544151306152e-01,8.630586266517639160e-01,8.630206584930419922e-01,8.629826307296752930e-01,8.629445433616638184e-01,8.629065752029418945e-01,8.628685474395751953e-01,8.628304600715637207e-01,8.627924919128417969e-01,8.627545237541198730e-01,8.627164363861083984e-01,8.626784682273864746e-01,8.626405000686645508e-01,8.626024723052978516e-01,8.625645041465759277e-01,8.625265359878540039e-01,8.624885678291320801e-01,8.624505400657653809e-01,8.624125719070434570e-01,8.623746633529663086e-01,8.623366355895996094e-01,8.622986674308776855e-01,8.622607588768005371e-01,8.622227311134338379e-01,8.621847629547119141e-01,8.621468544006347656e-01,8.621088266372680664e-01,8.620709180831909180e-01,8.620330095291137695e-01,8.619951009750366211e-01,8.619571328163146973e-01,8.619192242622375488e-01,8.618813157081604004e-01,8.618432879447937012e-01,8.618054389953613281e-01,8.617675304412841797e-01,8.617295622825622559e-01,8.616916537284851074e-01,8.616538047790527344e-01,8.616158366203308105e-01,8.615779280662536621e-01,8.615400791168212891e-01,8.615021705627441406e-01,8.614642620086669922e-01,8.614263534545898438e-01,8.613885045051574707e-01,8.613505959510803223e-01,8.613127470016479492e-01,8.612748384475708008e-01,8.612369298934936523e-01,8.611990809440612793e-01,8.611612319946289062e-01,8.611233234405517578e-01,8.610854744911193848e-01,8.610476851463317871e-01,8.610098361968994141e-01,8.609719276428222656e-01,8.609341382980346680e-01,8.608962893486022949e-01,8.608583807945251465e-01,8.608205914497375488e-01,8.607828021049499512e-01,8.607448935508728027e-01,8.607071042060852051e-01,8.606693148612976074e-01,8.606314063072204590e-01,8.605936169624328613e-01,8.605558276176452637e-01
8.213159441947937012e-01,8.212814927101135254e-01,8.212470412254333496e-01,8.212125897407531738e-01,8.211781978607177734e-01,8.211436867713928223e-01,8.211092948913574219e-01,8.210749030113220215e-01,8.210404515266418457e-01,8.210060596466064453e-01,8.209716677665710449e-01,8.209372162818908691e-01,8.209028244018554688e-01,8.208684325218200684e-01,8.208340406417846680e-01,8.207995891571044922e-01,8.207652568817138672e-01,8.207308650016784668e-01,8.206964135169982910e-01,8.206620216369628906e-01,8.206276893615722656e-01,8.205932378768920898e-01,8.205589056015014648e-01,8.205245733261108398e-01,8.204901218414306641e-01,8.204557895660400391e-01,8.204214572906494141e-01,8.203870654106140137e-01,8.203526735305786133e-01,8.203183412551879883e-01,8.202840089797973633e-01,8.202496170997619629e-01,8.202152848243713379e-01,8.201809525489807129e-01,8.201465606689453125e-01,8.201122283935546875e-01,8.200778961181640625e-01,8.200435042381286621e-01,8.200092315673828125e-01,8.199748992919921875e-01,8.199406266212463379e-01,8.199062347412109375e-01,8.198719024658203125e-01,8.198376297950744629e-01,8.198032379150390625e-01,8.197689652442932129e-01,8.197346925735473633e-01,8.197003006935119629e-01,8.196660280227661133e-01,8.196317553520202637e-01,8.195974230766296387e-01,8.195631504058837891e-01,8.195288777351379395e-01,8.194946050643920898e-01,8.194602727890014648e-01,8.194260001182556152e-01,8.193917274475097656e-01,8.193573951721191406e-01,8.193231225013732910e-01,8.192889094352722168e-01,8.192545771598815918e-01,8.192203640937805176e-01,8.191860914230346680e-01,8.191517591476440430e-01,8.191175460815429688e-01,8.190833330154418945e-01,8.190490603446960449e-01,8.190147876739501953e-01,8.189805746078491211e-01,8.189463615417480469e-01,8.189120292663574219e-01,8.188778162002563477e-01,8.188436031341552734e-01,8.188093304634094238e-01,8.187751173973083496e-01,8.187409043312072754e-01,8.187066912651062012e-01,8.186724185943603516e-01,8.186382055282592773e-01,8.186040520668029785e-01
7.830176353454589844e-01,7.829862833023071289e-01,7.829549908638000488e-01,7.829237580299377441e-01,7.828924059867858887e-01,7.828611135482788086e-01,7.828298211097717285e-01,7.827985286712646484e-01,7.827672362327575684e-01,7.827360033988952637e-01,7.827046513557434082e-01,7.826734185218811035e-01,7.826421260833740234e-01,7.826108932495117188e-01,7.825795412063598633e-01,7.825483083724975586e-01,7.825170755386352539e-01,7.824857831001281738e-01,7.824545502662658691e-01,7.824232578277587891e-01,7.823919653892517090e-01,7.823607325553894043e-01,7.823294997215270996e-01,7.822982668876647949e-01,7.822669744491577148e-01,7.822358012199401855e-01,7.822045683860778809e-01,7.821732759475708008e-01,7.821420431137084961e-01,7.821108698844909668e-01,7.820795774459838867e-01,7.820483446121215820e-01,7.820171713829040527e-01,7.819858789443969727e-01,7.819546461105346680e-01,7.819234728813171387e-01,7.818922996520996094e-01,7.818610072135925293e-01,7.818298339843750000e-01,7.817986607551574707e-01,7.817673683166503906e-01,7.817361950874328613e-01,7.817050218582153320e-01,7.816737890243530273e-01,7.816426157951354980e-01,7.816114425659179688e-01,7.815802097320556641e-01,7.815490365028381348e-01,7.815178632736206055e-01,7.814866900444030762e-01,7.814554572105407715e-01,7.814242839813232422e-01,7.813931703567504883e-01,7.813619375228881836e-01,7.813307642936706543e-01,7.812996506690979004e-01,7.812684178352355957e-01,7.812373042106628418e-01,7.812061309814453125e-01,7.811749577522277832e-01,7.811437845230102539e-01,7.811126708984375000e-01,7.810815572738647461e-01,7.810503244400024414e-01,7.810192108154296875e-01,7.809880971908569336e-01,7.809569239616394043e-01,7.809257507324218750e-01,7.808946371078491211e-01,7.808634638786315918e-01,7.808323502540588379e-01,7.808012366294860840e-01,7.807700634002685547e-01,7.807390093803405762e-01,7.807078957557678223e-01,7.806767821311950684e-01,7.806456089019775391e-01,7.806145548820495605e-01,7.805834412574768066e-01,7.805522680282592773e-01
7.481318712234497070e-01,7.481033205986022949e-01,7.480747699737548828e-01,7.480461597442626953e-01,7.480176091194152832e-01,7.479890584945678711e-01,7.479604482650756836e-01,7.479318976402282715e-01,7.479033470153808594e-01,7.478747963905334473e-01,7.478461861610412598e-01,7.478176951408386230e-01,7.477891445159912109e-01,7.477605342864990234e-01,7.477320432662963867e-01,7.477034926414489746e-01,7.476748824119567871e-01,7.476463913917541504e-01,7.476178407669067383e-01,7.475892901420593262e-01,7.475607395172119141e-01,7.475322484970092773e-01,7.475037574768066406e-01,7.474751472473144531e-01,7.474466562271118164e-01,7.474181652069091797e-01,7.473896145820617676e-01,7.473610639572143555e-01,7.473325729370117188e-01,7.473040223121643066e-01,7.472755312919616699e-01,7.472470402717590332e-01,7.472184896469116211e-01,7.471899986267089844e-01,7.471615076065063477e-01,7.471330165863037109e-01,7.471044659614562988e-01,7.470760345458984375e-01,7.470475435256958008e-01,7.470189929008483887e-01,7.469905614852905273e-01,7.469620704650878906e-01,7.469335198402404785e-01,7.469050884246826172e-01,7.468765974044799805e-01,7.468481063842773438e-01,7.468196153640747070e-01,7.467911839485168457e-01,7.467626929283142090e-01,7.467342019081115723e-01,7.467057108879089355e-01,7.466772794723510742e-01,7.466487884521484375e-01,7.466203570365905762e-01,7.465919256210327148e-01,7.465633749961853027e-01,7.465349435806274414e-01,7.465065121650695801e-01,7.464780211448669434e-01,7.464495897293090820e-01,7.464211583137512207e-01,7.463927268981933594e-01,7.463642358779907227e-01,7.463358044624328613e-01,7.463074326515197754e-01,7.462789416313171387e-01,7.462505102157592773e-01,7.462220788002014160e-01,7.461936473846435547e-01,7.461652159690856934e-01,7.461367845535278320e-01,7.461083531379699707e-01,7.460799217224121094e-01,7.460515499114990234e-01,7.460231184959411621e-01,7.459946870803833008e-01,7.459662556648254395e-01,7.459378838539123535e-01,7.459094524383544922e-01,7.458810806274414062e-01
7.162221074104309082e-01,7.161959409713745117e-01,7.161697149276733398e-01,7.161435484886169434e-01,7.161173820495605469e-01,7.160911560058593750e-01,7.160649895668029785e-01,7.160388231277465820e-01,7.160126566886901855e-01,7.159864306449890137e-01,7.159602642059326172e-01,7.159340977668762207e-01,7.159079313278198242e-01,7.158817648887634277e-01,7.158555984497070312e-01,7.158294320106506348e-01,7.158032655715942383e-01,7.157771587371826172e-01,7.157509326934814453e-01,7.157247662544250488e-01,7.156986594200134277e-01,7.156725525856018066e-01,7.156463265419006348e-01,7.156202197074890137e-01,7.155940532684326172e-01,7.155678868293762207e-01,7.155417799949645996e-01,7.155156135559082031e-01,7.154894471168518066e-01,7.154633402824401855e-01,7.154372334480285645e-01,7.154110670089721680e-01,7.153849601745605469e-01,7.153588533401489258e-01,7.153327465057373047e-01,7.153065800666809082e-01,7.152804732322692871e-01,7.152543663978576660e-01,7.152281999588012695e-01,7.152020931243896484e-01,7.151759862899780273e-01,7.151498198509216309e-01,7.151237130165100098e-01,7.150976657867431641e-01,7.150714993476867676e-01,7.150453925132751465e-01,7.150193452835083008e-01,7.149932384490966797e-01,7.149670720100402832e-01,7.149410247802734375e-01,7.149149179458618164e-01,7.148888111114501953e-01,7.148627042770385742e-01,7.148366570472717285e-01,7.148105502128601074e-01,7.147844433784484863e-01,7.147583961486816406e-01,7.147322893142700195e-01,7.147061824798583984e-01,7.146801352500915527e-01,7.146540880203247070e-01,7.146279811859130859e-01,7.146019339561462402e-01,7.145758271217346191e-01,7.145497202873229980e-01,7.145236730575561523e-01,7.144976258277893066e-01,7.144715189933776855e-01,7.144454717636108398e-01,7.144194245338439941e-01,7.143934369087219238e-01,7.143673300743103027e-01,7.143412828445434570e-01,7.143152356147766113e-01,7.142891287803649902e-01,7.142631411552429199e-01,7.142370939254760742e-01,7.142109870910644531e-01,7.141849994659423828e-01,7.141589522361755371e-01
6.869230270385742188e-01,6.868989467620849609e-01,6.868748664855957031e-01,6.868507862091064453e-01,6.868266463279724121e-01,6.868025660514831543e-01,6.867785453796386719e-01,6.867544651031494141e-01,6.867303252220153809e-01,6.867062449455261230e-01,6.866822242736816406e-01,6.866580843925476074e-01,6.866340637207031250e-01,6.866099834442138672e-01,6.865859031677246094e-01,6.865618228912353516e-01,6.865378022193908691e-01,6.865137219429016113e-01,6.864896416664123535e-01,6.864655613899230957e-01,6.864415407180786133e-01,6.864174604415893555e-01,6.863933801651000977e-01,6.863693594932556152e-01,6.863452792167663574e-01,6.863212585449218750e-01,6.862972378730773926e-01,6.862731575965881348e-01,6.862490773200988770e-01,6.862250566482543945e-01,6.862010359764099121e-01,6.861769556999206543e-01,6.861529350280761719e-01,6.861289143562316895e-01,6.861048340797424316e-01,6.860808134078979492e-01,6.860567927360534668e-01,6.860327720642089844e-01,6.860087513923645020e-01,6.859847307205200195e-01,6.859606504440307617e-01,6.859366297721862793e-01,6.859126687049865723e-01,6.858886480331420898e-01,6.858645677566528320e-01,6.858406066894531250e-01,6.858165860176086426e-01,6.857925057411193848e-01,6.857685446739196777e-01,6.857445240020751953e-01,6.857205033302307129e-01,6.856964826583862305e-01,6.856725215911865234e-01,6.856485009193420410e-01,6.856244802474975586e-01,6.856005191802978516e-01,6.855764985084533691e-01,6.855524778366088867e-01,6.855285167694091797e-01,6.855045557022094727e-01,6.854804754257202148e-01,6.854565143585205078e-01,6.854325532913208008e-01,6.854085326194763184e-01,6.853845715522766113e-01,6.853606104850769043e-01,6.853365898132324219e-01,6.853126287460327148e-01,6.852886676788330078e-01,6.852647066116333008e-01,6.852406859397888184e-01,6.852167248725891113e-01,6.851927638053894043e-01,6.851687431335449219e-01,6.851447820663452148e-01,6.851208806037902832e-01,6.850968599319458008e-01,6.850728988647460938e-01,6.850489377975463867e-01,6.850249767303466797e-01
6.599268317222595215e-01,6.599046587944030762e-01,6.598824262619018555e-01,6.598601937294006348e-01,6.598379611968994141e-01,6.598157286643981934e-01,6.597934961318969727e-01,6.597712635993957520e-01,6.597490310668945312e-01,6.597268581390380859e-01,6.597045660018920898e-01,6.596823930740356445e-01,6.596601605415344238e-01,6.596379280090332031e-01,6.596156954765319824e-01,6.595935225486755371e-01,6.595713496208190918e-01,6.595490574836730957e-01,6.595268845558166504e-01,6.595047116279602051e-01,6.594824790954589844e-01,6.594602465629577637e-01,6.594380736351013184e-01,6.594158411026000977e-01,6.593936681747436523e-01,6.593714952468872070e-01,6.593492627143859863e-01,6.593270301818847656e-01,6.593048572540283203e-01,6.592826843261718750e-01,6.592604517936706543e-01,6.592382788658142090e-01,6.592161059379577637e-01,6.591938734054565430e-01,6.591717600822448730e-01,6.591495871543884277e-01,6.591273546218872070e-01,6.591051816940307617e-01,6.590830087661743164e-01,6.590607762336730957e-01,6.590386629104614258e-01,6.590164899826049805e-01,6.589943170547485352e-01,6.589720845222473145e-01,6.589499711990356445e-01,6.589277982711791992e-01,6.589056253433227539e-01,6.588834524154663086e-01,6.588612794876098633e-01,6.588391065597534180e-01,6.588169336318969727e-01,6.587948203086853027e-01,6.587725877761840820e-01,6.587504744529724121e-01,6.587283611297607422e-01,6.587061882019042969e-01,6.586840152740478516e-01,6.586618423461914062e-01,6.586397290229797363e-01,6.586175560951232910e-01,6.585954427719116211e-01,6.585732698440551758e-01,6.585510969161987305e-01,6.585289835929870605e-01,6.585068702697753906e-01,6.584846973419189453e-01,6.584625840187072754e-01,6.584404110908508301e-01,6.584182977676391602e-01,6.583961248397827148e-01,6.583740115165710449e-01,6.583518981933593750e-01,6.583297252655029297e-01,6.583076119422912598e-01,6.582855582237243652e-01,6.582633852958679199e-01,6.582412719726562500e-01,6.582191586494445801e-01,6.581969857215881348e-01,6.581748723983764648e-01
6.349723935127258301e-01,6.349518299102783203e-01,6.349312067031860352e-01,6.349106431007385254e-01,6.348900794982910156e-01,6.348694562911987305e-01,6.348488926887512207e-01,6.348283290863037109e-01,6.348077654838562012e-01,6.347871422767639160e-01,6.347665786743164062e-01,6.347460150718688965e-01,6.347253918647766113e-01,6.347048878669738770e-01,6.346843242645263672e-01,6.346637606620788574e-01,6.346431374549865723e-01,6.346226334571838379e-01,6.346020698547363281e-01,6.345814466476440430e-01,6.345609426498413086e-01,6.345403790473937988e-01,6.345198154449462891e-01,6.344992518424987793e-01,6.344786882400512695e-01,6.344581246376037598e-01,6.344375610351562500e-01,6.344170570373535156e-01,6.343964934349060059e-01,6.343759298324584961e-01,6.343554258346557617e-01,6.343348622322082520e-01,6.343142986297607422e-01,6.342937350273132324e-01,6.342732310295104980e-01,6.342526674270629883e-01,6.342321634292602539e-01,6.342115998268127441e-01,6.341910362243652344e-01,6.341705322265625000e-01,6.341500282287597656e-01,6.341294646263122559e-01,6.341089010238647461e-01,6.340883970260620117e-01,6.340678930282592773e-01,6.340473294258117676e-01,6.340268254280090332e-01,6.340063214302062988e-01,6.339857578277587891e-01,6.339652538299560547e-01,6.339447498321533203e-01,6.339241862297058105e-01,6.339036822319030762e-01,6.338831782341003418e-01,6.338626742362976074e-01,6.338421702384948730e-01,6.338216662406921387e-01,6.338011622428894043e-01,6.337805986404418945e-01,6.337600946426391602e-01,6.337396502494812012e-01,6.337190866470336914e-01,6.336985826492309570e-01,6.336781382560729980e-01,6.336576342582702637e-01,6.336370706558227539e-01,6.336166262626647949e-01,6.335961222648620605e-01,6.335755586624145508e-01,6.335551142692565918e-01,6.335346102714538574e-01,6.335141062736511230e-01,6.334936022758483887e-01,6.334731578826904297e-01,6.334526538848876953e-01,6.334321498870849609e-01,6.334117054939270020e-01,6.333912014961242676e-01,6.333706974983215332e-01,6.333502531051635742e-01
6.118364334106445312e-01,6.118173003196716309e-01,6.117981672286987305e-01,6.117790937423706055e-01,6.117599606513977051e-01,6.117408275604248047e-01,6.117217540740966797e-01,6.117026805877685547e-01,6.116835474967956543e-01,6.116644144058227539e-01,6.116453409194946289e-01,6.116262674331665039e-01,6.116071343421936035e-01,6.115880608558654785e-01,6.115689277648925781e-01,6.115498542785644531e-01,6.115307211875915527e-01,6.115116477012634277e-01,6.114925146102905273e-01,6.114734411239624023e-01,6.114543676376342773e-01,6.114352941513061523e-01,6.114162206649780273e-01,6.113971471786499023e-01,6.113780736923217773e-01,6.113589406013488770e-01,6.113398671150207520e-01,6.113207936286926270e-01,6.113016605377197266e-01,6.112826466560363770e-01,6.112635731697082520e-01,6.112444400787353516e-01,6.112253665924072266e-01,6.112063527107238770e-01,6.111872196197509766e-01,6.111681461334228516e-01,6.111491322517395020e-01,6.111300587654113770e-01,6.111109256744384766e-01,6.110919117927551270e-01,6.110728383064270020e-01,6.110537648200988770e-01,6.110346913337707520e-01,6.110156178474426270e-01,6.109965443611145020e-01,6.109775304794311523e-01,6.109584569931030273e-01,6.109393835067749023e-01,6.109203100204467773e-01,6.109012961387634277e-01,6.108822226524353027e-01,6.108631491661071777e-01,6.108441352844238281e-01,6.108250617980957031e-01,6.108059883117675781e-01,6.107869744300842285e-01,6.107679605484008789e-01,6.107488870620727539e-01,6.107298135757446289e-01,6.107107996940612793e-01,6.106917262077331543e-01,6.106727123260498047e-01,6.106536984443664551e-01,6.106346249580383301e-01,6.106155514717102051e-01,6.105965375900268555e-01,6.105775237083435059e-01,6.105584502220153809e-01,6.105394363403320312e-01,6.105204224586486816e-01,6.105013489723205566e-01,6.104823350906372070e-01,6.104633212089538574e-01,6.104443073272705078e-01,6.104252934455871582e-01,6.104062795639038086e-01,6.103872656822204590e-01,6.103681921958923340e-01,6.103491783142089844e-01,6.103301644325256348e-01
5.903271436691284180e-01,5.903093218803405762e-01,5.902915000915527344e-01,5.902737379074096680e-01,5.902559161186218262e-01,5.902381539344787598e-01,5.902203917503356934e-01,5.902025699615478516e-01,5.901848077774047852e-01,5.901669859886169434e-01,5.901492238044738770e-01,5.901314616203308105e-01,5.901136398315429688e-01,5.900958776473999023e-01,5.900781154632568359e-01,5.900603532791137695e-01,5.900425910949707031e-01,5.900247693061828613e-01,5.900070071220397949e-01,5.899892449378967285e-01,5.899714231491088867e-01,5.899536609649658203e-01,5.899358987808227539e-01,5.899181962013244629e-01,5.899003744125366211e-01,5.898826122283935547e-01,5.898648500442504883e-01,5.898470878601074219e-01,5.898293256759643555e-01,5.898115634918212891e-01,5.897938013076782227e-01,5.897760391235351562e-01,5.897582769393920898e-01,5.897405147552490234e-01,5.897227525711059570e-01,5.897050499916076660e-01,5.896872878074645996e-01,5.896695256233215332e-01,5.896517634391784668e-01,5.896340012550354004e-01,5.896162390708923340e-01,5.895985364913940430e-01,5.895807743072509766e-01,5.895630121231079102e-01,5.895452499389648438e-01,5.895275473594665527e-01,5.895097851753234863e-01,5.894920229911804199e-01,5.894743204116821289e-01,5.894565582275390625e-01,5.894387960433959961e-01,5.894210934638977051e-01,5.894033312797546387e-01,5.893855690956115723e-01,5.893678665161132812e-01,5.893501639366149902e-01,5.893324017524719238e-01,5.893146395683288574e-01,5.892969369888305664e-01,5.892791748046875000e-01,5.892614722251892090e-01,5.892437696456909180e-01,5.892260074615478516e-01,5.892083048820495605e-01,5.891905426979064941e-01,5.891728401184082031e-01,5.891550779342651367e-01,5.891373753547668457e-01,5.891196727752685547e-01,5.891019105911254883e-01,5.890842080116271973e-01,5.890665054321289062e-01,5.890488028526306152e-01,5.890311002731323242e-01,5.890133976936340332e-01,5.889956951141357422e-01,5.889779329299926758e-01,5.889602303504943848e-01,5.889425277709960938e-01,5.889248251914978027e-01
5.702787637710571289e-01,5.702621936798095703e-01,5.702455639839172363e-01,5.702289938926696777e-01,5.702123641967773438e-01,5.701957941055297852e-01,5.701791644096374512e-01,5.701625943183898926e-01,5.701459646224975586e-01,5.701293945312500000e-01,5.701127648353576660e-01,5.700961947441101074e-01,5.700796246528625488e-01,5.700629949569702148e-01,5.700464248657226562e-01,5.700298547744750977e-01,5.700132250785827637e-01,5.699966549873352051e-01,5.699800848960876465e-01,5.699634552001953125e-01,5.699468851089477539e-01,5.699303150177001953e-01,5.699137449264526367e-01,5.698971152305603027e-01,5.698805451393127441e-01,5.698639750480651855e-01,5.698473453521728516e-01,5.698307752609252930e-01,5.698142051696777344e-01,5.697976350784301758e-01,5.697810649871826172e-01,5.697644948959350586e-01,5.697479248046875000e-01,5.697313547134399414e-01,5.697147846221923828e-01,5.696982145309448242e-01,5.696816444396972656e-01,5.696650743484497070e-01,5.696485042572021484e-01,5.696319341659545898e-01,5.696153640747070312e-01,5.695987939834594727e-01,5.695822238922119141e-01,5.695656538009643555e-01,5.695490837097167969e-01,5.695325136184692383e-01,5.695159435272216797e-01,5.694994330406188965e-01,5.694828629493713379e-01,5.694662928581237793e-01,5.694497227668762207e-01,5.694332122802734375e-01,5.694165825843811035e-01,5.694000720977783203e-01,5.693835020065307617e-01,5.693669319152832031e-01,5.693504214286804199e-01,5.693338513374328613e-01,5.693173408508300781e-01,5.693007707595825195e-01,5.692842006683349609e-01,5.692676901817321777e-01,5.692511200904846191e-01,5.692345499992370605e-01,5.692180395126342773e-01,5.692014694213867188e-01,5.691849589347839355e-01,5.691683888435363770e-01,5.691518187522888184e-01,5.691353082656860352e-01,5.691187977790832520e-01,5.691022872924804688e-01,5.690857172012329102e-01,5.690692067146301270e-01,5.690526366233825684e-01,5.690361261367797852e-01,5.690195560455322266e-01,5.690030455589294434e-01,5.689864754676818848e-01,5.689699649810791016e-01
