3.100124120712280273e+00,3.178804397583007812e+00,3.261582374572753906e+00,3.348786830902099609e+00,3.440782546997070312e+00,3.537975311279296875e+00,3.640819072723388672e+00,3.749810695648193359e+00,3.865528583526611328e+00,3.988615512847900391e+00,4.119799613952636719e+00,4.259906291961669922e+00,4.409877300262451172e+00,4.570793628692626953e+00,4.743898868560791016e+00,4.930631160736083984e+00,5.000000000000000000e+00,5.000000000000000000e+00,5.000000000000000000e+00,5.000000000000000000e+00,5.000000000000000000e+00,5.000000000000000000e+00,5.000000000000000000e+00,5.000000000000000000e+00,5.000000000000000000e+00,5.000000000000000000e+00,5.000000000000000000e+00,5.000000000000000000e+00,5.000000000000000000e+00,5.000000000000000000e+00,5.000000000000000000e+00,5.000000000000000000e+00,5.000000000000000000e+00,5.000000000000000000e+00,5.000000000000000000e+00,5.000000000000000000e+00,5.000000000000000000e+00,5.000000000000000000e+00,5.000000000000000000e+00,5.000000000000000000e+00,5.000000000000000000e+00,5.000000000000000000e+00,5.000000000000000000e+00,5.000000000000000000e+00,5.000000000000000000e+00,5.000000000000000000e+00,5.000000000000000000e+00,5.000000000000000000e+00,5.000000000000000000e+00,5.000000000000000000e+00,5.000000000000000000e+00,5.000000000000000000e+00,5.000000000000000000e+00,5.000000000000000000e+00,5.000000000000000000e+00,5.000000000000000000e+00,5.000000000000000000e+00,5.000000000000000000e+00,5.000000000000000000e+00,5.000000000000000000e+00,5.000000000000000000e+00,5.000000000000000000e+00,5.000000000000000000e+00,5.000000000000000000e+00,5.000000000000000000e+00,5.000000000000000000e+00,5.000000000000000000e+00,5.000000000000000000e+00,5.000000000000000000e+00,5.000000000000000000e+00,4.840657234191894531e+00,4.682458877563476562e+00,4.534274101257324219e+00,4.395180225372314453e+00,4.264366149902343750e+00,4.141116619110107422e+00,4.024795532226562500e+00,3.914830923080444336e+00,3.810715436935424805e+00,3.711993932723999023e+00
3.100058078765869141e+00,3.178734779357910156e+00,3.261509180068969727e+00,3.348709583282470703e+00,3.440701007843017578e+00,3.537889719009399414e+00,3.640727996826171875e+00,3.749723911285400391e+00,3.865436553955078125e+00,3.988517999649047852e+00,4.119695186614990234e+00,4.259794235229492188e+00,4.409758090972900391e+00,4.570665359497070312e+00,4.743760108947753906e+00,4.930481910705566406e+00,5.000000000000000000e+00,5.000000000000000000e+00,5.000000000000000000e+00,5.000000000000000000e+00,5.000000000000000000e+00,5.000000000000000000e+00,5.000000000000000000e+00,5.000000000000000000e+00,5.000000000000000000e+00,5.000000000000000000e+00,5.000000000000000000e+00,5.000000000000000000e+00,5.000000000000000000e+00,5.000000000000000000e+00,5.000000000000000000e+00,5.000000000000000000e+00,5.000000000000000000e+00,5.000000000000000000e+00,5.000000000000000000e+00,5.000000000000000000e+00,5.000000000000000000e+00,5.000000000000000000e+00,5.000000000000000000e+00,5.000000000000000000e+00,5.000000000000000000e+00,5.000000000000000000e+00,5.000000000000000000e+00,5.000000000000000000e+00,5.000000000000000000e+00,5.000000000000000000e+00,5.000000000000000000e+00,5.000000000000000000e+00,5.000000000000000000e+00,5.000000000000000000e+00,5.000000000000000000e+00,5.000000000000000000e+00,5.000000000000000000e+00,5.000000000000000000e+00,5.000000000000000000e+00,5.000000000000000000e+00,5.000000000000000000e+00,5.000000000000000000e+00,5.000000000000000000e+00,5.000000000000000000e+00,5.000000000000000000e+00,5.000000000000000000e+00,5.000000000000000000e+00,5.000000000000000000e+00,5.000000000000000000e+00,5.000000000000000000e+00,5.000000000000000000e+00,5.000000000000000000e+00,5.000000000000000000e+00,5.000000000000000000e+00,4.840798377990722656e+00,4.682590961456298828e+00,4.534397602081298828e+00,4.395304679870605469e+00,4.264491081237792969e+00,4.141238689422607422e+00,4.024910926818847656e+00,3.914940118789672852e+00,3.810818433761596680e+00,3.712092161178588867e+00
3.099991798400878906e+00,3.178665161132812500e+00,3.261435985565185547e+00,3.348632335662841797e+00,3.440619945526123047e+00,3.537803411483764648e+00,3.640636920928955078e+00,3.749627113342285156e+00,3.865344762802124023e+00,3.988420248031616211e+00,4.119590759277343750e+00,4.259683132171630859e+00,4.409638404846191406e+00,4.570537090301513672e+00,4.743621826171875000e+00,4.930332660675048828e+00,5.000000000000000000e+00,5.000000000000000000e+00,5.000000000000000000e+00,5.000000000000000000e+00,5.000000000000000000e+00,5.000000000000000000e+00,5.000000000000000000e+00,5.000000000000000000e+00,5.000000000000000000e+00,5.000000000000000000e+00,5.000000000000000000e+00,5.000000000000000000e+00,5.000000000000000000e+00,5.000000000000000000e+00,5.000000000000000000e+00,5.000000000000000000e+00,5.000000000000000000e+00,5.000000000000000000e+00,5.000000000000000000e+00,5.000000000000000000e+00,5.000000000000000000e+00,5.000000000000000000e+00,5.000000000000000000e+00,5.000000000000000000e+00,5.000000000000000000e+00,5.000000000000000000e+00,5.000000000000000000e+00,5.000000000000000000e+00,5.000000000000000000e+00,5.000000000000000000e+00,5.000000000000000000e+00,5.000000000000000000e+00,5.000000000000000000e+00,5.000000000000000000e+00,5.000000000000000000e+00,5.000000000000000000e+00,5.000000000000000000e+00,5.000000000000000000e+00,5.000000000000000000e+00,5.000000000000000000e+00,5.000000000000000000e+00,5.000000000000000000e+00,5.000000000000000000e+00,5.000000000000000000e+00,5.000000000000000000e+00,5.000000000000000000e+00,5.000000000000000000e+00,5.000000000000000000e+00,5.000000000000000000e+00,5.000000000000000000e+00,5.000000000000000000e+00,5.000000000000000000e+00,5.000000000000000000e+00,5.000000000000000000e+00,4.840945243835449219e+00,4.682737350463867188e+00,4.534543991088867188e+00,4.395442008972167969e+00,4.264620304107666016e+00,4.141360282897949219e+00,4.025026321411132812e+00,3.915048837661743164e+00,3.810921907424926758e+00,3.712189912796020508e+00
3.099925756454467773e+00,3.178595781326293945e+00,3.261363029479980469e+00,3.348555564880371094e+00,3.440538406372070312e+00,3.537717342376708984e+00,3.640545606613159180e+00,3.749530315399169922e+00,3.865242004394531250e+00,3.988322496414184570e+00,4.119486808776855469e+00,4.259571552276611328e+00,4.409519195556640625e+00,4.570408821105957031e+00,4.743484020233154297e+00,4.930183410644531250e+00,5.000000000000000000e+00,5.000000000000000000e+00,5.000000000000000000e+00,5.000000000000000000e+00,5.000000000000000000e+00,5.000000000000000000e+00,5.000000000000000000e+00,5.000000000000000000e+00,5.000000000000000000e+00,5.000000000000000000e+00,5.000000000000000000e+00,5.000000000000000000e+00,5.000000000000000000e+00,5.000000000000000000e+00,5.000000000000000000e+00,5.000000000000000000e+00,5.000000000000000000e+00,5.000000000000000000e+00,5.000000000000000000e+00,5.000000000000000000e+00,5.000000000000000000e+00,5.000000000000000000e+00,5.000000000000000000e+00,5.000000000000000000e+00,5.000000000000000000e+00,5.000000000000000000e+00,5.000000000000000000e+00,5.000000000000000000e+00,5.000000000000000000e+00,5.000000000000000000e+00,5.000000000000000000e+00,5.000000000000000000e+00,5.000000000000000000e+00,5.000000000000000000e+00,5.000000000000000000e+00,5.000000000000000000e+00,5.000000000000000000e+00,5.000000000000000000e+00,5.000000000000000000e+00,5.000000000000000000e+00,5.000000000000000000e+00,5.000000000000000000e+00,5.000000000000000000e+00,5.000000000000000000e+00,5.000000000000000000e+00,5.000000000000000000e+00,5.000000000000000000e+00,5.000000000000000000e+00,5.000000000000000000e+00,5.000000000000000000e+00,5.000000000000000000e+00,5.000000000000000000e+00,5.000000000000000000e+00,5.000000000000000000e+00,4.841112136840820312e+00,4.682893753051757812e+00,4.534689903259277344e+00,4.395579338073730469e+00,4.264749526977539062e+00,4.141482830047607422e+00,4.025141239166259766e+00,3.915158033370971680e+00,3.811025381088256836e+00,3.712287902832031250e+00
3.099859476089477539e+00,3.178526401519775391e+00,3.261289834976196289e+00,3.348478317260742188e+00,3.440456867218017578e+00,3.537631034851074219e+00,3.640454292297363281e+00,3.749433755874633789e+00,3.865139007568359375e+00,3.988213062286376953e+00,4.119382381439208984e+00,4.259460449218750000e+00,4.409399509429931641e+00,4.570280551910400391e+00,4.743345737457275391e+00,4.930033683776855469e+00,5.000000000000000000e+00,5.000000000000000000e+00,5.000000000000000000e+00,5.000000000000000000e+00,5.000000000000000000e+00,5.000000000000000000e+00,5.000000000000000000e+00,5.000000000000000000e+00,5.000000000000000000e+00,5.000000000000000000e+00,5.000000000000000000e+00,5.000000000000000000e+00,5.000000000000000000e+00,5.000000000000000000e+00,5.000000000000000000e+00,5.000000000000000000e+00,5.000000000000000000e+00,5.000000000000000000e+00,5.000000000000000000e+00,5.000000000000000000e+00,4.895828723907470703e+00,5.000000000000000000e+00,5.000000000000000000e+00,5.000000000000000000e+00,5.000000000000000000e+00,5.000000000000000000e+00,5.000000000000000000e+00,5.000000000000000000e+00,5.000000000000000000e+00,5.000000000000000000e+00,5.000000000000000000e+00,5.000000000000000000e+00,5.000000000000000000e+00,5.000000000000000000e+00,5.000000000000000000e+00,5.000000000000000000e+00,5.000000000000000000e+00,5.000000000000000000e+00,5.000000000000000000e+00,5.000000000000000000e+00,5.000000000000000000e+00,5.000000000000000000e+00,5.000000000000000000e+00,5.000000000000000000e+00,5.000000000000000000e+00,5.000000000000000000e+00,5.000000000000000000e+00,5.000000000000000000e+00,5.000000000000000000e+00,5.000000000000000000e+00,5.000000000000000000e+00,5.000000000000000000e+00,5.000000000000000000e+00,5.000000000000000000e+00,4.841278553009033203e+00,4.683049678802490234e+00,4.534836292266845703e+00,4.395716667175292969e+00,4.264878749847412109e+00,4.141604423522949219e+00,4.025256633758544922e+00,3.915267229080200195e+00,3.811128377914428711e+00,3.712386131286621094e+00
3.099793672561645508e+00,3.178456783294677734e+00,3.261216640472412109e+00,3.348401069641113281e+00,3.440375328063964844e+00,3.537544965744018555e+00,3.640363216400146484e+00,3.749336957931518555e+00,3.865036249160766602e+00,3.988103628158569336e+00,4.119266033172607422e+00,4.259348869323730469e+00,4.409280300140380859e+00,4.570152282714843750e+00,4.743207454681396484e+00,4.929884433746337891e+00,5.000000000000000000e+00,5.000000000000000000e+00,5.000000000000000000e+00,5.000000000000000000e+00,5.000000000000000000e+00,5.000000000000000000e+00,5.000000000000000000e+00,5.000000000000000000e+00,5.000000000000000000e+00,5.000000000000000000e+00,5.000000000000000000e+00,5.000000000000000000e+00,5.000000000000000000e+00,5.000000000000000000e+00,5.000000000000000000e+00,5.000000000000000000e+00,5.000000000000000000e+00,5.000000000000000000e+00,5.000000000000000000e+00,4.943299770355224609e+00,4.889591217041015625e+00,5.000000000000000000e+00,5.000000000000000000e+00,5.000000000000000000e+00,5.000000000000000000e+00,5.000000000000000000e+00,5.000000000000000000e+00,5.000000000000000000e+00,5.000000000000000000e+00,5.000000000000000000e+00,5.000000000000000000e+00,5.000000000000000000e+00,5.000000000000000000e+00,5.000000000000000000e+00,5.000000000000000000e+00,5.000000000000000000e+00,5.000000000000000000e+00,5.000000000000000000e+00,5.000000000000000000e+00,5.000000000000000000e+00,5.000000000000000000e+00,5.000000000000000000e+00,5.000000000000000000e+00,5.000000000000000000e+00,5.000000000000000000e+00,5.000000000000000000e+00,5.000000000000000000e+00,5.000000000000000000e+00,5.000000000000000000e+00,5.000000000000000000e+00,5.000000000000000000e+00,5.000000000000000000e+00,5.000000000000000000e+00,5.000000000000000000e+00,4.841445446014404297e+00,4.683205604553222656e+00,4.534982681274414062e+00,4.395853996276855469e+00,4.265008449554443359e+00,4.141726493835449219e+00,4.025372028350830078e+00,3.915375947952270508e+00,3.811231851577758789e+00,3.712483882904052734e+00
3.099727630615234375e+00,3.178387403488159180e+00,3.261143445968627930e+00,3.348324060440063477e+00,3.440294027328491211e+00,3.537458896636962891e+00,3.640271902084350586e+00,3.749240159988403320e+00,3.864933490753173828e+00,3.987993955612182617e+00,4.119149208068847656e+00,4.259224414825439453e+00,4.409160614013671875e+00,4.570024013519287109e+00,4.743069171905517578e+00,4.929735183715820312e+00,5.000000000000000000e+00,5.000000000000000000e+00,5.000000000000000000e+00,5.000000000000000000e+00,5.000000000000000000e+00,5.000000000000000000e+00,5.000000000000000000e+00,5.000000000000000000e+00,5.000000000000000000e+00,5.000000000000000000e+00,5.000000000000000000e+00,5.000000000000000000e+00,5.000000000000000000e+00,5.000000000000000000e+00,5.000000000000000000e+00,5.000000000000000000e+00,5.000000000000000000e+00,5.000000000000000000e+00,5.000000000000000000e+00,5.000000000000000000e+00,4.926303386688232422e+00,4.960572719573974609e+00,5.000000000000000000e+00,5.000000000000000000e+00,5.000000000000000000e+00,5.000000000000000000e+00,5.000000000000000000e+00,5.000000000000000000e+00,5.000000000000000000e+00,5.000000000000000000e+00,5.000000000000000000e+00,5.000000000000000000e+00,5.000000000000000000e+00,5.000000000000000000e+00,5.000000000000000000e+00,5.000000000000000000e+00,5.000000000000000000e+00,5.000000000000000000e+00,5.000000000000000000e+00,5.000000000000000000e+00,5.000000000000000000e+00,5.000000000000000000e+00,5.000000000000000000e+00,5.000000000000000000e+00,5.000000000000000000e+00,5.000000000000000000e+00,5.000000000000000000e+00,5.000000000000000000e+00,5.000000000000000000e+00,5.000000000000000000e+00,5.000000000000000000e+00,5.000000000000000000e+00,5.000000000000000000e+00,5.000000000000000000e+00,4.841612339019775391e+00,4.683361530303955078e+00,4.535129070281982422e+00,4.395991325378417969e+00,4.265137672424316406e+00,4.141848564147949219e+00,4.025486946105957031e+00,3.915485143661499023e+00,3.811335325241088867e+00,3.712582111358642578e+00
3.099661350250244141e+00,3.178317785263061523e+00,3.261070013046264648e+00,3.348246812820434570e+00,3.440212488174438477e+00,3.537372589111328125e+00,3.640180587768554688e+00,3.749143362045288086e+00,3.864830493927001953e+00,3.987884521484375000e+00,4.119032382965087891e+00,4.259099483489990234e+00,4.409027576446533203e+00,4.569895267486572266e+00,4.742930889129638672e+00,4.929585933685302734e+00,5.000000000000000000e+00,5.000000000000000000e+00,5.000000000000000000e+00,5.000000000000000000e+00,5.000000000000000000e+00,5.000000000000000000e+00,5.000000000000000000e+00,5.000000000000000000e+00,5.000000000000000000e+00,5.000000000000000000e+00,5.000000000000000000e+00,5.000000000000000000e+00,5.000000000000000000e+00,5.000000000000000000e+00,5.000000000000000000e+00,5.000000000000000000e+00,5.000000000000000000e+00,5.000000000000000000e+00,5.000000000000000000e+00,5.000000000000000000e+00,4.874606132507324219e+00,4.813508033752441406e+00,4.784477233886718750e+00,5.000000000000000000e+00,5.000000000000000000e+00,5.000000000000000000e+00,5.000000000000000000e+00,5.000000000000000000e+00,5.000000000000000000e+00,5.000000000000000000e+00,5.000000000000000000e+00,5.000000000000000000e+00,5.000000000000000000e+00,5.000000000000000000e+00,5.000000000000000000e+00,5.000000000000000000e+00,5.000000000000000000e+00,5.000000000000000000e+00,5.000000000000000000e+00,5.000000000000000000e+00,5.000000000000000000e+00,5.000000000000000000e+00,5.000000000000000000e+00,5.000000000000000000e+00,5.000000000000000000e+00,5.000000000000000000e+00,5.000000000000000000e+00,5.000000000000000000e+00,5.000000000000000000e+00,5.000000000000000000e+00,5.000000000000000000e+00,5.000000000000000000e+00,5.000000000000000000e+00,5.000000000000000000e+00,4.841778755187988281e+00,4.683517456054687500e+00,4.535274982452392578e+00,4.396129131317138672e+00,4.265267372131347656e+00,4.141970634460449219e+00,4.025602340698242188e+00,3.915594339370727539e+00,3.811438322067260742e+00,3.712680339813232422e+00
3.099595308303833008e+00,3.178248167037963867e+00,3.260996818542480469e+00,3.348169565200805664e+00,3.440130949020385742e+00,3.537286520004272461e+00,3.640089511871337891e+00,3.749046564102172852e+00,3.864727735519409180e+00,3.987775087356567383e+00,4.118915557861328125e+00,4.258974552154541016e+00,4.408894062042236328e+00,4.569752693176269531e+00,4.742793083190917969e+00,4.929436683654785156e+00,5.000000000000000000e+00,5.000000000000000000e+00,5.000000000000000000e+00,5.000000000000000000e+00,5.000000000000000000e+00,5.000000000000000000e+00,5.000000000000000000e+00,5.000000000000000000e+00,5.000000000000000000e+00,5.000000000000000000e+00,5.000000000000000000e+00,5.000000000000000000e+00,5.000000000000000000e+00,5.000000000000000000e+00,5.000000000000000000e+00,5.000000000000000000e+00,5.000000000000000000e+00,5.000000000000000000e+00,5.000000000000000000e+00,4.905705928802490234e+00,4.827949523925781250e+00,4.826667785644531250e+00,4.791409015655517578e+00,5.000000000000000000e+00,5.000000000000000000e+00,5.000000000000000000e+00,5.000000000000000000e+00,5.000000000000000000e+00,5.000000000000000000e+00,5.000000000000000000e+00,5.000000000000000000e+00,5.000000000000000000e+00,5.000000000000000000e+00,5.000000000000000000e+00,5.000000000000000000e+00,5.000000000000000000e+00,5.000000000000000000e+00,5.000000000000000000e+00,5.000000000000000000e+00,5.000000000000000000e+00,5.000000000000000000e+00,5.000000000000000000e+00,5.000000000000000000e+00,5.000000000000000000e+00,5.000000000000000000e+00,5.000000000000000000e+00,5.000000000000000000e+00,5.000000000000000000e+00,5.000000000000000000e+00,5.000000000000000000e+00,5.000000000000000000e+00,5.000000000000000000e+00,5.000000000000000000e+00,5.000000000000000000e+00,4.841945648193359375e+00,4.683673381805419922e+00,4.535421371459960938e+00,4.396266460418701172e+00,4.265396595001220703e+00,4.142092704772949219e+00,4.025717735290527344e+00,3.915703058242797852e+00,3.811541795730590820e+00,3.712778091430664062e+00
3.099490404129028320e+00,3.178160905838012695e+00,3.260923624038696289e+00,3.348092317581176758e+00,3.440049409866333008e+00,3.537200450897216797e+00,3.639998197555541992e+00,3.748949766159057617e+00,3.864625453948974609e+00,3.987666130065917969e+00,4.118798732757568359e+00,4.258849620819091797e+00,4.408760070800781250e+00,4.569609165191650391e+00,4.742639541625976562e+00,4.929287433624267578e+00,5.000000000000000000e+00,5.000000000000000000e+00,5.000000000000000000e+00,5.000000000000000000e+00,5.000000000000000000e+00,5.000000000000000000e+00,5.000000000000000000e+00,5.000000000000000000e+00,5.000000000000000000e+00,5.000000000000000000e+00,5.000000000000000000e+00,5.000000000000000000e+00,5.000000000000000000e+00,5.000000000000000000e+00,5.000000000000000000e+00,5.000000000000000000e+00,5.000000000000000000e+00,5.000000000000000000e+00,5.000000000000000000e+00,4.890681743621826172e+00,4.841649532318115234e+00,4.850269794464111328e+00,4.797824859619140625e+00,5.000000000000000000e+00,5.000000000000000000e+00,5.000000000000000000e+00,5.000000000000000000e+00,5.000000000000000000e+00,5.000000000000000000e+00,5.000000000000000000e+00,5.000000000000000000e+00,5.000000000000000000e+00,5.000000000000000000e+00,5.000000000000000000e+00,5.000000000000000000e+00,5.000000000000000000e+00,5.000000000000000000e+00,5.000000000000000000e+00,5.000000000000000000e+00,5.000000000000000000e+00,5.000000000000000000e+00,5.000000000000000000e+00,5.000000000000000000e+00,5.000000000000000000e+00,5.000000000000000000e+00,5.000000000000000000e+00,5.000000000000000000e+00,5.000000000000000000e+00,5.000000000000000000e+00,5.000000000000000000e+00,5.000000000000000000e+00,5.000000000000000000e+00,5.000000000000000000e+00,5.000000000000000000e+00,4.842112541198730469e+00,4.683829784393310547e+00,4.535567760467529297e+00,4.396403789520263672e+00,4.265525817871093750e+00,4.142214775085449219e+00,4.025832653045654297e+00,3.915812253952026367e+00,3.811645269393920898e+00,3.712876319885253906e+00
3.099374771118164062e+00,3.178039312362670898e+00,3.260801076889038086e+00,3.347988128662109375e+00,3.439966201782226562e+00,3.537114381790161133e+00,3.639907121658325195e+00,3.748853445053100586e+00,3.864522457122802734e+00,3.987556695938110352e+00,4.118682384490966797e+00,4.258725166320800781e+00,4.408626556396484375e+00,4.569465637207031250e+00,4.742484569549560547e+00,4.929122447967529297e+00,5.000000000000000000e+00,5.000000000000000000e+00,5.000000000000000000e+00,5.000000000000000000e+00,5.000000000000000000e+00,5.000000000000000000e+00,5.000000000000000000e+00,5.000000000000000000e+00,5.000000000000000000e+00,5.000000000000000000e+00,5.000000000000000000e+00,5.000000000000000000e+00,5.000000000000000000e+00,5.000000000000000000e+00,5.000000000000000000e+00,5.000000000000000000e+00,5.000000000000000000e+00,5.000000000000000000e+00,5.000000000000000000e+00,4.889470100402832031e+00,4.839048862457275391e+00,4.860701084136962891e+00,4.808410644531250000e+00,5.000000000000000000e+00,5.000000000000000000e+00,5.000000000000000000e+00,5.000000000000000000e+00,5.000000000000000000e+00,5.000000000000000000e+00,5.000000000000000000e+00,5.000000000000000000e+00,5.000000000000000000e+00,5.000000000000000000e+00,5.000000000000000000e+00,5.000000000000000000e+00,5.000000000000000000e+00,5.000000000000000000e+00,5.000000000000000000e+00,5.000000000000000000e+00,5.000000000000000000e+00,5.000000000000000000e+00,5.000000000000000000e+00,5.000000000000000000e+00,5.000000000000000000e+00,5.000000000000000000e+00,5.000000000000000000e+00,5.000000000000000000e+00,5.000000000000000000e+00,5.000000000000000000e+00,5.000000000000000000e+00,5.000000000000000000e+00,5.000000000000000000e+00,5.000000000000000000e+00,5.000000000000000000e+00,4.842278957366943359e+00,4.683985710144042969e+00,4.535714149475097656e+00,4.396541595458984375e+00,4.265655517578125000e+00,4.142336845397949219e+00,4.025948047637939453e+00,3.915921449661254883e+00,3.811748504638671875e+00,3.712974309921264648e+00
3.099270343780517578e+00,3.177917718887329102e+00,3.260673046112060547e+00,3.347853183746337891e+00,3.439823865890502930e+00,3.536990165710449219e+00,3.639805078506469727e+00,3.748756647109985352e+00,3.864419698715209961e+00,3.987447261810302734e+00,4.118565559387207031e+00,4.258600234985351562e+00,4.408492565155029297e+00,4.569322109222412109e+00,4.742330074310302734e+00,4.928955078125000000e+00,5.000000000000000000e+00,5.000000000000000000e+00,5.000000000000000000e+00,5.000000000000000000e+00,5.000000000000000000e+00,5.000000000000000000e+00,5.000000000000000000e+00,5.000000000000000000e+00,5.000000000000000000e+00,5.000000000000000000e+00,5.000000000000000000e+00,5.000000000000000000e+00,5.000000000000000000e+00,5.000000000000000000e+00,5.000000000000000000e+00,5.000000000000000000e+00,5.000000000000000000e+00,5.000000000000000000e+00,5.000000000000000000e+00,4.882641315460205078e+00,4.828881263732910156e+00,4.849926948547363281e+00,4.798916816711425781e+00,5.000000000000000000e+00,5.000000000000000000e+00,5.000000000000000000e+00,5.000000000000000000e+00,5.000000000000000000e+00,5.000000000000000000e+00,5.000000000000000000e+00,5.000000000000000000e+00,5.000000000000000000e+00,5.000000000000000000e+00,5.000000000000000000e+00,5.000000000000000000e+00,5.000000000000000000e+00,5.000000000000000000e+00,5.000000000000000000e+00,5.000000000000000000e+00,5.000000000000000000e+00,5.000000000000000000e+00,5.000000000000000000e+00,5.000000000000000000e+00,5.000000000000000000e+00,5.000000000000000000e+00,5.000000000000000000e+00,5.000000000000000000e+00,5.000000000000000000e+00,5.000000000000000000e+00,5.000000000000000000e+00,5.000000000000000000e+00,5.000000000000000000e+00,5.000000000000000000e+00,5.000000000000000000e+00,4.842445850372314453e+00,4.684141635894775391e+00,4.535860538482666016e+00,4.396678924560546875e+00,4.265784740447998047e+00,4.142458438873291016e+00,4.026063442230224609e+00,3.916030406951904297e+00,3.811851978302001953e+00,3.713072299957275391e+00
3.099203824996948242e+00,3.177836894989013672e+00,3.260563850402832031e+00,3.347718238830566406e+00,3.439681291580200195e+00,3.536839485168457031e+00,3.639645576477050781e+00,3.748607635498046875e+00,3.864295005798339844e+00,3.987337589263916016e+00,4.118448734283447266e+00,4.258475303649902344e+00,4.408359050750732422e+00,4.569178104400634766e+00,4.742175102233886719e+00,4.928787708282470703e+00,5.000000000000000000e+00,5.000000000000000000e+00,5.000000000000000000e+00,5.000000000000000000e+00,5.000000000000000000e+00,5.000000000000000000e+00,5.000000000000000000e+00,5.000000000000000000e+00,5.000000000000000000e+00,5.000000000000000000e+00,5.000000000000000000e+00,5.000000000000000000e+00,5.000000000000000000e+00,5.000000000000000000e+00,5.000000000000000000e+00,5.000000000000000000e+00,5.000000000000000000e+00,5.000000000000000000e+00,5.000000000000000000e+00,4.898820877075195312e+00,4.847202777862548828e+00,4.855497837066650391e+00,4.783506870269775391e+00,5.000000000000000000e+00,5.000000000000000000e+00,5.000000000000000000e+00,5.000000000000000000e+00,5.000000000000000000e+00,5.000000000000000000e+00,5.000000000000000000e+00,5.000000000000000000e+00,5.000000000000000000e+00,5.000000000000000000e+00,5.000000000000000000e+00,5.000000000000000000e+00,5.000000000000000000e+00,5.000000000000000000e+00,5.000000000000000000e+00,5.000000000000000000e+00,5.000000000000000000e+00,5.000000000000000000e+00,5.000000000000000000e+00,5.000000000000000000e+00,5.000000000000000000e+00,5.000000000000000000e+00,5.000000000000000000e+00,5.000000000000000000e+00,5.000000000000000000e+00,5.000000000000000000e+00,5.000000000000000000e+00,5.000000000000000000e+00,5.000000000000000000e+00,5.000000000000000000e+00,5.000000000000000000e+00,4.842612743377685547e+00,4.684298038482666016e+00,4.536006927490234375e+00,4.396816253662109375e+00,4.265913963317871094e+00,4.142580986022949219e+00,4.026178836822509766e+00,3.916139602661132812e+00,3.811954975128173828e+00,3.713170289993286133e+00
3.099137783050537109e+00,3.177767276763916016e+00,3.260490655899047852e+00,3.347635746002197266e+00,3.439567565917968750e+00,3.536690711975097656e+00,3.639486074447631836e+00,3.748438358306884766e+00,3.864115238189697266e+00,3.987158536911010742e+00,4.118296146392822266e+00,4.258350849151611328e+00,4.408225059509277344e+00,4.569034576416015625e+00,4.742020606994628906e+00,4.928620338439941406e+00,5.000000000000000000e+00,5.000000000000000000e+00,5.000000000000000000e+00,5.000000000000000000e+00,5.000000000000000000e+00,5.000000000000000000e+00,5.000000000000000000e+00,5.000000000000000000e+00,5.000000000000000000e+00,5.000000000000000000e+00,5.000000000000000000e+00,5.000000000000000000e+00,5.000000000000000000e+00,5.000000000000000000e+00,5.000000000000000000e+00,5.000000000000000000e+00,5.000000000000000000e+00,5.000000000000000000e+00,5.000000000000000000e+00,4.794042110443115234e+00,4.768923759460449219e+00,4.837998867034912109e+00,4.772644996643066406e+00,5.000000000000000000e+00,5.000000000000000000e+00,5.000000000000000000e+00,5.000000000000000000e+00,5.000000000000000000e+00,5.000000000000000000e+00,5.000000000000000000e+00,5.000000000000000000e+00,5.000000000000000000e+00,5.000000000000000000e+00,5.000000000000000000e+00,5.000000000000000000e+00,5.000000000000000000e+00,5.000000000000000000e+00,5.000000000000000000e+00,5.000000000000000000e+00,5.000000000000000000e+00,5.000000000000000000e+00,5.000000000000000000e+00,5.000000000000000000e+00,5.000000000000000000e+00,5.000000000000000000e+00,5.000000000000000000e+00,5.000000000000000000e+00,5.000000000000000000e+00,5.000000000000000000e+00,5.000000000000000000e+00,5.000000000000000000e+00,5.000000000000000000e+00,5.000000000000000000e+00,5.000000000000000000e+00,4.842779636383056641e+00,4.684453964233398438e+00,4.536152839660644531e+00,4.396954059600830078e+00,4.266043663024902344e+00,4.142703056335449219e+00,4.026293754577636719e+00,3.916248798370361328e+00,3.812058448791503906e+00,3.713268518447875977e+00
3.099071264266967773e+00,3.177697420120239258e+00,3.260416984558105469e+00,3.347558259963989258e+00,3.439485549926757812e+00,3.536604166030883789e+00,3.639366865158081055e+00,3.748280048370361328e+00,3.863935232162475586e+00,3.986967086791992188e+00,4.118091583251953125e+00,4.258134841918945312e+00,4.408037662506103516e+00,4.568880081176757812e+00,4.741865634918212891e+00,4.928453445434570312e+00,5.000000000000000000e+00,5.000000000000000000e+00,5.000000000000000000e+00,5.000000000000000000e+00,5.000000000000000000e+00,5.000000000000000000e+00,5.000000000000000000e+00,5.000000000000000000e+00,5.000000000000000000e+00,5.000000000000000000e+00,5.000000000000000000e+00,5.000000000000000000e+00,5.000000000000000000e+00,5.000000000000000000e+00,5.000000000000000000e+00,5.000000000000000000e+00,5.000000000000000000e+00,5.000000000000000000e+00,5.000000000000000000e+00,4.753940105438232422e+00,4.765110969543457031e+00,4.776826381683349609e+00,4.759687900543212891e+00,5.000000000000000000e+00,5.000000000000000000e+00,5.000000000000000000e+00,5.000000000000000000e+00,5.000000000000000000e+00,5.000000000000000000e+00,5.000000000000000000e+00,5.000000000000000000e+00,5.000000000000000000e+00,5.000000000000000000e+00,5.000000000000000000e+00,5.000000000000000000e+00,5.000000000000000000e+00,5.000000000000000000e+00,5.000000000000000000e+00,5.000000000000000000e+00,5.000000000000000000e+00,5.000000000000000000e+00,5.000000000000000000e+00,5.000000000000000000e+00,5.000000000000000000e+00,5.000000000000000000e+00,5.000000000000000000e+00,5.000000000000000000e+00,5.000000000000000000e+00,5.000000000000000000e+00,5.000000000000000000e+00,5.000000000000000000e+00,5.000000000000000000e+00,5.000000000000000000e+00,5.000000000000000000e+00,4.842946052551269531e+00,4.684609889984130859e+00,4.536299705505371094e+00,4.397091388702392578e+00,4.266172885894775391e+00,4.142824649810791016e+00,4.026409626007080078e+00,3.916357517242431641e+00,3.812159061431884766e+00,3.713357686996459961e+00
3.099005222320556641e+00,3.177628040313720703e+00,3.260343790054321289e+00,3.347481250762939453e+00,3.439404249191284180e+00,3.536518096923828125e+00,3.639275789260864258e+00,3.748183488845825195e+00,3.863810539245605469e+00,3.986798524856567383e+00,4.117887496948242188e+00,4.257916450500488281e+00,4.407803535461425781e+00,4.568628787994384766e+00,4.741634368896484375e+00,4.928257942199707031e+00,5.000000000000000000e+00,5.000000000000000000e+00,5.000000000000000000e+00,5.000000000000000000e+00,5.000000000000000000e+00,5.000000000000000000e+00,5.000000000000000000e+00,5.000000000000000000e+00,5.000000000000000000e+00,5.000000000000000000e+00,5.000000000000000000e+00,5.000000000000000000e+00,5.000000000000000000e+00,5.000000000000000000e+00,5.000000000000000000e+00,5.000000000000000000e+00,5.000000000000000000e+00,5.000000000000000000e+00,5.000000000000000000e+00,4.718235492706298828e+00,4.773875236511230469e+00,4.726748466491699219e+00,5.000000000000000000e+00,5.000000000000000000e+00,5.000000000000000000e+00,5.000000000000000000e+00,5.000000000000000000e+00,5.000000000000000000e+00,5.000000000000000000e+00,5.000000000000000000e+00,5.000000000000000000e+00,5.000000000000000000e+00,5.000000000000000000e+00,5.000000000000000000e+00,5.000000000000000000e+00,5.000000000000000000e+00,5.000000000000000000e+00,5.000000000000000000e+00,5.000000000000000000e+00,5.000000000000000000e+00,5.000000000000000000e+00,5.000000000000000000e+00,5.000000000000000000e+00,5.000000000000000000e+00,5.000000000000000000e+00,5.000000000000000000e+00,5.000000000000000000e+00,5.000000000000000000e+00,5.000000000000000000e+00,5.000000000000000000e+00,5.000000000000000000e+00,5.000000000000000000e+00,5.000000000000000000e+00,5.000000000000000000e+00,4.843112945556640625e+00,4.684766292572021484e+00,4.536446094512939453e+00,4.397229194641113281e+00,4.266302585601806641e+00,4.142947196960449219e+00,4.026517868041992188e+00,3.916453599929809570e+00,3.812246799468994141e+00,3.713441133499145508e+00
3.098938703536987305e+00,3.177558183670043945e+00,3.260270357131958008e+00,3.347403764724731445e+00,3.439322471618652344e+00,3.536431789398193359e+00,3.639184236526489258e+00,3.748086214065551758e+00,3.863707304000854492e+00,3.986688613891601562e+00,4.117756366729736328e+00,4.257735252380371094e+00,4.407569885253906250e+00,4.568377494812011719e+00,4.741363048553466797e+00,4.927965641021728516e+00,5.000000000000000000e+00,5.000000000000000000e+00,5.000000000000000000e+00,5.000000000000000000e+00,5.000000000000000000e+00,5.000000000000000000e+00,5.000000000000000000e+00,5.000000000000000000e+00,5.000000000000000000e+00,5.000000000000000000e+00,5.000000000000000000e+00,5.000000000000000000e+00,5.000000000000000000e+00,5.000000000000000000e+00,5.000000000000000000e+00,5.000000000000000000e+00,5.000000000000000000e+00,5.000000000000000000e+00,4.718378543853759766e+00,4.717848300933837891e+00,4.953806877136230469e+00,5.000000000000000000e+00,5.000000000000000000e+00,5.000000000000000000e+00,5.000000000000000000e+00,5.000000000000000000e+00,5.000000000000000000e+00,5.000000000000000000e+00,5.000000000000000000e+00,5.000000000000000000e+00,5.000000000000000000e+00,5.000000000000000000e+00,5.000000000000000000e+00,5.000000000000000000e+00,5.000000000000000000e+00,5.000000000000000000e+00,5.000000000000000000e+00,5.000000000000000000e+00,5.000000000000000000e+00,5.000000000000000000e+00,5.000000000000000000e+00,5.000000000000000000e+00,5.000000000000000000e+00,5.000000000000000000e+00,5.000000000000000000e+00,5.000000000000000000e+00,5.000000000000000000e+00,5.000000000000000000e+00,5.000000000000000000e+00,5.000000000000000000e+00,5.000000000000000000e+00,5.000000000000000000e+00,5.000000000000000000e+00,5.000000000000000000e+00,4.843279838562011719e+00,4.684922218322753906e+00,4.536592006683349609e+00,4.397362232208251953e+00,4.266419887542724609e+00,4.143050670623779297e+00,4.026615619659423828e+00,3.916546344757080078e+00,3.812334299087524414e+00,3.713524103164672852e+00
3.098872661590576172e+00,3.177488565444946289e+00,3.260197162628173828e+00,3.347326517105102539e+00,3.439240932464599609e+00,3.536345481872558594e+00,3.639092922210693359e+00,3.747989654541015625e+00,3.863604545593261719e+00,3.986579179763793945e+00,4.117639541625976562e+00,4.257610321044921875e+00,4.407431602478027344e+00,4.568181991577148438e+00,4.741102218627929688e+00,4.927672863006591797e+00,5.000000000000000000e+00,5.000000000000000000e+00,5.000000000000000000e+00,5.000000000000000000e+00,5.000000000000000000e+00,5.000000000000000000e+00,5.000000000000000000e+00,5.000000000000000000e+00,5.000000000000000000e+00,5.000000000000000000e+00,5.000000000000000000e+00,5.000000000000000000e+00,5.000000000000000000e+00,5.000000000000000000e+00,5.000000000000000000e+00,5.000000000000000000e+00,5.000000000000000000e+00,5.000000000000000000e+00,4.732704162597656250e+00,4.716248512268066406e+00,4.947329521179199219e+00,5.000000000000000000e+00,5.000000000000000000e+00,5.000000000000000000e+00,5.000000000000000000e+00,5.000000000000000000e+00,5.000000000000000000e+00,5.000000000000000000e+00,5.000000000000000000e+00,5.000000000000000000e+00,5.000000000000000000e+00,5.000000000000000000e+00,5.000000000000000000e+00,5.000000000000000000e+00,5.000000000000000000e+00,5.000000000000000000e+00,5.000000000000000000e+00,5.000000000000000000e+00,5.000000000000000000e+00,5.000000000000000000e+00,5.000000000000000000e+00,5.000000000000000000e+00,5.000000000000000000e+00,5.000000000000000000e+00,5.000000000000000000e+00,5.000000000000000000e+00,5.000000000000000000e+00,5.000000000000000000e+00,5.000000000000000000e+00,5.000000000000000000e+00,5.000000000000000000e+00,5.000000000000000000e+00,5.000000000000000000e+00,5.000000000000000000e+00,4.843446254730224609e+00,4.685068607330322266e+00,4.536720752716064453e+00,4.397478580474853516e+00,4.266530036926269531e+00,4.143154144287109375e+00,4.026713371276855469e+00,3.916638612747192383e+00,3.812421798706054688e+00,3.713607549667358398e+00
3.098806381225585938e+00,3.177418708801269531e+00,3.260123729705810547e+00,3.347249031066894531e+00,3.439159154891967773e+00,3.536259174346923828e+00,3.639001369476318359e+00,3.747892379760742188e+00,3.863501310348510742e+00,3.986469268798828125e+00,4.117522716522216797e+00,4.257484912872314453e+00,4.407297611236572266e+00,4.568037986755371094e+00,4.740947246551513672e+00,4.927461147308349609e+00,5.000000000000000000e+00,5.000000000000000000e+00,5.000000000000000000e+00,5.000000000000000000e+00,5.000000000000000000e+00,5.000000000000000000e+00,5.000000000000000000e+00,5.000000000000000000e+00,5.000000000000000000e+00,5.000000000000000000e+00,5.000000000000000000e+00,5.000000000000000000e+00,5.000000000000000000e+00,5.000000000000000000e+00,5.000000000000000000e+00,5.000000000000000000e+00,5.000000000000000000e+00,5.000000000000000000e+00,5.000000000000000000e+00,4.738599777221679688e+00,4.775484085083007812e+00,5.000000000000000000e+00,5.000000000000000000e+00,5.000000000000000000e+00,5.000000000000000000e+00,5.000000000000000000e+00,5.000000000000000000e+00,5.000000000000000000e+00,5.000000000000000000e+00,5.000000000000000000e+00,5.000000000000000000e+00,5.000000000000000000e+00,5.000000000000000000e+00,5.000000000000000000e+00,5.000000000000000000e+00,5.000000000000000000e+00,5.000000000000000000e+00,5.000000000000000000e+00,5.000000000000000000e+00,5.000000000000000000e+00,5.000000000000000000e+00,5.000000000000000000e+00,5.000000000000000000e+00,5.000000000000000000e+00,5.000000000000000000e+00,5.000000000000000000e+00,5.000000000000000000e+00,5.000000000000000000e+00,5.000000000000000000e+00,5.000000000000000000e+00,5.000000000000000000e+00,5.000000000000000000e+00,5.000000000000000000e+00,5.000000000000000000e+00,4.843587875366210938e+00,4.685201168060302734e+00,4.536844730377197266e+00,4.397595405578613281e+00,4.266639709472656250e+00,4.143257617950439453e+00,4.026811122894287109e+00,3.916731119155883789e+00,3.812509775161743164e+00,3.713690757751464844e+00
3.098740100860595703e+00,3.177349328994750977e+00,3.260050535202026367e+00,3.347172021865844727e+00,3.439077854156494141e+00,3.536173105239868164e+00,3.638910293579101562e+00,3.747795820236206055e+00,3.863398551940917969e+00,3.986360073089599609e+00,4.117405414581298828e+00,4.257359981536865234e+00,4.407163619995117188e+00,4.567893981933593750e+00,4.740791797637939453e+00,4.927293777465820312e+00,5.000000000000000000e+00,5.000000000000000000e+00,5.000000000000000000e+00,5.000000000000000000e+00,5.000000000000000000e+00,5.000000000000000000e+00,5.000000000000000000e+00,5.000000000000000000e+00,5.000000000000000000e+00,5.000000000000000000e+00,5.000000000000000000e+00,5.000000000000000000e+00,5.000000000000000000e+00,5.000000000000000000e+00,5.000000000000000000e+00,5.000000000000000000e+00,5.000000000000000000e+00,5.000000000000000000e+00,5.000000000000000000e+00,4.756517887115478516e+00,4.773462295532226562e+00,5.000000000000000000e+00,5.000000000000000000e+00,5.000000000000000000e+00,5.000000000000000000e+00,5.000000000000000000e+00,5.000000000000000000e+00,5.000000000000000000e+00,5.000000000000000000e+00,5.000000000000000000e+00,5.000000000000000000e+00,5.000000000000000000e+00,5.000000000000000000e+00,5.000000000000000000e+00,5.000000000000000000e+00,5.000000000000000000e+00,5.000000000000000000e+00,5.000000000000000000e+00,5.000000000000000000e+00,5.000000000000000000e+00,5.000000000000000000e+00,5.000000000000000000e+00,5.000000000000000000e+00,5.000000000000000000e+00,5.000000000000000000e+00,5.000000000000000000e+00,5.000000000000000000e+00,5.000000000000000000e+00,5.000000000000000000e+00,5.000000000000000000e+00,5.000000000000000000e+00,5.000000000000000000e+00,5.000000000000000000e+00,5.000000000000000000e+00,4.843729496002197266e+00,4.685333251953125000e+00,4.536968708038330078e+00,4.397712230682373047e+00,4.266749382019042969e+00,4.143361091613769531e+00,4.026908874511718750e+00,3.916823863983154297e+00,3.812597274780273438e+00,3.713773727416992188e+00
3.098673820495605469e+00,3.177279472351074219e+00,3.259977102279663086e+00,3.347094535827636719e+00,3.438996076583862305e+00,3.536086559295654297e+00,3.638818740844726562e+00,3.747698545455932617e+00,3.863295316696166992e+00,3.986250162124633789e+00,4.117288589477539062e+00,4.257235050201416016e+00,4.407029628753662109e+00,4.567749977111816406e+00,4.740636825561523438e+00,4.927125930786132812e+00,5.000000000000000000e+00,5.000000000000000000e+00,5.000000000000000000e+00,5.000000000000000000e+00,5.000000000000000000e+00,5.000000000000000000e+00,5.000000000000000000e+00,5.000000000000000000e+00,5.000000000000000000e+00,5.000000000000000000e+00,5.000000000000000000e+00,5.000000000000000000e+00,5.000000000000000000e+00,5.000000000000000000e+00,5.000000000000000000e+00,5.000000000000000000e+00,5.000000000000000000e+00,5.000000000000000000e+00,5.000000000000000000e+00,5.000000000000000000e+00,4.788754940032958984e+00,5.000000000000000000e+00,5.000000000000000000e+00,5.000000000000000000e+00,5.000000000000000000e+00,5.000000000000000000e+00,5.000000000000000000e+00,5.000000000000000000e+00,5.000000000000000000e+00,5.000000000000000000e+00,5.000000000000000000e+00,5.000000000000000000e+00,5.000000000000000000e+00,5.000000000000000000e+00,5.000000000000000000e+00,5.000000000000000000e+00,5.000000000000000000e+00,5.000000000000000000e+00,5.000000000000000000e+00,5.000000000000000000e+00,5.000000000000000000e+00,5.000000000000000000e+00,5.000000000000000000e+00,5.000000000000000000e+00,5.000000000000000000e+00,5.000000000000000000e+00,5.000000000000000000e+00,5.000000000000000000e+00,5.000000000000000000e+00,5.000000000000000000e+00,5.000000000000000000e+00,5.000000000000000000e+00,5.000000000000000000e+00,5.000000000000000000e+00,4.843870639801025391e+00,4.685465812683105469e+00,4.537093162536621094e+00,4.397829055786132812e+00,4.266859054565429688e+00,4.143465042114257812e+00,4.027006626129150391e+00,3.916916131973266602e+00,3.812684774398803711e+00,3.713857173919677734e+00
3.098607778549194336e+00,3.177210092544555664e+00,3.259903907775878906e+00,3.347017288208007812e+00,3.438914537429809570e+00,3.536000490188598633e+00,3.638727664947509766e+00,3.747601985931396484e+00,3.863192558288574219e+00,3.986140727996826172e+00,4.117171764373779297e+00,4.257110118865966797e+00,4.406895637512207031e+00,4.567606449127197266e+00,4.740481853485107422e+00,4.926958560943603516e+00,5.000000000000000000e+00,5.000000000000000000e+00,5.000000000000000000e+00,5.000000000000000000e+00,5.000000000000000000e+00,5.000000000000000000e+00,5.000000000000000000e+00,5.000000000000000000e+00,5.000000000000000000e+00,5.000000000000000000e+00,5.000000000000000000e+00,5.000000000000000000e+00,5.000000000000000000e+00,5.000000000000000000e+00,5.000000000000000000e+00,5.000000000000000000e+00,5.000000000000000000e+00,5.000000000000000000e+00,5.000000000000000000e+00,5.000000000000000000e+00,4.806082725524902344e+00,5.000000000000000000e+00,5.000000000000000000e+00,5.000000000000000000e+00,5.000000000000000000e+00,5.000000000000000000e+00,5.000000000000000000e+00,5.000000000000000000e+00,5.000000000000000000e+00,5.000000000000000000e+00,5.000000000000000000e+00,5.000000000000000000e+00,5.000000000000000000e+00,5.000000000000000000e+00,5.000000000000000000e+00,5.000000000000000000e+00,5.000000000000000000e+00,5.000000000000000000e+00,5.000000000000000000e+00,5.000000000000000000e+00,5.000000000000000000e+00,5.000000000000000000e+00,5.000000000000000000e+00,5.000000000000000000e+00,5.000000000000000000e+00,5.000000000000000000e+00,5.000000000000000000e+00,5.000000000000000000e+00,5.000000000000000000e+00,5.000000000000000000e+00,5.000000000000000000e+00,5.000000000000000000e+00,5.000000000000000000e+00,5.000000000000000000e+00,4.844012260437011719e+00,4.685597896575927734e+00,4.537217140197753906e+00,4.397945404052734375e+00,4.266969203948974609e+00,4.143568038940429688e+00,4.027104377746582031e+00,3.917008638381958008e+00,3.812772750854492188e+00,3.713940143585205078e+00
3.098541259765625000e+00,3.177140235900878906e+00,3.259830474853515625e+00,3.346940040588378906e+00,3.438832759857177734e+00,3.535913944244384766e+00,3.638636112213134766e+00,3.747504949569702148e+00,3.863089561462402344e+00,3.986030817031860352e+00,4.117054462432861328e+00,4.256985187530517578e+00,4.406761646270751953e+00,4.567462444305419922e+00,4.740326881408691406e+00,4.926791191101074219e+00,5.000000000000000000e+00,5.000000000000000000e+00,5.000000000000000000e+00,5.000000000000000000e+00,5.000000000000000000e+00,5.000000000000000000e+00,5.000000000000000000e+00,5.000000000000000000e+00,5.000000000000000000e+00,5.000000000000000000e+00,5.000000000000000000e+00,5.000000000000000000e+00,5.000000000000000000e+00,5.000000000000000000e+00,5.000000000000000000e+00,5.000000000000000000e+00,5.000000000000000000e+00,5.000000000000000000e+00,5.000000000000000000e+00,5.000000000000000000e+00,4.792324542999267578e+00,5.000000000000000000e+00,5.000000000000000000e+00,5.000000000000000000e+00,5.000000000000000000e+00,5.000000000000000000e+00,5.000000000000000000e+00,5.000000000000000000e+00,5.000000000000000000e+00,5.000000000000000000e+00,5.000000000000000000e+00,5.000000000000000000e+00,5.000000000000000000e+00,5.000000000000000000e+00,5.000000000000000000e+00,5.000000000000000000e+00,5.000000000000000000e+00,5.000000000000000000e+00,5.000000000000000000e+00,5.000000000000000000e+00,5.000000000000000000e+00,5.000000000000000000e+00,5.000000000000000000e+00,5.000000000000000000e+00,5.000000000000000000e+00,5.000000000000000000e+00,5.000000000000000000e+00,5.000000000000000000e+00,5.000000000000000000e+00,5.000000000000000000e+00,5.000000000000000000e+00,5.000000000000000000e+00,5.000000000000000000e+00,5.000000000000000000e+00,4.844153881072998047e+00,4.685730457305908203e+00,4.537341117858886719e+00,4.398062229156494141e+00,4.267078876495361328e+00,4.143671989440917969e+00,4.027202606201171875e+00,3.917101383209228516e+00,3.812860250473022461e+00,3.714023113250732422e+00
3.098475217819213867e+00,3.177070617675781250e+00,3.259757280349731445e+00,3.346862792968750000e+00,3.438751459121704102e+00,3.535827875137329102e+00,3.638544797897338867e+00,3.747408151626586914e+00,3.862986803054809570e+00,3.985921382904052734e+00,4.116937637329101562e+00,4.256859779357910156e+00,4.406627655029296875e+00,4.567318439483642578e+00,4.740171909332275391e+00,4.855091571807861328e+00,4.853888034820556641e+00,4.852684974670410156e+00,4.851482868194580078e+00,4.850280761718750000e+00,4.849080085754394531e+00,4.847879409790039062e+00,4.846679210662841797e+00,4.845479965209960938e+00,4.844281196594238281e+00,4.843082904815673828e+00,4.841885566711425781e+00,4.840688705444335938e+00,4.839491844177246094e+00,4.838295936584472656e+00,4.837100982666015625e+00,4.835906028747558594e+00,4.834712028503417969e+00,4.833518981933593750e+00,4.832325458526611328e+00,4.831133365631103516e+00,4.829941749572753906e+00,4.828751087188720703e+00,4.827559947967529297e+00,4.826370239257812500e+00,4.825181007385253906e+00,4.823992252349853516e+00,4.822803974151611328e+00,4.821616649627685547e+00,4.820429325103759766e+00,4.819242954254150391e+00,4.818057060241699219e+00,4.816871643066406250e+00,4.815687179565429688e+00,4.814503192901611328e+00,4.813319683074951172e+00,4.812136650085449219e+00,4.810954570770263672e+00,4.809772491455078125e+00,4.808591365814208984e+00,4.807410717010498047e+00,4.806230545043945312e+00,4.805051326751708984e+00,4.803872585296630859e+00,4.802694320678710938e+00,4.801516532897949219e+00,4.800339221954345703e+00,4.799162864685058594e+00,4.797986507415771484e+00,4.796811103820800781e+00,4.795636653900146484e+00,4.794462203979492188e+00,4.793288707733154297e+00,4.792115688323974609e+00,4.790942668914794922e+00,4.789771080017089844e+00,4.685863018035888672e+00,4.537465572357177734e+00,4.398179054260253906e+00,4.267188549041748047e+00,4.143775463104248047e+00,4.027299880981445312e+00,3.917193889617919922e+00,3.812947750091552734e+00,3.714106559753417969e+00
3.098408937454223633e+00,3.177000999450683594e+00,3.259683847427368164e+00,3.346785306930541992e+00,3.438669681549072266e+00,3.535741567611694336e+00,3.638453483581542969e+00,3.747311115264892578e+00,3.771239280700683594e+00,3.770512819290161133e+00,3.769786834716796875e+00,3.769061565399169922e+00,3.768336057662963867e+00,3.767610788345336914e+00,3.766886234283447266e+00,3.766161441802978516e+00,3.765437126159667969e+00,3.764713525772094727e+00,3.763989686965942383e+00,3.763266086578369141e+00,3.762543201446533203e+00,3.761820077896118164e+00,3.761097431182861328e+00,3.760375499725341797e+00,3.759653329849243164e+00,3.758931398391723633e+00,3.758210182189941406e+00,3.757488965988159180e+00,3.756767749786376953e+00,3.756047487258911133e+00,3.755326986312866211e+00,3.754606723785400391e+00,3.753887176513671875e+00,3.753167390823364258e+00,3.752448081970214844e+00,3.751729249954223633e+00,3.751010417938232422e+00,3.750292301177978516e+00,3.749573945999145508e+00,3.748856067657470703e+00,3.748138666152954102e+00,3.747421264648437500e+00,3.746703863143920898e+00,3.745987415313720703e+00,3.745270729064941406e+00,3.744554281234741211e+00,3.743838787078857422e+00,3.743122816085815430e+00,3.742407321929931641e+00,3.741692543029785156e+00,3.740977525711059570e+00,3.740262746810913086e+00,3.739548683166503906e+00,3.738834619522094727e+00,3.738120555877685547e+00,3.737407445907592773e+00,3.736693859100341797e+00,3.735980749130249023e+00,3.735268354415893555e+00,3.734555959701538086e+00,3.733843564987182617e+00,3.733132123947143555e+00,3.732420206069946289e+00,3.731708765029907227e+00,3.730998039245605469e+00,3.730287075042724609e+00,3.729576349258422852e+00,3.728866338729858398e+00,3.728156328201293945e+00,3.727446556091308594e+00,3.726737260818481445e+00,3.726027965545654297e+00,3.725318908691406250e+00,3.724610567092895508e+00,3.723901987075805664e+00,3.723193883895874023e+00,3.722486257553100586e+00,3.721778631210327148e+00,3.721071243286132812e+00,3.714189767837524414e+00
3.083477258682250977e+00,3.082991600036621094e+00,3.082506179809570312e+00,3.082020759582519531e+00,3.081535816192626953e+00,3.081050634384155273e+00,3.080565929412841797e+00,3.080081224441528320e+00,3.079596996307373047e+00,3.079112529754638672e+00,3.078628301620483398e+00,3.078144550323486328e+00,3.077660560607910156e+00,3.077176809310913086e+00,3.076693534851074219e+00,3.076210021972656250e+00,3.075726747512817383e+00,3.075243949890136719e+00,3.074760913848876953e+00,3.074278116226196289e+00,3.073795557022094727e+00,3.073312997817993164e+00,3.072830677032470703e+00,3.072348594665527344e+00,3.071866512298583984e+00,3.071384668350219727e+00,3.070903062820434570e+00,3.070421457290649414e+00,3.069940090179443359e+00,3.069458961486816406e+00,3.068977832794189453e+00,3.068496704101562500e+00,3.068016052246093750e+00,3.067535400390625000e+00,3.067054748535156250e+00,3.066574573516845703e+00,3.066094398498535156e+00,3.065614461898803711e+00,3.065134525299072266e+00,3.064654827117919922e+00,3.064175367355346680e+00,3.063695907592773438e+00,3.063216447830200195e+00,3.062737464904785156e+00,3.062258481979370117e+00,3.061779499053955078e+00,3.061300992965698242e+00,3.060822248458862305e+00,3.060343742370605469e+00,3.059865713119506836e+00,3.059387445449829102e+00,3.058909416198730469e+00,3.058431863784790039e+00,3.057954072952270508e+00,3.057476520538330078e+00,3.056999444961547852e+00,3.056522130966186523e+00,3.056045055389404297e+00,3.055568218231201172e+00,3.055091381072998047e+00,3.054614782333374023e+00,3.054138422012329102e+00,3.053662061691284180e+00,3.053185701370239258e+00,3.052709817886352539e+00,3.052233934402465820e+00,3.051758050918579102e+00,3.051282882690429688e+00,3.050807237625122070e+00,3.050331830978393555e+00,3.049856901168823242e+00,3.049381971359252930e+00,3.048907041549682617e+00,3.048432588577270508e+00,3.047957897186279297e+00,3.047483444213867188e+00,3.047009468078613281e+00,3.046535253524780273e+00,3.046061277389526367e+00,3.045587539672851562e+00
2.605101823806762695e+00,2.604755163192749023e+00,2.604408502578735352e+00,2.604062080383300781e+00,2.603715896606445312e+00,2.603369474411010742e+00,2.603023529052734375e+00,2.602677345275878906e+00,2.602331399917602539e+00,2.601985454559326172e+00,2.601639747619628906e+00,2.601294279098510742e+00,2.600948572158813477e+00,2.600603103637695312e+00,2.600257873535156250e+00,2.599912643432617188e+00,2.599567174911499023e+00,2.599222421646118164e+00,2.598877191543579102e+00,2.598532199859619141e+00,2.598187685012817383e+00,2.597842931747436523e+00,2.597498178482055664e+00,2.597153663635253906e+00,2.596809148788452148e+00,2.596464872360229492e+00,2.596120595932006836e+00,2.595776557922363281e+00,2.595432281494140625e+00,2.595088481903076172e+00,2.594744443893432617e+00,2.594400644302368164e+00,2.594057083129882812e+00,2.593713283538818359e+00,2.593369722366333008e+00,2.593026399612426758e+00,2.592683076858520508e+00,2.592339992523193359e+00,2.591996669769287109e+00,2.591653585433959961e+00,2.591310739517211914e+00,2.590967655181884766e+00,2.590624809265136719e+00,2.590282201766967773e+00,2.589939594268798828e+00,2.589596986770629883e+00,2.589254617691040039e+00,2.588912248611450195e+00,2.588569879531860352e+00,2.588227987289428711e+00,2.587885856628417969e+00,2.587543725967407227e+00,2.587202072143554688e+00,2.586860179901123047e+00,2.586518287658691406e+00,2.586176872253417969e+00,2.585835218429565430e+00,2.585493803024291992e+00,2.585152626037597656e+00,2.584811210632324219e+00,2.584470033645629883e+00,2.584129095077514648e+00,2.583787918090820312e+00,2.583446979522705078e+00,2.583106279373168945e+00,2.582765579223632812e+00,2.582424879074096680e+00,2.582084417343139648e+00,2.581743955612182617e+00,2.581403493881225586e+00,2.581063270568847656e+00,2.580723047256469727e+00,2.580382823944091797e+00,2.580043077468872070e+00,2.579703092575073242e+00,2.579363107681274414e+00,2.579023599624633789e+00,2.578683853149414062e+00,2.578344106674194336e+00,2.578004837036132812e+00
2.255223035812377930e+00,2.254963159561157227e+00,2.254703521728515625e+00,2.254443883895874023e+00,2.254184246063232422e+00,2.253924846649169922e+00,2.253665208816528320e+00,2.253405809402465820e+00,2.253146409988403320e+00,2.252887487411499023e+00,2.252628087997436523e+00,2.252368927001953125e+00,2.252109766006469727e+00,2.251850605010986328e+00,2.251591920852661133e+00,2.251332998275756836e+00,2.251074075698852539e+00,2.250815391540527344e+00,2.250556707382202148e+00,2.250298023223876953e+00,2.250039339065551758e+00,2.249780893325805664e+00,2.249522447586059570e+00,2.249264001846313477e+00,2.249005556106567383e+00,2.248747348785400391e+00,2.248489141464233398e+00,2.248230934143066406e+00,2.247972726821899414e+00,2.247714757919311523e+00,2.247456789016723633e+00,2.247198820114135742e+00,2.246941089630126953e+00,2.246683120727539062e+00,2.246425390243530273e+00,2.246167659759521484e+00,2.245910167694091797e+00,2.245652675628662109e+00,2.245394945144653320e+00,2.245137453079223633e+00,2.244880199432373047e+00,2.244622707366943359e+00,2.244365453720092773e+00,2.244108200073242188e+00,2.243851184844970703e+00,2.243593931198120117e+00,2.243336915969848633e+00,2.243079900741577148e+00,2.242822885513305664e+00,2.242566108703613281e+00,2.242309331893920898e+00,2.242052555084228516e+00,2.241796016693115234e+00,2.241539239883422852e+00,2.241282701492309570e+00,2.241026163101196289e+00,2.240769624710083008e+00,2.240513324737548828e+00,2.240257024765014648e+00,2.240000724792480469e+00,2.239744424819946289e+00,2.239488363265991211e+00,2.239232063293457031e+00,2.238976001739501953e+00,2.238720178604125977e+00,2.238464117050170898e+00,2.238208293914794922e+00,2.237952470779418945e+00,2.237696647644042969e+00,2.237441062927246094e+00,2.237185478210449219e+00,2.236929893493652344e+00,2.236674308776855469e+00,2.236418962478637695e+00,2.236163377761840820e+00,2.235908031463623047e+00,2.235652685165405273e+00,2.235397577285766602e+00,2.235142230987548828e+00,2.234887361526489258e+00
1.988197684288024902e+00,1.987995862960815430e+00,1.987793922424316406e+00,1.987592101097106934e+00,1.987390398979187012e+00,1.987188696861267090e+00,1.986986994743347168e+00,1.986785292625427246e+00,1.986583709716796875e+00,1.986382126808166504e+00,1.986180543899536133e+00,1.985979080200195312e+00,1.985777735710144043e+00,1.985576272010803223e+00,1.985374927520751953e+00,1.985173583030700684e+00,1.984972357749938965e+00,1.984771013259887695e+00,1.984569907188415527e+00,1.984368681907653809e+00,1.984167814254760742e+00,1.983966708183288574e+00,1.983765721321105957e+00,1.983564734458923340e+00,1.983363747596740723e+00,1.983162760734558105e+00,1.982962131500244141e+00,1.982761383056640625e+00,1.982560515403747559e+00,1.982359766960144043e+00,1.982159018516540527e+00,1.981958389282226562e+00,1.981757998466491699e+00,1.981557369232177734e+00,1.981356859207153320e+00,1.981156349182128906e+00,1.980955839157104492e+00,1.980755686759948730e+00,1.980555295944213867e+00,1.980354905128479004e+00,1.980154633522033691e+00,1.979954361915588379e+00,1.979754090309143066e+00,1.979554176330566406e+00,1.979354023933410645e+00,1.979153871536254883e+00,1.978953838348388672e+00,1.978753805160522461e+00,1.978553771972656250e+00,1.978354096412658691e+00,1.978154182434082031e+00,1.977954268455505371e+00,1.977754473686218262e+00,1.977554678916931152e+00,1.977354884147644043e+00,1.977155447006225586e+00,1.976955771446228027e+00,1.976756215095520020e+00,1.976556539535522461e+00,1.976357102394104004e+00,1.976157546043395996e+00,1.975958347320556641e+00,1.975758910179138184e+00,1.975559473037719727e+00,1.975360155105590820e+00,1.975160837173461914e+00,1.974961638450622559e+00,1.974762558937072754e+00,1.974563360214233398e+00,1.974364280700683594e+00,1.974165201187133789e+00,1.973966121673583984e+00,1.973767042160034180e+00,1.973568320274353027e+00,1.973369359970092773e+00,1.973170518875122070e+00,1.972971677780151367e+00,1.972772836685180664e+00,1.972573995590209961e+00,1.972375512123107910e+00
1.777711272239685059e+00,1.777549862861633301e+00,1.777388453483581543e+00,1.777227163314819336e+00,1.777065753936767578e+00,1.776904463768005371e+00,1.776743292808532715e+00,1.776582002639770508e+00,1.776420831680297852e+00,1.776259660720825195e+00,1.776098489761352539e+00,1.775937318801879883e+00,1.775776267051696777e+00,1.775615215301513672e+00,1.775454163551330566e+00,1.775293111801147461e+00,1.775132179260253906e+00,1.774971246719360352e+00,1.774810314178466797e+00,1.774649381637573242e+00,1.774488568305969238e+00,1.774327754974365234e+00,1.774166941642761230e+00,1.774006366729736328e+00,1.773845553398132324e+00,1.773684859275817871e+00,1.773524165153503418e+00,1.773363590240478516e+00,1.773202896118164062e+00,1.773042559623718262e+00,1.772881984710693359e+00,1.772721409797668457e+00,1.772560834884643555e+00,1.772400379180908203e+00,1.772239923477172852e+00,1.772079706192016602e+00,1.771919369697570801e+00,1.771758913993835449e+00,1.771598577499389648e+00,1.771438241004943848e+00,1.771278262138366699e+00,1.771117925643920898e+00,1.770957708358764648e+00,1.770797491073608398e+00,1.770637392997741699e+00,1.770477294921875000e+00,1.770317316055297852e+00,1.770157217979431152e+00,1.769997239112854004e+00,1.769837141036987305e+00,1.769677162170410156e+00,1.769517183303833008e+00,1.769357442855834961e+00,1.769197583198547363e+00,1.769037723541259766e+00,1.768877863883972168e+00,1.768718004226684570e+00,1.768558263778686523e+00,1.768398642539978027e+00,1.768238902091979980e+00,1.768079280853271484e+00,1.767919540405273438e+00,1.767759919166564941e+00,1.767600297927856445e+00,1.767440915107727051e+00,1.767281413078308105e+00,1.767121791839599609e+00,1.766962289810180664e+00,1.766802906990051270e+00,1.766643404960632324e+00,1.766484260559082031e+00,1.766324877738952637e+00,1.766165494918823242e+00,1.766006112098693848e+00,1.765846848487854004e+00,1.765687584877014160e+00,1.765528559684753418e+00,1.765369415283203125e+00,1.765210151672363281e+00,1.765051007270812988e+00
1.607525825500488281e+00,1.607393860816955566e+00,1.607261896133422852e+00,1.607129931449890137e+00,1.606997966766357422e+00,1.606866121292114258e+00,1.606734156608581543e+00,1.606602311134338379e+00,1.606470465660095215e+00,1.606338620185852051e+00,1.606206893920898438e+00,1.606075048446655273e+00,1.605943322181701660e+00,1.605811595916748047e+00,1.605679869651794434e+00,1.605548262596130371e+00,1.605416536331176758e+00,1.605285048484802246e+00,1.605153441429138184e+00,1.605021834373474121e+00,1.604890227317810059e+00,1.604758739471435547e+00,1.604627132415771484e+00,1.604495525360107422e+00,1.604364037513732910e+00,1.604232549667358398e+00,1.604101181030273438e+00,1.603969812393188477e+00,1.603838443756103516e+00,1.603707075119018555e+00,1.603575706481933594e+00,1.603444337844848633e+00,1.603313088417053223e+00,1.603181838989257812e+00,1.603050589561462402e+00,1.602919340133666992e+00,1.602788090705871582e+00,1.602656960487365723e+00,1.602525830268859863e+00,1.602394700050354004e+00,1.602263450622558594e+00,1.602132439613342285e+00,1.602001309394836426e+00,1.601870298385620117e+00,1.601739287376403809e+00,1.601608276367187500e+00,1.601477265357971191e+00,1.601346254348754883e+00,1.601215243339538574e+00,1.601084470748901367e+00,1.600953459739685059e+00,1.600822567939758301e+00,1.600691676139831543e+00,1.600560903549194336e+00,1.600430011749267578e+00,1.600299358367919922e+00,1.600168585777282715e+00,1.600037693977355957e+00,1.599906921386718750e+00,1.599776148796081543e+00,1.599645495414733887e+00,1.599514961242675781e+00,1.599384307861328125e+00,1.599253654479980469e+00,1.599123001098632812e+00,1.598992347717285156e+00,1.598861813545227051e+00,1.598731398582458496e+00,1.598600745201110840e+00,1.598470211029052734e+00,1.598339796066284180e+00,1.598209261894226074e+00,1.598078846931457520e+00,1.597948551177978516e+00,1.597818136215209961e+00,1.597687721252441406e+00,1.597557306289672852e+00,1.597427010536193848e+00,1.597296595573425293e+00,1.597166419029235840e+00
1.467078089714050293e+00,1.466968178749084473e+00,1.466858267784118652e+00,1.466748356819152832e+00,1.466638445854187012e+00,1.466528654098510742e+00,1.466418743133544922e+00,1.466308951377868652e+00,1.466199040412902832e+00,1.466089367866516113e+00,1.465979576110839844e+00,1.465869903564453125e+00,1.465760111808776855e+00,1.465650320053100586e+00,1.465540647506713867e+00,1.465430974960327148e+00,1.465321302413940430e+00,1.465211629867553711e+00,1.465101957321166992e+00,1.464992284774780273e+00,1.464882612228393555e+00,1.464773058891296387e+00,1.464663505554199219e+00,1.464553833007812500e+00,1.464444279670715332e+00,1.464334726333618164e+00,1.464225292205810547e+00,1.464115619659423828e+00,1.464006066322326660e+00,1.463896751403808594e+00,1.463787317276000977e+00,1.463677883148193359e+00,1.463568449020385742e+00,1.463459014892578125e+00,1.463349699974060059e+00,1.463240385055541992e+00,1.463131070137023926e+00,1.463021636009216309e+00,1.462912321090698242e+00,1.462803006172180176e+00,1.462693929672241211e+00,1.462584614753723145e+00,1.462475299835205078e+00,1.462366104125976562e+00,1.462256908416748047e+00,1.462147712707519531e+00,1.462038636207580566e+00,1.461929440498352051e+00,1.461820244789123535e+00,1.461711168289184570e+00,1.461601972579956055e+00,1.461492896080017090e+00,1.461383938789367676e+00,1.461274862289428711e+00,1.461165785789489746e+00,1.461056709289550781e+00,1.460947632789611816e+00,1.460838675498962402e+00,1.460729837417602539e+00,1.460620760917663574e+00,1.460511803627014160e+00,1.460402846336364746e+00,1.460293889045715332e+00,1.460185050964355469e+00,1.460076212882995605e+00,1.459967374801635742e+00,1.459858536720275879e+00,1.459749579429626465e+00,1.459640741348266602e+00,1.459532022476196289e+00,1.459423303604125977e+00,1.459314465522766113e+00,1.459205746650695801e+00,1.459096908569335938e+00,1.458988189697265625e+00,1.458879470825195312e+00,1.458770871162414551e+00,1.458662271499633789e+00,1.458553552627563477e+00,1.458444833755493164e+00
1.349200010299682617e+00,1.349107027053833008e+00,1.349014043807983398e+00,1.348921179771423340e+00,1.348828315734863281e+00,1.348735332489013672e+00,1.348642468452453613e+00,1.348549485206604004e+00,1.348456621170043945e+00,1.348363757133483887e+00,1.348270893096923828e+00,1.348178029060363770e+00,1.348085284233093262e+00,1.347992420196533203e+00,1.347899556159973145e+00,1.347806811332702637e+00,1.347714066505432129e+00,1.347621202468872070e+00,1.347528457641601562e+00,1.347435712814331055e+00,1.347343087196350098e+00,1.347250342369079590e+00,1.347157597541809082e+00,1.347064852714538574e+00,1.346972227096557617e+00,1.346879601478576660e+00,1.346786856651306152e+00,1.346694231033325195e+00,1.346601605415344238e+00,1.346508979797363281e+00,1.346416354179382324e+00,1.346323728561401367e+00,1.346231222152709961e+00,1.346138596534729004e+00,1.346046090126037598e+00,1.345953583717346191e+00,1.345860958099365234e+00,1.345768570899963379e+00,1.345676064491271973e+00,1.345583558082580566e+00,1.345491051673889160e+00,1.345398664474487305e+00,1.345306158065795898e+00,1.345213890075683594e+00,1.345121383666992188e+00,1.345028996467590332e+00,1.344936609268188477e+00,1.344844222068786621e+00,1.344751834869384766e+00,1.344659566879272461e+00,1.344567179679870605e+00,1.344474911689758301e+00,1.344382524490356445e+00,1.344290256500244141e+00,1.344197869300842285e+00,1.344105720520019531e+00,1.344013452529907227e+00,1.343921184539794922e+00,1.343828916549682617e+00,1.343736648559570312e+00,1.343644499778747559e+00,1.343552350997924805e+00,1.343460202217102051e+00,1.343367934226989746e+00,1.343275785446166992e+00,1.343183636665344238e+00,1.343091487884521484e+00,1.342999458312988281e+00,1.342907309532165527e+00,1.342815160751342773e+00,1.342723131179809570e+00,1.342630982398986816e+00,1.342538952827453613e+00,1.342446923255920410e+00,1.342354893684387207e+00,1.342262864112854004e+00,1.342170834541320801e+00,1.342078804969787598e+00,1.341986775398254395e+00,1.341894984245300293e+00
1.248855948448181152e+00,1.248776316642761230e+00,1.248696684837341309e+00,1.248617053031921387e+00,1.248537421226501465e+00,1.248457789421081543e+00,1.248378157615661621e+00,1.248298525810241699e+00,1.248218894004821777e+00,1.248139381408691406e+00,1.248059749603271484e+00,1.247980237007141113e+00,1.247900724411010742e+00,1.247821092605590820e+00,1.247741580009460449e+00,1.247662067413330078e+00,1.247582554817199707e+00,1.247503042221069336e+00,1.247423529624938965e+00,1.247344136238098145e+00,1.247264623641967773e+00,1.247185230255126953e+00,1.247105717658996582e+00,1.247026324272155762e+00,1.246946811676025391e+00,1.246867418289184570e+00,1.246788024902343750e+00,1.246708631515502930e+00,1.246629238128662109e+00,1.246549844741821289e+00,1.246470451354980469e+00,1.246391177177429199e+00,1.246311783790588379e+00,1.246232390403747559e+00,1.246152997016906738e+00,1.246073842048645020e+00,1.245994448661804199e+00,1.245915174484252930e+00,1.245835900306701660e+00,1.245756626129150391e+00,1.245677471160888672e+00,1.245598196983337402e+00,1.245518922805786133e+00,1.245439648628234863e+00,1.245360493659973145e+00,1.245281219482421875e+00,1.245202183723449707e+00,1.245122909545898438e+00,1.245043754577636719e+00,1.244964599609375000e+00,1.244885444641113281e+00,1.244806289672851562e+00,1.244727134704589844e+00,1.244648098945617676e+00,1.244568943977355957e+00,1.244489789009094238e+00,1.244410753250122070e+00,1.244331598281860352e+00,1.244252562522888184e+00,1.244173526763916016e+00,1.244094491004943848e+00,1.244015455245971680e+00,1.243936300277709961e+00,1.243857264518737793e+00,1.243778347969055176e+00,1.243699431419372559e+00,1.243620395660400391e+00,1.243541359901428223e+00,1.243462443351745605e+00,1.243383407592773438e+00,1.243304491043090820e+00,1.243225574493408203e+00,1.243146657943725586e+00,1.243067741394042969e+00,1.242988824844360352e+00,1.242909908294677734e+00,1.242830991744995117e+00,1.242752194404602051e+00,1.242673277854919434e+00,1.242594361305236816e+00
1.162404417991638184e+00,1.162335395812988281e+00,1.162266373634338379e+00,1.162197351455688477e+00,1.162128329277038574e+00,1.162059426307678223e+00,1.161990404129028320e+00,1.161921501159667969e+00,1.161852478981018066e+00,1.161783576011657715e+00,1.161714553833007812e+00,1.161645650863647461e+00,1.161576747894287109e+00,1.161507844924926758e+00,1.161438941955566406e+00,1.161370038986206055e+00,1.161301136016845703e+00,1.161232233047485352e+00,1.161163330078125000e+00,1.161094546318054199e+00,1.161025643348693848e+00,1.160956740379333496e+00,1.160887956619262695e+00,1.160819053649902344e+00,1.160750269889831543e+00,1.160681486129760742e+00,1.160612583160400391e+00,1.160543799400329590e+00,1.160475015640258789e+00,1.160406231880187988e+00,1.160337448120117188e+00,1.160268664360046387e+00,1.160199880599975586e+00,1.160131216049194336e+00,1.160062432289123535e+00,1.159993648529052734e+00,1.159924983978271484e+00,1.159856200218200684e+00,1.159787535667419434e+00,1.159718871116638184e+00,1.159650087356567383e+00,1.159581422805786133e+00,1.159512758255004883e+00,1.159444093704223633e+00,1.159375429153442383e+00,1.159306764602661133e+00,1.159238219261169434e+00,1.159169554710388184e+00,1.159100890159606934e+00,1.159032344818115234e+00,1.158963680267333984e+00,1.158895134925842285e+00,1.158826470375061035e+00,1.158757925033569336e+00,1.158689379692077637e+00,1.158620834350585938e+00,1.158552289009094238e+00,1.158483743667602539e+00,1.158415198326110840e+00,1.158346652984619141e+00,1.158278107643127441e+00,1.158209681510925293e+00,1.158141136169433594e+00,1.158072590827941895e+00,1.158004164695739746e+00,1.157935619354248047e+00,1.157867193222045898e+00,1.157798767089843750e+00,1.157730340957641602e+00,1.157661795616149902e+00,1.157593369483947754e+00,1.157524943351745605e+00,1.157456517219543457e+00,1.157388091087341309e+00,1.157319664955139160e+00,1.157251358032226562e+00,1.157182931900024414e+00,1.157114505767822266e+00,1.157046079635620117e+00,1.156977772712707520e+00
1.087146997451782227e+00,1.087086677551269531e+00,1.087026238441467285e+00,1.086965918540954590e+00,1.086905598640441895e+00,1.086845278739929199e+00,1.086784958839416504e+00,1.086724638938903809e+00,1.086664319038391113e+00,1.086603999137878418e+00,1.086543679237365723e+00,1.086483359336853027e+00,1.086423039436340332e+00,1.086362719535827637e+00,1.086302518844604492e+00,1.086242198944091797e+00,1.086181879043579102e+00,1.086121678352355957e+00,1.086061477661132812e+00,1.086001157760620117e+00,1.085940957069396973e+00,1.085880756378173828e+00,1.085820436477661133e+00,1.085760235786437988e+00,1.085700035095214844e+00,1.085639834403991699e+00,1.085579633712768555e+00,1.085519433021545410e+00,1.085459232330322266e+00,1.085399031639099121e+00,1.085338830947875977e+00,1.085278749465942383e+00,1.085218548774719238e+00,1.085158467292785645e+00,1.085098266601562500e+00,1.085038185119628906e+00,1.084978103637695312e+00,1.084917902946472168e+00,1.084857821464538574e+00,1.084797739982604980e+00,1.084737539291381836e+00,1.084677457809448242e+00,1.084617257118225098e+00,1.084557175636291504e+00,1.084497094154357910e+00,1.084437012672424316e+00,1.084377050399780273e+00,1.084316968917846680e+00,1.084257006645202637e+00,1.084196925163269043e+00,1.084136843681335449e+00,1.084076881408691406e+00,1.084016919136047363e+00,1.083956837654113770e+00,1.083896875381469727e+00,1.083836793899536133e+00,1.083776831626892090e+00,1.083716869354248047e+00,1.083656907081604004e+00,1.083596944808959961e+00,1.083536982536315918e+00,1.083477020263671875e+00,1.083417057991027832e+00,1.083357095718383789e+00,1.083297133445739746e+00,1.083237290382385254e+00,1.083177328109741211e+00,1.083117365837097168e+00,1.083057403564453125e+00,1.082997560501098633e+00,1.082937717437744141e+00,1.082877755165100098e+00,1.082817912101745605e+00,1.082758069038391113e+00,1.082698106765747070e+00,1.082638263702392578e+00,1.082578420639038086e+00,1.082518577575683594e+00,1.082458734512329102e+00,1.082398891448974609e+00
1.021041870117187500e+00,1.020988583564758301e+00,1.020935416221618652e+00,1.020882129669189453e+00,1.020828962326049805e+00,1.020775675773620605e+00,1.020722508430480957e+00,1.020669221878051758e+00,1.020616054534912109e+00,1.020562767982482910e+00,1.020509600639343262e+00,1.020456433296203613e+00,1.020403265953063965e+00,1.020350098609924316e+00,1.020296931266784668e+00,1.020243763923645020e+00,1.020190596580505371e+00,1.020137429237365723e+00,1.020084261894226074e+00,1.020031094551086426e+00,1.019977927207946777e+00,1.019924759864807129e+00,1.019871711730957031e+00,1.019818544387817383e+00,1.019765377044677734e+00,1.019712328910827637e+00,1.019659161567687988e+00,1.019606113433837891e+00,1.019552946090698242e+00,1.019499897956848145e+00,1.019446849822998047e+00,1.019393801689147949e+00,1.019340634346008301e+00,1.019287586212158203e+00,1.019234538078308105e+00,1.019181489944458008e+00,1.019128441810607910e+00,1.019075393676757812e+00,1.019022345542907715e+00,1.018969297409057617e+00,1.018916249275207520e+00,1.018863201141357422e+00,1.018810153007507324e+00,1.018757224082946777e+00,1.018704175949096680e+00,1.018651127815246582e+00,1.018598079681396484e+00,1.018545150756835938e+00,1.018492102622985840e+00,1.018439173698425293e+00,1.018386244773864746e+00,1.018333196640014648e+00,1.018280267715454102e+00,1.018227338790893555e+00,1.018174409866333008e+00,1.018121480941772461e+00,1.018068552017211914e+00,1.018015623092651367e+00,1.017962694168090820e+00,1.017909765243530273e+00,1.017856836318969727e+00,1.017803907394409180e+00,1.017750978469848633e+00,1.017698049545288086e+00,1.017645239830017090e+00,1.017592310905456543e+00,1.017539381980895996e+00,1.017486572265625000e+00,1.017433762550354004e+00,1.017380833625793457e+00,1.017328023910522461e+00,1.017275094985961914e+00,1.017222285270690918e+00,1.017169475555419922e+00,1.017116665840148926e+00,1.017063736915588379e+00,1.017010927200317383e+00,1.016958117485046387e+00,1.016905307769775391e+00,1.016852498054504395e+00
9.625151157379150391e-01,9.624678492546081543e-01,9.624205231666564941e-01,9.623731970787048340e-01,9.623258709907531738e-01,9.622786045074462891e-01,9.622312784194946289e-01,9.621840119361877441e-01,9.621366858482360840e-01,9.620894789695739746e-01,9.620421528816223145e-01,9.619948863983154297e-01,9.619475603103637695e-01,9.619003534317016602e-01,9.618530273437500000e-01,9.618058800697326660e-01,9.617585539817810059e-01,9.617113471031188965e-01,9.616640806198120117e-01,9.616168737411499023e-01,9.615696072578430176e-01,9.615224003791809082e-01,9.614751338958740234e-01,9.614279866218566895e-01,9.613808393478393555e-01,9.613335728645324707e-01,9.612864255905151367e-01,9.612391591072082520e-01,9.611920118331909180e-01,9.611447453498840332e-01,9.610976576805114746e-01,9.610503911972045898e-01,9.610033035278320312e-01,9.609560370445251465e-01,9.609089493751525879e-01,9.608617424964904785e-01,9.608145952224731445e-01,9.607673883438110352e-01,9.607203006744384766e-01,9.606730937957763672e-01,9.606260061264038086e-01,9.605788588523864746e-01,9.605317711830139160e-01,9.604845643043518066e-01,9.604375362396240234e-01,9.603903293609619141e-01,9.603433012962341309e-01,9.602960944175720215e-01,9.602490663528442383e-01,9.602019190788269043e-01,9.601547718048095703e-01,9.601077437400817871e-01,9.600607156753540039e-01,9.600135684013366699e-01,9.599665403366088867e-01,9.599194526672363281e-01,9.598724246025085449e-01,9.598252773284912109e-01,9.597783088684082031e-01,9.597312808036804199e-01,9.596841931343078613e-01,9.596372246742248535e-01,9.595901370048522949e-01,9.595431089401245117e-01,9.594961404800415039e-01,9.594490528106689453e-01,9.594020843505859375e-01,9.593550562858581543e-01,9.593080878257751465e-01,9.592610001564025879e-01,9.592140913009643555e-01,9.591671228408813477e-01,9.591200947761535645e-01,9.590731263160705566e-01,9.590260982513427734e-01,9.589791893959045410e-01,9.589322805404663086e-01,9.588852524757385254e-01,9.588383436203002930e-01,9.587913155555725098e-01
9.103342294692993164e-01,9.102918505668640137e-01,9.102495908737182617e-01,9.102072119712829590e-01,9.101649522781372070e-01,9.101225733757019043e-01,9.100803136825561523e-01,9.100379347801208496e-01,9.099957346916198730e-01,9.099533557891845703e-01,9.099110960960388184e-01,9.098687767982482910e-01,9.098265171051025391e-01,9.097841978073120117e-01,9.097419977188110352e-01,9.096996784210205078e-01,9.096574187278747559e-01,9.096152186393737793e-01,9.095728993415832520e-01,9.095306992530822754e-01,9.094883799552917480e-01,9.094461798667907715e-01,9.094039201736450195e-01,9.093617200851440430e-01,9.093194007873535156e-01,9.092772006988525391e-01,9.092349410057067871e-01,9.091927409172058105e-01,9.091504812240600586e-01,9.091083407402038574e-01,9.090660810470581055e-01,9.090238809585571289e-01,9.089816212654113770e-01,9.089394807815551758e-01,9.088972210884094238e-01,9.088550806045532227e-01,9.088128805160522461e-01,9.087707400321960449e-01,9.087284803390502930e-01,9.086863398551940918e-01,9.086441397666931152e-01,9.086019992828369141e-01,9.085597991943359375e-01,9.085176587104797363e-01,9.084754586219787598e-01,9.084333777427673340e-01,9.083911776542663574e-01,9.083490371704101562e-01,9.083068370819091797e-01,9.082647562026977539e-01,9.082225561141967773e-01,9.081804752349853516e-01,9.081383347511291504e-01,9.080961346626281738e-01,9.080540537834167480e-01,9.080120325088500977e-01,9.079698324203491211e-01,9.079278111457824707e-01,9.078856110572814941e-01,9.078435897827148438e-01,9.078014492988586426e-01,9.077593684196472168e-01,9.077173471450805664e-01,9.076752066612243652e-01,9.076331853866577148e-01,9.075910449028015137e-01,9.075490236282348633e-01,9.075070023536682129e-01,9.074648618698120117e-01,9.074228405952453613e-01,9.073807597160339355e-01,9.073387384414672852e-01,9.072966575622558594e-01,9.072546362876892090e-01,9.072126746177673340e-01,9.071705937385559082e-01,9.071285724639892578e-01,9.070864915847778320e-01,9.070445299148559570e-01,9.070025682449340820e-01
8.635200858116149902e-01,8.634820580482482910e-01,8.634439110755920410e-01,8.634058833122253418e-01,8.633677363395690918e-01,8.633297085762023926e-01,8.632916212081909180e-01,8.632535934448242188e-01,8.632154464721679688e-01,8.631774783134460449e-01,8.631394505500793457e-01,8.631013631820678711e-01,8.630633354187011719e-01,8.630252480506896973e-01,8.629872202873229980e-01,8.629491329193115234e-01,8.629111647605895996e-01,8.628730773925781250e-01,8.628351092338562012e-01,8.627970218658447266e-01,8.627590537071228027e-01,8.627209663391113281e-01,8.626829981803894043e-01,8.626449704170227051e-01,8.626070022583007812e-01,8.625689148902893066e-01,8.625310063362121582e-01,8.624929189682006836e-01,8.624549508094787598e-01,8.624169230461120605e-01,8.623790144920349121e-01,8.623409867286682129e-01,8.623030185699462891e-01,8.622649908065795898e-01,8.622270822525024414e-01,8.621890544891357422e-01,8.621511459350585938e-01,8.621131181716918945e-01,8.620752096176147461e-01,8.620371818542480469e-01,8.619992733001708984e-01,8.619612455368041992e-01,8.619233369827270508e-01,8.618853688240051270e-01,8.618474602699279785e-01,8.618094921112060547e-01,8.617715835571289062e-01,8.617336153984069824e-01,8.616957068443298340e-01,8.616577386856079102e-01,8.616198897361755371e-01,8.615819215774536133e-01,8.615440726280212402e-01,8.615061044692993164e-01,8.614681959152221680e-01,8.614302873611450195e-01,8.613923788070678711e-01,8.613544702529907227e-01,8.613166213035583496e-01,8.612786531448364258e-01,8.612408041954040527e-01,8.612028956413269043e-01,8.611650466918945312e-01,8.611271381378173828e-01,8.610892891883850098e-01,8.610514402389526367e-01,8.610135316848754883e-01,8.609757423400878906e-01,8.609378337860107422e-01,8.608999848365783691e-01,8.608621954917907715e-01,8.608242869377136230e-01,8.607864975929260254e-01,8.607485890388488770e-01,8.607107996940612793e-01,8.606728911399841309e-01,8.606351017951965332e-01,8.605973124504089355e-01,8.605594635009765625e-01,8.605216741561889648e-01
8.212853670120239258e-01,8.212508559226989746e-01,8.212164640426635742e-01,8.211820721626281738e-01,8.211475610733032227e-01,8.211131691932678223e-01,8.210787177085876465e-01,8.210443258285522461e-01,8.210098147392272949e-01,8.209754228591918945e-01,8.209409713745117188e-01,8.209065794944763184e-01,8.208721280097961426e-01,8.208377361297607422e-01,8.208032846450805664e-01,8.207689523696899414e-01,8.207345008850097656e-01,8.207001090049743652e-01,8.206656575202941895e-01,8.206313252449035645e-01,8.205968737602233887e-01,8.205624818801879883e-01,8.205280900001525879e-01,8.204937577247619629e-01,8.204593062400817871e-01,8.204249739646911621e-01,8.203905224800109863e-01,8.203561902046203613e-01,8.203217983245849609e-01,8.202874660491943359e-01,8.202530741691589355e-01,8.202187418937683105e-01,8.201842904090881348e-01,8.201500177383422852e-01,8.201156258583068848e-01,8.200812935829162598e-01,8.200469017028808594e-01,8.200125694274902344e-01,8.199781775474548340e-01,8.199439048767089844e-01,8.199095129966735840e-01,8.198752403259277344e-01,8.198408484458923340e-01,8.198065757751464844e-01,8.197721838951110840e-01,8.197379112243652344e-01,8.197035193443298340e-01,8.196692466735839844e-01,8.196349143981933594e-01,8.196006417274475098e-01,8.195662498474121094e-01,8.195319771766662598e-01,8.194976449012756348e-01,8.194633722305297852e-01,8.194290399551391602e-01,8.193947672843933105e-01,8.193605542182922363e-01,8.193262219429016113e-01,8.192919492721557617e-01,8.192576169967651367e-01,8.192232847213745117e-01,8.191890716552734375e-01,8.191547393798828125e-01,8.191205263137817383e-01,8.190861940383911133e-01,8.190519809722900391e-01,8.190176486968994141e-01,8.189834356307983398e-01,8.189492225646972656e-01,8.189148902893066406e-01,8.188806772232055664e-01,8.188464045524597168e-01,8.188121914863586426e-01,8.187779784202575684e-01,8.187437057495117188e-01,8.187094926834106445e-01,8.186752200126647949e-01,8.186410069465637207e-01,8.186067342758178711e-01,8.185725808143615723e-01
7.829894423484802246e-01,7.829580903053283691e-01,7.829267978668212891e-01,7.828954458236694336e-01,7.828642129898071289e-01,7.828328609466552734e-01,7.828015685081481934e-01,7.827702164649963379e-01,7.827389836311340332e-01,7.827076315879821777e-01,7.826763987541198730e-01,7.826450467109680176e-01,7.826138138771057129e-01,7.825824618339538574e-01,7.825512290000915527e-01,7.825199365615844727e-01,7.824887037277221680e-01,7.824573516845703125e-01,7.824261188507080078e-01,7.823948264122009277e-01,7.823635935783386230e-01,7.823323011398315430e-01,7.823010683059692383e-01,7.822697758674621582e-01,7.822385430335998535e-01,7.822072505950927734e-01,7.821760177612304688e-01,7.821447253227233887e-01,7.821135520935058594e-01,7.820822596549987793e-01,7.820510268211364746e-01,7.820197939872741699e-01,7.819885611534118652e-01,7.819573283195495605e-01,7.819260954856872559e-01,7.818948626518249512e-01,7.818636298179626465e-01,7.818323969841003418e-01,7.818012237548828125e-01,7.817699313163757324e-01,7.817387580871582031e-01,7.817075252532958984e-01,7.816763520240783691e-01,7.816450595855712891e-01,7.816138863563537598e-01,7.815826535224914551e-01,7.815514802932739258e-01,7.815202474594116211e-01,7.814890742301940918e-01,7.814579606056213379e-01,7.814267277717590332e-01,7.813955545425415039e-01,7.813643217086791992e-01,7.813332080841064453e-01,7.813019752502441406e-01,7.812708020210266113e-01,7.812396287918090820e-01,7.812084555625915527e-01,7.811772823333740234e-01,7.811461091041564941e-01,7.811149358749389648e-01,7.810837626457214355e-01,7.810525894165039062e-01,7.810214757919311523e-01,7.809902429580688477e-01,7.809590697288513184e-01,7.809279561042785645e-01,7.808967828750610352e-01,7.808656692504882812e-01,7.808344960212707520e-01,7.808033823966979980e-01,7.807722687721252441e-01,7.807410955429077148e-01,7.807099819183349609e-01,7.806788086891174316e-01,7.806477546691894531e-01,7.806166410446166992e-01,7.805854678153991699e-01,7.805544137954711914e-01,7.805232405662536621e-01
7.481057047843933105e-01,7.480771541595458984e-01,7.480485439300537109e-01,7.480199933052062988e-01,7.479913830757141113e-01,7.479628324508666992e-01,7.479342222213745117e-01,7.479056715965270996e-01,7.478770613670349121e-01,7.478485703468322754e-01,7.478199601173400879e-01,7.477914094924926758e-01,7.477627992630004883e-01,7.477343082427978516e-01,7.477056980133056641e-01,7.476771473884582520e-01,7.476485967636108398e-01,7.476200461387634277e-01,7.475914955139160156e-01,7.475629448890686035e-01,7.475343942642211914e-01,7.475059032440185547e-01,7.474772930145263672e-01,7.474488019943237305e-01,7.474202513694763184e-01,7.473917007446289062e-01,7.473631501197814941e-01,7.473346590995788574e-01,7.473061084747314453e-01,7.472776174545288086e-01,7.472490668296813965e-01,7.472205758094787598e-01,7.471920251846313477e-01,7.471635341644287109e-01,7.471349835395812988e-01,7.471064925193786621e-01,7.470779418945312500e-01,7.470494508743286133e-01,7.470209598541259766e-01,7.469924688339233398e-01,7.469639182090759277e-01,7.469354867935180664e-01,7.469069957733154297e-01,7.468784451484680176e-01,7.468500137329101562e-01,7.468214631080627441e-01,7.467930316925048828e-01,7.467644810676574707e-01,7.467360496520996094e-01,7.467075586318969727e-01,7.466790676116943359e-01,7.466505765914916992e-01,7.466221451759338379e-01,7.465936541557312012e-01,7.465651631355285645e-01,7.465366721153259277e-01,7.465082406997680664e-01,7.464797496795654297e-01,7.464513182640075684e-01,7.464228272438049316e-01,7.463943958282470703e-01,7.463659048080444336e-01,7.463374733924865723e-01,7.463089823722839355e-01,7.462806105613708496e-01,7.462521195411682129e-01,7.462236881256103516e-01,7.461951971054077148e-01,7.461667656898498535e-01,7.461383342742919922e-01,7.461098432540893555e-01,7.460814714431762695e-01,7.460529804229736328e-01,7.460246086120605469e-01,7.459961771965026855e-01,7.459677457809448242e-01,7.459393739700317383e-01,7.459108829498291016e-01,7.458825111389160156e-01,7.458541393280029297e-01
7.161977291107177734e-01,7.161715030670166016e-01,7.161453366279602051e-01,7.161191105842590332e-01,7.160929441452026367e-01,7.160667181015014648e-01,7.160406112670898438e-01,7.160143852233886719e-01,7.159882187843322754e-01,7.159619927406311035e-01,7.159358263015747070e-01,7.159096002578735352e-01,7.158834934234619141e-01,7.158572673797607422e-01,7.158311009407043457e-01,7.158049345016479492e-01,7.157787680625915527e-01,7.157526016235351562e-01,7.157264351844787598e-01,7.157002687454223633e-01,7.156741023063659668e-01,7.156479358673095703e-01,7.156217694282531738e-01,7.155956029891967773e-01,7.155694961547851562e-01,7.155432701110839844e-01,7.155171632766723633e-01,7.154909968376159668e-01,7.154648900032043457e-01,7.154386639595031738e-01,7.154125571250915527e-01,7.153863906860351562e-01,7.153602838516235352e-01,7.153341174125671387e-01,7.153080105781555176e-01,7.152819037437438965e-01,7.152557373046875000e-01,7.152296304702758789e-01,7.152034640312194824e-01,7.151774168014526367e-01,7.151512503623962402e-01,7.151251435279846191e-01,7.150989770889282227e-01,7.150729298591613770e-01,7.150467634201049805e-01,7.150206565856933594e-01,7.149945497512817383e-01,7.149684429168701172e-01,7.149422764778137207e-01,7.149162292480468750e-01,7.148900628089904785e-01,7.148640155792236328e-01,7.148378491401672363e-01,7.148118019104003906e-01,7.147856950759887695e-01,7.147595882415771484e-01,7.147334814071655273e-01,7.147074341773986816e-01,7.146812677383422852e-01,7.146552205085754395e-01,7.146291136741638184e-01,7.146030664443969727e-01,7.145769596099853516e-01,7.145509123802185059e-01,7.145248055458068848e-01,7.144987583160400391e-01,7.144726514816284180e-01,7.144466042518615723e-01,7.144204974174499512e-01,7.143944501876831055e-01,7.143683433532714844e-01,7.143422365188598633e-01,7.143161892890930176e-01,7.142901420593261719e-01,7.142640948295593262e-01,7.142379879951477051e-01,7.142120003700256348e-01,7.141859531402587891e-01,7.141598463058471680e-01,7.141338586807250977e-01
6.869002580642700195e-01,6.868761777877807617e-01,6.868520975112915039e-01,6.868280172348022461e-01,6.868038773536682129e-01,6.867797970771789551e-01,6.867557168006896973e-01,6.867316365242004395e-01,6.867074966430664062e-01,6.866834759712219238e-01,6.866593360900878906e-01,6.866352558135986328e-01,6.866111755371093750e-01,6.865870952606201172e-01,6.865630149841308594e-01,6.865389347076416016e-01,6.865148544311523438e-01,6.864908337593078613e-01,6.864666938781738281e-01,6.864426732063293457e-01,6.864185929298400879e-01,6.863945126533508301e-01,6.863704323768615723e-01,6.863464117050170898e-01,6.863223314285278320e-01,6.862983107566833496e-01,6.862741708755493164e-01,6.862501502037048340e-01,6.862260699272155762e-01,6.862020492553710938e-01,6.861780285835266113e-01,6.861539483070373535e-01,6.861299276351928711e-01,6.861058473587036133e-01,6.860818266868591309e-01,6.860577464103698730e-01,6.860337853431701660e-01,6.860097050666809082e-01,6.859856843948364258e-01,6.859616041183471680e-01,6.859375834465026855e-01,6.859135627746582031e-01,6.858895421028137207e-01,6.858654618263244629e-01,6.858415007591247559e-01,6.858174204826354980e-01,6.857934594154357910e-01,6.857693791389465332e-01,6.857453584671020508e-01,6.857213377952575684e-01,6.856973171234130859e-01,6.856732964515686035e-01,6.856493353843688965e-01,6.856252551078796387e-01,6.856012940406799316e-01,6.855772733688354492e-01,6.855532526969909668e-01,6.855292320251464844e-01,6.855052709579467773e-01,6.854812502861022949e-01,6.854572296142578125e-01,6.854332089424133301e-01,6.854092478752136230e-01,6.853852272033691406e-01,6.853612661361694336e-01,6.853372454643249512e-01,6.853132843971252441e-01,6.852892637252807617e-01,6.852653026580810547e-01,6.852412819862365723e-01,6.852173209190368652e-01,6.851933002471923828e-01,6.851693987846374512e-01,6.851453781127929688e-01,6.851214170455932617e-01,6.850973963737487793e-01,6.850734353065490723e-01,6.850494742393493652e-01,6.850254535675048828e-01,6.850015521049499512e-01
6.599055528640747070e-01,6.598833203315734863e-01,6.598610877990722656e-01,6.598387956619262695e-01,6.598166227340698242e-01,6.597943305969238281e-01,6.597721576690673828e-01,6.597498655319213867e-01,6.597276926040649414e-01,6.597054004669189453e-01,6.596832275390625000e-01,6.596609354019165039e-01,6.596387624740600586e-01,6.596165299415588379e-01,6.595942974090576172e-01,6.595720648765563965e-01,6.595498323440551758e-01,6.595275998115539551e-01,6.595054268836975098e-01,6.594831943511962891e-01,6.594609618186950684e-01,6.594387292861938477e-01,6.594165563583374023e-01,6.593943834304809570e-01,6.593721508979797363e-01,6.593499779701232910e-01,6.593277454376220703e-01,6.593055725097656250e-01,6.592833399772644043e-01,6.592611670494079590e-01,6.592389345169067383e-01,6.592167615890502930e-01,6.591945290565490723e-01,6.591723561286926270e-01,6.591501235961914062e-01,6.591279506683349609e-01,6.591057777404785156e-01,6.590836048126220703e-01,6.590613722801208496e-01,6.590391993522644043e-01,6.590170264244079590e-01,6.589948534965515137e-01,6.589726209640502930e-01,6.589504480361938477e-01,6.589282751083374023e-01,6.589061021804809570e-01,6.588839292526245117e-01,6.588617563247680664e-01,6.588395833969116211e-01,6.588174104690551758e-01,6.587952375411987305e-01,6.587730646133422852e-01,6.587508916854858398e-01,6.587287783622741699e-01,6.587065458297729492e-01,6.586844325065612793e-01,6.586622595787048340e-01,6.586400866508483887e-01,6.586179137229919434e-01,6.585958003997802734e-01,6.585736274719238281e-01,6.585514545440673828e-01,6.585292816162109375e-01,6.585071682929992676e-01,6.584849953651428223e-01,6.584628820419311523e-01,6.584407091140747070e-01,6.584185957908630371e-01,6.583964228630065918e-01,6.583743095397949219e-01,6.583521366119384766e-01,6.583300232887268066e-01,6.583078503608703613e-01,6.582857370376586914e-01,6.582635641098022461e-01,6.582414507865905762e-01,6.582193374633789062e-01,6.581972241401672363e-01,6.581751108169555664e-01,6.581528782844543457e-01
6.349523067474365234e-01,6.349317431449890137e-01,6.349111199378967285e-01,6.348905563354492188e-01,6.348699927330017090e-01,6.348494291305541992e-01,6.348288059234619141e-01,6.348082423210144043e-01,6.347876191139221191e-01,6.347670555114746094e-01,6.347464323043823242e-01,6.347259283065795898e-01,6.347053050994873047e-01,6.346847414970397949e-01,6.346641182899475098e-01,6.346436142921447754e-01,6.346229910850524902e-01,6.346024274826049805e-01,6.345819234848022461e-01,6.345613002777099609e-01,6.345407366752624512e-01,6.345201730728149414e-01,6.344996094703674316e-01,6.344790458679199219e-01,6.344584822654724121e-01,6.344379186630249023e-01,6.344173550605773926e-01,6.343967914581298828e-01,6.343762874603271484e-01,6.343556642532348633e-01,6.343351602554321289e-01,6.343145966529846191e-01,6.342940330505371094e-01,6.342734694480895996e-01,6.342529654502868652e-01,6.342324018478393555e-01,6.342118382453918457e-01,6.341912746429443359e-01,6.341707706451416016e-01,6.341502070426940918e-01,6.341297030448913574e-01,6.341091394424438477e-01,6.340886354446411133e-01,6.340680718421936035e-01,6.340475082397460938e-01,6.340270042419433594e-01,6.340064406394958496e-01,6.339859366416931152e-01,6.339653730392456055e-01,6.339448690414428711e-01,6.339243650436401367e-01,6.339038014411926270e-01,6.338832974433898926e-01,6.338627338409423828e-01,6.338422298431396484e-01,6.338217258453369141e-01,6.338012218475341797e-01,6.337806582450866699e-01,6.337601542472839355e-01,6.337396502494812012e-01,6.337191462516784668e-01,6.336985826492309570e-01,6.336781382560729980e-01,6.336575746536254883e-01,6.336370706558227539e-01,6.336165666580200195e-01,6.335960626602172852e-01,6.335755586624145508e-01,6.335550546646118164e-01,6.335346102714538574e-01,6.335140466690063477e-01,6.334936022758483887e-01,6.334730386734008789e-01,6.334525942802429199e-01,6.334320902824401855e-01,6.334115862846374512e-01,6.333910822868347168e-01,6.333705782890319824e-01,6.333500742912292480e-01,6.333296298980712891e-01
