3.098565578460693359e+00,3.177166938781738281e+00,3.259859800338745117e+00,3.346963882446289062e+00,3.438850164413452148e+00,3.535923719406127930e+00,3.638636827468872070e+00,3.747496128082275391e+00,3.863069534301757812e+00,3.985998630523681641e+00,4.117008209228515625e+00,4.256922721862792969e+00,4.406682014465332031e+00,4.567361831665039062e+00,4.740202903747558594e+00,4.926640510559082031e+00,5.000000000000000000e+00,5.000000000000000000e+00,5.000000000000000000e+00,5.000000000000000000e+00,5.000000000000000000e+00,5.000000000000000000e+00,5.000000000000000000e+00,5.000000000000000000e+00,5.000000000000000000e+00,5.000000000000000000e+00,5.000000000000000000e+00,5.000000000000000000e+00,5.000000000000000000e+00,5.000000000000000000e+00,5.000000000000000000e+00,5.000000000000000000e+00,5.000000000000000000e+00,5.000000000000000000e+00,5.000000000000000000e+00,5.000000000000000000e+00,5.000000000000000000e+00,5.000000000000000000e+00,5.000000000000000000e+00,5.000000000000000000e+00,5.000000000000000000e+00,5.000000000000000000e+00,5.000000000000000000e+00,5.000000000000000000e+00,5.000000000000000000e+00,5.000000000000000000e+00,5.000000000000000000e+00,5.000000000000000000e+00,5.000000000000000000e+00,5.000000000000000000e+00,5.000000000000000000e+00,5.000000000000000000e+00,5.000000000000000000e+00,5.000000000000000000e+00,5.000000000000000000e+00,5.000000000000000000e+00,5.000000000000000000e+00,5.000000000000000000e+00,5.000000000000000000e+00,5.000000000000000000e+00,5.000000000000000000e+00,5.000000000000000000e+00,5.000000000000000000e+00,5.000000000000000000e+00,5.000000000000000000e+00,5.000000000000000000e+00,5.000000000000000000e+00,5.000000000000000000e+00,5.000000000000000000e+00,5.000000000000000000e+00,4.843968868255615234e+00,4.685561656951904297e+00,4.537187099456787109e+00,4.397921085357666016e+00,4.266949176788330078e+00,4.143553256988525391e+00,4.027093410491943359e+00,3.917001247406005859e+00,3.812767982482910156e+00,3.713938474655151367e+00
3.098499059677124023e+00,3.177096843719482422e+00,3.259786128997802734e+00,3.346894502639770508e+00,3.438777923583984375e+00,3.535846948623657227e+00,3.638556003570556641e+00,3.747409820556640625e+00,3.862978219985961914e+00,3.985901594161987305e+00,4.116904735565185547e+00,4.256812095642089844e+00,4.406562805175781250e+00,4.567234039306640625e+00,4.740065574645996094e+00,4.926492214202880859e+00,5.000000000000000000e+00,5.000000000000000000e+00,5.000000000000000000e+00,5.000000000000000000e+00,5.000000000000000000e+00,5.000000000000000000e+00,5.000000000000000000e+00,5.000000000000000000e+00,5.000000000000000000e+00,5.000000000000000000e+00,5.000000000000000000e+00,5.000000000000000000e+00,5.000000000000000000e+00,5.000000000000000000e+00,5.000000000000000000e+00,5.000000000000000000e+00,5.000000000000000000e+00,5.000000000000000000e+00,5.000000000000000000e+00,5.000000000000000000e+00,5.000000000000000000e+00,5.000000000000000000e+00,5.000000000000000000e+00,5.000000000000000000e+00,5.000000000000000000e+00,5.000000000000000000e+00,5.000000000000000000e+00,5.000000000000000000e+00,5.000000000000000000e+00,5.000000000000000000e+00,5.000000000000000000e+00,5.000000000000000000e+00,5.000000000000000000e+00,5.000000000000000000e+00,5.000000000000000000e+00,5.000000000000000000e+00,5.000000000000000000e+00,5.000000000000000000e+00,5.000000000000000000e+00,5.000000000000000000e+00,5.000000000000000000e+00,5.000000000000000000e+00,5.000000000000000000e+00,5.000000000000000000e+00,5.000000000000000000e+00,5.000000000000000000e+00,5.000000000000000000e+00,5.000000000000000000e+00,5.000000000000000000e+00,5.000000000000000000e+00,5.000000000000000000e+00,5.000000000000000000e+00,5.000000000000000000e+00,5.000000000000000000e+00,4.844110965728759766e+00,4.685694694519042969e+00,4.537311553955078125e+00,4.398038387298583984e+00,4.267059803009033203e+00,4.143657207489013672e+00,4.027191638946533203e+00,3.917094230651855469e+00,3.812856435775756836e+00,3.714022397994995117e+00
3.098432540893554688e+00,3.177027225494384766e+00,3.259712696075439453e+00,3.346817016601562500e+00,3.438704490661621094e+00,3.535770654678344727e+00,3.638475179672241211e+00,3.747323989868164062e+00,3.862887144088745117e+00,3.985804080963134766e+00,4.116801261901855469e+00,4.256700992584228516e+00,4.406444072723388672e+00,4.567106723785400391e+00,4.739928245544433594e+00,4.926343441009521484e+00,5.000000000000000000e+00,5.000000000000000000e+00,5.000000000000000000e+00,5.000000000000000000e+00,5.000000000000000000e+00,5.000000000000000000e+00,5.000000000000000000e+00,5.000000000000000000e+00,5.000000000000000000e+00,5.000000000000000000e+00,5.000000000000000000e+00,5.000000000000000000e+00,5.000000000000000000e+00,5.000000000000000000e+00,5.000000000000000000e+00,5.000000000000000000e+00,5.000000000000000000e+00,5.000000000000000000e+00,5.000000000000000000e+00,5.000000000000000000e+00,5.000000000000000000e+00,5.000000000000000000e+00,5.000000000000000000e+00,5.000000000000000000e+00,5.000000000000000000e+00,5.000000000000000000e+00,5.000000000000000000e+00,5.000000000000000000e+00,5.000000000000000000e+00,5.000000000000000000e+00,5.000000000000000000e+00,5.000000000000000000e+00,5.000000000000000000e+00,5.000000000000000000e+00,5.000000000000000000e+00,5.000000000000000000e+00,5.000000000000000000e+00,5.000000000000000000e+00,5.000000000000000000e+00,5.000000000000000000e+00,5.000000000000000000e+00,5.000000000000000000e+00,5.000000000000000000e+00,5.000000000000000000e+00,5.000000000000000000e+00,5.000000000000000000e+00,5.000000000000000000e+00,5.000000000000000000e+00,5.000000000000000000e+00,5.000000000000000000e+00,5.000000000000000000e+00,5.000000000000000000e+00,5.000000000000000000e+00,5.000000000000000000e+00,4.844253540039062500e+00,4.685827732086181641e+00,4.537436485290527344e+00,4.398155212402343750e+00,4.267169952392578125e+00,4.143761157989501953e+00,4.027289867401123047e+00,3.917186975479125977e+00,3.812944412231445312e+00,3.714105844497680664e+00
3.098366260528564453e+00,3.176957368850708008e+00,3.259639263153076172e+00,3.346739530563354492e+00,3.438622713088989258e+00,3.535693407058715820e+00,3.638393878936767578e+00,3.747238159179687500e+00,3.862795829772949219e+00,3.985707044601440430e+00,4.116697311401367188e+00,4.256590366363525391e+00,4.406325340270996094e+00,4.566978931427001953e+00,4.739790439605712891e+00,4.926195144653320312e+00,5.000000000000000000e+00,5.000000000000000000e+00,5.000000000000000000e+00,5.000000000000000000e+00,5.000000000000000000e+00,5.000000000000000000e+00,5.000000000000000000e+00,5.000000000000000000e+00,5.000000000000000000e+00,5.000000000000000000e+00,5.000000000000000000e+00,5.000000000000000000e+00,5.000000000000000000e+00,5.000000000000000000e+00,5.000000000000000000e+00,5.000000000000000000e+00,5.000000000000000000e+00,5.000000000000000000e+00,5.000000000000000000e+00,5.000000000000000000e+00,5.000000000000000000e+00,5.000000000000000000e+00,5.000000000000000000e+00,5.000000000000000000e+00,5.000000000000000000e+00,5.000000000000000000e+00,5.000000000000000000e+00,5.000000000000000000e+00,5.000000000000000000e+00,5.000000000000000000e+00,5.000000000000000000e+00,5.000000000000000000e+00,5.000000000000000000e+00,5.000000000000000000e+00,5.000000000000000000e+00,5.000000000000000000e+00,5.000000000000000000e+00,5.000000000000000000e+00,5.000000000000000000e+00,5.000000000000000000e+00,5.000000000000000000e+00,5.000000000000000000e+00,5.000000000000000000e+00,5.000000000000000000e+00,5.000000000000000000e+00,5.000000000000000000e+00,5.000000000000000000e+00,5.000000000000000000e+00,5.000000000000000000e+00,5.000000000000000000e+00,5.000000000000000000e+00,5.000000000000000000e+00,5.000000000000000000e+00,5.000000000000000000e+00,4.844395637512207031e+00,4.685960769653320312e+00,4.537561416625976562e+00,4.398272514343261719e+00,4.267280578613281250e+00,4.143865108489990234e+00,4.027388095855712891e+00,3.917280197143554688e+00,3.813036680221557617e+00,3.714199066162109375e+00
3.098299503326416016e+00,3.176887512207031250e+00,3.259565830230712891e+00,3.346662282943725586e+00,3.438541173934936523e+00,3.535607099533081055e+00,3.638312578201293945e+00,3.747152566909790039e+00,3.862704277038574219e+00,3.985610008239746094e+00,4.116593360900878906e+00,4.256479740142822266e+00,4.406206607818603516e+00,4.566851139068603516e+00,4.739653110504150391e+00,4.926046371459960938e+00,5.000000000000000000e+00,5.000000000000000000e+00,5.000000000000000000e+00,5.000000000000000000e+00,5.000000000000000000e+00,5.000000000000000000e+00,5.000000000000000000e+00,5.000000000000000000e+00,5.000000000000000000e+00,5.000000000000000000e+00,5.000000000000000000e+00,5.000000000000000000e+00,5.000000000000000000e+00,5.000000000000000000e+00,5.000000000000000000e+00,5.000000000000000000e+00,5.000000000000000000e+00,5.000000000000000000e+00,5.000000000000000000e+00,5.000000000000000000e+00,5.000000000000000000e+00,5.000000000000000000e+00,5.000000000000000000e+00,5.000000000000000000e+00,5.000000000000000000e+00,5.000000000000000000e+00,5.000000000000000000e+00,5.000000000000000000e+00,5.000000000000000000e+00,5.000000000000000000e+00,5.000000000000000000e+00,5.000000000000000000e+00,5.000000000000000000e+00,3.919063568115234375e+00,3.902391672134399414e+00,5.000000000000000000e+00,5.000000000000000000e+00,5.000000000000000000e+00,5.000000000000000000e+00,5.000000000000000000e+00,5.000000000000000000e+00,5.000000000000000000e+00,5.000000000000000000e+00,5.000000000000000000e+00,5.000000000000000000e+00,5.000000000000000000e+00,5.000000000000000000e+00,5.000000000000000000e+00,5.000000000000000000e+00,5.000000000000000000e+00,5.000000000000000000e+00,5.000000000000000000e+00,5.000000000000000000e+00,5.000000000000000000e+00,4.844538211822509766e+00,4.686094284057617188e+00,4.537686347961425781e+00,4.398389816284179688e+00,4.267391204833984375e+00,4.143971443176269531e+00,4.027494907379150391e+00,3.917387723922729492e+00,3.813140630722045898e+00,3.714297533035278320e+00
3.098233222961425781e+00,3.176817417144775391e+00,3.259491920471191406e+00,3.346584320068359375e+00,3.438458919525146484e+00,3.535520315170288086e+00,3.638220548629760742e+00,3.747065782546997070e+00,3.862613201141357422e+00,3.985512971878051758e+00,4.116489887237548828e+00,4.256368637084960938e+00,4.406087398529052734e+00,4.566723823547363281e+00,4.739515781402587891e+00,4.925898075103759766e+00,5.000000000000000000e+00,5.000000000000000000e+00,5.000000000000000000e+00,5.000000000000000000e+00,5.000000000000000000e+00,5.000000000000000000e+00,5.000000000000000000e+00,5.000000000000000000e+00,5.000000000000000000e+00,5.000000000000000000e+00,5.000000000000000000e+00,5.000000000000000000e+00,5.000000000000000000e+00,5.000000000000000000e+00,5.000000000000000000e+00,5.000000000000000000e+00,5.000000000000000000e+00,5.000000000000000000e+00,5.000000000000000000e+00,5.000000000000000000e+00,5.000000000000000000e+00,5.000000000000000000e+00,5.000000000000000000e+00,5.000000000000000000e+00,5.000000000000000000e+00,5.000000000000000000e+00,5.000000000000000000e+00,5.000000000000000000e+00,5.000000000000000000e+00,5.000000000000000000e+00,5.000000000000000000e+00,5.000000000000000000e+00,5.000000000000000000e+00,3.906796932220458984e+00,3.892622709274291992e+00,5.000000000000000000e+00,5.000000000000000000e+00,5.000000000000000000e+00,5.000000000000000000e+00,5.000000000000000000e+00,5.000000000000000000e+00,5.000000000000000000e+00,5.000000000000000000e+00,5.000000000000000000e+00,5.000000000000000000e+00,5.000000000000000000e+00,5.000000000000000000e+00,5.000000000000000000e+00,5.000000000000000000e+00,5.000000000000000000e+00,5.000000000000000000e+00,5.000000000000000000e+00,5.000000000000000000e+00,5.000000000000000000e+00,4.844680309295654297e+00,4.686227321624755859e+00,4.537811279296875000e+00,4.398514270782470703e+00,4.267515659332275391e+00,4.144093990325927734e+00,4.027611255645751953e+00,3.917497396469116211e+00,3.813244342803955078e+00,3.714395999908447266e+00
3.098166942596435547e+00,3.176747560501098633e+00,3.259418487548828125e+00,3.346507072448730469e+00,3.438377141952514648e+00,3.535433769226074219e+00,3.638128995895385742e+00,3.746968746185302734e+00,3.862521648406982422e+00,3.985415458679199219e+00,4.116386413574218750e+00,4.256258010864257812e+00,4.405969142913818359e+00,4.566596031188964844e+00,4.739377975463867188e+00,4.925749778747558594e+00,5.000000000000000000e+00,5.000000000000000000e+00,5.000000000000000000e+00,5.000000000000000000e+00,5.000000000000000000e+00,5.000000000000000000e+00,5.000000000000000000e+00,5.000000000000000000e+00,5.000000000000000000e+00,5.000000000000000000e+00,5.000000000000000000e+00,5.000000000000000000e+00,5.000000000000000000e+00,5.000000000000000000e+00,5.000000000000000000e+00,5.000000000000000000e+00,5.000000000000000000e+00,5.000000000000000000e+00,5.000000000000000000e+00,5.000000000000000000e+00,5.000000000000000000e+00,5.000000000000000000e+00,5.000000000000000000e+00,5.000000000000000000e+00,5.000000000000000000e+00,5.000000000000000000e+00,5.000000000000000000e+00,5.000000000000000000e+00,5.000000000000000000e+00,5.000000000000000000e+00,5.000000000000000000e+00,5.000000000000000000e+00,5.000000000000000000e+00,3.923583030700683594e+00,3.902246236801147461e+00,5.000000000000000000e+00,5.000000000000000000e+00,5.000000000000000000e+00,5.000000000000000000e+00,5.000000000000000000e+00,5.000000000000000000e+00,5.000000000000000000e+00,5.000000000000000000e+00,5.000000000000000000e+00,5.000000000000000000e+00,5.000000000000000000e+00,5.000000000000000000e+00,5.000000000000000000e+00,5.000000000000000000e+00,5.000000000000000000e+00,5.000000000000000000e+00,5.000000000000000000e+00,5.000000000000000000e+00,5.000000000000000000e+00,4.844827175140380859e+00,4.686373710632324219e+00,4.537957191467285156e+00,4.398652553558349609e+00,4.267645359039306641e+00,4.144217014312744141e+00,4.027727127075195312e+00,3.917606830596923828e+00,3.813348293304443359e+00,3.714494705200195312e+00
3.098100423812866211e+00,3.176677942276000977e+00,3.259345054626464844e+00,3.346429586410522461e+00,3.438295364379882812e+00,3.535347461700439453e+00,3.638037681579589844e+00,3.746871709823608398e+00,3.862418413162231445e+00,3.985318422317504883e+00,4.116282463073730469e+00,4.256146907806396484e+00,4.405849933624267578e+00,4.566468238830566406e+00,4.739241123199462891e+00,4.925601005554199219e+00,5.000000000000000000e+00,5.000000000000000000e+00,5.000000000000000000e+00,5.000000000000000000e+00,5.000000000000000000e+00,5.000000000000000000e+00,5.000000000000000000e+00,5.000000000000000000e+00,5.000000000000000000e+00,5.000000000000000000e+00,5.000000000000000000e+00,5.000000000000000000e+00,5.000000000000000000e+00,5.000000000000000000e+00,5.000000000000000000e+00,5.000000000000000000e+00,5.000000000000000000e+00,5.000000000000000000e+00,5.000000000000000000e+00,5.000000000000000000e+00,5.000000000000000000e+00,5.000000000000000000e+00,5.000000000000000000e+00,5.000000000000000000e+00,5.000000000000000000e+00,5.000000000000000000e+00,5.000000000000000000e+00,5.000000000000000000e+00,5.000000000000000000e+00,5.000000000000000000e+00,5.000000000000000000e+00,5.000000000000000000e+00,5.000000000000000000e+00,3.975406169891357422e+00,5.000000000000000000e+00,5.000000000000000000e+00,5.000000000000000000e+00,5.000000000000000000e+00,5.000000000000000000e+00,5.000000000000000000e+00,5.000000000000000000e+00,5.000000000000000000e+00,5.000000000000000000e+00,5.000000000000000000e+00,5.000000000000000000e+00,5.000000000000000000e+00,5.000000000000000000e+00,5.000000000000000000e+00,5.000000000000000000e+00,5.000000000000000000e+00,5.000000000000000000e+00,5.000000000000000000e+00,5.000000000000000000e+00,5.000000000000000000e+00,4.844995021820068359e+00,4.686531066894531250e+00,4.538104534149169922e+00,4.398790359497070312e+00,4.267776012420654297e+00,4.144339561462402344e+00,4.027842521667480469e+00,3.917716503143310547e+00,3.813452243804931641e+00,3.714592933654785156e+00
3.098033905029296875e+00,3.176607847213745117e+00,3.259271383285522461e+00,3.346351861953735352e+00,3.438213348388671875e+00,3.535260915756225586e+00,3.637946128845214844e+00,3.746774673461914062e+00,3.862315416336059570e+00,3.985208511352539062e+00,4.116178989410400391e+00,4.256035804748535156e+00,4.405731678009033203e+00,4.566340923309326172e+00,4.739103317260742188e+00,4.925452709197998047e+00,5.000000000000000000e+00,5.000000000000000000e+00,5.000000000000000000e+00,5.000000000000000000e+00,5.000000000000000000e+00,5.000000000000000000e+00,5.000000000000000000e+00,5.000000000000000000e+00,5.000000000000000000e+00,5.000000000000000000e+00,5.000000000000000000e+00,5.000000000000000000e+00,5.000000000000000000e+00,5.000000000000000000e+00,5.000000000000000000e+00,5.000000000000000000e+00,5.000000000000000000e+00,5.000000000000000000e+00,5.000000000000000000e+00,5.000000000000000000e+00,5.000000000000000000e+00,5.000000000000000000e+00,5.000000000000000000e+00,5.000000000000000000e+00,5.000000000000000000e+00,5.000000000000000000e+00,5.000000000000000000e+00,5.000000000000000000e+00,5.000000000000000000e+00,5.000000000000000000e+00,3.915911912918090820e+00,3.865445852279663086e+00,3.895036697387695312e+00,3.897678136825561523e+00,3.923310995101928711e+00,4.002083301544189453e+00,4.043553829193115234e+00,5.000000000000000000e+00,5.000000000000000000e+00,5.000000000000000000e+00,5.000000000000000000e+00,5.000000000000000000e+00,5.000000000000000000e+00,5.000000000000000000e+00,5.000000000000000000e+00,5.000000000000000000e+00,5.000000000000000000e+00,5.000000000000000000e+00,5.000000000000000000e+00,5.000000000000000000e+00,5.000000000000000000e+00,5.000000000000000000e+00,5.000000000000000000e+00,5.000000000000000000e+00,4.845162868499755859e+00,4.686687946319580078e+00,4.538251399993896484e+00,4.398929119110107422e+00,4.267905712127685547e+00,4.144462108612060547e+00,4.027958869934082031e+00,3.917826414108276367e+00,3.813555955886840820e+00,3.714691638946533203e+00
3.097967386245727539e+00,3.176537990570068359e+00,3.259197950363159180e+00,3.346274375915527344e+00,3.438131570816040039e+00,3.535174131393432617e+00,3.637854099273681641e+00,3.746677160263061523e+00,3.862211704254150391e+00,3.985098361968994141e+00,4.116061687469482422e+00,4.255925178527832031e+00,4.405612468719482422e+00,4.566213130950927734e+00,4.738965988159179688e+00,4.925304412841796875e+00,5.000000000000000000e+00,5.000000000000000000e+00,5.000000000000000000e+00,5.000000000000000000e+00,5.000000000000000000e+00,5.000000000000000000e+00,5.000000000000000000e+00,5.000000000000000000e+00,5.000000000000000000e+00,5.000000000000000000e+00,5.000000000000000000e+00,5.000000000000000000e+00,5.000000000000000000e+00,5.000000000000000000e+00,5.000000000000000000e+00,5.000000000000000000e+00,5.000000000000000000e+00,5.000000000000000000e+00,5.000000000000000000e+00,5.000000000000000000e+00,5.000000000000000000e+00,5.000000000000000000e+00,5.000000000000000000e+00,5.000000000000000000e+00,5.000000000000000000e+00,5.000000000000000000e+00,5.000000000000000000e+00,5.000000000000000000e+00,5.000000000000000000e+00,5.000000000000000000e+00,3.894198179244995117e+00,3.869481801986694336e+00,3.866771459579467773e+00,3.851002216339111328e+00,3.862016439437866211e+00,3.897496461868286133e+00,4.044829368591308594e+00,5.000000000000000000e+00,5.000000000000000000e+00,5.000000000000000000e+00,5.000000000000000000e+00,5.000000000000000000e+00,5.000000000000000000e+00,5.000000000000000000e+00,5.000000000000000000e+00,5.000000000000000000e+00,5.000000000000000000e+00,5.000000000000000000e+00,5.000000000000000000e+00,5.000000000000000000e+00,5.000000000000000000e+00,5.000000000000000000e+00,5.000000000000000000e+00,5.000000000000000000e+00,4.845330238342285156e+00,4.686844348907470703e+00,4.538398742675781250e+00,4.399066925048828125e+00,4.268035888671875000e+00,4.144584655761718750e+00,4.028074741363525391e+00,3.917935609817504883e+00,3.813659906387329102e+00,3.714790344238281250e+00
3.097901105880737305e+00,3.176468372344970703e+00,3.259124279022216797e+00,3.346197128295898438e+00,3.438050031661987305e+00,3.535087823867797852e+00,3.637762784957885742e+00,3.746580123901367188e+00,3.862108469009399414e+00,3.984988451004028320e+00,4.115944862365722656e+00,4.255800247192382812e+00,4.405493736267089844e+00,4.566085815429687500e+00,4.738828659057617188e+00,4.925155639648437500e+00,5.000000000000000000e+00,5.000000000000000000e+00,5.000000000000000000e+00,5.000000000000000000e+00,5.000000000000000000e+00,5.000000000000000000e+00,5.000000000000000000e+00,5.000000000000000000e+00,5.000000000000000000e+00,5.000000000000000000e+00,5.000000000000000000e+00,5.000000000000000000e+00,5.000000000000000000e+00,5.000000000000000000e+00,5.000000000000000000e+00,5.000000000000000000e+00,5.000000000000000000e+00,5.000000000000000000e+00,5.000000000000000000e+00,5.000000000000000000e+00,5.000000000000000000e+00,5.000000000000000000e+00,5.000000000000000000e+00,5.000000000000000000e+00,5.000000000000000000e+00,5.000000000000000000e+00,5.000000000000000000e+00,5.000000000000000000e+00,5.000000000000000000e+00,5.000000000000000000e+00,3.928588628768920898e+00,3.881789445877075195e+00,3.876851081848144531e+00,3.858539342880249023e+00,3.864863395690917969e+00,3.901207923889160156e+00,4.066437244415283203e+00,5.000000000000000000e+00,5.000000000000000000e+00,5.000000000000000000e+00,5.000000000000000000e+00,5.000000000000000000e+00,5.000000000000000000e+00,5.000000000000000000e+00,5.000000000000000000e+00,5.000000000000000000e+00,5.000000000000000000e+00,5.000000000000000000e+00,5.000000000000000000e+00,5.000000000000000000e+00,5.000000000000000000e+00,5.000000000000000000e+00,5.000000000000000000e+00,5.000000000000000000e+00,4.845498085021972656e+00,4.687001228332519531e+00,4.538545608520507812e+00,4.399205207824707031e+00,4.268166065216064453e+00,4.144707679748535156e+00,4.028190612792968750e+00,3.918045520782470703e+00,3.813763856887817383e+00,3.714888811111450195e+00
3.097834348678588867e+00,3.176398515701293945e+00,3.259050846099853516e+00,3.346119642257690430e+00,3.437968254089355469e+00,3.535001277923583984e+00,3.637671232223510742e+00,3.746483087539672852e+00,3.862005472183227539e+00,3.984878540039062500e+00,4.115827083587646484e+00,4.255674839019775391e+00,4.405360221862792969e+00,4.565958023071289062e+00,4.738691329956054688e+00,4.925007343292236328e+00,5.000000000000000000e+00,5.000000000000000000e+00,5.000000000000000000e+00,5.000000000000000000e+00,5.000000000000000000e+00,5.000000000000000000e+00,5.000000000000000000e+00,5.000000000000000000e+00,5.000000000000000000e+00,5.000000000000000000e+00,5.000000000000000000e+00,5.000000000000000000e+00,5.000000000000000000e+00,5.000000000000000000e+00,5.000000000000000000e+00,5.000000000000000000e+00,5.000000000000000000e+00,5.000000000000000000e+00,5.000000000000000000e+00,5.000000000000000000e+00,5.000000000000000000e+00,5.000000000000000000e+00,5.000000000000000000e+00,5.000000000000000000e+00,5.000000000000000000e+00,5.000000000000000000e+00,5.000000000000000000e+00,5.000000000000000000e+00,5.000000000000000000e+00,5.000000000000000000e+00,5.000000000000000000e+00,3.881591796875000000e+00,3.892157316207885742e+00,3.860163927078247070e+00,3.858312845230102539e+00,3.895394563674926758e+00,4.086373805999755859e+00,5.000000000000000000e+00,5.000000000000000000e+00,5.000000000000000000e+00,5.000000000000000000e+00,5.000000000000000000e+00,5.000000000000000000e+00,5.000000000000000000e+00,5.000000000000000000e+00,5.000000000000000000e+00,5.000000000000000000e+00,5.000000000000000000e+00,5.000000000000000000e+00,5.000000000000000000e+00,5.000000000000000000e+00,5.000000000000000000e+00,5.000000000000000000e+00,5.000000000000000000e+00,4.845665454864501953e+00,4.687158584594726562e+00,4.538692474365234375e+00,4.399343490600585938e+00,4.268296241760253906e+00,4.144830226898193359e+00,4.028306007385253906e+00,3.918155193328857422e+00,3.813867568969726562e+00,3.714987516403198242e+00
3.097768068313598633e+00,3.176328420639038086e+00,3.258977174758911133e+00,3.346041917800903320e+00,3.437886238098144531e+00,3.534914731979370117e+00,3.637579202651977539e+00,3.746385574340820312e+00,3.861901760101318359e+00,3.984768390655517578e+00,4.115710258483886719e+00,4.255549430847167969e+00,4.405225753784179688e+00,4.565814971923828125e+00,4.738554000854492188e+00,4.924859046936035156e+00,5.000000000000000000e+00,5.000000000000000000e+00,5.000000000000000000e+00,5.000000000000000000e+00,5.000000000000000000e+00,5.000000000000000000e+00,5.000000000000000000e+00,5.000000000000000000e+00,5.000000000000000000e+00,5.000000000000000000e+00,5.000000000000000000e+00,5.000000000000000000e+00,5.000000000000000000e+00,5.000000000000000000e+00,5.000000000000000000e+00,5.000000000000000000e+00,5.000000000000000000e+00,5.000000000000000000e+00,5.000000000000000000e+00,5.000000000000000000e+00,5.000000000000000000e+00,5.000000000000000000e+00,5.000000000000000000e+00,5.000000000000000000e+00,5.000000000000000000e+00,5.000000000000000000e+00,5.000000000000000000e+00,5.000000000000000000e+00,5.000000000000000000e+00,5.000000000000000000e+00,5.000000000000000000e+00,3.881710290908813477e+00,3.903703689575195312e+00,3.857450008392333984e+00,3.864633560180664062e+00,3.892232179641723633e+00,5.000000000000000000e+00,5.000000000000000000e+00,5.000000000000000000e+00,5.000000000000000000e+00,5.000000000000000000e+00,5.000000000000000000e+00,5.000000000000000000e+00,5.000000000000000000e+00,5.000000000000000000e+00,5.000000000000000000e+00,5.000000000000000000e+00,5.000000000000000000e+00,5.000000000000000000e+00,5.000000000000000000e+00,5.000000000000000000e+00,5.000000000000000000e+00,5.000000000000000000e+00,5.000000000000000000e+00,4.845833301544189453e+00,4.687315464019775391e+00,4.538839817047119141e+00,4.399481773376464844e+00,4.268426418304443359e+00,4.144952774047851562e+00,4.028422355651855469e+00,3.918264627456665039e+00,3.813971519470214844e+00,3.715086221694946289e+00
3.097663164138793945e+00,3.176240444183349609e+00,3.258903741836547852e+00,3.345964431762695312e+00,3.437804460525512695e+00,3.534828186035156250e+00,3.637487888336181641e+00,3.746288537979125977e+00,3.861798763275146484e+00,3.984658479690551758e+00,4.115592956542968750e+00,4.255424022674560547e+00,4.405091285705566406e+00,4.565670490264892578e+00,4.738399505615234375e+00,4.924710273742675781e+00,5.000000000000000000e+00,5.000000000000000000e+00,5.000000000000000000e+00,5.000000000000000000e+00,5.000000000000000000e+00,5.000000000000000000e+00,5.000000000000000000e+00,5.000000000000000000e+00,5.000000000000000000e+00,5.000000000000000000e+00,5.000000000000000000e+00,5.000000000000000000e+00,5.000000000000000000e+00,5.000000000000000000e+00,5.000000000000000000e+00,5.000000000000000000e+00,5.000000000000000000e+00,5.000000000000000000e+00,5.000000000000000000e+00,5.000000000000000000e+00,5.000000000000000000e+00,5.000000000000000000e+00,5.000000000000000000e+00,5.000000000000000000e+00,5.000000000000000000e+00,5.000000000000000000e+00,5.000000000000000000e+00,5.000000000000000000e+00,5.000000000000000000e+00,5.000000000000000000e+00,5.000000000000000000e+00,3.873335123062133789e+00,3.890833377838134766e+00,3.866334438323974609e+00,3.849699974060058594e+00,3.876161336898803711e+00,5.000000000000000000e+00,5.000000000000000000e+00,5.000000000000000000e+00,5.000000000000000000e+00,5.000000000000000000e+00,5.000000000000000000e+00,5.000000000000000000e+00,5.000000000000000000e+00,5.000000000000000000e+00,5.000000000000000000e+00,5.000000000000000000e+00,5.000000000000000000e+00,5.000000000000000000e+00,5.000000000000000000e+00,5.000000000000000000e+00,5.000000000000000000e+00,5.000000000000000000e+00,5.000000000000000000e+00,4.846001148223876953e+00,4.687472343444824219e+00,4.538987159729003906e+00,4.399620056152343750e+00,4.268556118011474609e+00,4.145075798034667969e+00,4.028538227081298828e+00,3.918374538421630859e+00,3.814075231552124023e+00,3.715184450149536133e+00
3.097548246383666992e+00,3.176119565963745117e+00,3.258780717849731445e+00,3.345859766006469727e+00,3.437719821929931641e+00,3.534741878509521484e+00,3.637396335601806641e+00,3.746191501617431641e+00,3.861695766448974609e+00,3.984548807144165039e+00,4.115475177764892578e+00,4.255298614501953125e+00,4.404957294464111328e+00,4.565526485443115234e+00,4.738244533538818359e+00,4.924544334411621094e+00,5.000000000000000000e+00,5.000000000000000000e+00,5.000000000000000000e+00,5.000000000000000000e+00,5.000000000000000000e+00,5.000000000000000000e+00,5.000000000000000000e+00,5.000000000000000000e+00,5.000000000000000000e+00,5.000000000000000000e+00,5.000000000000000000e+00,5.000000000000000000e+00,5.000000000000000000e+00,5.000000000000000000e+00,5.000000000000000000e+00,5.000000000000000000e+00,5.000000000000000000e+00,5.000000000000000000e+00,5.000000000000000000e+00,5.000000000000000000e+00,5.000000000000000000e+00,5.000000000000000000e+00,5.000000000000000000e+00,5.000000000000000000e+00,5.000000000000000000e+00,5.000000000000000000e+00,5.000000000000000000e+00,5.000000000000000000e+00,5.000000000000000000e+00,5.000000000000000000e+00,5.000000000000000000e+00,3.833369016647338867e+00,3.881545782089233398e+00,3.859201669692993164e+00,3.859751462936401367e+00,3.900983572006225586e+00,5.000000000000000000e+00,5.000000000000000000e+00,5.000000000000000000e+00,5.000000000000000000e+00,5.000000000000000000e+00,5.000000000000000000e+00,5.000000000000000000e+00,5.000000000000000000e+00,5.000000000000000000e+00,5.000000000000000000e+00,5.000000000000000000e+00,5.000000000000000000e+00,5.000000000000000000e+00,5.000000000000000000e+00,5.000000000000000000e+00,5.000000000000000000e+00,5.000000000000000000e+00,5.000000000000000000e+00,4.846168518066406250e+00,4.687629222869873047e+00,4.539134025573730469e+00,4.399758338928222656e+00,4.268686294555664062e+00,4.145198345184326172e+00,4.028654098510742188e+00,3.918483734130859375e+00,3.814179182052612305e+00,3.715283155441284180e+00
3.097445249557495117e+00,3.175998687744140625e+00,3.258653402328491211e+00,3.345725297927856445e+00,3.437578439712524414e+00,3.534616708755493164e+00,3.637293100357055664e+00,3.746094465255737305e+00,3.861592531204223633e+00,3.984439134597778320e+00,4.115358352661132812e+00,4.255173683166503906e+00,4.404822826385498047e+00,4.565382003784179688e+00,4.738089084625244141e+00,4.924376487731933594e+00,5.000000000000000000e+00,5.000000000000000000e+00,5.000000000000000000e+00,5.000000000000000000e+00,5.000000000000000000e+00,5.000000000000000000e+00,5.000000000000000000e+00,5.000000000000000000e+00,5.000000000000000000e+00,5.000000000000000000e+00,5.000000000000000000e+00,5.000000000000000000e+00,5.000000000000000000e+00,5.000000000000000000e+00,5.000000000000000000e+00,5.000000000000000000e+00,5.000000000000000000e+00,5.000000000000000000e+00,5.000000000000000000e+00,5.000000000000000000e+00,5.000000000000000000e+00,5.000000000000000000e+00,5.000000000000000000e+00,5.000000000000000000e+00,5.000000000000000000e+00,5.000000000000000000e+00,5.000000000000000000e+00,5.000000000000000000e+00,5.000000000000000000e+00,5.000000000000000000e+00,5.000000000000000000e+00,3.800735950469970703e+00,3.816935300827026367e+00,3.861725568771362305e+00,3.906959772109985352e+00,3.875676155090332031e+00,3.906343698501586914e+00,5.000000000000000000e+00,5.000000000000000000e+00,5.000000000000000000e+00,5.000000000000000000e+00,5.000000000000000000e+00,5.000000000000000000e+00,5.000000000000000000e+00,5.000000000000000000e+00,5.000000000000000000e+00,5.000000000000000000e+00,5.000000000000000000e+00,5.000000000000000000e+00,5.000000000000000000e+00,5.000000000000000000e+00,5.000000000000000000e+00,5.000000000000000000e+00,5.000000000000000000e+00,4.846336364746093750e+00,4.687786102294921875e+00,4.539281368255615234e+00,4.399896144866943359e+00,4.268816471099853516e+00,4.145320892333984375e+00,4.028769969940185547e+00,3.918593645095825195e+00,3.814283132553100586e+00,3.715381622314453125e+00
3.097378969192504883e+00,3.175919294357299805e+00,3.258546113967895508e+00,3.345591068267822266e+00,3.437436342239379883e+00,3.534466981887817383e+00,3.637134552001953125e+00,3.745944738388061523e+00,3.861466407775878906e+00,3.984328746795654297e+00,4.115241050720214844e+00,4.255048274993896484e+00,4.404688358306884766e+00,4.565237522125244141e+00,4.737933158874511719e+00,4.924208641052246094e+00,5.000000000000000000e+00,5.000000000000000000e+00,5.000000000000000000e+00,5.000000000000000000e+00,5.000000000000000000e+00,5.000000000000000000e+00,5.000000000000000000e+00,5.000000000000000000e+00,5.000000000000000000e+00,5.000000000000000000e+00,5.000000000000000000e+00,5.000000000000000000e+00,5.000000000000000000e+00,5.000000000000000000e+00,5.000000000000000000e+00,5.000000000000000000e+00,5.000000000000000000e+00,5.000000000000000000e+00,5.000000000000000000e+00,5.000000000000000000e+00,5.000000000000000000e+00,5.000000000000000000e+00,5.000000000000000000e+00,5.000000000000000000e+00,5.000000000000000000e+00,5.000000000000000000e+00,5.000000000000000000e+00,5.000000000000000000e+00,5.000000000000000000e+00,5.000000000000000000e+00,5.000000000000000000e+00,3.987641811370849609e+00,3.731643915176391602e+00,3.860442161560058594e+00,3.898422002792358398e+00,3.836242675781250000e+00,3.843830823898315430e+00,5.000000000000000000e+00,5.000000000000000000e+00,5.000000000000000000e+00,5.000000000000000000e+00,5.000000000000000000e+00,5.000000000000000000e+00,5.000000000000000000e+00,5.000000000000000000e+00,5.000000000000000000e+00,5.000000000000000000e+00,5.000000000000000000e+00,5.000000000000000000e+00,5.000000000000000000e+00,5.000000000000000000e+00,5.000000000000000000e+00,5.000000000000000000e+00,5.000000000000000000e+00,4.846504211425781250e+00,4.687942981719970703e+00,4.539428234100341797e+00,4.400034904479980469e+00,4.268946647644042969e+00,4.145443439483642578e+00,4.028885841369628906e+00,3.918703556060791016e+00,3.814386844635009766e+00,3.715480327606201172e+00
3.097312688827514648e+00,3.175849199295043945e+00,3.258472681045532227e+00,3.345510005950927734e+00,3.437324523925781250e+00,3.534320831298828125e+00,3.636976003646850586e+00,3.745776653289794922e+00,3.861287593841552734e+00,3.984149456024169922e+00,4.115087032318115234e+00,4.254922866821289062e+00,4.404554367065429688e+00,4.565093517303466797e+00,4.737778186798095703e+00,4.924040794372558594e+00,5.000000000000000000e+00,5.000000000000000000e+00,5.000000000000000000e+00,5.000000000000000000e+00,5.000000000000000000e+00,5.000000000000000000e+00,5.000000000000000000e+00,5.000000000000000000e+00,5.000000000000000000e+00,5.000000000000000000e+00,5.000000000000000000e+00,5.000000000000000000e+00,5.000000000000000000e+00,5.000000000000000000e+00,5.000000000000000000e+00,5.000000000000000000e+00,5.000000000000000000e+00,5.000000000000000000e+00,5.000000000000000000e+00,5.000000000000000000e+00,5.000000000000000000e+00,5.000000000000000000e+00,5.000000000000000000e+00,5.000000000000000000e+00,5.000000000000000000e+00,5.000000000000000000e+00,5.000000000000000000e+00,5.000000000000000000e+00,5.000000000000000000e+00,5.000000000000000000e+00,5.000000000000000000e+00,3.993677616119384766e+00,3.681859016418457031e+00,3.867226839065551758e+00,3.911945581436157227e+00,3.813594341278076172e+00,3.803375005722045898e+00,5.000000000000000000e+00,5.000000000000000000e+00,5.000000000000000000e+00,5.000000000000000000e+00,5.000000000000000000e+00,5.000000000000000000e+00,5.000000000000000000e+00,5.000000000000000000e+00,5.000000000000000000e+00,5.000000000000000000e+00,5.000000000000000000e+00,5.000000000000000000e+00,5.000000000000000000e+00,5.000000000000000000e+00,5.000000000000000000e+00,5.000000000000000000e+00,5.000000000000000000e+00,4.846672058105468750e+00,4.688099861145019531e+00,4.539575576782226562e+00,4.400172710418701172e+00,4.269076824188232422e+00,4.145566463470458984e+00,4.029001712799072266e+00,3.918812990188598633e+00,3.814491033554077148e+00,3.715579032897949219e+00
3.097245931625366211e+00,3.175779581069946289e+00,3.258399248123168945e+00,3.345432281494140625e+00,3.437242746353149414e+00,3.534234285354614258e+00,3.636858463287353516e+00,3.745621204376220703e+00,3.861109018325805664e+00,3.983959436416625977e+00,4.114884376525878906e+00,4.254706859588623047e+00,4.404365539550781250e+00,4.564937114715576172e+00,4.737622737884521484e+00,4.923872947692871094e+00,5.000000000000000000e+00,5.000000000000000000e+00,5.000000000000000000e+00,5.000000000000000000e+00,5.000000000000000000e+00,5.000000000000000000e+00,5.000000000000000000e+00,5.000000000000000000e+00,5.000000000000000000e+00,5.000000000000000000e+00,5.000000000000000000e+00,5.000000000000000000e+00,5.000000000000000000e+00,5.000000000000000000e+00,5.000000000000000000e+00,5.000000000000000000e+00,5.000000000000000000e+00,5.000000000000000000e+00,5.000000000000000000e+00,5.000000000000000000e+00,5.000000000000000000e+00,5.000000000000000000e+00,5.000000000000000000e+00,5.000000000000000000e+00,5.000000000000000000e+00,5.000000000000000000e+00,5.000000000000000000e+00,5.000000000000000000e+00,5.000000000000000000e+00,5.000000000000000000e+00,5.000000000000000000e+00,5.000000000000000000e+00,3.895697116851806641e+00,3.888203620910644531e+00,5.000000000000000000e+00,3.805101156234741211e+00,3.781216382980346680e+00,5.000000000000000000e+00,5.000000000000000000e+00,5.000000000000000000e+00,5.000000000000000000e+00,5.000000000000000000e+00,5.000000000000000000e+00,5.000000000000000000e+00,5.000000000000000000e+00,5.000000000000000000e+00,5.000000000000000000e+00,5.000000000000000000e+00,5.000000000000000000e+00,5.000000000000000000e+00,5.000000000000000000e+00,5.000000000000000000e+00,5.000000000000000000e+00,5.000000000000000000e+00,4.846839427947998047e+00,4.688257217407226562e+00,4.539722919464111328e+00,4.400310993194580078e+00,4.269207000732421875e+00,4.145689010620117188e+00,4.029117584228515625e+00,3.918922662734985352e+00,3.814592361450195312e+00,3.715669155120849609e+00
3.097179651260375977e+00,3.175709724426269531e+00,3.258325576782226562e+00,3.345355033874511719e+00,3.437160968780517578e+00,3.534147739410400391e+00,3.636767148971557617e+00,3.745524168014526367e+00,3.860985994338989258e+00,3.983793258666992188e+00,4.114681243896484375e+00,4.254489421844482422e+00,4.404133319854736328e+00,4.564687252044677734e+00,4.737390041351318359e+00,4.923675060272216797e+00,5.000000000000000000e+00,5.000000000000000000e+00,5.000000000000000000e+00,5.000000000000000000e+00,5.000000000000000000e+00,5.000000000000000000e+00,5.000000000000000000e+00,5.000000000000000000e+00,5.000000000000000000e+00,5.000000000000000000e+00,5.000000000000000000e+00,5.000000000000000000e+00,5.000000000000000000e+00,5.000000000000000000e+00,5.000000000000000000e+00,5.000000000000000000e+00,5.000000000000000000e+00,5.000000000000000000e+00,5.000000000000000000e+00,5.000000000000000000e+00,5.000000000000000000e+00,5.000000000000000000e+00,5.000000000000000000e+00,5.000000000000000000e+00,5.000000000000000000e+00,5.000000000000000000e+00,5.000000000000000000e+00,5.000000000000000000e+00,5.000000000000000000e+00,5.000000000000000000e+00,5.000000000000000000e+00,5.000000000000000000e+00,3.909080505371093750e+00,3.912310123443603516e+00,5.000000000000000000e+00,3.794374942779541016e+00,3.753478050231933594e+00,5.000000000000000000e+00,5.000000000000000000e+00,5.000000000000000000e+00,5.000000000000000000e+00,5.000000000000000000e+00,5.000000000000000000e+00,5.000000000000000000e+00,5.000000000000000000e+00,5.000000000000000000e+00,5.000000000000000000e+00,5.000000000000000000e+00,5.000000000000000000e+00,5.000000000000000000e+00,5.000000000000000000e+00,5.000000000000000000e+00,5.000000000000000000e+00,5.000000000000000000e+00,4.847007751464843750e+00,4.688414096832275391e+00,4.539869785308837891e+00,4.400449275970458984e+00,4.269337177276611328e+00,4.145812034606933594e+00,4.029226779937744141e+00,3.919019222259521484e+00,3.814680099487304688e+00,3.715752124786376953e+00
3.097113370895385742e+00,3.175639867782592773e+00,3.258252143859863281e+00,3.345277547836303711e+00,3.437078952789306641e+00,3.534061193466186523e+00,3.636675596237182617e+00,3.745426654815673828e+00,3.860882997512817383e+00,3.983683586120605469e+00,4.114552021026611328e+00,4.254311561584472656e+00,4.403900623321533203e+00,4.564437389373779297e+00,4.737121105194091797e+00,4.923384666442871094e+00,5.000000000000000000e+00,5.000000000000000000e+00,5.000000000000000000e+00,5.000000000000000000e+00,5.000000000000000000e+00,5.000000000000000000e+00,5.000000000000000000e+00,5.000000000000000000e+00,5.000000000000000000e+00,5.000000000000000000e+00,5.000000000000000000e+00,5.000000000000000000e+00,5.000000000000000000e+00,5.000000000000000000e+00,5.000000000000000000e+00,5.000000000000000000e+00,5.000000000000000000e+00,5.000000000000000000e+00,5.000000000000000000e+00,5.000000000000000000e+00,5.000000000000000000e+00,5.000000000000000000e+00,5.000000000000000000e+00,5.000000000000000000e+00,5.000000000000000000e+00,5.000000000000000000e+00,5.000000000000000000e+00,5.000000000000000000e+00,5.000000000000000000e+00,5.000000000000000000e+00,5.000000000000000000e+00,5.000000000000000000e+00,3.924393653869628906e+00,3.932088375091552734e+00,5.000000000000000000e+00,3.788832187652587891e+00,3.743157625198364258e+00,5.000000000000000000e+00,5.000000000000000000e+00,5.000000000000000000e+00,5.000000000000000000e+00,5.000000000000000000e+00,5.000000000000000000e+00,5.000000000000000000e+00,5.000000000000000000e+00,5.000000000000000000e+00,5.000000000000000000e+00,5.000000000000000000e+00,5.000000000000000000e+00,5.000000000000000000e+00,5.000000000000000000e+00,5.000000000000000000e+00,5.000000000000000000e+00,5.000000000000000000e+00,4.847175121307373047e+00,4.688570976257324219e+00,4.540017127990722656e+00,4.400583744049072266e+00,4.269455909729003906e+00,4.145915985107421875e+00,4.029325008392333984e+00,3.919111728668212891e+00,3.814767599105834961e+00,3.715835332870483398e+00
3.097047090530395508e+00,3.175570011138916016e+00,3.258178710937500000e+00,3.345199823379516602e+00,3.436997413635253906e+00,3.533974885940551758e+00,3.636583805084228516e+00,3.745329618453979492e+00,3.860779762268066406e+00,3.983573436737060547e+00,4.114435195922851562e+00,4.254186153411865234e+00,4.403764724731445312e+00,4.564245223999023438e+00,4.736864089965820312e+00,4.923094272613525391e+00,5.000000000000000000e+00,5.000000000000000000e+00,5.000000000000000000e+00,5.000000000000000000e+00,5.000000000000000000e+00,5.000000000000000000e+00,5.000000000000000000e+00,5.000000000000000000e+00,5.000000000000000000e+00,5.000000000000000000e+00,5.000000000000000000e+00,5.000000000000000000e+00,5.000000000000000000e+00,5.000000000000000000e+00,5.000000000000000000e+00,5.000000000000000000e+00,5.000000000000000000e+00,5.000000000000000000e+00,5.000000000000000000e+00,5.000000000000000000e+00,5.000000000000000000e+00,5.000000000000000000e+00,5.000000000000000000e+00,5.000000000000000000e+00,5.000000000000000000e+00,5.000000000000000000e+00,5.000000000000000000e+00,5.000000000000000000e+00,5.000000000000000000e+00,5.000000000000000000e+00,5.000000000000000000e+00,4.064565181732177734e+00,3.944882631301879883e+00,3.951831340789794922e+00,5.000000000000000000e+00,3.806504726409912109e+00,3.763340234756469727e+00,5.000000000000000000e+00,5.000000000000000000e+00,5.000000000000000000e+00,5.000000000000000000e+00,5.000000000000000000e+00,5.000000000000000000e+00,5.000000000000000000e+00,5.000000000000000000e+00,5.000000000000000000e+00,5.000000000000000000e+00,5.000000000000000000e+00,5.000000000000000000e+00,5.000000000000000000e+00,5.000000000000000000e+00,5.000000000000000000e+00,5.000000000000000000e+00,5.000000000000000000e+00,4.847342967987060547e+00,4.688718318939208984e+00,4.540146350860595703e+00,4.400700569152832031e+00,4.269565582275390625e+00,4.146019458770751953e+00,4.029422760009765625e+00,3.919204711914062500e+00,3.814855575561523438e+00,3.715918779373168945e+00
3.096980333328247070e+00,3.175500392913818359e+00,3.258105516433715820e+00,3.345122575759887695e+00,3.436915636062622070e+00,3.533888578414916992e+00,3.636492490768432617e+00,3.745232820510864258e+00,3.860676288604736328e+00,3.983463764190673828e+00,4.114317893981933594e+00,4.254060745239257812e+00,4.403630733489990234e+00,4.564100742340087891e+00,4.736708641052246094e+00,4.922885417938232422e+00,5.000000000000000000e+00,5.000000000000000000e+00,5.000000000000000000e+00,5.000000000000000000e+00,5.000000000000000000e+00,5.000000000000000000e+00,5.000000000000000000e+00,5.000000000000000000e+00,5.000000000000000000e+00,5.000000000000000000e+00,5.000000000000000000e+00,5.000000000000000000e+00,5.000000000000000000e+00,5.000000000000000000e+00,5.000000000000000000e+00,5.000000000000000000e+00,5.000000000000000000e+00,5.000000000000000000e+00,5.000000000000000000e+00,5.000000000000000000e+00,5.000000000000000000e+00,5.000000000000000000e+00,5.000000000000000000e+00,5.000000000000000000e+00,5.000000000000000000e+00,5.000000000000000000e+00,5.000000000000000000e+00,5.000000000000000000e+00,5.000000000000000000e+00,5.000000000000000000e+00,5.000000000000000000e+00,4.070127964019775391e+00,4.000005245208740234e+00,5.000000000000000000e+00,5.000000000000000000e+00,3.815357923507690430e+00,3.782713413238525391e+00,5.000000000000000000e+00,5.000000000000000000e+00,5.000000000000000000e+00,5.000000000000000000e+00,5.000000000000000000e+00,5.000000000000000000e+00,5.000000000000000000e+00,5.000000000000000000e+00,5.000000000000000000e+00,5.000000000000000000e+00,5.000000000000000000e+00,5.000000000000000000e+00,5.000000000000000000e+00,5.000000000000000000e+00,5.000000000000000000e+00,5.000000000000000000e+00,5.000000000000000000e+00,4.847485065460205078e+00,4.688850879669189453e+00,4.540270805358886719e+00,4.400817394256591797e+00,4.269675731658935547e+00,4.146123409271240234e+00,4.029520511627197266e+00,3.919297218322753906e+00,3.814943313598632812e+00,3.716001987457275391e+00
3.096914052963256836e+00,3.175430536270141602e+00,3.258031606674194336e+00,3.345045089721679688e+00,3.436834096908569336e+00,3.533801794052124023e+00,3.636400938034057617e+00,3.745135784149169922e+00,3.860573291778564453e+00,3.983353853225708008e+00,4.114200592041015625e+00,4.253935813903808594e+00,4.403496265411376953e+00,4.563956737518310547e+00,4.736553668975830078e+00,4.922717571258544922e+00,5.000000000000000000e+00,5.000000000000000000e+00,5.000000000000000000e+00,5.000000000000000000e+00,5.000000000000000000e+00,5.000000000000000000e+00,5.000000000000000000e+00,5.000000000000000000e+00,5.000000000000000000e+00,5.000000000000000000e+00,5.000000000000000000e+00,5.000000000000000000e+00,5.000000000000000000e+00,5.000000000000000000e+00,5.000000000000000000e+00,5.000000000000000000e+00,5.000000000000000000e+00,5.000000000000000000e+00,5.000000000000000000e+00,5.000000000000000000e+00,5.000000000000000000e+00,5.000000000000000000e+00,5.000000000000000000e+00,5.000000000000000000e+00,5.000000000000000000e+00,5.000000000000000000e+00,5.000000000000000000e+00,5.000000000000000000e+00,5.000000000000000000e+00,5.000000000000000000e+00,5.000000000000000000e+00,4.117928981781005859e+00,5.000000000000000000e+00,5.000000000000000000e+00,5.000000000000000000e+00,3.812311410903930664e+00,3.782295465469360352e+00,5.000000000000000000e+00,5.000000000000000000e+00,5.000000000000000000e+00,5.000000000000000000e+00,5.000000000000000000e+00,5.000000000000000000e+00,5.000000000000000000e+00,5.000000000000000000e+00,5.000000000000000000e+00,5.000000000000000000e+00,5.000000000000000000e+00,5.000000000000000000e+00,5.000000000000000000e+00,5.000000000000000000e+00,5.000000000000000000e+00,5.000000000000000000e+00,5.000000000000000000e+00,4.847626686096191406e+00,4.688983440399169922e+00,4.540394783020019531e+00,4.400934219360351562e+00,4.269785404205322266e+00,4.146226882934570312e+00,4.029618740081787109e+00,3.919389724731445312e+00,3.815030813217163086e+00,3.716085195541381836e+00
3.096847772598266602e+00,3.175360679626464844e+00,3.257958412170410156e+00,3.344967842102050781e+00,3.436752080917358398e+00,3.533715486526489258e+00,3.636309623718261719e+00,3.745038270950317383e+00,3.860470294952392578e+00,3.983244180679321289e+00,4.114083290100097656e+00,4.253810405731201172e+00,4.403362274169921875e+00,4.563812732696533203e+00,4.736398220062255859e+00,4.922550201416015625e+00,5.000000000000000000e+00,5.000000000000000000e+00,5.000000000000000000e+00,5.000000000000000000e+00,5.000000000000000000e+00,5.000000000000000000e+00,5.000000000000000000e+00,5.000000000000000000e+00,5.000000000000000000e+00,5.000000000000000000e+00,5.000000000000000000e+00,5.000000000000000000e+00,5.000000000000000000e+00,5.000000000000000000e+00,5.000000000000000000e+00,5.000000000000000000e+00,5.000000000000000000e+00,5.000000000000000000e+00,5.000000000000000000e+00,5.000000000000000000e+00,5.000000000000000000e+00,5.000000000000000000e+00,5.000000000000000000e+00,5.000000000000000000e+00,5.000000000000000000e+00,5.000000000000000000e+00,5.000000000000000000e+00,5.000000000000000000e+00,5.000000000000000000e+00,5.000000000000000000e+00,4.258358955383300781e+00,4.181083679199218750e+00,5.000000000000000000e+00,5.000000000000000000e+00,5.000000000000000000e+00,3.812997579574584961e+00,3.781024694442749023e+00,5.000000000000000000e+00,5.000000000000000000e+00,5.000000000000000000e+00,5.000000000000000000e+00,5.000000000000000000e+00,5.000000000000000000e+00,5.000000000000000000e+00,5.000000000000000000e+00,5.000000000000000000e+00,5.000000000000000000e+00,5.000000000000000000e+00,5.000000000000000000e+00,5.000000000000000000e+00,5.000000000000000000e+00,5.000000000000000000e+00,5.000000000000000000e+00,5.000000000000000000e+00,4.847768306732177734e+00,4.689116001129150391e+00,4.540519237518310547e+00,4.401051044464111328e+00,4.269895553588867188e+00,4.146330833435058594e+00,4.029716491699218750e+00,3.919482707977294922e+00,3.815119028091430664e+00,3.716168642044067383e+00
3.096781253814697266e+00,3.175290822982788086e+00,3.257884979248046875e+00,3.344890117645263672e+00,3.436670303344726562e+00,3.533629179000854492e+00,3.636217832565307617e+00,3.744941473007202148e+00,3.860367298126220703e+00,3.983134031295776367e+00,4.113965988159179688e+00,4.253684997558593750e+00,4.403227806091308594e+00,4.563668251037597656e+00,4.736243247985839844e+00,4.922382354736328125e+00,5.000000000000000000e+00,5.000000000000000000e+00,5.000000000000000000e+00,5.000000000000000000e+00,5.000000000000000000e+00,5.000000000000000000e+00,5.000000000000000000e+00,5.000000000000000000e+00,5.000000000000000000e+00,5.000000000000000000e+00,5.000000000000000000e+00,5.000000000000000000e+00,5.000000000000000000e+00,5.000000000000000000e+00,5.000000000000000000e+00,5.000000000000000000e+00,5.000000000000000000e+00,5.000000000000000000e+00,5.000000000000000000e+00,5.000000000000000000e+00,5.000000000000000000e+00,5.000000000000000000e+00,5.000000000000000000e+00,5.000000000000000000e+00,5.000000000000000000e+00,5.000000000000000000e+00,5.000000000000000000e+00,5.000000000000000000e+00,5.000000000000000000e+00,5.000000000000000000e+00,4.311877727508544922e+00,5.000000000000000000e+00,5.000000000000000000e+00,5.000000000000000000e+00,5.000000000000000000e+00,3.817560911178588867e+00,3.790493249893188477e+00,5.000000000000000000e+00,5.000000000000000000e+00,5.000000000000000000e+00,5.000000000000000000e+00,5.000000000000000000e+00,5.000000000000000000e+00,5.000000000000000000e+00,5.000000000000000000e+00,5.000000000000000000e+00,5.000000000000000000e+00,5.000000000000000000e+00,5.000000000000000000e+00,5.000000000000000000e+00,5.000000000000000000e+00,5.000000000000000000e+00,5.000000000000000000e+00,5.000000000000000000e+00,4.847909927368164062e+00,4.689248561859130859e+00,4.540643692016601562e+00,4.401167869567871094e+00,4.270005226135253906e+00,4.146434307098388672e+00,4.029814243316650391e+00,3.919574975967407227e+00,3.815206527709960938e+00,3.716251850128173828e+00
3.096714973449707031e+00,3.175221204757690430e+00,3.257811307907104492e+00,3.344812870025634766e+00,3.436588764190673828e+00,3.533542394638061523e+00,3.636126279830932617e+00,3.744844436645507812e+00,3.860263824462890625e+00,3.983024358749389648e+00,4.113849163055419922e+00,4.253560066223144531e+00,4.403093338012695312e+00,4.563524246215820312e+00,4.736087799072265625e+00,4.922214031219482422e+00,5.000000000000000000e+00,5.000000000000000000e+00,5.000000000000000000e+00,5.000000000000000000e+00,5.000000000000000000e+00,5.000000000000000000e+00,5.000000000000000000e+00,5.000000000000000000e+00,5.000000000000000000e+00,5.000000000000000000e+00,5.000000000000000000e+00,5.000000000000000000e+00,5.000000000000000000e+00,5.000000000000000000e+00,5.000000000000000000e+00,5.000000000000000000e+00,5.000000000000000000e+00,5.000000000000000000e+00,5.000000000000000000e+00,5.000000000000000000e+00,5.000000000000000000e+00,5.000000000000000000e+00,5.000000000000000000e+00,5.000000000000000000e+00,5.000000000000000000e+00,5.000000000000000000e+00,5.000000000000000000e+00,5.000000000000000000e+00,5.000000000000000000e+00,5.000000000000000000e+00,4.304413318634033203e+00,5.000000000000000000e+00,5.000000000000000000e+00,5.000000000000000000e+00,5.000000000000000000e+00,5.000000000000000000e+00,5.000000000000000000e+00,5.000000000000000000e+00,5.000000000000000000e+00,5.000000000000000000e+00,5.000000000000000000e+00,5.000000000000000000e+00,5.000000000000000000e+00,5.000000000000000000e+00,5.000000000000000000e+00,5.000000000000000000e+00,5.000000000000000000e+00,5.000000000000000000e+00,5.000000000000000000e+00,5.000000000000000000e+00,5.000000000000000000e+00,5.000000000000000000e+00,5.000000000000000000e+00,5.000000000000000000e+00,4.848052024841308594e+00,4.689381599426269531e+00,4.540767669677734375e+00,4.401284694671630859e+00,4.270115375518798828e+00,4.146538257598876953e+00,4.029912471771240234e+00,3.919667959213256836e+00,3.815294265747070312e+00,3.716335058212280273e+00
3.096648693084716797e+00,3.175151109695434570e+00,3.257737874984741211e+00,3.344735383987426758e+00,3.436506748199462891e+00,3.533456087112426758e+00,3.636034965515136719e+00,3.744747161865234375e+00,3.860160827636718750e+00,3.982914686203002930e+00,4.113731861114501953e+00,4.253434658050537109e+00,4.402959346771240234e+00,4.563379764556884766e+00,4.735932350158691406e+00,4.855035305023193359e+00,4.853827476501464844e+00,4.852620601654052734e+00,4.851413726806640625e+00,4.850208282470703125e+00,4.849002361297607422e+00,4.847797870635986328e+00,4.846593379974365234e+00,4.845390319824218750e+00,4.844186782836914062e+00,4.842984676361083984e+00,4.841782569885253906e+00,4.840581893920898438e+00,4.839380741119384766e+00,4.838180541992187500e+00,4.836981296539306641e+00,4.835782527923583984e+00,4.834584236145019531e+00,4.833386421203613281e+00,4.832189559936523438e+00,4.830992698669433594e+00,4.829797267913818359e+00,4.828601837158203125e+00,4.827407360076904297e+00,4.826212882995605469e+00,4.825019359588623047e+00,4.823826789855957031e+00,4.822634220123291016e+00,4.821442604064941406e+00,4.820251464843750000e+00,4.819060802459716797e+00,4.817870616912841797e+00,4.278249263763427734e+00,4.815492630004882812e+00,4.814304828643798828e+00,4.813117027282714844e+00,3.832371473312377930e+00,3.739505767822265625e+00,4.809557437896728516e+00,4.808372020721435547e+00,4.807187080383300781e+00,4.806003570556640625e+00,4.804819583892822266e+00,4.803637027740478516e+00,4.802454471588134766e+00,4.801272869110107422e+00,4.800091266632080078e+00,4.798911094665527344e+00,4.797730922698974609e+00,4.796551227569580078e+00,4.795372486114501953e+00,4.794194221496582031e+00,4.793016433715820312e+00,4.791839122772216797e+00,4.790662765502929688e+00,4.789486885070800781e+00,4.689513683319091797e+00,4.540892124176025391e+00,4.401401519775390625e+00,4.270225524902343750e+00,4.146641731262207031e+00,4.030010223388671875e+00,3.919760465621948242e+00,3.815382242202758789e+00,3.716418504714965820e+00
3.096582174301147461e+00,3.175081491470336914e+00,3.257664442062377930e+00,3.344657659530639648e+00,3.436424970626831055e+00,3.533369779586791992e+00,3.635943174362182617e+00,3.744650125503540039e+00,3.771215438842773438e+00,3.770486593246459961e+00,3.769757986068725586e+00,3.769030094146728516e+00,3.768302202224731445e+00,3.767574310302734375e+00,3.766846895217895508e+00,3.766119718551635742e+00,3.765393257141113281e+00,3.764666557312011719e+00,3.763940095901489258e+00,3.763214111328125000e+00,3.762488842010498047e+00,3.761763334274291992e+00,3.761038064956665039e+00,3.760313034057617188e+00,3.759588718414306641e+00,3.758864402770996094e+00,3.758140325546264648e+00,3.757416486740112305e+00,3.756692886352539062e+00,3.755970001220703125e+00,3.755247116088867188e+00,3.754524230957031250e+00,3.753801822662353516e+00,3.753080129623413086e+00,3.752358198165893555e+00,3.751636743545532227e+00,3.750915288925170898e+00,3.750194549560546875e+00,3.749473810195922852e+00,3.748753309249877930e+00,3.748033046722412109e+00,3.747313261032104492e+00,3.746593952178955078e+00,3.745874404907226562e+00,3.745155334472656250e+00,3.744436502456665039e+00,3.743718385696411133e+00,3.743000030517578125e+00,3.742282152175903320e+00,3.741564273834228516e+00,3.740847349166870117e+00,3.740130186080932617e+00,3.739413261413574219e+00,3.738696575164794922e+00,3.737980365753173828e+00,3.737264633178710938e+00,3.736548662185668945e+00,3.735833168029785156e+00,3.735117912292480469e+00,3.734403371810913086e+00,3.733688592910766602e+00,3.732974290847778320e+00,3.732259988784790039e+00,3.731546640396118164e+00,3.730832815170288086e+00,3.730119466781616211e+00,3.729406356811523438e+00,3.728693962097167969e+00,3.727981567382812500e+00,3.727269172668457031e+00,3.726557254791259766e+00,3.725845575332641602e+00,3.725134372711181641e+00,3.724423408508300781e+00,3.723712444305419922e+00,3.723001718521118164e+00,3.722291707992553711e+00,3.721581697463989258e+00,3.720871925354003906e+00,3.716501712799072266e+00
3.083469867706298828e+00,3.082982540130615234e+00,3.082495450973510742e+00,3.082008361816406250e+00,3.081521511077880859e+00,3.081034660339355469e+00,3.080548286437988281e+00,3.080061912536621094e+00,3.079575777053833008e+00,3.079089641571044922e+00,3.078603982925415039e+00,3.078118324279785156e+00,3.077632665634155273e+00,3.077147245407104492e+00,3.076662063598632812e+00,3.076177120208740234e+00,3.075692176818847656e+00,3.075207233428955078e+00,3.074722528457641602e+00,3.074238300323486328e+00,3.073753833770751953e+00,3.073269605636596680e+00,3.072785615921020508e+00,3.072302103042602539e+00,3.071818113327026367e+00,3.071334600448608398e+00,3.070851087570190430e+00,3.070368051528930664e+00,3.069885015487670898e+00,3.069401979446411133e+00,3.068919181823730469e+00,3.068436384201049805e+00,3.067954063415527344e+00,3.067471742630004883e+00,3.066989421844482422e+00,3.066507339477539062e+00,3.066025733947753906e+00,3.065543889999389648e+00,3.065062284469604492e+00,3.064580917358398438e+00,3.064099550247192383e+00,3.063618659973144531e+00,3.063137531280517578e+00,3.062656641006469727e+00,3.062175989151000977e+00,3.061695575714111328e+00,3.061215162277221680e+00,3.060734987258911133e+00,3.060254812240600586e+00,3.059775114059448242e+00,3.059295177459716797e+00,3.058815479278564453e+00,3.058336019515991211e+00,3.057856798171997070e+00,3.057377576828002930e+00,3.056898593902587891e+00,3.056419610977172852e+00,3.055940866470336914e+00,3.055462598800659180e+00,3.054984092712402344e+00,3.054505586624145508e+00,3.054027557373046875e+00,3.053549766540527344e+00,3.053071737289428711e+00,3.052594184875488281e+00,3.052116632461547852e+00,3.051639318466186523e+00,3.051162004470825195e+00,3.050684928894042969e+00,3.050207853317260742e+00,3.049731016159057617e+00,3.049254655838012695e+00,3.048778057098388672e+00,3.048301696777343750e+00,3.047825574874877930e+00,3.047349691390991211e+00,3.046873807907104492e+00,3.046397924423217773e+00,3.045922279357910156e+00,3.045447111129760742e+00
2.605092763900756836e+00,2.604744911193847656e+00,2.604397296905517578e+00,2.604049682617187500e+00,2.603701829910278320e+00,2.603354454040527344e+00,2.603007078170776367e+00,2.602659702301025391e+00,2.602312564849853516e+00,2.601965427398681641e+00,2.601618528366088867e+00,2.601271629333496094e+00,2.600924730300903320e+00,2.600578308105468750e+00,2.600231647491455078e+00,2.599885225296020508e+00,2.599538803100585938e+00,2.599192380905151367e+00,2.598846197128295898e+00,2.598500013351440430e+00,2.598154067993164062e+00,2.597808122634887695e+00,2.597462415695190430e+00,2.597116470336914062e+00,2.596770763397216797e+00,2.596425294876098633e+00,2.596079826354980469e+00,2.595734596252441406e+00,2.595389127731323242e+00,2.595043897628784180e+00,2.594698667526245117e+00,2.594353914260864258e+00,2.594008922576904297e+00,2.593664169311523438e+00,2.593319177627563477e+00,2.592974662780761719e+00,2.592630147933959961e+00,2.592285633087158203e+00,2.591941356658935547e+00,2.591597080230712891e+00,2.591252803802490234e+00,2.590908765792846680e+00,2.590564727783203125e+00,2.590220689773559570e+00,2.589877128601074219e+00,2.589533329010009766e+00,2.589189529418945312e+00,2.588845968246459961e+00,2.588502645492553711e+00,2.588159322738647461e+00,2.587815999984741211e+00,2.587472677230834961e+00,2.587129831314086914e+00,2.586786746978759766e+00,2.586443901062011719e+00,2.586100816726684570e+00,2.585758209228515625e+00,2.585415601730346680e+00,2.585072994232177734e+00,2.584730625152587891e+00,2.584388256072998047e+00,2.584046125411987305e+00,2.583703756332397461e+00,2.583361625671386719e+00,2.583019733428955078e+00,2.582677841186523438e+00,2.582335948944091797e+00,2.581994295120239258e+00,2.581652641296386719e+00,2.581310987472534180e+00,2.580969572067260742e+00,2.580628156661987305e+00,2.580286979675292969e+00,2.579945564270019531e+00,2.579604625701904297e+00,2.579263687133789062e+00,2.578922748565673828e+00,2.578581809997558594e+00,2.578241109848022461e+00,2.577900409698486328e+00
2.255213499069213867e+00,2.254952669143676758e+00,2.254692077636718750e+00,2.254431486129760742e+00,2.254171133041381836e+00,2.253910541534423828e+00,2.253650188446044922e+00,2.253390073776245117e+00,2.253129720687866211e+00,2.252869606018066406e+00,2.252609491348266602e+00,2.252349376678466797e+00,2.252089262008666992e+00,2.251829147338867188e+00,2.251569271087646484e+00,2.251309394836425781e+00,2.251049757003784180e+00,2.250790119171142578e+00,2.250530481338500977e+00,2.250270843505859375e+00,2.250011444091796875e+00,2.249752044677734375e+00,2.249492645263671875e+00,2.249233245849609375e+00,2.248974084854125977e+00,2.248714923858642578e+00,2.248455762863159180e+00,2.248196601867675781e+00,2.247937440872192383e+00,2.247678518295288086e+00,2.247419834136962891e+00,2.247160911560058594e+00,2.246901988983154297e+00,2.246643304824829102e+00,2.246384859085083008e+00,2.246126174926757812e+00,2.245867490768432617e+00,2.245609045028686523e+00,2.245350599288940430e+00,2.245092153549194336e+00,2.244833946228027344e+00,2.244575738906860352e+00,2.244317293167114258e+00,2.244059324264526367e+00,2.243801355361938477e+00,2.243543148040771484e+00,2.243285179138183594e+00,2.243027448654174805e+00,2.242769718170166016e+00,2.242511749267578125e+00,2.242254018783569336e+00,2.241996526718139648e+00,2.241738796234130859e+00,2.241481304168701172e+00,2.241223812103271484e+00,2.240966320037841797e+00,2.240709066390991211e+00,2.240451812744140625e+00,2.240194559097290039e+00,2.239937305450439453e+00,2.239680290222167969e+00,2.239423036575317383e+00,2.239166021347045898e+00,2.238909006118774414e+00,2.238652467727661133e+00,2.238395452499389648e+00,2.238138675689697266e+00,2.237881898880004883e+00,2.237625360488891602e+00,2.237368822097778320e+00,2.237112283706665039e+00,2.236855745315551758e+00,2.236599206924438477e+00,2.236342906951904297e+00,2.236086606979370117e+00,2.235830307006835938e+00,2.235574245452880859e+00,2.235318183898925781e+00,2.235062122344970703e+00,2.234806060791015625e+00
1.988188028335571289e+00,1.987985491752624512e+00,1.987782955169677734e+00,1.987580418586730957e+00,1.987377882003784180e+00,1.987175464630126953e+00,1.986973047256469727e+00,1.986770749092102051e+00,1.986568450927734375e+00,1.986366152763366699e+00,1.986163973808288574e+00,1.985961675643920898e+00,1.985759615898132324e+00,1.985557436943054199e+00,1.985355377197265625e+00,1.985153436660766602e+00,1.984951138496398926e+00,1.984749197959899902e+00,1.984547376632690430e+00,1.984345436096191406e+00,1.984143853187561035e+00,1.983942031860351562e+00,1.983740329742431641e+00,1.983538627624511719e+00,1.983337044715881348e+00,1.983135342597961426e+00,1.982933759689331055e+00,1.982732295989990234e+00,1.982530832290649414e+00,1.982329607009887695e+00,1.982128143310546875e+00,1.981926798820495605e+00,1.981725454330444336e+00,1.981524109840393066e+00,1.981322884559631348e+00,1.981121659278869629e+00,1.980920553207397461e+00,1.980719685554504395e+00,1.980518579483032227e+00,1.980317473411560059e+00,1.980116486549377441e+00,1.979915499687194824e+00,1.979714632034301758e+00,1.979513764381408691e+00,1.979312896728515625e+00,1.979112029075622559e+00,1.978911519050598145e+00,1.978710889816284180e+00,1.978510141372680664e+00,1.978309512138366699e+00,1.978108882904052734e+00,1.977908372879028320e+00,1.977707862854003906e+00,1.977507352828979492e+00,1.977306962013244629e+00,1.977106809616088867e+00,1.976906418800354004e+00,1.976706147193908691e+00,1.976505875587463379e+00,1.976305603981018066e+00,1.976105451583862305e+00,1.975905299186706543e+00,1.975705146789550781e+00,1.975505352020263672e+00,1.975305318832397461e+00,1.975105285644531250e+00,1.974905371665954590e+00,1.974705457687377930e+00,1.974505543708801270e+00,1.974305748939514160e+00,1.974105954170227051e+00,1.973906159400939941e+00,1.973706722259521484e+00,1.973507046699523926e+00,1.973307371139526367e+00,1.973107814788818359e+00,1.972908258438110352e+00,1.972708821296691895e+00,1.972509384155273438e+00,1.972309947013854980e+00
1.777701854705810547e+00,1.777539849281311035e+00,1.777377963066101074e+00,1.777216076850891113e+00,1.777054190635681152e+00,1.776892304420471191e+00,1.776730418205261230e+00,1.776568651199340820e+00,1.776406884193420410e+00,1.776245117187500000e+00,1.776083469390869141e+00,1.775921702384948730e+00,1.775759935379028320e+00,1.775598287582397461e+00,1.775436639785766602e+00,1.775275111198425293e+00,1.775113582611083984e+00,1.774952054023742676e+00,1.774790644645690918e+00,1.774629116058349609e+00,1.774467706680297852e+00,1.774306297302246094e+00,1.774145007133483887e+00,1.773983597755432129e+00,1.773822307586669922e+00,1.773661017417907715e+00,1.773499846458435059e+00,1.773338794708251953e+00,1.773177623748779297e+00,1.773016452789306641e+00,1.772855281829833984e+00,1.772694230079650879e+00,1.772533178329467773e+00,1.772372126579284668e+00,1.772211074829101562e+00,1.772050142288208008e+00,1.771889328956604004e+00,1.771728396415710449e+00,1.771567583084106445e+00,1.771406650543212891e+00,1.771245837211608887e+00,1.771085023880004883e+00,1.770924329757690430e+00,1.770763516426086426e+00,1.770602822303771973e+00,1.770442247390747070e+00,1.770281672477722168e+00,1.770120978355407715e+00,1.769960403442382812e+00,1.769799828529357910e+00,1.769639253616333008e+00,1.769478797912597656e+00,1.769318342208862305e+00,1.769158005714416504e+00,1.768997550010681152e+00,1.768837213516235352e+00,1.768676877021789551e+00,1.768516540527343750e+00,1.768356204032897949e+00,1.768195867538452148e+00,1.768035650253295898e+00,1.767875432968139648e+00,1.767715454101562500e+00,1.767555236816406250e+00,1.767395138740539551e+00,1.767235040664672852e+00,1.767074942588806152e+00,1.766914844512939453e+00,1.766754865646362305e+00,1.766594886779785156e+00,1.766434907913208008e+00,1.766275167465209961e+00,1.766115307807922363e+00,1.765955448150634766e+00,1.765795588493347168e+00,1.765635728836059570e+00,1.765475988388061523e+00,1.765316247940063477e+00,1.765156507492065430e+00,1.764997005462646484e+00
1.607516765594482422e+00,1.607384204864501953e+00,1.607251882553100586e+00,1.607119441032409668e+00,1.606986880302429199e+00,1.606854557991027832e+00,1.606722235679626465e+00,1.606589913368225098e+00,1.606457591056823730e+00,1.606325268745422363e+00,1.606193065643310547e+00,1.606060743331909180e+00,1.605928540229797363e+00,1.605796456336975098e+00,1.605664253234863281e+00,1.605532050132751465e+00,1.605399966239929199e+00,1.605267882347106934e+00,1.605135798454284668e+00,1.605003714561462402e+00,1.604871630668640137e+00,1.604739665985107422e+00,1.604607701301574707e+00,1.604475498199462891e+00,1.604343652725219727e+00,1.604211688041687012e+00,1.604079961776733398e+00,1.603947997093200684e+00,1.603816151618957520e+00,1.603684306144714355e+00,1.603552460670471191e+00,1.603420734405517578e+00,1.603288888931274414e+00,1.603157162666320801e+00,1.603025436401367188e+00,1.602893829345703125e+00,1.602762222290039062e+00,1.602630496025085449e+00,1.602498888969421387e+00,1.602367281913757324e+00,1.602235674858093262e+00,1.602104067802429199e+00,1.601972460746765137e+00,1.601840972900390625e+00,1.601709604263305664e+00,1.601578116416931152e+00,1.601446628570556641e+00,1.601315140724182129e+00,1.601183772087097168e+00,1.601052403450012207e+00,1.600921034812927246e+00,1.600789666175842285e+00,1.600658416748046875e+00,1.600527048110961914e+00,1.600395798683166504e+00,1.600264549255371094e+00,1.600133299827575684e+00,1.600002050399780273e+00,1.599870800971984863e+00,1.599739551544189453e+00,1.599608421325683594e+00,1.599477410316467285e+00,1.599346280097961426e+00,1.599215149879455566e+00,1.599084138870239258e+00,1.598953008651733398e+00,1.598821997642517090e+00,1.598690986633300781e+00,1.598559975624084473e+00,1.598428964614868164e+00,1.598298192024230957e+00,1.598167300224304199e+00,1.598036289215087891e+00,1.597905397415161133e+00,1.597774624824523926e+00,1.597643733024597168e+00,1.597512841224670410e+00,1.597382068634033203e+00,1.597251415252685547e+00,1.597120642662048340e+00
1.467069268226623535e+00,1.466958999633789062e+00,1.466848611831665039e+00,1.466738343238830566e+00,1.466628074645996094e+00,1.466517806053161621e+00,1.466407656669616699e+00,1.466297388076782227e+00,1.466187119483947754e+00,1.466076970100402832e+00,1.465966820716857910e+00,1.465856671333312988e+00,1.465746521949768066e+00,1.465636372566223145e+00,1.465526342391967773e+00,1.465416193008422852e+00,1.465306162834167480e+00,1.465196132659912109e+00,1.465086102485656738e+00,1.464976072311401367e+00,1.464866042137145996e+00,1.464756011962890625e+00,1.464646100997924805e+00,1.464536070823669434e+00,1.464426159858703613e+00,1.464316248893737793e+00,1.464206337928771973e+00,1.464096307754516602e+00,1.463986396789550781e+00,1.463876605033874512e+00,1.463766813278198242e+00,1.463656902313232422e+00,1.463547110557556152e+00,1.463437318801879883e+00,1.463327646255493164e+00,1.463217973709106445e+00,1.463108181953430176e+00,1.462998509407043457e+00,1.462888717651367188e+00,1.462779045104980469e+00,1.462669372558593750e+00,1.462559700012207031e+00,1.462450146675109863e+00,1.462340593338012695e+00,1.462231040000915527e+00,1.462121367454528809e+00,1.462011814117431641e+00,1.461902260780334473e+00,1.461792707443237305e+00,1.461683273315429688e+00,1.461573719978332520e+00,1.461464405059814453e+00,1.461354851722717285e+00,1.461245417594909668e+00,1.461135983467102051e+00,1.461026549339294434e+00,1.460917115211486816e+00,1.460807800292968750e+00,1.460698366165161133e+00,1.460589051246643066e+00,1.460479736328125000e+00,1.460370421409606934e+00,1.460261106491088867e+00,1.460151791572570801e+00,1.460042595863342285e+00,1.459933280944824219e+00,1.459824085235595703e+00,1.459714770317077637e+00,1.459605574607849121e+00,1.459496498107910156e+00,1.459387302398681641e+00,1.459278225898742676e+00,1.459169030189514160e+00,1.459059953689575195e+00,1.458950757980346680e+00,1.458841681480407715e+00,1.458732604980468750e+00,1.458623647689819336e+00,1.458514571189880371e+00,1.458405613899230957e+00
1.349191546440124512e+00,1.349098205566406250e+00,1.349004983901977539e+00,1.348911643028259277e+00,1.348818421363830566e+00,1.348725199699401855e+00,1.348631978034973145e+00,1.348538756370544434e+00,1.348445534706115723e+00,1.348352313041687012e+00,1.348259091377258301e+00,1.348165988922119141e+00,1.348072767257690430e+00,1.347979664802551270e+00,1.347886443138122559e+00,1.347793340682983398e+00,1.347700238227844238e+00,1.347607135772705078e+00,1.347514033317565918e+00,1.347421050071716309e+00,1.347327947616577148e+00,1.347234845161437988e+00,1.347141861915588379e+00,1.347048759460449219e+00,1.346955776214599609e+00,1.346862792968750000e+00,1.346769809722900391e+00,1.346676826477050781e+00,1.346583843231201172e+00,1.346490979194641113e+00,1.346397995948791504e+00,1.346305012702941895e+00,1.346212029457092285e+00,1.346119284629821777e+00,1.346026420593261719e+00,1.345933556556701660e+00,1.345840692520141602e+00,1.345747828483581543e+00,1.345655083656311035e+00,1.345562219619750977e+00,1.345469474792480469e+00,1.345376610755920410e+00,1.345283985137939453e+00,1.345191240310668945e+00,1.345098495483398438e+00,1.345005750656127930e+00,1.344913005828857422e+00,1.344820261001586914e+00,1.344727516174316406e+00,1.344634890556335449e+00,1.344542264938354492e+00,1.344449639320373535e+00,1.344357013702392578e+00,1.344264388084411621e+00,1.344171762466430664e+00,1.344079136848449707e+00,1.343986511230468750e+00,1.343894004821777344e+00,1.343801379203796387e+00,1.343708872795104980e+00,1.343616366386413574e+00,1.343523859977722168e+00,1.343431353569030762e+00,1.343338847160339355e+00,1.343246340751647949e+00,1.343153834342956543e+00,1.343061327934265137e+00,1.342969059944152832e+00,1.342876553535461426e+00,1.342784166336059570e+00,1.342691659927368164e+00,1.342599272727966309e+00,1.342506885528564453e+00,1.342414498329162598e+00,1.342322111129760742e+00,1.342229843139648438e+00,1.342137575149536133e+00,1.342045187950134277e+00,1.341952919960021973e+00,1.341860651969909668e+00
1.248847723007202148e+00,1.248767852783203125e+00,1.248687863349914551e+00,1.248607993125915527e+00,1.248528122901916504e+00,1.248448133468627930e+00,1.248368263244628906e+00,1.248288393020629883e+00,1.248208522796630859e+00,1.248128652572631836e+00,1.248048901557922363e+00,1.247969031333923340e+00,1.247889041900634766e+00,1.247809290885925293e+00,1.247729420661926270e+00,1.247649669647216797e+00,1.247569918632507324e+00,1.247490048408508301e+00,1.247410297393798828e+00,1.247330546379089355e+00,1.247250795364379883e+00,1.247171044349670410e+00,1.247091412544250488e+00,1.247011661529541016e+00,1.246931910514831543e+00,1.246852278709411621e+00,1.246772527694702148e+00,1.246692895889282227e+00,1.246613264083862305e+00,1.246533513069152832e+00,1.246453881263732910e+00,1.246374249458312988e+00,1.246294617652893066e+00,1.246214985847473145e+00,1.246135354042053223e+00,1.246055722236633301e+00,1.245976209640502930e+00,1.245896577835083008e+00,1.245817065238952637e+00,1.245737433433532715e+00,1.245657920837402344e+00,1.245578527450561523e+00,1.245499014854431152e+00,1.245419383049011230e+00,1.245339989662170410e+00,1.245260477066040039e+00,1.245180964469909668e+00,1.245101451873779297e+00,1.245022058486938477e+00,1.244942665100097656e+00,1.244863271713256836e+00,1.244783759117126465e+00,1.244704365730285645e+00,1.244624972343444824e+00,1.244545578956604004e+00,1.244466185569763184e+00,1.244386792182922363e+00,1.244307398796081543e+00,1.244228124618530273e+00,1.244148850440979004e+00,1.244069457054138184e+00,1.243990182876586914e+00,1.243910789489746094e+00,1.243831515312194824e+00,1.243752241134643555e+00,1.243672966957092285e+00,1.243593692779541016e+00,1.243514418601989746e+00,1.243435144424438477e+00,1.243355989456176758e+00,1.243276715278625488e+00,1.243197441101074219e+00,1.243118286132812500e+00,1.243039011955261230e+00,1.242959856986999512e+00,1.242880821228027344e+00,1.242801547050476074e+00,1.242722392082214355e+00,1.242643237113952637e+00,1.242564082145690918e+00
1.162396550178527832e+00,1.162327289581298828e+00,1.162258028984069824e+00,1.162188887596130371e+00,1.162119507789611816e+00,1.162050366401672363e+00,1.161981105804443359e+00,1.161911845207214355e+00,1.161842703819274902e+00,1.161773443222045898e+00,1.161704301834106445e+00,1.161635160446166992e+00,1.161566019058227539e+00,1.161496758460998535e+00,1.161427617073059082e+00,1.161358475685119629e+00,1.161289334297180176e+00,1.161220312118530273e+00,1.161151170730590820e+00,1.161082029342651367e+00,1.161012887954711914e+00,1.160943865776062012e+00,1.160874724388122559e+00,1.160805702209472656e+00,1.160736560821533203e+00,1.160667538642883301e+00,1.160598516464233398e+00,1.160529494285583496e+00,1.160460472106933594e+00,1.160391449928283691e+00,1.160322427749633789e+00,1.160253405570983887e+00,1.160184383392333984e+00,1.160115361213684082e+00,1.160046339035034180e+00,1.159977436065673828e+00,1.159908413887023926e+00,1.159839510917663574e+00,1.159770369529724121e+00,1.159701466560363770e+00,1.159632563591003418e+00,1.159563660621643066e+00,1.159494757652282715e+00,1.159425854682922363e+00,1.159356832504272461e+00,1.159288048744201660e+00,1.159219145774841309e+00,1.159150242805480957e+00,1.159081459045410156e+00,1.159012556076049805e+00,1.158943772315979004e+00,1.158874869346618652e+00,1.158806085586547852e+00,1.158737182617187500e+00,1.158668398857116699e+00,1.158599615097045898e+00,1.158530712127685547e+00,1.158462047576904297e+00,1.158393263816833496e+00,1.158324480056762695e+00,1.158255696296691895e+00,1.158186912536621094e+00,1.158118247985839844e+00,1.158049464225769043e+00,1.157980680465698242e+00,1.157912015914916992e+00,1.157843351364135742e+00,1.157774686813354492e+00,1.157705903053283691e+00,1.157637238502502441e+00,1.157568573951721191e+00,1.157499909400939941e+00,1.157431125640869141e+00,1.157362461090087891e+00,1.157293915748596191e+00,1.157225251197814941e+00,1.157156586647033691e+00,1.157088041305541992e+00,1.157019376754760742e+00,1.156950712203979492e+00
1.087139487266540527e+00,1.087078928947448730e+00,1.087018370628356934e+00,1.086957812309265137e+00,1.086897253990173340e+00,1.086836695671081543e+00,1.086776137351989746e+00,1.086715579032897949e+00,1.086655020713806152e+00,1.086594462394714355e+00,1.086534023284912109e+00,1.086473464965820312e+00,1.086413025856018066e+00,1.086352467536926270e+00,1.086292028427124023e+00,1.086231470108032227e+00,1.086171030998229980e+00,1.086110591888427734e+00,1.086050152778625488e+00,1.085989594459533691e+00,1.085929155349731445e+00,1.085868716239929199e+00,1.085808277130126953e+00,1.085747838020324707e+00,1.085687398910522461e+00,1.085627079010009766e+00,1.085566639900207520e+00,1.085506200790405273e+00,1.085445880889892578e+00,1.085385322570800781e+00,1.085325002670288086e+00,1.085264563560485840e+00,1.085204243659973145e+00,1.085143923759460449e+00,1.085083484649658203e+00,1.085023164749145508e+00,1.084962844848632812e+00,1.084902524948120117e+00,1.084842205047607422e+00,1.084781885147094727e+00,1.084721565246582031e+00,1.084661245346069336e+00,1.084600806236267090e+00,1.084540486335754395e+00,1.084480285644531250e+00,1.084419965744018555e+00,1.084359645843505859e+00,1.084299445152282715e+00,1.084239244461059570e+00,1.084178924560546875e+00,1.084118723869323730e+00,1.084058523178100586e+00,1.083998203277587891e+00,1.083938002586364746e+00,1.083877801895141602e+00,1.083817601203918457e+00,1.083757400512695312e+00,1.083697199821472168e+00,1.083636999130249023e+00,1.083576798439025879e+00,1.083516716957092285e+00,1.083456516265869141e+00,1.083396315574645996e+00,1.083336114883422852e+00,1.083276033401489258e+00,1.083215951919555664e+00,1.083155751228332520e+00,1.083095669746398926e+00,1.083035469055175781e+00,1.082975387573242188e+00,1.082915306091308594e+00,1.082855105400085449e+00,1.082795023918151855e+00,1.082735061645507812e+00,1.082674980163574219e+00,1.082614898681640625e+00,1.082554817199707031e+00,1.082494735717773438e+00,1.082434654235839844e+00,1.082374572753906250e+00
1.021034717559814453e+00,1.020981192588806152e+00,1.020927786827087402e+00,1.020874381065368652e+00,1.020820975303649902e+00,1.020767569541931152e+00,1.020714163780212402e+00,1.020660758018493652e+00,1.020607352256774902e+00,1.020553946495056152e+00,1.020500540733337402e+00,1.020447134971618652e+00,1.020393848419189453e+00,1.020340442657470703e+00,1.020287036895751953e+00,1.020233750343322754e+00,1.020180344581604004e+00,1.020127058029174805e+00,1.020073652267456055e+00,1.020020365715026855e+00,1.019966959953308105e+00,1.019913673400878906e+00,1.019860267639160156e+00,1.019806981086730957e+00,1.019753694534301758e+00,1.019700407981872559e+00,1.019647121429443359e+00,1.019593834877014160e+00,1.019540548324584961e+00,1.019487261772155762e+00,1.019433975219726562e+00,1.019380688667297363e+00,1.019327402114868164e+00,1.019274234771728516e+00,1.019220948219299316e+00,1.019167661666870117e+00,1.019114494323730469e+00,1.019061207771301270e+00,1.019007921218872070e+00,1.018954753875732422e+00,1.018901586532592773e+00,1.018848299980163574e+00,1.018795132637023926e+00,1.018741965293884277e+00,1.018688678741455078e+00,1.018635511398315430e+00,1.018582224845886230e+00,1.018529057502746582e+00,1.018475890159606934e+00,1.018422722816467285e+00,1.018369555473327637e+00,1.018316388130187988e+00,1.018263220787048340e+00,1.018210172653198242e+00,1.018157005310058594e+00,1.018103957176208496e+00,1.018050789833068848e+00,1.017997622489929199e+00,1.017944574356079102e+00,1.017891407012939453e+00,1.017838358879089355e+00,1.017785191535949707e+00,1.017732143402099609e+00,1.017679095268249512e+00,1.017626047134399414e+00,1.017572879791259766e+00,1.017519831657409668e+00,1.017466783523559570e+00,1.017413735389709473e+00,1.017360687255859375e+00,1.017307639122009277e+00,1.017254590988159180e+00,1.017201542854309082e+00,1.017148494720458984e+00,1.017095565795898438e+00,1.017042517662048340e+00,1.016989469528198242e+00,1.016936421394348145e+00,1.016883492469787598e+00,1.016830444335937500e+00
9.625083208084106445e-01,9.624608159065246582e-01,9.624133110046386719e-01,9.623658061027526855e-01,9.623183608055114746e-01,9.622709155082702637e-01,9.622234106063842773e-01,9.621759653091430664e-01,9.621285200119018555e-01,9.620810747146606445e-01,9.620336294174194336e-01,9.619861841201782227e-01,9.619386196136474609e-01,9.618912339210510254e-01,9.618437886238098145e-01,9.617963433265686035e-01,9.617489576339721680e-01,9.617015719413757324e-01,9.616541266441345215e-01,9.616067409515380859e-01,9.615593552589416504e-01,9.615119695663452148e-01,9.614645838737487793e-01,9.614171981811523438e-01,9.613698124885559082e-01,9.613224267959594727e-01,9.612750411033630371e-01,9.612277150154113770e-01,9.611803293228149414e-01,9.611330032348632812e-01,9.610856175422668457e-01,9.610382914543151855e-01,9.609909653663635254e-01,9.609436392784118652e-01,9.608962535858154297e-01,9.608489274978637695e-01,9.608016610145568848e-01,9.607543349266052246e-01,9.607070088386535645e-01,9.606596827507019043e-01,9.606124162673950195e-01,9.605650901794433594e-01,9.605178236961364746e-01,9.604704976081848145e-01,9.604232311248779297e-01,9.603759646415710449e-01,9.603286385536193848e-01,9.602813720703125000e-01,9.602341055870056152e-01,9.601867794990539551e-01,9.601395130157470703e-01,9.600922465324401855e-01,9.600449800491333008e-01,9.599978327751159668e-01,9.599506258964538574e-01,9.599034190177917480e-01,9.598561525344848633e-01,9.598089456558227539e-01,9.597617387771606445e-01,9.597144722938537598e-01,9.596672654151916504e-01,9.596200585365295410e-01,9.595728516578674316e-01,9.595257043838500977e-01,9.594784975051879883e-01,9.594312906265258789e-01,9.593840837478637695e-01,9.593369364738464355e-01,9.592897891998291016e-01,9.592425823211669922e-01,9.591954350471496582e-01,9.591484069824218750e-01,9.591012001037597656e-01,9.590540528297424316e-01,9.590069055557250977e-01,9.589597582817077637e-01,9.589126706123352051e-01,9.588655233383178711e-01,9.588183760643005371e-01,9.587712883949279785e-01
9.103276133537292480e-01,9.102851152420043945e-01,9.102426767349243164e-01,9.102001786231994629e-01,9.101576209068298340e-01,9.101151823997497559e-01,9.100727438926696777e-01,9.100302457809448242e-01,9.099878072738647461e-01,9.099453687667846680e-01,9.099029302597045898e-01,9.098604917526245117e-01,9.098180532455444336e-01,9.097756147384643555e-01,9.097331762313842773e-01,9.096907973289489746e-01,9.096483588218688965e-01,9.096059203147888184e-01,9.095635414123535156e-01,9.095211029052734375e-01,9.094787240028381348e-01,9.094363451004028320e-01,9.093939661979675293e-01,9.093515276908874512e-01,9.093091487884521484e-01,9.092667698860168457e-01,9.092243909835815430e-01,9.091820120811462402e-01,9.091396331787109375e-01,9.090973138809204102e-01,9.090549349784851074e-01,9.090125560760498047e-01,9.089702367782592773e-01,9.089278578758239746e-01,9.088855385780334473e-01,9.088431596755981445e-01,9.088008403778076172e-01,9.087585210800170898e-01,9.087162017822265625e-01,9.086738228797912598e-01,9.086315035820007324e-01,9.085891842842102051e-01,9.085469245910644531e-01,9.085046052932739258e-01,9.084622859954833984e-01,9.084199666976928711e-01,9.083776473999023438e-01,9.083353877067565918e-01,9.082930684089660645e-01,9.082508087158203125e-01,9.082085490226745605e-01,9.081662297248840332e-01,9.081239700317382812e-01,9.080815911293029785e-01,9.080393314361572266e-01,9.079970717430114746e-01,9.079548120498657227e-01,9.079125523567199707e-01,9.078702926635742188e-01,9.078280329704284668e-01,9.077858328819274902e-01,9.077436327934265137e-01,9.077014327049255371e-01,9.076591730117797852e-01,9.076169729232788086e-01,9.075747728347778320e-01,9.075325131416320801e-01,9.074903130531311035e-01,9.074481129646301270e-01,9.074059128761291504e-01,9.073637127876281738e-01,9.073215126991271973e-01,9.072793126106262207e-01,9.072371125221252441e-01,9.071949124336242676e-01,9.071527123451232910e-01,9.071105122566223145e-01,9.070683717727661133e-01,9.070262908935546875e-01,9.069841504096984863e-01
8.635137081146240234e-01,8.634754419326782227e-01,8.634372353553771973e-01,8.633990287780761719e-01,8.633608222007751465e-01,8.633226156234741211e-01,8.632844090461730957e-01,8.632462024688720703e-01,8.632079958915710449e-01,8.631697893142700195e-01,8.631316423416137695e-01,8.630934357643127441e-01,8.630552291870117188e-01,8.630170822143554688e-01,8.629788756370544434e-01,8.629407286643981934e-01,8.629025816917419434e-01,8.628643751144409180e-01,8.628262281417846680e-01,8.627880811691284180e-01,8.627499341964721680e-01,8.627117872238159180e-01,8.626735806465148926e-01,8.626354336738586426e-01,8.625973463058471680e-01,8.625591993331909180e-01,8.625210523605346680e-01,8.624829053878784180e-01,8.624447584152221680e-01,8.624066710472106934e-01,8.623685240745544434e-01,8.623304367065429688e-01,8.622922897338867188e-01,8.622542023658752441e-01,8.622160553932189941e-01,8.621779680252075195e-01,8.621398806571960449e-01,8.621017932891845703e-01,8.620636463165283203e-01,8.620255589485168457e-01,8.619874715805053711e-01,8.619493842124938965e-01,8.619112968444824219e-01,8.618732690811157227e-01,8.618351817131042480e-01,8.617970943450927734e-01,8.617590069770812988e-01,8.617209792137145996e-01,8.616828918457031250e-01,8.616448640823364258e-01,8.616067767143249512e-01,8.615687489509582520e-01,8.615306615829467773e-01,8.614926338195800781e-01,8.614546060562133789e-01,8.614165782928466797e-01,8.613784909248352051e-01,8.613404035568237305e-01,8.613023757934570312e-01,8.612643480300903320e-01,8.612263202667236328e-01,8.611882925033569336e-01,8.611502647399902344e-01,8.611122965812683105e-01,8.610742688179016113e-01,8.610362410545349121e-01,8.609982728958129883e-01,8.609602451324462891e-01,8.609222769737243652e-01,8.608843684196472168e-01,8.608464002609252930e-01,8.608083724975585938e-01,8.607704043388366699e-01,8.607324361801147461e-01,8.606944680213928223e-01,8.606564998626708984e-01,8.606185317039489746e-01,8.605805635452270508e-01,8.605425953865051270e-01,8.605046272277832031e-01
8.212791681289672852e-01,8.212445974349975586e-01,8.212100267410278320e-01,8.211754560470581055e-01,8.211408853530883789e-01,8.211063146591186523e-01,8.210718035697937012e-01,8.210372328758239746e-01,8.210026621818542480e-01,8.209681510925292969e-01,8.209335803985595703e-01,8.208990097045898438e-01,8.208644986152648926e-01,8.208299875259399414e-01,8.207954168319702148e-01,8.207609057426452637e-01,8.207263350486755371e-01,8.206918239593505859e-01,8.206573128700256348e-01,8.206228017807006836e-01,8.205882906913757324e-01,8.205537796020507812e-01,8.205192685127258301e-01,8.204847574234008789e-01,8.204502463340759277e-01,8.204157352447509766e-01,8.203812241554260254e-01,8.203467130661010742e-01,8.203122615814208984e-01,8.202777504920959473e-01,8.202432394027709961e-01,8.202087879180908203e-01,8.201742768287658691e-01,8.201398253440856934e-01,8.201053142547607422e-01,8.200708627700805664e-01,8.200364112854003906e-01,8.200019001960754395e-01,8.199674487113952637e-01,8.199329972267150879e-01,8.198985457420349121e-01,8.198640942573547363e-01,8.198296427726745605e-01,8.197951912879943848e-01,8.197607398033142090e-01,8.197262883186340332e-01,8.196918368339538574e-01,8.196573853492736816e-01,8.196229338645935059e-01,8.195885419845581055e-01,8.195540904998779297e-01,8.195196390151977539e-01,8.194852471351623535e-01,8.194507956504821777e-01,8.194162845611572266e-01,8.193818926811218262e-01,8.193475008010864258e-01,8.193130493164062500e-01,8.192786574363708496e-01,8.192442655563354492e-01,8.192098736763000488e-01,8.191754817962646484e-01,8.191410303115844727e-01,8.191066384315490723e-01,8.190722465515136719e-01,8.190378546714782715e-01,8.190035223960876465e-01,8.189691305160522461e-01,8.189347386360168457e-01,8.189003467559814453e-01,8.188660144805908203e-01,8.188316226005554199e-01,8.187972307205200195e-01,8.187628984451293945e-01,8.187285065650939941e-01,8.186941742897033691e-01,8.186599016189575195e-01,8.186255097389221191e-01,8.185911774635314941e-01,8.185568451881408691e-01
7.829834222793579102e-01,7.829520106315612793e-01,7.829205989837646484e-01,7.828891873359680176e-01,7.828577756881713867e-01,7.828263640403747559e-01,7.827949523925781250e-01,7.827635407447814941e-01,7.827321290969848633e-01,7.827007174491882324e-01,7.826693058013916016e-01,7.826378941535949707e-01,7.826064825057983398e-01,7.825751304626464844e-01,7.825437188148498535e-01,7.825123071670532227e-01,7.824809551239013672e-01,7.824495434761047363e-01,7.824181914329528809e-01,7.823867797851562500e-01,7.823554277420043945e-01,7.823240160942077637e-01,7.822926640510559082e-01,7.822613120079040527e-01,7.822299599647521973e-01,7.821985483169555664e-01,7.821671962738037109e-01,7.821358442306518555e-01,7.821044921875000000e-01,7.820731401443481445e-01,7.820417881011962891e-01,7.820104360580444336e-01,7.819790840148925781e-01,7.819477319717407227e-01,7.819163799285888672e-01,7.818850874900817871e-01,7.818537354469299316e-01,7.818223834037780762e-01,7.817910909652709961e-01,7.817597389221191406e-01,7.817283868789672852e-01,7.816970944404602051e-01,7.816657423973083496e-01,7.816344499588012695e-01,7.816031575202941895e-01,7.815718054771423340e-01,7.815404534339904785e-01,7.815091013908386230e-01,7.814778089523315430e-01,7.814465165138244629e-01,7.814152240753173828e-01,7.813839316368103027e-01,7.813526391983032227e-01,7.813213467597961426e-01,7.812900543212890625e-01,7.812587618827819824e-01,7.812274694442749023e-01,7.811961770057678223e-01,7.811648845672607422e-01,7.811335921287536621e-01,7.811023592948913574e-01,7.810710668563842773e-01,7.810397744178771973e-01,7.810085415840148926e-01,7.809771895408630371e-01,7.809458971023559570e-01,7.809147238731384277e-01,7.808834910392761230e-01,7.808521986007690430e-01,7.808209657669067383e-01,7.807897329330444336e-01,7.807584404945373535e-01,7.807272076606750488e-01,7.806959748268127441e-01,7.806647419929504395e-01,7.806335091590881348e-01,7.806022763252258301e-01,7.805710434913635254e-01,7.805398106575012207e-01,7.805085778236389160e-01
7.480999827384948730e-01,7.480713129043579102e-01,7.480425834655761719e-01,7.480139136314392090e-01,7.479852437973022461e-01,7.479565739631652832e-01,7.479279041290283203e-01,7.478992342948913574e-01,7.478705644607543945e-01,7.478418946266174316e-01,7.478132247924804688e-01,7.477845549583435059e-01,7.477558851242065430e-01,7.477272152900695801e-01,7.476985454559326172e-01,7.476699352264404297e-01,7.476412653923034668e-01,7.476125955581665039e-01,7.475839257240295410e-01,7.475553154945373535e-01,7.475266456604003906e-01,7.474980354309082031e-01,7.474693655967712402e-01,7.474407553672790527e-01,7.474120855331420898e-01,7.473834753036499023e-01,7.473548054695129395e-01,7.473261952400207520e-01,7.472975850105285645e-01,7.472689747810363770e-01,7.472403049468994141e-01,7.472116947174072266e-01,7.471830844879150391e-01,7.471544742584228516e-01,7.471258640289306641e-01,7.470972537994384766e-01,7.470686435699462891e-01,7.470400333404541016e-01,7.470113635063171387e-01,7.469827532768249512e-01,7.469541430473327637e-01,7.469255328178405762e-01,7.468969821929931641e-01,7.468683719635009766e-01,7.468397617340087891e-01,7.468111515045166016e-01,7.467826008796691895e-01,7.467539906501770020e-01,7.467254400253295898e-01,7.466968297958374023e-01,7.466682791709899902e-01,7.466396689414978027e-01,7.466111183166503906e-01,7.465825080871582031e-01,7.465539574623107910e-01,7.465254068374633789e-01,7.464967966079711914e-01,7.464682459831237793e-01,7.464396953582763672e-01,7.464111447334289551e-01,7.463825941085815430e-01,7.463540434837341309e-01,7.463254928588867188e-01,7.462969422340393066e-01,7.462683916091918945e-01,7.462398409843444824e-01,7.462112903594970703e-01,7.461827397346496582e-01,7.461541295051574707e-01,7.461255788803100586e-01,7.460970282554626465e-01,7.460685372352600098e-01,7.460399866104125977e-01,7.460114359855651855e-01,7.459830045700073242e-01,7.459544539451599121e-01,7.459259629249572754e-01,7.458974123001098633e-01,7.458689212799072266e-01,7.458403706550598145e-01
