3.772696495056152344e+00,3.732644081115722656e+00,3.693433284759521484e+00,3.655037879943847656e+00,3.617432594299316406e+00,3.580593109130859375e+00,3.544496297836303711e+00,3.509120225906372070e+00,3.474443197250366211e+00,3.440444946289062500e+00,3.407105445861816406e+00,3.374405622482299805e+00,3.342328071594238281e+00,3.310854196548461914e+00,3.279968023300170898e+00,3.249652385711669922e+00,3.219892024993896484e+00,3.190672159194946289e+00,3.161977529525756836e+00,3.133794784545898438e+00,3.106109619140625000e+00,3.078909158706665039e+00,3.052181243896484375e+00,3.025913476943969727e+00,3.000093698501586914e+00,2.974711179733276367e+00,2.949754238128662109e+00,2.925212860107421875e+00,2.901076316833496094e+00,2.877334833145141602e+00,2.853978872299194336e+00,2.830998659133911133e+00,2.808385848999023438e+00,2.786131381988525391e+00,2.764227151870727539e+00,2.742664337158203125e+00,2.721435308456420898e+00,2.700532436370849609e+00,2.679948329925537109e+00,2.659675598144531250e+00,2.639707088470458984e+00,2.620036363601684570e+00,2.600656509399414062e+00,2.581561326980590820e+00,2.562744617462158203e+00,2.544200181961059570e+00,2.525922060012817383e+00,2.507904767990112305e+00,2.490142822265625000e+00,2.472630500793457031e+00,2.455362796783447266e+00,2.438334465026855469e+00,2.421541213989257812e+00,2.404977321624755859e+00,2.388638496398925781e+00,2.372520208358764648e+00,2.356618165969848633e+00,2.340927600860595703e+00,2.325444698333740234e+00,2.310165166854858398e+00,6.039954423904418945e-01,5.776761174201965332e-01,5.652998089790344238e-01,5.595609545707702637e-01,5.539374351501464844e-01,5.484258532524108887e-01,5.430228114128112793e-01,5.377252697944641113e-01,5.325300097465515137e-01,5.273913741111755371e-01,5.276780128479003906e-01,5.291188359260559082e-01,5.305675268173217773e-01,5.320241451263427734e-01,5.334888100624084473e-01,5.349615812301635742e-01,5.364424586296081543e-01,2.065838813781738281e+00,2.053771734237670898e+00,2.041844606399536133e+00
3.772697925567626953e+00,3.732645750045776367e+00,3.693434476852416992e+00,3.655039072036743164e+00,3.617433786392211914e+00,3.580594301223754883e+00,3.544497489929199219e+00,3.509121179580688477e+00,3.474444389343261719e+00,3.440445899963378906e+00,3.407106399536132812e+00,3.374407052993774414e+00,3.342329025268554688e+00,3.310855150222778320e+00,3.279968976974487305e+00,3.249653339385986328e+00,3.219892978668212891e+00,3.190673112869262695e+00,3.161978483200073242e+00,3.133795499801635742e+00,3.106110334396362305e+00,3.078910112380981445e+00,3.052181959152221680e+00,3.025914192199707031e+00,3.000094652175903320e+00,2.974711894989013672e+00,2.949755191802978516e+00,2.925213575363159180e+00,2.901077032089233398e+00,2.877335548400878906e+00,2.853979587554931641e+00,2.830999374389648438e+00,2.808386564254760742e+00,2.786132097244262695e+00,2.764227867126464844e+00,2.742665052413940430e+00,2.721436023712158203e+00,2.700533151626586914e+00,2.679949045181274414e+00,2.659676074981689453e+00,2.639707803726196289e+00,2.620036840438842773e+00,2.600656986236572266e+00,2.581562042236328125e+00,2.562745094299316406e+00,2.544200658798217773e+00,2.525922536849975586e+00,2.507905483245849609e+00,2.490143299102783203e+00,2.472630977630615234e+00,2.455363512039184570e+00,2.438335180282592773e+00,2.421541690826416016e+00,2.404977798461914062e+00,2.388638973236083984e+00,2.372520685195922852e+00,2.356618642807006836e+00,2.340928077697753906e+00,2.325445175170898438e+00,2.310165643692016602e+00,5.995064377784729004e-01,5.735685229301452637e-01,5.654163360595703125e-01,5.596166253089904785e-01,5.538539290428161621e-01,5.482087135314941406e-01,5.426774621009826660e-01,5.372566580772399902e-01,5.319431424140930176e-01,5.271437168121337891e-01,5.288835167884826660e-01,5.306245684623718262e-01,5.320815443992614746e-01,5.335465073585510254e-01,5.350195765495300293e-01,5.365008115768432617e-01,5.730820894241333008e-01,2.065839290618896484e+00,2.053772211074829102e+00,2.041845083236694336e+00
3.772699117660522461e+00,3.732646942138671875e+00,3.693435668945312500e+00,3.655040264129638672e+00,3.617434740066528320e+00,3.580595254898071289e+00,3.544498682022094727e+00,3.509122371673583984e+00,3.474445343017578125e+00,3.440447092056274414e+00,3.407107591629028320e+00,3.374408006668090820e+00,3.342329978942871094e+00,3.310856103897094727e+00,3.279969930648803711e+00,3.249654293060302734e+00,3.219893932342529297e+00,3.190674066543579102e+00,3.161979436874389648e+00,3.133796453475952148e+00,3.106111288070678711e+00,3.078911066055297852e+00,3.052182912826538086e+00,3.025914907455444336e+00,3.000095367431640625e+00,2.974712610244750977e+00,2.949755907058715820e+00,2.925214290618896484e+00,2.901077985763549805e+00,2.877336263656616211e+00,2.853980302810668945e+00,2.831000328063964844e+00,2.808387279510498047e+00,2.786132812500000000e+00,2.764228343963623047e+00,2.742665529251098633e+00,2.721436738967895508e+00,2.700533866882324219e+00,2.679949522018432617e+00,2.659676790237426758e+00,2.639708518981933594e+00,2.620037794113159180e+00,2.600657701492309570e+00,2.581562519073486328e+00,2.562745809555053711e+00,2.544201135635375977e+00,2.525923252105712891e+00,2.507905960083007812e+00,2.490143775939941406e+00,2.472631692886352539e+00,2.455363988876342773e+00,2.438335895538330078e+00,2.421542167663574219e+00,2.404978275299072266e+00,2.388639450073242188e+00,2.372521162033081055e+00,2.356619119644165039e+00,2.340928554534912109e+00,2.325445652008056641e+00,2.310166120529174805e+00,5.945535898208618164e-01,5.703490972518920898e-01,5.644621253013610840e-01,5.586954951286315918e-01,5.530454516410827637e-01,5.474981069564819336e-01,5.419811010360717773e-01,5.365741252899169922e-01,5.312740206718444824e-01,5.281503796577453613e-01,5.298967957496643066e-01,5.316548943519592285e-01,5.334245562553405762e-01,5.350776314735412598e-01,5.365591645240783691e-01,5.380489230155944824e-01,5.859346389770507812e-01,2.065840005874633789e+00,2.053772687911987305e+00,2.041845560073852539e+00
3.772700309753417969e+00,3.732648134231567383e+00,3.693437337875366211e+00,3.655041456222534180e+00,3.617435932159423828e+00,3.580596446990966797e+00,3.544499635696411133e+00,3.509123563766479492e+00,3.474446535110473633e+00,3.440448045730590820e+00,3.407108545303344727e+00,3.374408960342407227e+00,3.342331409454345703e+00,3.310857057571411133e+00,3.279970884323120117e+00,3.249655246734619141e+00,3.219894886016845703e+00,3.190674781799316406e+00,3.161980152130126953e+00,3.133797407150268555e+00,3.106112003326416016e+00,3.078912019729614258e+00,3.052183866500854492e+00,3.025915861129760742e+00,3.000096082687377930e+00,2.974713563919067383e+00,2.949756622314453125e+00,2.925215244293212891e+00,2.901078701019287109e+00,2.877336978912353516e+00,2.853981018066406250e+00,2.831001043319702148e+00,2.808388233184814453e+00,2.786133527755737305e+00,2.764229059219360352e+00,2.742666244506835938e+00,2.721437215805053711e+00,2.700534343719482422e+00,2.679950475692749023e+00,2.659677505493164062e+00,2.639709234237670898e+00,2.620038509368896484e+00,2.600658655166625977e+00,2.581563472747802734e+00,2.562746763229370117e+00,2.544202089309692383e+00,2.525924205780029297e+00,2.507906913757324219e+00,2.490144729614257812e+00,2.472632646560668945e+00,2.455364942550659180e+00,2.438336610794067383e+00,2.421543121337890625e+00,2.404979228973388672e+00,2.388640403747558594e+00,2.372522115707397461e+00,2.356620073318481445e+00,2.340929508209228516e+00,2.325446605682373047e+00,6.178119778633117676e-01,5.895863175392150879e-01,5.689221024513244629e-01,5.630258321762084961e-01,5.572504997253417969e-01,5.515924692153930664e-01,5.460481643676757812e-01,5.406141877174377441e-01,5.352873206138610840e-01,5.300644040107727051e-01,5.293238162994384766e-01,5.309886932373046875e-01,5.326788425445556641e-01,5.344554185867309570e-01,5.362439155578613281e-01,5.380443930625915527e-01,5.396060347557067871e-01,2.078050613403320312e+00,2.065840721130371094e+00,2.053773641586303711e+00,2.041846513748168945e+00
3.772701740264892578e+00,3.732649564743041992e+00,3.693438529968261719e+00,3.655043125152587891e+00,3.617437124252319336e+00,3.580597639083862305e+00,3.544500827789306641e+00,3.509124517440795898e+00,3.474447488784790039e+00,3.440449237823486328e+00,3.407109498977661133e+00,3.374410152435302734e+00,3.342332363128662109e+00,3.310858488082885742e+00,3.279972076416015625e+00,3.249656438827514648e+00,3.219896078109741211e+00,3.190675973892211914e+00,3.161981344223022461e+00,3.133798599243164062e+00,3.106113195419311523e+00,3.078913211822509766e+00,3.052185058593750000e+00,3.025917291641235352e+00,3.000097513198852539e+00,2.974714756011962891e+00,2.949758052825927734e+00,2.925216436386108398e+00,2.901079893112182617e+00,2.877338409423828125e+00,2.853982210159301758e+00,2.831002235412597656e+00,2.808389425277709961e+00,2.786134958267211914e+00,2.764230489730834961e+00,2.742667913436889648e+00,2.721438884735107422e+00,2.700536012649536133e+00,2.679951667785644531e+00,2.659678936004638672e+00,2.639710426330566406e+00,2.620039701461791992e+00,2.600659847259521484e+00,2.581564664840698242e+00,2.562747955322265625e+00,2.544203281402587891e+00,2.525925397872924805e+00,2.507908105850219727e+00,2.490145921707153320e+00,2.472633600234985352e+00,2.455365896224975586e+00,2.438337802886962891e+00,2.421544313430786133e+00,2.404980421066284180e+00,2.388641595840454102e+00,2.372523307800292969e+00,2.356621026992797852e+00,2.340930461883544922e+00,2.325447559356689453e+00,5.993990898132324219e-01,5.717049837112426758e-01,5.658473372459411621e-01,5.601085424423217773e-01,5.544849634170532227e-01,5.489321351051330566e-01,5.434409379959106445e-01,5.380585193634033203e-01,5.327816605567932129e-01,5.314862132072448730e-01,5.321865677833557129e-01,5.328887701034545898e-01,5.344237089157104492e-01,5.361208915710449219e-01,5.378288626670837402e-01,5.395477414131164551e-01,5.567689538002014160e-01,2.078051328659057617e+00,2.065841436386108398e+00,2.053774356842041016e+00,2.041847229003906250e+00
3.772703886032104492e+00,3.732651472091674805e+00,3.693440675735473633e+00,3.655045032501220703e+00,3.617439508438110352e+00,3.580600023269653320e+00,3.544503211975097656e+00,3.509126663208007812e+00,3.474449634552001953e+00,3.440451145172119141e+00,3.407111644744873047e+00,3.374412059783935547e+00,3.342334270477294922e+00,3.310860395431518555e+00,3.279973983764648438e+00,3.249658346176147461e+00,3.219897985458374023e+00,3.190677881240844727e+00,3.161983251571655273e+00,3.133800268173217773e+00,3.106115102767944336e+00,3.078914880752563477e+00,3.052186727523803711e+00,3.025918960571289062e+00,3.000099182128906250e+00,2.974716424942016602e+00,2.949759483337402344e+00,2.925217866897583008e+00,2.901081323623657227e+00,2.877339839935302734e+00,2.853983640670776367e+00,2.831003665924072266e+00,2.808390855789184570e+00,2.786136627197265625e+00,2.764232158660888672e+00,2.742669105529785156e+00,2.721440076828002930e+00,2.700537204742431641e+00,2.679953098297119141e+00,2.659680128097534180e+00,2.639711856842041016e+00,2.620040893554687500e+00,2.600661039352416992e+00,2.581565856933593750e+00,2.562748908996582031e+00,2.544204473495483398e+00,2.525926351547241211e+00,2.507909059524536133e+00,2.490146875381469727e+00,2.472634792327880859e+00,2.455367088317871094e+00,2.438338756561279297e+00,2.421545267105102539e+00,2.404981374740600586e+00,2.388642549514770508e+00,2.372524261474609375e+00,2.356621980667114258e+00,2.340931415557861328e+00,5.965573191642761230e-01,5.738896727561950684e-01,5.680810213088989258e-01,5.623887777328491211e-01,5.568094253540039062e-01,5.513397455215454102e-01,5.459764599800109863e-01,5.407165288925170898e-01,5.355161428451538086e-01,5.337758660316467285e-01,5.344823002815246582e-01,5.351906418800354004e-01,5.359007716178894043e-01,5.366128087043762207e-01,5.379034280776977539e-01,5.396227836608886719e-01,5.413531661033630371e-01,5.937393307685852051e-01,2.078052282333374023e+00,2.065842390060424805e+00,2.053775072097778320e+00,2.041847944259643555e+00
3.772706270217895508e+00,3.732654094696044922e+00,3.693443059921264648e+00,3.655047416687011719e+00,3.617441892623901367e+00,3.580602169036865234e+00,3.544505357742309570e+00,3.509129047393798828e+00,3.474452018737792969e+00,3.440453290939331055e+00,3.407113790512084961e+00,3.374414205551147461e+00,3.342336177825927734e+00,3.310862302780151367e+00,3.279975891113281250e+00,3.249660253524780273e+00,3.219899892807006836e+00,3.190679788589477539e+00,3.161984920501708984e+00,3.133801937103271484e+00,3.106116771697998047e+00,3.078916549682617188e+00,3.052188396453857422e+00,3.025920391082763672e+00,3.000100851058959961e+00,2.974718093872070312e+00,2.949761152267456055e+00,2.925219535827636719e+00,2.901082992553710938e+00,2.877341270446777344e+00,2.853985309600830078e+00,2.831005334854125977e+00,2.808392524719238281e+00,2.786138057708740234e+00,2.764233350753784180e+00,2.742670536041259766e+00,2.721441507339477539e+00,2.700538635253906250e+00,2.679954290390014648e+00,2.659681320190429688e+00,2.639713048934936523e+00,2.620042324066162109e+00,2.600662231445312500e+00,2.581567049026489258e+00,2.562750101089477539e+00,2.544205665588378906e+00,2.525927543640136719e+00,2.507910251617431641e+00,2.490148067474365234e+00,2.472635746002197266e+00,2.455368041992187500e+00,2.438339948654174805e+00,2.421546459197998047e+00,2.404982328414916992e+00,2.388643503189086914e+00,2.372525215148925781e+00,2.356622934341430664e+00,5.964162945747375488e-01,5.753250718116760254e-01,5.698071718215942383e-01,5.640804171562194824e-01,5.584676265716552734e-01,5.529654622077941895e-01,5.475707054138183594e-01,5.422801375389099121e-01,5.370908379554748535e-01,5.366052985191345215e-01,5.367546081542968750e-01,5.371956229209899902e-01,5.380588173866271973e-01,5.389248132705688477e-01,5.396671891212463379e-01,5.403892397880554199e-01,5.414287447929382324e-01,5.431707501411437988e-01,2.090408086776733398e+00,2.078052997589111328e+00,2.065843105316162109e+00,2.053776025772094727e+00,2.041848897933959961e+00
3.772708892822265625e+00,3.732656478881835938e+00,3.693445444107055664e+00,3.655049800872802734e+00,3.617444276809692383e+00,3.580604553222656250e+00,3.544507503509521484e+00,3.509131193161010742e+00,3.474454164505004883e+00,3.440455436706542969e+00,3.407115697860717773e+00,3.374416112899780273e+00,3.342338323593139648e+00,3.310864448547363281e+00,3.279977798461914062e+00,3.249662160873413086e+00,3.219901800155639648e+00,3.190681457519531250e+00,3.161986827850341797e+00,3.133803844451904297e+00,3.106118440628051758e+00,3.078918218612670898e+00,3.052190065383911133e+00,3.025922060012817383e+00,3.000102281570434570e+00,2.974719524383544922e+00,2.949762582778930664e+00,2.925220966339111328e+00,2.901084423065185547e+00,2.877342939376831055e+00,2.853986978530883789e+00,2.831006765365600586e+00,2.808393955230712891e+00,2.786139249801635742e+00,2.764234781265258789e+00,2.742671966552734375e+00,2.721442937850952148e+00,2.700539827346801758e+00,2.679955482482910156e+00,2.659682750701904297e+00,2.639714241027832031e+00,2.620043516159057617e+00,2.600663423538208008e+00,2.581568241119384766e+00,2.562751293182373047e+00,2.544206857681274414e+00,2.525928735733032227e+00,2.507911443710327148e+00,2.490149259567260742e+00,2.472636938095092773e+00,2.455369234085083008e+00,2.438340902328491211e+00,2.421547412872314453e+00,2.404983520507812500e+00,2.388644456863403320e+00,2.372526168823242188e+00,5.962753295898437500e-01,5.766097903251647949e-01,5.714756846427917480e-01,5.657823085784912109e-01,5.601357817649841309e-01,5.546008944511413574e-01,5.491742491722106934e-01,5.438528060913085938e-01,5.397224426269531250e-01,5.398734211921691895e-01,5.400245785713195801e-01,5.401757359504699707e-01,5.403270125389099121e-01,5.405095815658569336e-01,5.413835048675537109e-01,5.422602295875549316e-01,5.431398153305053711e-01,5.440222620964050293e-01,5.826194286346435547e-01,2.090408802032470703e+00,2.078053712844848633e+00,2.065843820571899414e+00,2.053776741027832031e+00,2.041849613189697266e+00
3.772711515426635742e+00,3.732659101486206055e+00,3.693447828292846680e+00,3.655052185058593750e+00,3.617446660995483398e+00,3.580606698989868164e+00,3.544509887695312500e+00,3.509133338928222656e+00,3.474456310272216797e+00,3.440457582473754883e+00,3.407117843627929688e+00,3.374418258666992188e+00,3.342340230941772461e+00,3.310866355895996094e+00,3.279979705810546875e+00,3.249664068222045898e+00,3.219903469085693359e+00,3.190683364868164062e+00,3.161988496780395508e+00,3.133805513381958008e+00,3.106120109558105469e+00,3.078919887542724609e+00,3.052191734313964844e+00,3.025923728942871094e+00,3.000103950500488281e+00,2.974721193313598633e+00,2.949764251708984375e+00,2.925222873687744141e+00,2.901086091995239258e+00,2.877344369888305664e+00,2.853988409042358398e+00,2.831008195877075195e+00,2.808395385742187500e+00,2.786140680313110352e+00,2.764236211776733398e+00,2.742673158645629883e+00,2.721444129943847656e+00,2.700541257858276367e+00,2.679956912994384766e+00,2.659683942794799805e+00,2.639715433120727539e+00,2.620044708251953125e+00,2.600664854049682617e+00,2.581569433212280273e+00,2.562752485275268555e+00,2.544208049774169922e+00,2.525929927825927734e+00,2.507912635803222656e+00,2.490150213241577148e+00,2.472637891769409180e+00,2.455370187759399414e+00,2.438342094421386719e+00,2.421548366546630859e+00,2.404984474182128906e+00,2.388645648956298828e+00,5.961344838142395020e-01,5.779003500938415527e-01,5.727432966232299805e-01,5.674944519996643066e-01,5.618139505386352539e-01,5.562459230422973633e-01,5.507872104644775391e-01,5.454346537590026855e-01,5.430287718772888184e-01,5.431816577911376953e-01,5.433346033096313477e-01,5.434876680374145508e-01,5.436407923698425293e-01,5.437939763069152832e-01,5.439473390579223633e-01,5.441007018089294434e-01,5.447494983673095703e-01,5.456371903419494629e-01,5.548756718635559082e-01,2.102912664413452148e+00,2.090409755706787109e+00,2.078054666519165039e+00,2.065844535827636719e+00,2.053777456283569336e+00,2.041850328445434570e+00
3.772713899612426758e+00,3.732661485671997070e+00,3.693450450897216797e+00,3.655054569244384766e+00,3.617448806762695312e+00,3.580609083175659180e+00,3.544512033462524414e+00,3.509135484695434570e+00,3.474458456039428711e+00,3.440459728240966797e+00,3.407119989395141602e+00,3.374420166015625000e+00,3.342342376708984375e+00,3.310868263244628906e+00,3.279981613159179688e+00,3.249665975570678711e+00,3.219905376434326172e+00,3.190685272216796875e+00,3.161990404129028320e+00,3.133807182312011719e+00,3.106121778488159180e+00,3.078921556472778320e+00,3.052193403244018555e+00,3.025925397872924805e+00,3.000105619430541992e+00,2.974723100662231445e+00,2.949765920639038086e+00,2.925224304199218750e+00,2.901087760925292969e+00,2.877346038818359375e+00,2.853989839553833008e+00,2.831009626388549805e+00,2.808396816253662109e+00,2.786142110824584961e+00,2.764237642288208008e+00,2.742674589157104492e+00,2.721445560455322266e+00,2.700542449951171875e+00,2.679958105087280273e+00,2.659685134887695312e+00,2.639716863632202148e+00,2.620045900344848633e+00,2.600666046142578125e+00,2.581570625305175781e+00,2.562753677368164062e+00,2.544209241867065430e+00,2.525930881500244141e+00,2.507913589477539062e+00,2.490151405334472656e+00,2.472639083862304688e+00,2.455371379852294922e+00,2.438343048095703125e+00,2.421549558639526367e+00,2.404985427856445312e+00,5.959936380386352539e-01,5.791966319084167480e-01,5.740165710449218750e-01,5.689283013343811035e-01,5.635020732879638672e-01,5.579007863998413086e-01,5.524097084999084473e-01,5.470257401466369629e-01,5.463758707046508789e-01,5.465306639671325684e-01,5.466855168342590332e-01,5.468404293060302734e-01,5.469954609870910645e-01,5.471506118774414062e-01,5.473057627677917480e-01,5.474610924720764160e-01,5.476164817810058594e-01,5.477719306945800781e-01,5.587350726127624512e-01,5.858478546142578125e-01,2.102913379669189453e+00,2.090410470962524414e+00,2.078055381774902344e+00,2.065845489501953125e+00,2.053778171539306641e+00,2.041851043701171875e+00
3.772716522216796875e+00,3.732664108276367188e+00,3.693452835083007812e+00,3.655056953430175781e+00,3.617451190948486328e+00,3.580611467361450195e+00,3.544514417648315430e+00,3.509137868881225586e+00,3.474460601806640625e+00,3.440461874008178711e+00,3.407122135162353516e+00,3.374422311782836914e+00,3.342344284057617188e+00,3.310870170593261719e+00,3.279983520507812500e+00,3.249667882919311523e+00,3.219907283782958984e+00,3.190686941146850586e+00,3.161992073059082031e+00,3.133809089660644531e+00,3.106123685836791992e+00,3.078923225402832031e+00,3.052195072174072266e+00,3.025927305221557617e+00,3.000107526779174805e+00,2.974724531173706055e+00,2.949767589569091797e+00,2.925225734710693359e+00,2.901089191436767578e+00,2.877347469329833984e+00,2.853991270065307617e+00,2.831011056900024414e+00,2.808398246765136719e+00,2.786143541336059570e+00,2.764238834381103516e+00,2.742676019668579102e+00,2.721446752548217773e+00,2.700543880462646484e+00,2.679959535598754883e+00,2.659686565399169922e+00,2.639718055725097656e+00,2.620047092437744141e+00,2.600667238235473633e+00,2.581571817398071289e+00,2.562754869461059570e+00,2.544210195541381836e+00,2.525932073593139648e+00,2.507914781570434570e+00,2.490152597427368164e+00,2.472640275955200195e+00,2.455372333526611328e+00,2.438344240188598633e+00,2.421550512313842773e+00,5.962285399436950684e-01,5.804988145828247070e-01,5.752955079078674316e-01,5.701846480369567871e-01,5.651637911796569824e-01,5.595654845237731934e-01,5.540418028831481934e-01,5.496078729629516602e-01,5.497645139694213867e-01,5.499211549758911133e-01,5.500779747962951660e-01,5.502348542213439941e-01,5.503917932510375977e-01,5.505488514900207520e-01,5.507059693336486816e-01,5.504974126815795898e-01,5.501868128776550293e-01,5.518052577972412109e-01,5.634637475013732910e-01,5.848740935325622559e-01,2.115567445755004883e+00,2.102914094924926758e+00,2.090411186218261719e+00,2.078056097030639648e+00,2.065846204757690430e+00,2.053778886795043945e+00,2.041851758956909180e+00
3.772719144821166992e+00,3.732666492462158203e+00,3.693455219268798828e+00,3.655059337615966797e+00,3.617453575134277344e+00,3.580613613128662109e+00,3.544516563415527344e+00,3.509140014648437500e+00,3.474462747573852539e+00,3.440464019775390625e+00,3.407124042510986328e+00,3.374424219131469727e+00,3.342346191406250000e+00,3.310872316360473633e+00,3.279985666275024414e+00,3.249669790267944336e+00,3.219909191131591797e+00,3.190688848495483398e+00,3.161993980407714844e+00,3.133810758590698242e+00,3.106125593185424805e+00,3.078925371170043945e+00,3.052196979522705078e+00,3.025928974151611328e+00,3.000108957290649414e+00,2.974726200103759766e+00,2.949769020080566406e+00,2.925227403640747070e+00,2.901090621948242188e+00,2.877348899841308594e+00,2.853992700576782227e+00,2.831012487411499023e+00,2.808399677276611328e+00,2.786144971847534180e+00,2.764240264892578125e+00,2.742677211761474609e+00,2.721448183059692383e+00,2.700545072555541992e+00,2.679960727691650391e+00,2.659687757492065430e+00,2.639719247817993164e+00,2.620048284530639648e+00,2.600668430328369141e+00,2.581573009490966797e+00,2.562756061553955078e+00,2.544211387634277344e+00,2.525933265686035156e+00,2.507915973663330078e+00,2.490153551101684570e+00,2.472641229629516602e+00,2.455373525619506836e+00,2.438345193862915039e+00,6.015759706497192383e-01,5.818068385124206543e-01,5.765801072120666504e-01,5.714465379714965820e-01,5.664035081863403320e-01,5.612401962280273438e-01,5.556835532188415527e-01,5.530368685722351074e-01,5.531954169273376465e-01,5.533540844917297363e-01,5.535128116607666016e-01,5.536716580390930176e-01,5.534927248954772949e-01,5.531787276268005371e-01,5.528650879859924316e-01,5.525517463684082031e-01,5.531251430511474609e-01,5.576134920120239258e-01,5.694336891174316406e-01,5.884500145912170410e-01,2.128374814987182617e+00,2.115568161010742188e+00,2.102915048599243164e+00,2.090412139892578125e+00,2.078056812286376953e+00,2.065846920013427734e+00,2.053779602050781250e+00,2.041852474212646484e+00
3.772721529006958008e+00,3.732668876647949219e+00,3.693457603454589844e+00,3.655061721801757812e+00,3.617455959320068359e+00,3.580615997314453125e+00,3.544518947601318359e+00,3.509142160415649414e+00,3.474464893341064453e+00,3.440466165542602539e+00,3.407126188278198242e+00,3.374426364898681641e+00,3.342348337173461914e+00,3.310874223709106445e+00,3.279987573623657227e+00,3.249671697616577148e+00,3.219911098480224609e+00,3.190690755844116211e+00,3.161996126174926758e+00,3.133812904357910156e+00,3.106127262115478516e+00,3.078927040100097656e+00,3.052198648452758789e+00,3.025930643081665039e+00,3.000110626220703125e+00,2.974727630615234375e+00,2.949770689010620117e+00,2.925228834152221680e+00,2.901092052459716797e+00,2.877350330352783203e+00,2.853994131088256836e+00,2.831013917922973633e+00,2.808400869369506836e+00,2.786146402359008789e+00,2.764241695404052734e+00,2.742678642272949219e+00,2.721449375152587891e+00,2.700546264648437500e+00,2.679961919784545898e+00,2.659688949584960938e+00,2.639720439910888672e+00,2.620049476623535156e+00,2.600669622421264648e+00,2.581574201583862305e+00,2.562757253646850586e+00,2.544212579727172852e+00,2.525934457778930664e+00,2.507916927337646484e+00,2.490154743194580078e+00,2.472642421722412109e+00,2.455374479293823242e+00,6.216808557510375977e-01,5.844920873641967773e-01,5.785260796546936035e-01,5.727140307426452637e-01,5.676487684249877930e-01,5.626722574234008789e-01,5.573350787162780762e-01,5.565088391304016113e-01,5.566694736480712891e-01,5.565208196640014648e-01,5.562033653259277344e-01,5.558862686157226562e-01,5.555695295333862305e-01,5.552532076835632324e-01,5.549371838569641113e-01,5.546215772628784180e-01,5.589613914489746094e-01,5.635453462600708008e-01,5.755314826965332031e-01,5.949641466140747070e-01,2.141338348388671875e+00,2.128375768661499023e+00,2.115569114685058594e+00,2.102915763854980469e+00,2.090412855148315430e+00,2.078057765960693359e+00,2.065847635269165039e+00,2.053780555725097656e+00,2.041853189468383789e+00
3.772724151611328125e+00,3.732671499252319336e+00,3.693460226058959961e+00,3.655064105987548828e+00,3.617458343505859375e+00,3.580618381500244141e+00,3.544521093368530273e+00,3.509144306182861328e+00,3.474467039108276367e+00,3.440468072891235352e+00,3.407128334045410156e+00,3.374428272247314453e+00,3.342350244522094727e+00,3.310876131057739258e+00,3.279989480972290039e+00,3.249673604965209961e+00,3.219913244247436523e+00,3.190692663192749023e+00,3.161997795104980469e+00,3.133814573287963867e+00,3.106129169464111328e+00,3.078928709030151367e+00,3.052200317382812500e+00,3.025932312011718750e+00,3.000112295150756836e+00,2.974729299545288086e+00,2.949772119522094727e+00,2.925230503082275391e+00,2.901093721389770508e+00,2.877351760864257812e+00,2.853995561599731445e+00,2.831015348434448242e+00,2.808402299880981445e+00,2.786147594451904297e+00,2.764243125915527344e+00,2.742680072784423828e+00,2.721450805664062500e+00,2.700547695159912109e+00,2.679963350296020508e+00,2.659690141677856445e+00,2.639721870422363281e+00,2.620050907135009766e+00,2.600670814514160156e+00,2.581575393676757812e+00,2.562758445739746094e+00,2.544213771820068359e+00,2.525935649871826172e+00,2.507918119430541992e+00,2.490155935287475586e+00,2.472643375396728516e+00,2.455375671386718750e+00,5.907598733901977539e-01,5.822846889495849609e-01,5.763633847236633301e-01,5.705612301826477051e-01,5.648747682571411133e-01,5.593673586845397949e-01,5.592612624168395996e-01,5.589407086372375488e-01,5.586204528808593750e-01,5.583006143569946289e-01,5.579811334609985352e-01,5.576620697975158691e-01,5.573433041572570801e-01,5.570248961448669434e-01,5.603157281875610352e-01,5.649220943450927734e-01,5.696047544479370117e-01,5.817612409591674805e-01,6.016241908073425293e-01,2.154460430145263672e+00,2.141339063644409180e+00,2.128376483917236328e+00,2.115569829940795898e+00,2.102916479110717773e+00,2.090413570404052734e+00,2.078058481216430664e+00,2.065848350524902344e+00,2.053781270980834961e+00,2.041853904724121094e+00
3.772726774215698242e+00,3.732673883438110352e+00,3.693462610244750977e+00,3.655066490173339844e+00,3.617460489273071289e+00,3.580620527267456055e+00,3.544523239135742188e+00,3.509146690368652344e+00,3.474469184875488281e+00,3.440470218658447266e+00,3.407130241394042969e+00,3.374430418014526367e+00,3.342352151870727539e+00,3.310878038406372070e+00,3.279991626739501953e+00,3.249675750732421875e+00,3.219914913177490234e+00,3.190694570541381836e+00,3.161999702453613281e+00,3.133816242218017578e+00,3.106130838394165039e+00,3.078930377960205078e+00,3.052201986312866211e+00,3.025933742523193359e+00,3.000113964080810547e+00,2.974730968475341797e+00,2.949773788452148438e+00,2.925231933593750000e+00,2.901095151901245117e+00,2.877353429794311523e+00,2.853996992111206055e+00,2.831016778945922852e+00,2.808403730392456055e+00,2.786149024963378906e+00,2.764244318008422852e+00,2.742681264877319336e+00,2.721451997756958008e+00,2.700548887252807617e+00,2.679964542388916016e+00,2.659691572189331055e+00,2.639723062515258789e+00,2.620052099227905273e+00,2.600672006607055664e+00,2.581576585769653320e+00,2.562759637832641602e+00,2.544214963912963867e+00,2.525936603546142578e+00,2.507919311523437500e+00,2.490156888961791992e+00,2.472644567489624023e+00,6.226314306259155273e-01,5.861098766326904297e-01,5.800938606262207031e-01,5.742167830467224121e-01,5.684576034545898438e-01,5.628127455711364746e-01,5.600478649139404297e-01,5.602136850357055664e-01,5.603795647621154785e-01,5.604137778282165527e-01,5.600918531417846680e-01,5.597704052925109863e-01,5.594491958618164062e-01,5.616766810417175293e-01,5.663055181503295898e-01,5.710113048553466797e-01,5.757958889007568359e-01,5.881273746490478516e-01,2.181192636489868164e+00,2.167744636535644531e+00,2.154461383819580078e+00,2.141340017318725586e+00,2.128377199172973633e+00,2.115570783615112305e+00,2.102917194366455078e+00,2.090414285659790039e+00,2.078059196472167969e+00,2.065849304199218750e+00,2.053781986236572266e+00,2.041854858398437500e+00
3.772729158401489258e+00,3.732676506042480469e+00,3.693464994430541992e+00,3.655068874359130859e+00,3.617462873458862305e+00,3.580622911453247070e+00,3.544525623321533203e+00,3.509148836135864258e+00,3.474471330642700195e+00,3.440472364425659180e+00,3.407132387161254883e+00,3.374432325363159180e+00,3.342354536056518555e+00,3.310880422592163086e+00,3.279993534088134766e+00,3.249677658081054688e+00,3.219916820526123047e+00,3.190696477890014648e+00,3.162001371383666992e+00,3.133818149566650391e+00,3.106132507324218750e+00,3.078932046890258789e+00,3.052203655242919922e+00,3.025935411453247070e+00,3.000115394592285156e+00,2.974732398986816406e+00,2.949775218963623047e+00,2.925233602523803711e+00,2.901096582412719727e+00,2.877354860305786133e+00,2.853998661041259766e+00,2.831018209457397461e+00,2.808405160903930664e+00,2.786150455474853516e+00,2.764245748519897461e+00,2.742682695388793945e+00,2.721453428268432617e+00,2.700550317764282227e+00,2.679965734481811523e+00,2.659692764282226562e+00,2.639724254608154297e+00,2.620053291320800781e+00,2.600673198699951172e+00,2.581577777862548828e+00,2.562760829925537109e+00,2.544216156005859375e+00,2.525937795639038086e+00,2.507920503616333008e+00,2.490158081054687500e+00,6.361492276191711426e-01,5.916181206703186035e-01,5.838874578475952148e-01,5.779194831848144531e-01,5.720860958099365234e-01,5.663694143295288086e-01,5.607657432556152344e-01,5.607300996780395508e-01,5.608962774276733398e-01,5.610625743865966797e-01,5.612289905548095703e-01,5.613954067230224609e-01,5.630442500114440918e-01,5.676957368850708008e-01,5.724247097969055176e-01,5.772331953048706055e-01,5.821231007575988770e-01,5.946344137191772461e-01,2.194809436798095703e+00,2.181193590164184570e+00,2.167745590209960938e+00,2.154462099075317383e+00,2.141340732574462891e+00,2.128378152847290039e+00,2.115571498870849609e+00,2.102918148040771484e+00,2.090415239334106445e+00,2.078059911727905273e+00,2.065850019454956055e+00,2.053782701492309570e+00,2.041855573654174805e+00
3.772731781005859375e+00,3.732678890228271484e+00,3.693467378616333008e+00,3.655071258544921875e+00,3.617465257644653320e+00,3.580625057220458984e+00,3.544527769088745117e+00,3.509150981903076172e+00,3.474473476409912109e+00,3.440474510192871094e+00,3.407134771347045898e+00,3.374434709548950195e+00,3.342356681823730469e+00,3.310882329940795898e+00,3.279995441436767578e+00,3.249679565429687500e+00,3.219918727874755859e+00,3.190698146820068359e+00,3.162003278732299805e+00,3.133819818496704102e+00,3.106134176254272461e+00,3.078933715820312500e+00,3.052205324172973633e+00,3.025937080383300781e+00,3.000117063522338867e+00,2.974734067916870117e+00,2.949776887893676758e+00,2.925235033035278320e+00,2.901098251342773438e+00,2.877356290817260742e+00,2.854000091552734375e+00,2.831019639968872070e+00,2.808406591415405273e+00,2.786151885986328125e+00,2.764247179031372070e+00,2.742684125900268555e+00,2.721454858779907227e+00,2.700551509857177734e+00,2.679967164993286133e+00,2.659693956375122070e+00,2.639725446701049805e+00,2.620054483413696289e+00,2.600674390792846680e+00,2.581578969955444336e+00,2.562762022018432617e+00,2.544217348098754883e+00,2.525938987731933594e+00,2.507921457290649414e+00,2.490159273147583008e+00,6.221440434455871582e-01,5.877399444580078125e-01,5.816818475723266602e-01,5.757613182067871094e-01,5.699712038040161133e-01,5.642964839935302734e-01,5.612475275993347168e-01,5.614140033721923828e-01,5.615805983543395996e-01,5.617472529411315918e-01,5.619140267372131348e-01,5.622159838676452637e-01,5.712968111038208008e-01,5.786776542663574219e-01,5.835921764373779297e-01,5.885909199714660645e-01,6.012870073318481445e-01,2.208597421646118164e+00,2.194810390472412109e+00,2.181194543838500977e+00,2.167746305465698242e+00,2.154463052749633789e+00,2.141341686248779297e+00,2.128378868103027344e+00,2.115572214126586914e+00,2.102918863296508789e+00,2.090415954589843750e+00,2.078060865402221680e+00,2.065850734710693359e+00,2.053783416748046875e+00,2.041856288909912109e+00
3.772734403610229492e+00,3.732681512832641602e+00,3.693469762802124023e+00,3.655073642730712891e+00,3.617467641830444336e+00,3.580627441406250000e+00,3.544530153274536133e+00,3.509153127670288086e+00,3.474476099014282227e+00,3.440476894378662109e+00,3.407136917114257812e+00,3.374436855316162109e+00,3.342358589172363281e+00,3.310884237289428711e+00,3.279997348785400391e+00,3.249681472778320312e+00,3.219920635223388672e+00,3.190700054168701172e+00,3.162004947662353516e+00,3.133821725845336914e+00,3.106136083602905273e+00,3.078935384750366211e+00,3.052206993103027344e+00,3.025938749313354492e+00,3.000118732452392578e+00,2.974735736846923828e+00,2.949778556823730469e+00,2.925236463546752930e+00,2.901099681854248047e+00,2.877357721328735352e+00,2.854001522064208984e+00,2.831021070480346680e+00,2.808408021926879883e+00,2.786153316497802734e+00,2.764248371124267578e+00,2.742685317993164062e+00,2.721456050872802734e+00,2.700552940368652344e+00,2.679968357086181641e+00,2.659695386886596680e+00,2.639726638793945312e+00,2.620055675506591797e+00,2.600675582885742188e+00,2.581580162048339844e+00,2.562763214111328125e+00,2.544218301773071289e+00,2.525940179824829102e+00,2.507922649383544922e+00,6.315669417381286621e-01,5.924789309501647949e-01,5.855051875114440918e-01,5.794928669929504395e-01,5.736191868782043457e-01,5.678719282150268555e-01,5.622386932373046875e-01,5.619326233863830566e-01,5.620995759963989258e-01,5.622665286064147949e-01,5.624336600303649902e-01,5.627715587615966797e-01,5.676153898239135742e-01,5.790225863456726074e-01,5.900928378105163574e-01,5.952039957046508789e-01,2.236698627471923828e+00,2.222559690475463867e+00,2.208598375320434570e+00,2.194811105728149414e+00,2.181195259094238281e+00,2.167747259140014648e+00,2.154463768005371094e+00,2.141342401504516602e+00,2.128379821777343750e+00,2.115573167800903320e+00,2.102919578552246094e+00,2.090416669845581055e+00,2.078061580657958984e+00,2.065851449966430664e+00,2.053784132003784180e+00,2.041857004165649414e+00
3.772736787796020508e+00,3.732683897018432617e+00,3.693472385406494141e+00,3.655076026916503906e+00,3.617470026016235352e+00,3.580629825592041016e+00,3.544532775878906250e+00,3.509155750274658203e+00,3.474478244781494141e+00,3.440479040145874023e+00,3.407139062881469727e+00,3.374439001083374023e+00,3.342360496520996094e+00,3.310886144638061523e+00,3.279999256134033203e+00,3.249683380126953125e+00,3.219922542572021484e+00,3.190701961517333984e+00,3.162006855010986328e+00,3.133823394775390625e+00,3.106137752532958984e+00,3.078937053680419922e+00,3.052208662033081055e+00,3.025940418243408203e+00,3.000120401382446289e+00,2.974737167358398438e+00,2.949779987335205078e+00,2.925238132476806641e+00,2.901101112365722656e+00,2.877359390258789062e+00,2.854002952575683594e+00,2.831022500991821289e+00,2.808409452438354492e+00,2.786154508590698242e+00,2.764249801635742188e+00,2.742686748504638672e+00,2.721457481384277344e+00,2.700554132461547852e+00,2.679969787597656250e+00,2.659696578979492188e+00,2.639728069305419922e+00,2.620056867599487305e+00,2.600676774978637695e+00,2.581581354141235352e+00,2.562764406204223633e+00,2.544219493865966797e+00,2.525941133499145508e+00,2.507923841476440430e+00,6.177605986595153809e-01,5.893791317939758301e-01,5.832874178886413574e-01,5.773203372955322266e-01,5.714929699897766113e-01,5.657880306243896484e-01,5.624522566795349121e-01,5.626194477081298828e-01,5.627867579460144043e-01,5.629541873931884766e-01,5.633282065391540527e-01,5.639050602912902832e-01,5.755317211151123047e-01,5.869601964950561523e-01,5.988516807556152344e-01,2.251019716262817383e+00,2.236699581146240234e+00,2.222560644149780273e+00,2.208599090576171875e+00,2.194812059402465820e+00,2.181196212768554688e+00,2.167747974395751953e+00,2.154464721679687500e+00,2.141343116760253906e+00,2.128380537033081055e+00,2.115573883056640625e+00,2.102920532226562500e+00,2.090417385101318359e+00,2.078062295913696289e+00,2.065852165222167969e+00,2.053785085678100586e+00,2.041857719421386719e+00
3.772739410400390625e+00,3.732686519622802734e+00,3.693474769592285156e+00,3.655078411102294922e+00,3.617472648620605469e+00,3.580632448196411133e+00,3.544534921646118164e+00,3.509157896041870117e+00,3.474480390548706055e+00,3.440481185913085938e+00,3.407140970230102539e+00,3.374440908432006836e+00,3.342362642288208008e+00,3.310888290405273438e+00,3.280001163482666016e+00,3.249685049057006836e+00,3.219924211502075195e+00,3.190703630447387695e+00,3.162008523941040039e+00,3.133825063705444336e+00,3.106139421463012695e+00,3.078938961029052734e+00,3.052210330963134766e+00,3.025942087173461914e+00,3.000121831893920898e+00,2.974738836288452148e+00,2.949781656265258789e+00,2.925239562988281250e+00,2.901102781295776367e+00,2.877360820770263672e+00,2.854004383087158203e+00,2.831023931503295898e+00,2.808410882949829102e+00,2.786155939102172852e+00,2.764251232147216797e+00,2.742687940597534180e+00,2.721458673477172852e+00,2.700555562973022461e+00,2.679970979690551758e+00,2.659697771072387695e+00,2.639729261398315430e+00,2.620058059692382812e+00,2.600677967071533203e+00,2.581582546234130859e+00,2.562765359878540039e+00,2.544220685958862305e+00,2.525942325592041016e+00,6.270502209663391113e-01,5.933421850204467773e-01,5.871319174766540527e-01,5.810863375663757324e-01,5.751639604568481445e-01,5.693824887275695801e-01,5.637193322181701660e-01,5.631403326988220215e-01,5.633079409599304199e-01,5.634756684303283691e-01,5.638858675956726074e-01,5.644639730453491211e-01,5.710319280624389648e-01,5.833732485771179199e-01,5.951184630393981934e-01,2.265525102615356445e+00,2.251020669937133789e+00,2.236700534820556641e+00,2.222561359405517578e+00,2.208600044250488281e+00,2.194813013076782227e+00,2.181196928024291992e+00,2.167748928070068359e+00,2.154465436935424805e+00,2.141344070434570312e+00,2.128381252288818359e+00,2.115574598312377930e+00,2.102921247482299805e+00,2.090418338775634766e+00,2.078063011169433594e+00,2.065853118896484375e+00,2.053785800933837891e+00,2.041858434677124023e+00
3.772742033004760742e+00,3.732688903808593750e+00,3.693477630615234375e+00,3.655081272125244141e+00,3.617475032806396484e+00,3.580634593963623047e+00,3.544537305831909180e+00,3.509160280227661133e+00,3.474482536315917969e+00,3.440483331680297852e+00,3.407143115997314453e+00,3.374443054199218750e+00,3.342364549636840820e+00,3.310890197753906250e+00,3.280003309249877930e+00,3.249686956405639648e+00,3.219926118850708008e+00,3.190705537796020508e+00,3.162010431289672852e+00,3.133826971054077148e+00,3.106141090393066406e+00,3.078940629959106445e+00,3.052211999893188477e+00,3.025943756103515625e+00,3.000123500823974609e+00,2.974740505218505859e+00,2.949783086776733398e+00,2.925241231918334961e+00,2.901104211807250977e+00,2.877362251281738281e+00,2.854005813598632812e+00,2.831025362014770508e+00,2.808412313461303711e+00,2.786157369613647461e+00,2.764252662658691406e+00,2.742689371109008789e+00,2.721460103988647461e+00,2.700556755065917969e+00,2.679972171783447266e+00,2.659699201583862305e+00,2.639730453491210938e+00,2.620059490203857422e+00,2.600679159164428711e+00,2.581583738327026367e+00,2.562766551971435547e+00,2.544222116470336914e+00,6.366235017776489258e-01,6.134384870529174805e-01,5.910274982452392578e-01,5.849018096923828125e-01,5.789018273353576660e-01,5.730236768722534180e-01,5.672875046730041504e-01,5.636621117591857910e-01,5.638300776481628418e-01,5.639981627464294434e-01,5.644447207450866699e-01,5.650239586830139160e-01,5.660085678100585938e-01,5.796656608581542969e-01,5.914314389228820801e-01,6.035066246986389160e-01,2.265526056289672852e+00,2.251021385192871094e+00,2.236701488494873047e+00,2.222562313079833984e+00,2.208600997924804688e+00,2.194813728332519531e+00,2.181197881698608398e+00,2.167749643325805664e+00,2.154466390609741211e+00,2.141344785690307617e+00,2.128382205963134766e+00,2.115575551986694336e+00,2.102921962738037109e+00,2.090419054031372070e+00,2.078063964843750000e+00,2.065853834152221680e+00,2.053786516189575195e+00,2.041859149932861328e+00
3.772744894027709961e+00,3.732691764831542969e+00,3.693480014801025391e+00,3.655083656311035156e+00,3.617477416992187500e+00,3.580636978149414062e+00,3.544539451599121094e+00,3.509162425994873047e+00,3.474484682083129883e+00,3.440485477447509766e+00,3.407145261764526367e+00,3.374444961547851562e+00,3.342366695404052734e+00,3.310892105102539062e+00,3.280005216598510742e+00,3.249688863754272461e+00,3.219928026199340820e+00,3.190707445144653320e+00,3.162012100219726562e+00,3.133828639984130859e+00,3.106142759323120117e+00,3.078942298889160156e+00,3.052213668823242188e+00,3.025945425033569336e+00,3.000125169754028320e+00,2.974741935729980469e+00,2.949784755706787109e+00,2.925242662429809570e+00,2.901105642318725586e+00,2.877363681793212891e+00,2.854007244110107422e+00,2.831026792526245117e+00,2.808413743972778320e+00,2.786158800125122070e+00,2.764253854751586914e+00,2.742690801620483398e+00,2.721461296081542969e+00,2.700558185577392578e+00,2.679973602294921875e+00,2.659700393676757812e+00,2.639731645584106445e+00,2.620060682296752930e+00,2.600680589675903320e+00,2.581585168838500977e+00,2.562767982482910156e+00,2.544223308563232422e+00,6.225975751876831055e-01,5.949750542640686035e-01,5.887677073478698730e-01,5.826885104179382324e-01,5.767336487770080566e-01,5.709010958671569824e-01,5.652078986167907715e-01,5.643532276153564453e-01,5.645215511322021484e-01,5.650047063827514648e-01,5.655850172042846680e-01,5.661665797233581543e-01,5.744898915290832520e-01,5.877898335456848145e-01,5.997153520584106445e-01,2.280219793319702148e+00,2.265527009963989258e+00,2.251022338867187500e+00,2.236702203750610352e+00,2.222563266754150391e+00,2.208601713180541992e+00,2.194814682006835938e+00,2.181198596954345703e+00,2.167750597000122070e+00,2.154467105865478516e+00,2.141345739364624023e+00,2.128382921218872070e+00,2.115576267242431641e+00,2.102922916412353516e+00,2.090419769287109375e+00,2.078064680099487305e+00,2.065854549407958984e+00,2.053787231445312500e+00,2.041859865188598633e+00
3.772747516632080078e+00,3.732694387435913086e+00,3.693482398986816406e+00,3.655086040496826172e+00,3.617479801177978516e+00,3.580639362335205078e+00,3.544541597366333008e+00,3.509164571762084961e+00,3.474486827850341797e+00,3.440487623214721680e+00,3.407147407531738281e+00,3.374447107315063477e+00,3.342368602752685547e+00,3.310894012451171875e+00,3.280007123947143555e+00,3.249690771102905273e+00,3.219929933547973633e+00,3.190709114074707031e+00,3.162014007568359375e+00,3.133830308914184570e+00,3.106144666671752930e+00,3.078943967819213867e+00,3.052215337753295898e+00,3.025946855545043945e+00,3.000126838684082031e+00,2.974743604660034180e+00,2.949786186218261719e+00,2.925244092941284180e+00,2.901107311248779297e+00,2.877365112304687500e+00,2.854008674621582031e+00,2.831028223037719727e+00,2.808415174484252930e+00,2.786160230636596680e+00,2.764255285263061523e+00,2.742691993713378906e+00,2.721462726593017578e+00,2.700559377670288086e+00,2.679974794387817383e+00,2.659701585769653320e+00,2.639733076095581055e+00,2.620062112808227539e+00,2.600681781768798828e+00,2.581586360931396484e+00,2.562769174575805664e+00,6.320343613624572754e-01,6.091764569282531738e-01,5.926851034164428711e-01,5.865252017974853516e-01,5.804920196533203125e-01,5.745816826820373535e-01,5.687949657440185547e-01,5.648773312568664551e-01,5.650459527969360352e-01,5.655657649040222168e-01,5.661472678184509277e-01,5.667299628257751465e-01,5.694057345390319824e-01,5.832293033599853516e-01,5.959713459014892578e-01,6.082345843315124512e-01,2.280220270156860352e+00,2.265527486801147461e+00,2.251022815704345703e+00,2.236702680587768555e+00,2.222563743591308594e+00,2.208602190017700195e+00,2.194814920425415039e+00,2.181199073791503906e+00,2.167750835418701172e+00,2.154467582702636719e+00,2.141345977783203125e+00,2.128383398056030273e+00,2.115576505661010742e+00,2.102922916412353516e+00,2.090420007705688477e+00,2.078064680099487305e+00,2.065854787826538086e+00,2.053787469863891602e+00,2.041859865188598633e+00
3.772750139236450195e+00,3.732696771621704102e+00,3.693485021591186523e+00,3.655088424682617188e+00,3.617481946945190430e+00,3.580641508102416992e+00,3.544543981552124023e+00,3.509166717529296875e+00,3.474488973617553711e+00,3.440489768981933594e+00,3.407149314880371094e+00,3.374449014663696289e+00,3.342370510101318359e+00,3.310896158218383789e+00,3.280009031295776367e+00,3.249692678451538086e+00,3.219931602478027344e+00,3.190711021423339844e+00,3.162015676498413086e+00,3.133832216262817383e+00,3.106146335601806641e+00,3.078945636749267578e+00,3.052217006683349609e+00,3.025948524475097656e+00,3.000128269195556641e+00,2.974745273590087891e+00,2.949787855148315430e+00,2.925245761871337891e+00,2.901108741760253906e+00,2.877366781234741211e+00,2.854010105133056641e+00,2.831029653549194336e+00,2.808416604995727539e+00,2.786161661148071289e+00,2.764256715774536133e+00,2.742693424224853516e+00,2.721463918685913086e+00,2.700560808181762695e+00,2.679976224899291992e+00,2.659703016281127930e+00,2.639734029769897461e+00,2.620062828063964844e+00,2.600682735443115234e+00,2.581586837768554688e+00,2.562769651412963867e+00,6.186493635177612305e-01,5.966548919677734375e-01,5.904126167297363281e-01,5.842996835708618164e-01,5.783119797706604004e-01,5.724456906318664551e-01,5.667042732238769531e-01,5.655713677406311035e-01,5.661279559135437012e-01,5.667105913162231445e-01,5.672944784164428711e-01,5.678794980049133301e-01,5.779899954795837402e-01,5.922387242317199707e-01,6.043838262557983398e-01,2.295105218887329102e+00,2.280220746994018555e+00,2.265527725219726562e+00,2.251023292541503906e+00,2.236703157424926758e+00,2.222563982009887695e+00,2.208602666854858398e+00,2.194815397262573242e+00,2.181199312210083008e+00,2.167751073837280273e+00,2.154467821121215820e+00,2.141346216201782227e+00,2.128383636474609375e+00,2.115576744079589844e+00,2.102923154830932617e+00,2.090420246124267578e+00,2.078064918518066406e+00,2.065855026245117188e+00,2.053787708282470703e+00,2.041860342025756836e+00
3.772752523422241211e+00,3.732699394226074219e+00,3.693487405776977539e+00,3.655090808868408203e+00,3.617484331130981445e+00,3.580643892288208008e+00,3.544546127319335938e+00,3.509168863296508789e+00,3.474491119384765625e+00,3.440491914749145508e+00,3.407151460647583008e+00,3.374451160430908203e+00,3.342372655868530273e+00,3.310898065567016602e+00,3.280010938644409180e+00,3.249694585800170898e+00,3.219933509826660156e+00,3.190712690353393555e+00,3.162017583847045898e+00,3.133833885192871094e+00,3.106147527694702148e+00,3.078946828842163086e+00,3.052218198776245117e+00,3.025949716567993164e+00,3.000129461288452148e+00,2.974746227264404297e+00,2.949788808822631836e+00,2.925246477127075195e+00,2.901109457015991211e+00,2.877367496490478516e+00,2.854011058807373047e+00,2.831030368804931641e+00,2.808417081832885742e+00,2.786161899566650391e+00,2.764257192611694336e+00,2.742693901062011719e+00,2.721464395523071289e+00,2.700561046600341797e+00,2.679976463317871094e+00,2.659703016281127930e+00,2.639734506607055664e+00,2.620063304901123047e+00,2.600682973861694336e+00,2.581587553024291992e+00,6.297559738159179688e-01,6.065701246261596680e-01,5.945087671279907227e-01,5.882644057273864746e-01,5.821498036384582520e-01,5.761610865592956543e-01,5.703255534172058105e-01,5.661085844039916992e-01,5.666911602020263672e-01,5.672750473022460938e-01,5.678600668907165527e-01,5.684463381767272949e-01,5.728439688682556152e-01,5.868369936943054199e-01,6.005814671516418457e-01,2.310185909271240234e+00,2.295105695724487305e+00,2.280220985412597656e+00,2.265528202056884766e+00,2.251023530960083008e+00,2.236703395843505859e+00,2.222564220428466797e+00,2.208602905273437500e+00,2.194815635681152344e+00,2.181199789047241211e+00,2.167751312255859375e+00,2.154468059539794922e+00,2.141346454620361328e+00,2.128383874893188477e+00,2.115577220916748047e+00,2.102923631668090820e+00,2.090420484542846680e+00,2.078065395355224609e+00,2.065855264663696289e+00,2.053787946701049805e+00,2.041860580444335938e+00
3.772754430770874023e+00,3.732701063156127930e+00,3.693489074707031250e+00,3.655092239379882812e+00,3.617485761642456055e+00,3.580645084381103516e+00,3.544547319412231445e+00,3.509170293807983398e+00,3.474492311477661133e+00,3.440492868423461914e+00,3.407152175903320312e+00,3.374451875686645508e+00,3.342373371124267578e+00,3.310898780822753906e+00,3.280011653900146484e+00,3.249695301055908203e+00,3.219933986663818359e+00,3.190713167190551758e+00,3.162017822265625000e+00,3.133834362030029297e+00,3.106148481369018555e+00,3.078947544097900391e+00,3.052218675613403320e+00,3.025950193405151367e+00,3.000129938125610352e+00,2.974746704101562500e+00,2.949789285659790039e+00,2.925247192382812500e+00,2.901109933853149414e+00,2.877367973327636719e+00,2.854011535644531250e+00,2.831030845642089844e+00,2.808417558670043945e+00,2.786162614822387695e+00,2.764257669448852539e+00,2.742694377899169922e+00,2.721464872360229492e+00,2.700561523437500000e+00,2.679976940155029297e+00,2.659703731536865234e+00,2.639734745025634766e+00,2.620063543319702148e+00,2.600683450698852539e+00,2.581588029861450195e+00,6.172434687614440918e-01,5.993623733520507812e-01,5.923860669136047363e-01,5.861859917640686035e-01,5.801143050193786621e-01,5.741671323776245117e-01,5.683406591415405273e-01,5.674526095390319824e-01,5.678406357765197754e-01,5.684268474578857422e-01,5.690142512321472168e-01,5.696029067039489746e-01,5.815329551696777344e-01,5.959591269493103027e-01,6.091254949569702148e-01,2.310186147689819336e+00,2.295105934143066406e+00,2.280221462249755859e+00,2.265528440475463867e+00,2.251024007797241211e+00,2.236703634262084961e+00,2.222564697265625000e+00,2.208603143692016602e+00,2.194815874099731445e+00,2.181200027465820312e+00,2.167751789093017578e+00,2.154468536376953125e+00,2.141346693038940430e+00,2.128384113311767578e+00,2.115577459335327148e+00,2.102923870086669922e+00,2.090420961380004883e+00,2.078065633773803711e+00,2.065855503082275391e+00,2.053788185119628906e+00,2.041860818862915039e+00
3.772755384445190430e+00,3.732702016830444336e+00,3.693490028381347656e+00,3.655093431472778320e+00,3.617486953735351562e+00,3.580645799636840820e+00,3.544548273086547852e+00,3.509171009063720703e+00,3.474493026733398438e+00,3.440493583679199219e+00,3.407153367996215820e+00,3.374452590942382812e+00,3.342374086380004883e+00,3.310899496078491211e+00,3.280012369155883789e+00,3.249696016311645508e+00,3.219934940338134766e+00,3.190713882446289062e+00,3.162018537521362305e+00,3.133834838867187500e+00,3.106148958206176758e+00,3.078948259353637695e+00,3.052219629287719727e+00,3.025950908660888672e+00,3.000130653381347656e+00,2.974747180938720703e+00,2.949789762496948242e+00,2.925247669219970703e+00,2.901110649108886719e+00,2.877368450164794922e+00,2.854012012481689453e+00,2.831031322479248047e+00,2.808418035507202148e+00,2.786163091659545898e+00,2.764258146286010742e+00,2.742694854736328125e+00,2.721465349197387695e+00,2.700562000274658203e+00,2.679977416992187500e+00,2.659704208374023438e+00,2.639735460281372070e+00,2.620064020156860352e+00,2.600683927536010742e+00,6.282992362976074219e-01,6.052185893058776855e-01,5.969066619873046875e-01,5.902785062789916992e-01,5.841221809387207031e-01,5.780929923057556152e-01,5.721869468688964844e-01,5.689663290977478027e-01,5.691774487495422363e-01,5.693887472152709961e-01,5.696002244949340820e-01,5.701730847358703613e-01,5.763239264488220215e-01,5.904896259307861328e-01,6.052634716033935547e-01,2.325466394424438477e+00,2.310186624526977539e+00,2.295106172561645508e+00,2.280221700668334961e+00,2.265528917312622070e+00,2.251024246215820312e+00,2.236704111099243164e+00,2.222564935684204102e+00,2.208603382110595703e+00,2.194816350936889648e+00,2.181200265884399414e+00,2.167752027511596680e+00,2.154468774795532227e+00,2.141347169876098633e+00,2.128384351730346680e+00,2.115577697753906250e+00,2.102924108505249023e+00,2.090421199798583984e+00,2.078065872192382812e+00,2.065855741500854492e+00,2.053788423538208008e+00,2.041861057281494141e+00
3.772756099700927734e+00,3.732702732086181641e+00,3.693490743637084961e+00,3.655094146728515625e+00,3.617487668991088867e+00,3.580646991729736328e+00,3.544548988342285156e+00,3.509171724319458008e+00,3.474493741989135742e+00,3.440494298934936523e+00,3.407154083251953125e+00,3.374453544616699219e+00,3.342374563217163086e+00,3.310899972915649414e+00,3.280012845993041992e+00,3.249696493148803711e+00,3.219935417175292969e+00,3.190714597702026367e+00,3.162019014358520508e+00,3.133835315704345703e+00,3.106149435043334961e+00,3.078948736190795898e+00,3.052220106124877930e+00,3.025951623916625977e+00,3.000131130218505859e+00,2.974747896194458008e+00,2.949790477752685547e+00,2.925248384475708008e+00,2.901111125946044922e+00,2.877369165420532227e+00,2.854012489318847656e+00,2.831031799316406250e+00,2.808418512344360352e+00,2.786163568496704102e+00,2.764258623123168945e+00,2.742695331573486328e+00,2.721466064453125000e+00,2.700562477111816406e+00,2.679977893829345703e+00,2.659704685211181641e+00,2.639735937118530273e+00,2.620064735412597656e+00,2.600684404373168945e+00,6.158440113067626953e-01,6.021535396575927734e-01,5.944709181785583496e-01,5.881858468055725098e-01,5.820728540420532227e-01,5.760856866836547852e-01,5.704881548881530762e-01,5.707004070281982422e-01,5.709128379821777344e-01,5.711253881454467773e-01,5.713381171226501465e-01,5.715706348419189453e-01,5.851196646690368652e-01,5.997265577316284180e-01,6.139422059059143066e-01,2.325466632843017578e+00,2.310186862945556641e+00,2.295106649398803711e+00,2.280221939086914062e+00,2.265529155731201172e+00,2.251024484634399414e+00,2.236704349517822266e+00,2.222565412521362305e+00,2.208603858947753906e+00,2.194816589355468750e+00,2.181200504302978516e+00,2.167752504348754883e+00,2.154469013214111328e+00,2.141347408294677734e+00,2.128384828567504883e+00,2.115577936172485352e+00,2.102924346923828125e+00,2.090421438217163086e+00,2.078066110610961914e+00,2.065856218338012695e+00,2.053788661956787109e+00,2.041861295700073242e+00
3.772757530212402344e+00,3.732703685760498047e+00,3.693491697311401367e+00,3.655095100402832031e+00,3.617488384246826172e+00,3.580647945404052734e+00,3.544549942016601562e+00,3.509172439575195312e+00,3.474494457244873047e+00,3.440495014190673828e+00,3.407154560089111328e+00,3.374454259872436523e+00,3.342375755310058594e+00,3.310900688171386719e+00,3.280013561248779297e+00,3.249697208404541016e+00,3.219936132431030273e+00,3.190715312957763672e+00,3.162019968032836914e+00,3.133836269378662109e+00,3.106150150299072266e+00,3.078949451446533203e+00,3.052220582962036133e+00,3.025952100753784180e+00,3.000131845474243164e+00,2.974748611450195312e+00,2.949790954589843750e+00,2.925248861312866211e+00,2.901111841201782227e+00,2.877369642257690430e+00,2.854013204574584961e+00,2.831032514572143555e+00,2.808418989181518555e+00,2.786164045333862305e+00,2.764259099960327148e+00,2.742695808410644531e+00,2.721466541290283203e+00,2.700563192367553711e+00,2.679978132247924805e+00,2.659704923629760742e+00,2.639736175537109375e+00,2.620064973831176758e+00,6.268492341041564941e-01,6.074934601783752441e-01,5.996748805046081543e-01,5.923064351081848145e-01,5.861079692840576172e-01,5.800378918647766113e-01,5.740922689437866211e-01,5.722315311431884766e-01,5.724450945854187012e-01,5.726587772369384766e-01,5.728726387023925781e-01,5.730584263801574707e-01,5.804762840270996094e-01,5.942875146865844727e-01,6.092569828033447266e-01,2.340950250625610352e+00,2.325467109680175781e+00,2.310187339782714844e+00,2.295107126235961914e+00,2.280222415924072266e+00,2.265529394149780273e+00,2.251024961471557617e+00,2.236704826354980469e+00,2.222565650939941406e+00,2.208604097366333008e+00,2.194817066192626953e+00,2.181200742721557617e+00,2.167752742767333984e+00,2.154469251632690430e+00,2.141347646713256836e+00,2.128385066986083984e+00,2.115578413009643555e+00,2.102924823760986328e+00,2.090421676635742188e+00,2.078066349029541016e+00,2.065856456756591797e+00,2.053788900375366211e+00,2.041861772537231445e+00
3.772758245468139648e+00,3.732704877853393555e+00,3.693492889404296875e+00,3.655095815658569336e+00,3.617489099502563477e+00,3.580648660659790039e+00,3.544550895690917969e+00,3.509173393249511719e+00,3.474495649337768555e+00,3.440495729446411133e+00,3.407155275344848633e+00,3.374454975128173828e+00,3.342376232147216797e+00,3.310901641845703125e+00,3.280014514923095703e+00,3.249697923660278320e+00,3.219936609268188477e+00,3.190715789794921875e+00,3.162020444869995117e+00,3.133836984634399414e+00,3.106150865554809570e+00,3.078949928283691406e+00,3.052221298217773438e+00,3.025952816009521484e+00,3.000132322311401367e+00,2.974749088287353516e+00,2.949791669845581055e+00,2.925249338150024414e+00,2.901112318038940430e+00,2.877370119094848633e+00,2.854013681411743164e+00,2.831032991409301758e+00,2.808419704437255859e+00,2.786164522171020508e+00,2.764259576797485352e+00,2.742696285247802734e+00,2.721466779708862305e+00,2.700563430786132812e+00,2.679978847503662109e+00,2.659705400466918945e+00,2.639736652374267578e+00,2.620065450668334961e+00,6.144508123397827148e-01,6.049707531929016113e-01,5.972165465354919434e-01,5.901994109153747559e-01,5.840447545051574707e-01,5.780171155929565430e-01,5.737709403038024902e-01,5.739855766296386719e-01,5.742004513740539551e-01,5.744155049324035645e-01,5.745903253555297852e-01,5.765059590339660645e-01,5.898442268371582031e-01,6.041102409362792969e-01,2.356641530990600586e+00,2.340950489044189453e+00,2.325467348098754883e+00,2.310187578201293945e+00,2.295107364654541016e+00,2.280222654342651367e+00,2.265529870986938477e+00,2.251025199890136719e+00,2.236705064773559570e+00,2.222565889358520508e+00,2.208604335784912109e+00,2.194817304611206055e+00,2.181201219558715820e+00,2.167753219604492188e+00,2.154469490051269531e+00,2.141348123550415039e+00,2.128385305404663086e+00,2.115578651428222656e+00,2.102925062179565430e+00,2.090422153472900391e+00,2.078066587448120117e+00,2.065856695175170898e+00,2.053789377212524414e+00,2.041862010955810547e+00
3.083481073379516602e+00,3.082994937896728516e+00,3.082509040832519531e+00,3.082023143768310547e+00,3.081537485122680664e+00,3.081052064895629883e+00,3.080566644668579102e+00,3.080081462860107422e+00,3.079596519470214844e+00,3.079111814498901367e+00,3.078626871109008789e+00,3.078142404556274414e+00,3.077657938003540039e+00,3.077173709869384766e+00,3.076689720153808594e+00,3.076205492019653320e+00,3.075721740722656250e+00,3.075237989425659180e+00,3.074754714965820312e+00,3.074271202087402344e+00,3.073787927627563477e+00,3.073304891586303711e+00,3.052221775054931641e+00,3.025953292846679688e+00,3.000133037567138672e+00,2.974749565124511719e+00,2.949792146682739258e+00,2.925250053405761719e+00,2.901112794876098633e+00,2.877370595932006836e+00,2.854014158248901367e+00,2.831033706665039062e+00,2.808420181274414062e+00,2.786165237426757812e+00,2.764260053634643555e+00,2.742696762084960938e+00,2.721467256546020508e+00,2.700563907623291016e+00,2.679979324340820312e+00,2.659706115722656250e+00,2.639737367630004883e+00,6.254058480262756348e-01,6.103609800338745117e-01,6.024689078330993652e-01,5.947782993316650391e-01,5.881072878837585449e-01,5.819959640502929688e-01,5.760103464126586914e-01,5.755344033241271973e-01,5.757504701614379883e-01,5.759665966033935547e-01,5.761305093765258789e-01,5.762188434600830078e-01,5.854668617248535156e-01,5.995193719863891602e-01,6.142631769180297852e-01,2.356641769409179688e+00,2.340950965881347656e+00,2.325467824935913086e+00,2.310187816619873047e+00,2.295107603073120117e+00,2.280223131179809570e+00,2.265530109405517578e+00,2.251025676727294922e+00,2.236705541610717773e+00,2.222566127777099609e+00,2.208604812622070312e+00,2.194817543029785156e+00,2.181201457977294922e+00,2.167753458023071289e+00,2.154469966888427734e+00,2.141348361968994141e+00,2.128385543823242188e+00,2.115578889846801758e+00,2.102925300598144531e+00,2.090422391891479492e+00,2.078067064285278320e+00,2.065856933593750000e+00,2.053789615631103516e+00,2.041862249374389648e+00
2.605104684829711914e+00,2.604757785797119141e+00,2.604410886764526367e+00,2.604063987731933594e+00,2.603717327117919922e+00,2.603370666503906250e+00,2.603024244308471680e+00,2.602677822113037109e+00,2.602331399917602539e+00,2.601985216140747070e+00,2.601639032363891602e+00,2.601293087005615234e+00,2.600946903228759766e+00,2.600601196289062500e+00,2.600255489349365234e+00,2.599909782409667969e+00,2.599564075469970703e+00,2.599218606948852539e+00,2.598873138427734375e+00,2.598527908325195312e+00,2.598182678222656250e+00,2.597837448120117188e+00,2.597492456436157227e+00,2.597147464752197266e+00,2.596802711486816406e+00,2.596457719802856445e+00,2.596113204956054688e+00,2.595768690109252930e+00,2.595424175262451172e+00,2.595079660415649414e+00,2.594735383987426758e+00,2.594391107559204102e+00,2.594047069549560547e+00,2.593703031539916992e+00,2.593358993530273438e+00,2.593015193939208984e+00,2.592671394348144531e+00,2.592327833175659180e+00,2.591984033584594727e+00,2.591640710830688477e+00,2.591297388076782227e+00,6.158481240272521973e-01,6.078144311904907227e-01,5.999876260757446289e-01,5.923598408699035645e-01,5.860300064086914062e-01,5.799615383148193359e-01,5.770916342735290527e-01,5.773088335990905762e-01,5.775262117385864258e-01,5.776789784431457520e-01,5.777677297592163086e-01,5.815272331237792969e-01,5.949978232383728027e-01,6.095173358917236328e-01,2.372544527053833008e+00,2.356642246246337891e+00,2.340951442718505859e+00,2.325468063354492188e+00,2.310188293457031250e+00,2.295108079910278320e+00,2.280223369598388672e+00,2.265530586242675781e+00,2.251025915145874023e+00,2.236705780029296875e+00,2.222566604614257812e+00,2.208605051040649414e+00,2.194817781448364258e+00,2.181201934814453125e+00,2.167753696441650391e+00,2.154470205307006836e+00,2.141348600387573242e+00,2.128385782241821289e+00,2.115579128265380859e+00,2.102925539016723633e+00,2.090422630310058594e+00,2.078067302703857422e+00,2.065857172012329102e+00,2.053789854049682617e+00,2.041862487792968750e+00
2.255225419998168945e+00,2.254965305328369141e+00,2.254705429077148438e+00,2.254445314407348633e+00,2.254185676574707031e+00,2.253925800323486328e+00,2.253665924072265625e+00,2.253406286239624023e+00,2.253146886825561523e+00,2.252887248992919922e+00,2.252627611160278320e+00,2.252368211746215820e+00,2.252109050750732422e+00,2.251849651336669922e+00,2.251590251922607422e+00,2.251331090927124023e+00,2.251071929931640625e+00,2.250813007354736328e+00,2.250553846359252930e+00,2.250294923782348633e+00,2.250036001205444336e+00,2.249777317047119141e+00,2.249518394470214844e+00,2.249259710311889648e+00,2.249001026153564453e+00,2.248742341995239258e+00,2.248483896255493164e+00,2.248225450515747070e+00,2.247967004776000977e+00,2.247708559036254883e+00,2.247450351715087891e+00,2.247192144393920898e+00,2.246933698654174805e+00,2.246675729751586914e+00,2.246417522430419922e+00,2.246159553527832031e+00,2.245901584625244141e+00,2.245643615722656250e+00,2.245385885238647461e+00,2.245128154754638672e+00,6.239691376686096191e-01,6.132557392120361328e-01,6.052891016006469727e-01,5.975267887115478516e-01,5.901203155517578125e-01,5.839673280715942383e-01,5.786573290824890137e-01,5.788756608963012695e-01,5.790942311286926270e-01,5.792357325553894043e-01,5.793250203132629395e-01,5.802593231201171875e-01,5.905438661575317383e-01,6.048442721366882324e-01,2.241268634796142578e+00,2.241011619567871094e+00,2.240754842758178711e+00,2.240498304367065430e+00,2.240241527557373047e+00,2.239984989166259766e+00,2.239728450775146484e+00,2.239471912384033203e+00,2.239215612411499023e+00,2.238959074020385742e+00,2.236706018447875977e+00,2.222566843032836914e+00,2.208605527877807617e+00,2.194818258285522461e+00,2.181202173233032227e+00,2.167753934860229492e+00,2.154470443725585938e+00,2.141349077224731445e+00,2.128386259078979492e+00,2.115579605102539062e+00,2.102926015853881836e+00,2.090422868728637695e+00,2.078067541122436523e+00,2.065857410430908203e+00,2.053790092468261719e+00,2.041862726211547852e+00
1.988199591636657715e+00,1.987997531890869141e+00,1.987795352935791016e+00,1.987593531608581543e+00,1.987391591072082520e+00,1.987189531326293945e+00,1.986987709999084473e+00,1.986785769462585449e+00,1.986583948135375977e+00,1.986382126808166504e+00,1.986180305480957031e+00,1.985978603363037109e+00,1.985777258872985840e+00,1.985575556755065918e+00,1.985373973846435547e+00,1.985172390937805176e+00,1.984970927238464355e+00,1.984769463539123535e+00,1.984567999839782715e+00,1.984366536140441895e+00,1.984165191650390625e+00,1.983964085578918457e+00,1.983762860298156738e+00,1.983561635017395020e+00,1.983360409736633301e+00,1.983159303665161133e+00,1.982958197593688965e+00,1.982757091522216797e+00,1.982556104660034180e+00,1.982355356216430664e+00,1.982154369354248047e+00,1.981953501701354980e+00,1.981752634048461914e+00,1.981551766395568848e+00,1.981351017951965332e+00,1.981150269508361816e+00,1.980949521064758301e+00,1.980748891830444336e+00,1.980548501014709473e+00,1.980347871780395508e+00,6.187952756881713867e-01,6.106850504875183105e-01,6.027845740318298340e-01,5.950859189033508301e-01,5.880287885665893555e-01,5.819191336631774902e-01,5.804510712623596191e-01,5.806707739830017090e-01,5.808010101318359375e-01,5.808907747268676758e-01,5.809805393218994141e-01,5.866367220878601074e-01,6.002422571182250977e-01,1.977544188499450684e+00,1.977344155311584473e+00,1.977144241333007812e+00,1.976944565773010254e+00,1.976744771003723145e+00,1.976544976234436035e+00,1.976345181465148926e+00,1.976145386695861816e+00,1.975945711135864258e+00,1.975746035575866699e+00,1.975546479225158691e+00,1.975346922874450684e+00,1.975147604942321777e+00,1.974948048591613770e+00,1.974748611450195312e+00,1.974549293518066406e+00,1.974349856376647949e+00,1.974150538444519043e+00,1.973951220512390137e+00,1.973752021789550781e+00,1.973553061485290527e+00,1.973353862762451172e+00,1.973154664039611816e+00,1.972955584526062012e+00,1.972756624221801758e+00,1.972557544708251953e+00,1.972358584403991699e+00
1.777712941169738770e+00,1.777551412582397461e+00,1.777389764785766602e+00,1.777228236198425293e+00,1.777066707611083984e+00,1.776905298233032227e+00,1.776743769645690918e+00,1.776582598686218262e+00,1.776421189308166504e+00,1.776259779930114746e+00,1.776098489761352539e+00,1.775937199592590332e+00,1.775775909423828125e+00,1.775614619255065918e+00,1.775453448295593262e+00,1.775292158126831055e+00,1.775131225585937500e+00,1.774970054626464844e+00,1.774809002876281738e+00,1.774647951126098633e+00,1.774486899375915527e+00,1.774325847625732422e+00,1.774164915084838867e+00,1.774003863334655762e+00,1.773842930793762207e+00,1.773682236671447754e+00,1.773521423339843750e+00,1.773360490798950195e+00,1.773199677467346191e+00,1.773038983345031738e+00,1.772878170013427734e+00,1.772717475891113281e+00,1.772556781768798828e+00,1.772396326065063477e+00,1.772235631942749023e+00,1.772075057029724121e+00,1.771914482116699219e+00,1.771753907203674316e+00,1.771593332290649414e+00,1.771432876586914062e+00,6.161780357360839844e-01,6.081357598304748535e-01,6.003007292747497559e-01,5.926650166511535645e-01,5.859520435333251953e-01,5.820350050926208496e-01,5.822558999061584473e-01,5.823746323585510254e-01,5.824649333953857422e-01,5.825551748275756836e-01,5.853464603424072266e-01,5.957098007202148438e-01,6.102644801139831543e-01,1.769189357757568359e+00,1.769029259681701660e+00,1.768869280815124512e+00,1.768709301948547363e+00,1.768549323081970215e+00,1.768389344215393066e+00,1.768229484558105469e+00,1.768069744110107422e+00,1.767909884452819824e+00,1.767750024795532227e+00,1.767590284347534180e+00,1.767430543899536133e+00,1.767270803451538086e+00,1.767111063003540039e+00,1.766951322555541992e+00,1.766791701316833496e+00,1.766632318496704102e+00,1.766472697257995605e+00,1.766313076019287109e+00,1.766153573989868164e+00,1.765994071960449219e+00,1.765834569931030273e+00,1.765675187110900879e+00,1.765515804290771484e+00,1.765356540679931641e+00,1.765197157859802246e+00,1.765037894248962402e+00
1.607527136802673340e+00,1.607395052909851074e+00,1.607263088226318359e+00,1.607131004333496094e+00,1.606998920440673828e+00,1.606866836547851562e+00,1.606734752655029297e+00,1.606602787971496582e+00,1.606470823287963867e+00,1.606338858604431152e+00,1.606206893920898438e+00,1.606075048446655273e+00,1.605943202972412109e+00,1.605811357498168945e+00,1.605679392814636230e+00,1.605547547340393066e+00,1.605415821075439453e+00,1.605283975601196289e+00,1.605152249336242676e+00,1.605020403861999512e+00,1.604888916015625000e+00,1.604757189750671387e+00,1.604625463485717773e+00,1.604493856430053711e+00,1.604362130165100098e+00,1.604230523109436035e+00,1.604098916053771973e+00,1.603967308998107910e+00,1.603835940361022949e+00,1.603704452514648438e+00,1.603572845458984375e+00,1.603441357612609863e+00,1.603309869766235352e+00,1.603178501129150391e+00,1.603047013282775879e+00,1.602915644645690918e+00,1.602784276008605957e+00,1.602653026580810547e+00,1.602521657943725586e+00,1.602390408515930176e+00,6.274841427803039551e-01,6.056077480316162109e-01,5.978372693061828613e-01,5.902637243270874023e-01,5.838899016380310059e-01,5.838497877120971680e-01,5.839568376541137695e-01,5.840476751327514648e-01,5.841384530067443848e-01,5.842292308807373047e-01,5.918368101119995117e-01,6.055800318717956543e-01,1.600685238838195801e+00,1.600554227828979492e+00,1.600423336029052734e+00,1.600292444229125977e+00,1.600161552429199219e+00,1.600030541419982910e+00,1.599899649620056152e+00,1.599768757820129395e+00,1.599637866020202637e+00,1.599506974220275879e+00,1.599376201629638672e+00,1.599245309829711914e+00,1.599114775657653809e+00,1.598984003067016602e+00,1.598853230476379395e+00,1.598722457885742188e+00,1.598591804504394531e+00,1.598461151123046875e+00,1.598330616950988770e+00,1.598200201988220215e+00,1.598069667816162109e+00,1.597939252853393555e+00,1.597808837890625000e+00,1.597678422927856445e+00,1.597548007965087891e+00,1.597417712211608887e+00,1.597287297248840332e+00,1.597157001495361328e+00
1.467079401016235352e+00,1.466969370841979980e+00,1.466859340667724609e+00,1.466749310493469238e+00,1.466639280319213867e+00,1.466529250144958496e+00,1.466419339179992676e+00,1.466309428215026855e+00,1.466199517250061035e+00,1.466089487075805664e+00,1.465979576110839844e+00,1.465869665145874023e+00,1.465759873390197754e+00,1.465649962425231934e+00,1.465540170669555664e+00,1.465430378913879395e+00,1.465320587158203125e+00,1.465210795402526855e+00,1.465101003646850586e+00,1.464991211891174316e+00,1.464881539344787598e+00,1.464771747589111328e+00,1.464662075042724609e+00,1.464552521705627441e+00,1.464442729949951172e+00,1.464333176612854004e+00,1.464223504066467285e+00,1.464113831520080566e+00,1.464004158973693848e+00,1.463894605636596680e+00,1.463785052299499512e+00,1.463675498962402344e+00,1.463566064834594727e+00,1.463456511497497559e+00,1.463346958160400391e+00,1.463237404823303223e+00,1.463127970695495605e+00,1.463018536567687988e+00,1.462909102439880371e+00,6.302563548088073730e-01,6.218593716621398926e-01,6.142730116844177246e-01,5.953940153121948242e-01,5.879503488540649414e-01,5.854523777961730957e-01,5.855477452278137207e-01,5.856389999389648438e-01,5.857303142547607422e-01,5.858215689659118652e-01,5.905236601829528809e-01,6.009668707847595215e-01,1.461487889289855957e+00,1.461378693580627441e+00,1.461269497871398926e+00,1.461160302162170410e+00,1.461051106452941895e+00,1.460941910743713379e+00,1.460832834243774414e+00,1.460723638534545898e+00,1.460614681243896484e+00,1.460505723953247070e+00,1.460396766662597656e+00,1.460287809371948242e+00,1.460178971290588379e+00,1.460070013999938965e+00,1.459961175918579102e+00,1.459852218627929688e+00,1.459743380546569824e+00,1.459634542465209961e+00,1.459525704383850098e+00,1.459416985511779785e+00,1.459308147430419922e+00,1.459199428558349609e+00,1.459090590476989746e+00,1.458981871604919434e+00,1.458873152732849121e+00,1.458764433860778809e+00,1.458655714988708496e+00,1.458547115325927734e+00,1.458438396453857422e+00
1.349201083183288574e+00,1.349108099937438965e+00,1.349014997482299805e+00,1.348922014236450195e+00,1.348828911781311035e+00,1.348735928535461426e+00,1.348642826080322266e+00,1.348549842834472656e+00,1.348456859588623047e+00,1.348363876342773438e+00,1.348271012306213379e+00,1.348178029060363770e+00,1.348085165023803711e+00,1.347992181777954102e+00,1.347899317741394043e+00,1.347806334495544434e+00,1.347713470458984375e+00,1.347620606422424316e+00,1.347527742385864258e+00,1.347434997558593750e+00,1.347342133522033691e+00,1.347249388694763184e+00,1.347156524658203125e+00,1.347063660621643066e+00,1.346970915794372559e+00,1.346878170967102051e+00,1.346785426139831543e+00,1.346692681312561035e+00,1.346599936485290527e+00,1.346507310867309570e+00,1.346414566040039062e+00,1.346321821212768555e+00,1.346229195594787598e+00,1.346136450767517090e+00,1.346043825149536133e+00,1.345951199531555176e+00,1.345858573913574219e+00,1.345765948295593262e+00,6.353368759155273438e-01,6.234230399131774902e-01,6.156477332115173340e-01,6.076323390007019043e-01,6.030319333076477051e-01,5.870555639266967773e-01,5.871472358703613281e-01,5.872390270233154297e-01,5.873308181762695312e-01,5.874226093292236328e-01,5.892162919044494629e-01,5.971299409866333008e-01,1.344563364982604980e+00,1.344470977783203125e+00,1.344378709793090820e+00,1.344286322593688965e+00,1.344194054603576660e+00,1.344101786613464355e+00,1.344009518623352051e+00,1.343917250633239746e+00,1.343824982643127441e+00,1.343732714653015137e+00,1.343640446662902832e+00,1.343548297882080078e+00,1.343456029891967773e+00,1.343363881111145020e+00,1.343271732330322266e+00,1.343179583549499512e+00,1.343087434768676758e+00,1.342995285987854004e+00,1.342903137207031250e+00,1.342810988426208496e+00,1.342718839645385742e+00,1.342626810073852539e+00,1.342534780502319336e+00,1.342442631721496582e+00,1.342350602149963379e+00,1.342258572578430176e+00,1.342166662216186523e+00,1.342074632644653320e+00,1.341982603073120117e+00,1.341890692710876465e+00
1.248856902122497559e+00,1.248777151107788086e+00,1.248697400093078613e+00,1.248617649078369141e+00,1.248537898063659668e+00,1.248458266258239746e+00,1.248378634452819824e+00,1.248298883438110352e+00,1.248219251632690430e+00,1.248139500617980957e+00,1.248059868812561035e+00,1.247980237007141113e+00,1.247900605201721191e+00,1.247821092605590820e+00,1.247741460800170898e+00,1.247661828994750977e+00,1.247582197189331055e+00,1.247502565383911133e+00,1.247423052787780762e+00,1.247343420982360840e+00,1.247263908386230469e+00,1.247184395790100098e+00,1.247104883193969727e+00,1.247025370597839355e+00,1.246945858001708984e+00,1.246866345405578613e+00,1.246786832809448242e+00,1.246707320213317871e+00,1.246627807617187500e+00,1.246548414230346680e+00,1.246468901634216309e+00,1.246389508247375488e+00,1.246310114860534668e+00,1.246230721473693848e+00,1.246151208877563477e+00,1.246071815490722656e+00,1.245992422103881836e+00,6.407800912857055664e-01,6.259090900421142578e-01,6.160532236099243164e-01,6.072804927825927734e-01,6.037827134132385254e-01,5.991091132164001465e-01,5.976941585540771484e-01,5.983527898788452148e-01,5.889401435852050781e-01,5.890324711799621582e-01,5.891247987747192383e-01,5.957931876182556152e-01,6.063175797462463379e-01,1.244883060455322266e+00,1.244803905487060547e+00,1.244724750518798828e+00,1.244645595550537109e+00,1.244566559791564941e+00,1.244487404823303223e+00,1.244408249855041504e+00,1.244329214096069336e+00,1.244250059127807617e+00,1.244171142578125000e+00,1.244092106819152832e+00,1.244012951850891113e+00,1.243933916091918945e+00,1.243854880332946777e+00,1.243775844573974609e+00,1.243696928024291992e+00,1.243617892265319824e+00,1.243538856506347656e+00,1.243459939956665039e+00,1.243380904197692871e+00,1.243301987648010254e+00,1.243222951889038086e+00,1.243144035339355469e+00,1.243065118789672852e+00,1.242986202239990234e+00,1.242907285690307617e+00,1.242828369140625000e+00,1.242749452590942383e+00,1.242670655250549316e+00,1.242591738700866699e+00
1.162405252456665039e+00,1.162336230278015137e+00,1.162267088890075684e+00,1.162198066711425781e+00,1.162128925323486328e+00,1.162059903144836426e+00,1.161990880966186523e+00,1.161921739578247070e+00,1.161852717399597168e+00,1.161783814430236816e+00,1.161714792251586914e+00,1.161645770072937012e+00,1.161576747894287109e+00,1.161507725715637207e+00,1.161438703536987305e+00,1.161369800567626953e+00,1.161300778388977051e+00,1.161231875419616699e+00,1.161162972450256348e+00,1.161094069480895996e+00,1.161025047302246094e+00,1.160956144332885742e+00,1.160887241363525391e+00,1.160818338394165039e+00,1.160749435424804688e+00,1.160680532455444336e+00,1.160611629486083984e+00,1.160542845726013184e+00,1.160473942756652832e+00,1.160405158996582031e+00,1.160336375236511230e+00,1.160267710685729980e+00,1.160198926925659180e+00,1.160130143165588379e+00,1.160061359405517578e+00,1.159992694854736328e+00,1.159923911094665527e+00,6.285784840583801270e-01,6.184731721878051758e-01,6.111333370208740234e-01,6.050838232040405273e-01,6.000680327415466309e-01,5.968008637428283691e-01,5.975199341773986816e-01,5.981781482696533203e-01,6.039720177650451660e-01,6.080111861228942871e-01,6.052033305168151855e-01,6.025185585021972656e-01,1.159031271934509277e+00,1.158962607383728027e+00,1.158893942832946777e+00,1.158825397491455078e+00,1.158756852149963379e+00,1.158688187599182129e+00,1.158619642257690430e+00,1.158551096916198730e+00,1.158482551574707031e+00,1.158414006233215332e+00,1.158345460891723633e+00,1.158276915550231934e+00,1.158208370208740234e+00,1.158139824867248535e+00,1.158071398735046387e+00,1.158002853393554688e+00,1.157934308052062988e+00,1.157865881919860840e+00,1.157797455787658691e+00,1.157728910446166992e+00,1.157660484313964844e+00,1.157592058181762695e+00,1.157523632049560547e+00,1.157455086708068848e+00,1.157386660575866699e+00,1.157318234443664551e+00,1.157249927520751953e+00,1.157181501388549805e+00,1.157113075256347656e+00,1.157044649124145508e+00,1.156976342201232910e+00
1.087147831916809082e+00,1.087087392807006836e+00,1.087026953697204590e+00,1.086966514587402344e+00,1.086906194686889648e+00,1.086845755577087402e+00,1.086785316467285156e+00,1.086724996566772461e+00,1.086664557456970215e+00,1.086604118347167969e+00,1.086543798446655273e+00,1.086483359336853027e+00,1.086423158645629883e+00,1.086362719535827637e+00,1.086302399635314941e+00,1.086242079734802246e+00,1.086181759834289551e+00,1.086121439933776855e+00,1.086061239242553711e+00,1.086000919342041016e+00,1.085940718650817871e+00,1.085880517959594727e+00,1.085820317268371582e+00,1.085759997367858887e+00,1.085699915885925293e+00,1.085639715194702148e+00,1.085579514503479004e+00,1.085519313812255859e+00,1.085459113121032715e+00,1.085398912429809570e+00,1.085338711738586426e+00,1.085278630256652832e+00,1.085218429565429688e+00,1.085158228874206543e+00,1.085098147392272949e+00,1.085037946701049805e+00,6.302399039268493652e-01,6.223933100700378418e-01,6.162750124931335449e-01,6.097438931465148926e-01,6.040444970130920410e-01,5.982042551040649414e-01,5.961897969245910645e-01,5.973402857780456543e-01,5.999839305877685547e-01,6.025164723396301270e-01,6.083116531372070312e-01,1.084316849708557129e+00,1.084256768226623535e+00,1.084196686744689941e+00,1.084136605262756348e+00,1.084076642990112305e+00,1.084016561508178711e+00,1.083956599235534668e+00,1.083896517753601074e+00,1.083836555480957031e+00,1.083776593208312988e+00,1.083716511726379395e+00,1.083656549453735352e+00,1.083596587181091309e+00,1.083536624908447266e+00,1.083476662635803223e+00,1.083416700363159180e+00,1.083356738090515137e+00,1.083296775817871094e+00,1.083236813545227051e+00,1.083176851272583008e+00,1.083117008209228516e+00,1.083057045936584473e+00,1.082997083663940430e+00,1.082937240600585938e+00,1.082877278327941895e+00,1.082817435264587402e+00,1.082757472991943359e+00,1.082697629928588867e+00,1.082637786865234375e+00,1.082577943801879883e+00,1.082517981529235840e+00,1.082458138465881348e+00,1.082398295402526855e+00
1.021042585372924805e+00,1.020989298820495605e+00,1.020936012268066406e+00,1.020882725715637207e+00,1.020829439163208008e+00,1.020776152610778809e+00,1.020722866058349609e+00,1.020669698715209961e+00,1.020616531372070312e+00,1.020563364028930664e+00,1.020510077476501465e+00,1.020456910133361816e+00,1.020403742790222168e+00,1.020350575447082520e+00,1.020297408103942871e+00,1.020244240760803223e+00,1.020191073417663574e+00,1.020137906074523926e+00,1.020084738731384277e+00,1.020031571388244629e+00,1.019978404045104980e+00,1.019925236701965332e+00,1.019872188568115234e+00,1.019819021224975586e+00,1.019765853881835938e+00,1.019712805747985840e+00,1.019659638404846191e+00,1.019606590270996094e+00,1.019553422927856445e+00,1.019500374794006348e+00,1.019447326660156250e+00,1.019394159317016602e+00,1.019341111183166504e+00,1.019288063049316406e+00,1.019235014915466309e+00,6.310603022575378418e-01,6.225774288177490234e-01,6.171724200248718262e-01,6.121826171875000000e-01,6.075962781906127930e-01,6.019451618194580078e-01,5.962723493576049805e-01,5.934983491897583008e-01,5.952584147453308105e-01,5.982257127761840820e-01,6.012629270553588867e-01,1.018598556518554688e+00,1.018545627593994141e+00,1.018492579460144043e+00,1.018439650535583496e+00,1.018386602401733398e+00,1.018333673477172852e+00,1.018280744552612305e+00,1.018227696418762207e+00,1.018174767494201660e+00,1.018121838569641113e+00,1.018068909645080566e+00,1.018015980720520020e+00,1.017963051795959473e+00,1.017910122871398926e+00,1.017857193946838379e+00,1.017804265022277832e+00,1.017751336097717285e+00,1.017698407173156738e+00,1.017645478248596191e+00,1.017592668533325195e+00,1.017539739608764648e+00,1.017486810684204102e+00,1.017434000968933105e+00,1.017381072044372559e+00,1.017328262329101562e+00,1.017275333404541016e+00,1.017222523689270020e+00,1.017169594764709473e+00,1.017116785049438477e+00,1.017063975334167480e+00,1.017011165618896484e+00,1.016958355903625488e+00,1.016905546188354492e+00,1.016852736473083496e+00
9.625161290168762207e-01,9.624688625335693359e-01,9.624214768409729004e-01,9.623742103576660156e-01,9.623268246650695801e-01,9.622796177864074707e-01,9.622322320938110352e-01,9.621850252151489258e-01,9.621376991271972656e-01,9.620904326438903809e-01,9.620431065559387207e-01,9.619958996772766113e-01,9.619485735893249512e-01,9.619013667106628418e-01,9.618540406227111816e-01,9.618068337440490723e-01,9.617595672607421875e-01,9.617123603820800781e-01,9.616650342941284180e-01,9.616178870201110840e-01,9.615705609321594238e-01,9.615234136581420898e-01,9.614761471748352051e-01,9.614289999008178711e-01,9.613817334175109863e-01,9.613345265388488770e-01,9.612873196601867676e-01,9.612401723861694336e-01,9.611929059028625488e-01,9.611457586288452148e-01,9.610984921455383301e-01,9.610514044761657715e-01,9.610041379928588867e-01,9.609570503234863281e-01,9.609098434448242188e-01,6.257442235946655273e-01,6.177114844322204590e-01,6.135451197624206543e-01,6.094346046447753906e-01,6.043887138366699219e-01,5.991839766502380371e-01,5.948314070701599121e-01,5.908311605453491211e-01,5.928413867950439453e-01,5.957844853401184082e-01,5.953758955001831055e-01,6.081237792968750000e-01,9.602971076965332031e-01,9.602499604225158691e-01,9.602029323577880859e-01,9.601557850837707520e-01,9.601086974143981934e-01,9.600616097450256348e-01,9.600145816802978516e-01,9.599674344062805176e-01,9.599204063415527344e-01,9.598733186721801758e-01,9.598262906074523926e-01,9.597791433334350586e-01,9.597321748733520508e-01,9.596852064132690430e-01,9.596380591392517090e-01,9.595910906791687012e-01,9.595440030097961426e-01,9.594970345497131348e-01,9.594499468803405762e-01,9.594029784202575684e-01,9.593559503555297852e-01,9.593089818954467773e-01,9.592618942260742188e-01,9.592149257659912109e-01,9.591678977012634277e-01,9.591209888458251953e-01,9.590739011764526367e-01,9.590269923210144043e-01,9.589799642562866211e-01,9.589330554008483887e-01,9.588860273361206055e-01,9.588391184806823730e-01,9.587920904159545898e-01
9.103356003761291504e-01,9.102932214736938477e-01,9.102509617805480957e-01,9.102085828781127930e-01,9.101663231849670410e-01,9.101239442825317383e-01,9.100816845893859863e-01,9.100393652915954590e-01,9.099971055984497070e-01,9.099547266960144043e-01,9.099125266075134277e-01,9.098701477050781250e-01,9.098279476165771484e-01,9.097855687141418457e-01,9.097433686256408691e-01,9.097010493278503418e-01,9.096587896347045898e-01,9.096164703369140625e-01,9.095742702484130859e-01,9.095319509506225586e-01,9.094897508621215820e-01,9.094474911689758301e-01,9.094052910804748535e-01,9.093629717826843262e-01,9.093207716941833496e-01,9.092785120010375977e-01,9.092363119125366211e-01,9.091940522193908691e-01,9.091518521308898926e-01,9.091095924377441406e-01,9.090674519538879395e-01,9.090251922607421875e-01,9.089830517768859863e-01,9.089407920837402344e-01,9.088985919952392578e-01,6.244390010833740234e-01,6.155447363853454590e-01,6.107848882675170898e-01,6.064551472663879395e-01,6.022864580154418945e-01,5.986922383308410645e-01,5.940541028976440430e-01,5.892385840415954590e-01,5.904438495635986328e-01,5.897644758224487305e-01,5.885681509971618652e-01,5.936949849128723145e-01,9.083504080772399902e-01,9.083082079887390137e-01,9.082661271095275879e-01,9.082239270210266113e-01,9.081819057464599609e-01,9.081397056579589844e-01,9.080976247787475586e-01,9.080554246902465820e-01,9.080134034156799316e-01,9.079712033271789551e-01,9.079291820526123047e-01,9.078869819641113281e-01,9.078449606895446777e-01,9.078028202056884766e-01,9.077607393264770508e-01,9.077185988426208496e-01,9.076765775680541992e-01,9.076344370841979980e-01,9.075924158096313477e-01,9.075502753257751465e-01,9.075082540512084961e-01,9.074661731719970703e-01,9.074241518974304199e-01,9.073820114135742188e-01,9.073400497436523438e-01,9.072979092597961426e-01,9.072559475898742676e-01,9.072138667106628418e-01,9.071718454360961914e-01,9.071297645568847656e-01,9.070878028869628906e-01,9.070457220077514648e-01,9.070037007331848145e-01
8.635217547416687012e-01,8.634837269783020020e-01,8.634455800056457520e-01,8.634075522422790527e-01,8.633694648742675781e-01,8.633314371109008789e-01,8.632932901382446289e-01,8.632552623748779297e-01,8.632171750068664551e-01,8.631791472434997559e-01,8.631410598754882812e-01,8.631030321121215820e-01,8.630649447441101074e-01,8.630269169807434082e-01,8.629888296127319336e-01,8.629508614540100098e-01,8.629127740859985352e-01,8.628747463226318359e-01,8.628367185592651367e-01,8.627986907958984375e-01,8.627606630325317383e-01,8.627226948738098145e-01,8.626846075057983398e-01,8.626466393470764160e-01,8.626086711883544922e-01,8.625706434249877930e-01,8.625326752662658691e-01,8.624945878982543945e-01,8.624566793441772461e-01,8.624186515808105469e-01,8.623806834220886230e-01,8.623426556587219238e-01,8.623046875000000000e-01,8.622666597366333008e-01,8.622287511825561523e-01,6.313878297805786133e-01,6.141288876533508301e-01,6.093116402626037598e-01,6.052009463310241699e-01,6.017711758613586426e-01,5.983800888061523438e-01,5.937669873237609863e-01,5.887910127639770508e-01,5.859234333038330078e-01,5.856477618217468262e-01,5.842341780662536621e-01,5.852875113487243652e-01,5.897608399391174316e-01,8.616974353790283203e-01,8.616594672203063965e-01,8.616215586662292480e-01,8.615835905075073242e-01,8.615457415580749512e-01,8.615077733993530273e-01,8.614699244499206543e-01,8.614319562911987305e-01,8.613941073417663574e-01,8.613561391830444336e-01,8.613182902336120605e-01,8.612803220748901367e-01,8.612424731254577637e-01,8.612045645713806152e-01,8.611667156219482422e-01,8.611288070678710938e-01,8.610909581184387207e-01,8.610530495643615723e-01,8.610152602195739746e-01,8.609772920608520508e-01,8.609395027160644531e-01,8.609015941619873047e-01,8.608638048171997070e-01,8.608258962631225586e-01,8.607881069183349609e-01,8.607501983642578125e-01,8.607124090194702148e-01,8.606745004653930664e-01,8.606367111206054688e-01,8.605988025665283203e-01,8.605610728263854980e-01,8.605231642723083496e-01
8.212872743606567383e-01,8.212528228759765625e-01,8.212183713912963867e-01,8.211839199066162109e-01,8.211495280265808105e-01,8.211150169372558594e-01,8.210806250572204590e-01,8.210462331771850586e-01,8.210117816925048828e-01,8.209773898124694824e-01,8.209428787231445312e-01,8.209085464477539062e-01,8.208740353584289551e-01,8.208397030830383301e-01,8.208051919937133789e-01,8.207708597183227539e-01,8.207364082336425781e-01,8.207020163536071777e-01,8.206675648689270020e-01,8.206332325935363770e-01,8.205987811088562012e-01,8.205644488334655762e-01,8.205299973487854004e-01,8.204956650733947754e-01,8.204612135887145996e-01,8.204268813133239746e-01,8.203924894332885742e-01,8.203581571578979492e-01,8.203237056732177734e-01,8.202893733978271484e-01,8.202549815177917480e-01,8.202206492424011230e-01,8.201862573623657227e-01,8.201519250869750977e-01,8.201175332069396973e-01,8.200832009315490723e-01,6.200274825096130371e-01,6.078923940658569336e-01,6.040893197059631348e-01,6.015031933784484863e-01,5.990518927574157715e-01,5.953240394592285156e-01,5.906783342361450195e-01,5.859226584434509277e-01,5.827979445457458496e-01,5.801151394844055176e-01,5.793474316596984863e-01,5.808687210083007812e-01,5.881500840187072754e-01,8.196025490760803223e-01,8.195681571960449219e-01,8.195338845252990723e-01,8.194995522499084473e-01,8.194652795791625977e-01,8.194309473037719727e-01,8.193966746330261230e-01,8.193623423576354980e-01,8.193281292915344238e-01,8.192937970161437988e-01,8.192595243453979492e-01,8.192251920700073242e-01,8.191909790039062500e-01,8.191566467285156250e-01,8.191224336624145508e-01,8.190881013870239258e-01,8.190538883209228516e-01,8.190195560455322266e-01,8.189853429794311523e-01,8.189510703086853027e-01,8.189168572425842285e-01,8.188825249671936035e-01,8.188483119010925293e-01,8.188140392303466797e-01,8.187798261642456055e-01,8.187455534934997559e-01,8.187113404273986816e-01,8.186771273612976074e-01,8.186428546905517578e-01,8.186087012290954590e-01,8.185744285583496094e-01
7.829915285110473633e-01,7.829601764678955078e-01,7.829289436340332031e-01,7.828975915908813477e-01,7.828662991523742676e-01,7.828349471092224121e-01,7.828037142753601074e-01,7.827723622322082520e-01,7.827410697937011719e-01,7.827097773551940918e-01,7.826784849166870117e-01,7.826471924781799316e-01,7.826159000396728516e-01,7.825846076011657715e-01,7.825533747673034668e-01,7.825220227241516113e-01,7.824907898902893066e-01,7.824594974517822266e-01,7.824282646179199219e-01,7.823969125747680664e-01,7.823656797409057617e-01,7.823343873023986816e-01,7.823031544685363770e-01,7.822718620300292969e-01,7.822406888008117676e-01,7.822093963623046875e-01,7.821781635284423828e-01,7.821468710899353027e-01,7.821156382560729980e-01,7.820843458175659180e-01,7.820531725883483887e-01,7.820218801498413086e-01,7.819907069206237793e-01,7.819594144821166992e-01,7.819282412528991699e-01,7.818969488143920898e-01,7.818657755851745605e-01,7.818344831466674805e-01,6.106422543525695801e-01,6.058901548385620117e-01,6.000140309333801270e-01,5.961661934852600098e-01,5.921195149421691895e-01,5.874941349029541016e-01,5.827475190162658691e-01,5.773558616638183594e-01,5.747311711311340332e-01,5.748134255409240723e-01,5.761888623237609863e-01,5.860741734504699707e-01,7.814288139343261719e-01,7.813975811004638672e-01,7.813664674758911133e-01,7.813352346420288086e-01,7.813040614128112793e-01,7.812728285789489746e-01,7.812417149543762207e-01,7.812104821205139160e-01,7.811793684959411621e-01,7.811482548713684082e-01,7.811170220375061035e-01,7.810859084129333496e-01,7.810546755790710449e-01,7.810235619544982910e-01,7.809923887252807617e-01,7.809612751007080078e-01,7.809300422668457031e-01,7.808989286422729492e-01,7.808677554130554199e-01,7.808366417884826660e-01,7.808054685592651367e-01,7.807743549346923828e-01,7.807431817054748535e-01,7.807121276855468750e-01,7.806809544563293457e-01,7.806498408317565918e-01,7.806186676025390625e-01,7.805875539779663086e-01,7.805564403533935547e-01,7.805253267288208008e-01
