3.097685575485229492e+00,3.175974130630493164e+00,3.258322238922119141e+00,3.345051527023315430e+00,3.436520338058471680e+00,3.533132076263427734e+00,3.635332822799682617e+00,3.743622779846191406e+00,3.858562231063842773e+00,3.980783224105834961e+00,4.111000061035156250e+00,4.250023841857910156e+00,4.398780345916748047e+00,4.558327198028564453e+00,4.729883670806884766e+00,4.914858341217041016e+00,5.000000000000000000e+00,5.000000000000000000e+00,5.000000000000000000e+00,5.000000000000000000e+00,5.000000000000000000e+00,5.000000000000000000e+00,5.000000000000000000e+00,5.000000000000000000e+00,5.000000000000000000e+00,5.000000000000000000e+00,5.000000000000000000e+00,5.000000000000000000e+00,5.000000000000000000e+00,5.000000000000000000e+00,5.000000000000000000e+00,5.000000000000000000e+00,5.000000000000000000e+00,5.000000000000000000e+00,5.000000000000000000e+00,5.000000000000000000e+00,5.000000000000000000e+00,5.000000000000000000e+00,5.000000000000000000e+00,5.000000000000000000e+00,5.000000000000000000e+00,5.000000000000000000e+00,5.000000000000000000e+00,5.000000000000000000e+00,5.000000000000000000e+00,5.000000000000000000e+00,5.000000000000000000e+00,5.000000000000000000e+00,5.000000000000000000e+00,5.000000000000000000e+00,5.000000000000000000e+00,5.000000000000000000e+00,5.000000000000000000e+00,3.280268907546997070e+00,5.000000000000000000e+00,5.000000000000000000e+00,5.000000000000000000e+00,5.000000000000000000e+00,5.000000000000000000e+00,5.000000000000000000e+00,5.000000000000000000e+00,5.000000000000000000e+00,5.000000000000000000e+00,5.000000000000000000e+00,5.000000000000000000e+00,5.000000000000000000e+00,5.000000000000000000e+00,5.000000000000000000e+00,5.000000000000000000e+00,5.000000000000000000e+00,4.854522228240966797e+00,4.695030689239501953e+00,4.545654773712158203e+00,4.405491352081298828e+00,4.273713111877441406e+00,4.149589061737060547e+00,4.032471656799316406e+00,3.921784162521362305e+00,3.817010641098022461e+00,3.717689514160156250e+00
3.097619771957397461e+00,3.175904512405395508e+00,3.258249282836914062e+00,3.344977855682373047e+00,3.436446189880371094e+00,3.533053636550903320e+00,3.635250329971313477e+00,3.743534564971923828e+00,3.858468532562255859e+00,3.980683565139770508e+00,4.110893726348876953e+00,4.249910354614257812e+00,4.398658752441406250e+00,4.558196544647216797e+00,4.729743003845214844e+00,4.914707183837890625e+00,5.000000000000000000e+00,5.000000000000000000e+00,5.000000000000000000e+00,5.000000000000000000e+00,5.000000000000000000e+00,5.000000000000000000e+00,5.000000000000000000e+00,5.000000000000000000e+00,5.000000000000000000e+00,5.000000000000000000e+00,5.000000000000000000e+00,5.000000000000000000e+00,5.000000000000000000e+00,5.000000000000000000e+00,5.000000000000000000e+00,5.000000000000000000e+00,5.000000000000000000e+00,5.000000000000000000e+00,5.000000000000000000e+00,5.000000000000000000e+00,5.000000000000000000e+00,5.000000000000000000e+00,5.000000000000000000e+00,5.000000000000000000e+00,5.000000000000000000e+00,5.000000000000000000e+00,5.000000000000000000e+00,5.000000000000000000e+00,5.000000000000000000e+00,5.000000000000000000e+00,5.000000000000000000e+00,5.000000000000000000e+00,5.000000000000000000e+00,5.000000000000000000e+00,5.000000000000000000e+00,5.000000000000000000e+00,3.277218341827392578e+00,3.243117094039916992e+00,3.268870115280151367e+00,5.000000000000000000e+00,5.000000000000000000e+00,5.000000000000000000e+00,5.000000000000000000e+00,5.000000000000000000e+00,5.000000000000000000e+00,5.000000000000000000e+00,5.000000000000000000e+00,5.000000000000000000e+00,5.000000000000000000e+00,5.000000000000000000e+00,5.000000000000000000e+00,5.000000000000000000e+00,5.000000000000000000e+00,5.000000000000000000e+00,4.854698657989501953e+00,4.695163249969482422e+00,4.545779705047607422e+00,4.405608177185058594e+00,4.273822784423828125e+00,4.149692535400390625e+00,4.032569408416748047e+00,3.921876668930053711e+00,3.817098379135131836e+00,3.717772722244262695e+00
3.097553730010986328e+00,3.175835371017456055e+00,3.258176326751708984e+00,3.344900846481323242e+00,3.436368465423583984e+00,3.532975196838378906e+00,3.635167121887207031e+00,3.743446588516235352e+00,3.858375072479248047e+00,3.980583906173706055e+00,4.110787391662597656e+00,4.249796867370605469e+00,4.398536682128906250e+00,4.558066368103027344e+00,4.729602336883544922e+00,4.914555072784423828e+00,5.000000000000000000e+00,5.000000000000000000e+00,5.000000000000000000e+00,5.000000000000000000e+00,5.000000000000000000e+00,5.000000000000000000e+00,5.000000000000000000e+00,5.000000000000000000e+00,5.000000000000000000e+00,5.000000000000000000e+00,5.000000000000000000e+00,5.000000000000000000e+00,5.000000000000000000e+00,5.000000000000000000e+00,5.000000000000000000e+00,5.000000000000000000e+00,5.000000000000000000e+00,5.000000000000000000e+00,5.000000000000000000e+00,5.000000000000000000e+00,5.000000000000000000e+00,5.000000000000000000e+00,5.000000000000000000e+00,5.000000000000000000e+00,5.000000000000000000e+00,5.000000000000000000e+00,5.000000000000000000e+00,5.000000000000000000e+00,5.000000000000000000e+00,5.000000000000000000e+00,5.000000000000000000e+00,5.000000000000000000e+00,5.000000000000000000e+00,5.000000000000000000e+00,5.000000000000000000e+00,5.000000000000000000e+00,3.287134170532226562e+00,3.250410556793212891e+00,3.271054029464721680e+00,5.000000000000000000e+00,5.000000000000000000e+00,5.000000000000000000e+00,5.000000000000000000e+00,5.000000000000000000e+00,5.000000000000000000e+00,5.000000000000000000e+00,5.000000000000000000e+00,5.000000000000000000e+00,5.000000000000000000e+00,5.000000000000000000e+00,5.000000000000000000e+00,5.000000000000000000e+00,5.000000000000000000e+00,5.000000000000000000e+00,4.854840755462646484e+00,4.695295810699462891e+00,4.545903682708740234e+00,4.405725002288818359e+00,4.273932933807373047e+00,4.149796485900878906e+00,4.032667636871337891e+00,3.921969413757324219e+00,3.817186117172241211e+00,3.717855930328369141e+00
3.097487926483154297e+00,3.175765991210937500e+00,3.258103609085083008e+00,3.344824075698852539e+00,3.436287164688110352e+00,3.532892942428588867e+00,3.635083913803100586e+00,3.743358850479125977e+00,3.858281373977661133e+00,3.980484247207641602e+00,4.110681533813476562e+00,4.249683380126953125e+00,4.398415088653564453e+00,4.557935714721679688e+00,4.729462146759033203e+00,4.914403438568115234e+00,5.000000000000000000e+00,5.000000000000000000e+00,5.000000000000000000e+00,5.000000000000000000e+00,5.000000000000000000e+00,5.000000000000000000e+00,5.000000000000000000e+00,5.000000000000000000e+00,5.000000000000000000e+00,5.000000000000000000e+00,5.000000000000000000e+00,5.000000000000000000e+00,5.000000000000000000e+00,5.000000000000000000e+00,5.000000000000000000e+00,5.000000000000000000e+00,5.000000000000000000e+00,5.000000000000000000e+00,5.000000000000000000e+00,5.000000000000000000e+00,5.000000000000000000e+00,5.000000000000000000e+00,5.000000000000000000e+00,5.000000000000000000e+00,5.000000000000000000e+00,5.000000000000000000e+00,5.000000000000000000e+00,5.000000000000000000e+00,5.000000000000000000e+00,5.000000000000000000e+00,5.000000000000000000e+00,5.000000000000000000e+00,5.000000000000000000e+00,5.000000000000000000e+00,5.000000000000000000e+00,5.000000000000000000e+00,3.311645984649658203e+00,3.259798765182495117e+00,5.000000000000000000e+00,5.000000000000000000e+00,5.000000000000000000e+00,5.000000000000000000e+00,5.000000000000000000e+00,5.000000000000000000e+00,5.000000000000000000e+00,5.000000000000000000e+00,5.000000000000000000e+00,5.000000000000000000e+00,5.000000000000000000e+00,5.000000000000000000e+00,5.000000000000000000e+00,5.000000000000000000e+00,5.000000000000000000e+00,5.000000000000000000e+00,4.854982376098632812e+00,4.695428371429443359e+00,4.546028137207031250e+00,4.405841827392578125e+00,4.274043083190917969e+00,4.149899959564208984e+00,4.032765388488769531e+00,3.922061920166015625e+00,3.817273855209350586e+00,3.717939138412475586e+00
3.097421884536743164e+00,3.175696849822998047e+00,3.258030414581298828e+00,3.344747066497802734e+00,3.436206102371215820e+00,3.532806873321533203e+00,3.634996891021728516e+00,3.743270635604858398e+00,3.858187913894653320e+00,3.980384588241577148e+00,4.110575199127197266e+00,4.249569892883300781e+00,4.398293972015380859e+00,4.557805061340332031e+00,4.729321479797363281e+00,4.914251327514648438e+00,5.000000000000000000e+00,5.000000000000000000e+00,5.000000000000000000e+00,5.000000000000000000e+00,5.000000000000000000e+00,5.000000000000000000e+00,5.000000000000000000e+00,5.000000000000000000e+00,5.000000000000000000e+00,5.000000000000000000e+00,5.000000000000000000e+00,5.000000000000000000e+00,5.000000000000000000e+00,5.000000000000000000e+00,5.000000000000000000e+00,5.000000000000000000e+00,5.000000000000000000e+00,5.000000000000000000e+00,5.000000000000000000e+00,5.000000000000000000e+00,5.000000000000000000e+00,5.000000000000000000e+00,5.000000000000000000e+00,5.000000000000000000e+00,5.000000000000000000e+00,5.000000000000000000e+00,5.000000000000000000e+00,5.000000000000000000e+00,5.000000000000000000e+00,5.000000000000000000e+00,5.000000000000000000e+00,5.000000000000000000e+00,5.000000000000000000e+00,5.000000000000000000e+00,5.000000000000000000e+00,5.000000000000000000e+00,3.360908985137939453e+00,3.327819585800170898e+00,5.000000000000000000e+00,5.000000000000000000e+00,5.000000000000000000e+00,5.000000000000000000e+00,5.000000000000000000e+00,5.000000000000000000e+00,5.000000000000000000e+00,5.000000000000000000e+00,5.000000000000000000e+00,5.000000000000000000e+00,5.000000000000000000e+00,5.000000000000000000e+00,5.000000000000000000e+00,5.000000000000000000e+00,5.000000000000000000e+00,5.000000000000000000e+00,4.855124473571777344e+00,4.695561408996582031e+00,4.546152591705322266e+00,4.405958652496337891e+00,4.274153232574462891e+00,4.150003910064697266e+00,4.032863140106201172e+00,3.922154426574707031e+00,3.817358493804931641e+00,3.718017101287841797e+00
3.097356081008911133e+00,3.175627470016479492e+00,3.257957696914672852e+00,3.344670534133911133e+00,3.436124801635742188e+00,3.532721519470214844e+00,3.634906053543090820e+00,3.743178367614746094e+00,3.858094692230224609e+00,3.980284929275512695e+00,4.110468864440917969e+00,4.249456405639648438e+00,4.398172378540039062e+00,4.557674407958984375e+00,4.729180812835693359e+00,4.914099693298339844e+00,5.000000000000000000e+00,5.000000000000000000e+00,5.000000000000000000e+00,5.000000000000000000e+00,5.000000000000000000e+00,5.000000000000000000e+00,5.000000000000000000e+00,5.000000000000000000e+00,5.000000000000000000e+00,5.000000000000000000e+00,5.000000000000000000e+00,5.000000000000000000e+00,5.000000000000000000e+00,5.000000000000000000e+00,5.000000000000000000e+00,5.000000000000000000e+00,5.000000000000000000e+00,5.000000000000000000e+00,5.000000000000000000e+00,5.000000000000000000e+00,5.000000000000000000e+00,5.000000000000000000e+00,5.000000000000000000e+00,5.000000000000000000e+00,5.000000000000000000e+00,5.000000000000000000e+00,5.000000000000000000e+00,5.000000000000000000e+00,5.000000000000000000e+00,5.000000000000000000e+00,5.000000000000000000e+00,5.000000000000000000e+00,5.000000000000000000e+00,3.342995166778564453e+00,3.312360048294067383e+00,3.311467885971069336e+00,3.263260364532470703e+00,3.298813343048095703e+00,3.265568494796752930e+00,3.321081161499023438e+00,3.322016716003417969e+00,5.000000000000000000e+00,5.000000000000000000e+00,5.000000000000000000e+00,5.000000000000000000e+00,5.000000000000000000e+00,5.000000000000000000e+00,5.000000000000000000e+00,5.000000000000000000e+00,5.000000000000000000e+00,5.000000000000000000e+00,5.000000000000000000e+00,5.000000000000000000e+00,5.000000000000000000e+00,4.855266094207763672e+00,4.695693969726562500e+00,4.546277046203613281e+00,4.406075477600097656e+00,4.274262905120849609e+00,4.150104999542236328e+00,4.032955646514892578e+00,3.922238826751708984e+00,3.817438840866088867e+00,3.718092918395996094e+00
3.097290039062500000e+00,3.175558328628540039e+00,3.257884502410888672e+00,3.344593286514282227e+00,3.436043739318847656e+00,3.532635450363159180e+00,3.634815454483032227e+00,3.743082284927368164e+00,3.857996702194213867e+00,3.980185270309448242e+00,4.110363006591796875e+00,4.249342918395996094e+00,4.398050785064697266e+00,4.557543754577636719e+00,4.729040145874023438e+00,4.913948059082031250e+00,5.000000000000000000e+00,5.000000000000000000e+00,5.000000000000000000e+00,5.000000000000000000e+00,5.000000000000000000e+00,5.000000000000000000e+00,5.000000000000000000e+00,5.000000000000000000e+00,5.000000000000000000e+00,5.000000000000000000e+00,5.000000000000000000e+00,5.000000000000000000e+00,5.000000000000000000e+00,5.000000000000000000e+00,5.000000000000000000e+00,5.000000000000000000e+00,5.000000000000000000e+00,5.000000000000000000e+00,5.000000000000000000e+00,5.000000000000000000e+00,5.000000000000000000e+00,5.000000000000000000e+00,5.000000000000000000e+00,5.000000000000000000e+00,5.000000000000000000e+00,5.000000000000000000e+00,5.000000000000000000e+00,5.000000000000000000e+00,5.000000000000000000e+00,5.000000000000000000e+00,5.000000000000000000e+00,5.000000000000000000e+00,5.000000000000000000e+00,3.296856641769409180e+00,3.289624929428100586e+00,3.261049270629882812e+00,3.251414299011230469e+00,3.247530698776245117e+00,3.249105930328369141e+00,3.262226343154907227e+00,3.326522827148437500e+00,3.346434593200683594e+00,5.000000000000000000e+00,5.000000000000000000e+00,5.000000000000000000e+00,5.000000000000000000e+00,5.000000000000000000e+00,5.000000000000000000e+00,5.000000000000000000e+00,5.000000000000000000e+00,5.000000000000000000e+00,5.000000000000000000e+00,5.000000000000000000e+00,5.000000000000000000e+00,4.855408191680908203e+00,4.695827007293701172e+00,4.546399116516113281e+00,4.406186580657958984e+00,4.274363517761230469e+00,4.150199413299560547e+00,4.033044815063476562e+00,3.922323226928710938e+00,3.817518711090087891e+00,3.718169212341308594e+00
3.097224235534667969e+00,3.175488948822021484e+00,3.257811784744262695e+00,3.344516754150390625e+00,3.435962438583374023e+00,3.532550096511840820e+00,3.634724617004394531e+00,3.742985963821411133e+00,3.857894659042358398e+00,3.980081558227539062e+00,4.110256671905517578e+00,4.249229431152343750e+00,4.397928714752197266e+00,4.557413101196289062e+00,4.728899955749511719e+00,4.913795948028564453e+00,5.000000000000000000e+00,5.000000000000000000e+00,5.000000000000000000e+00,5.000000000000000000e+00,5.000000000000000000e+00,5.000000000000000000e+00,5.000000000000000000e+00,5.000000000000000000e+00,5.000000000000000000e+00,5.000000000000000000e+00,5.000000000000000000e+00,5.000000000000000000e+00,5.000000000000000000e+00,5.000000000000000000e+00,5.000000000000000000e+00,5.000000000000000000e+00,5.000000000000000000e+00,5.000000000000000000e+00,5.000000000000000000e+00,5.000000000000000000e+00,5.000000000000000000e+00,5.000000000000000000e+00,5.000000000000000000e+00,5.000000000000000000e+00,5.000000000000000000e+00,5.000000000000000000e+00,5.000000000000000000e+00,5.000000000000000000e+00,5.000000000000000000e+00,5.000000000000000000e+00,5.000000000000000000e+00,5.000000000000000000e+00,5.000000000000000000e+00,3.307681560516357422e+00,3.299919128417968750e+00,3.257720470428466797e+00,3.234717845916748047e+00,3.236403465270996094e+00,3.235653162002563477e+00,3.254753351211547852e+00,3.345419406890869141e+00,3.372285842895507812e+00,5.000000000000000000e+00,5.000000000000000000e+00,5.000000000000000000e+00,5.000000000000000000e+00,5.000000000000000000e+00,5.000000000000000000e+00,5.000000000000000000e+00,5.000000000000000000e+00,5.000000000000000000e+00,5.000000000000000000e+00,5.000000000000000000e+00,5.000000000000000000e+00,4.855544090270996094e+00,4.695949554443359375e+00,4.546512603759765625e+00,4.406293392181396484e+00,4.274464130401611328e+00,4.150293827056884766e+00,4.033134460449218750e+00,3.922408103942871094e+00,3.817598819732666016e+00,3.718245029449462891e+00
3.097158193588256836e+00,3.175419807434082031e+00,3.257739067077636719e+00,3.344439744949340820e+00,3.435881614685058594e+00,3.532464027404785156e+00,3.634634017944335938e+00,3.742889881134033203e+00,3.857792139053344727e+00,3.979972839355468750e+00,4.110146045684814453e+00,4.249115943908691406e+00,4.397807598114013672e+00,4.557282924652099609e+00,4.728759288787841797e+00,4.913644313812255859e+00,5.000000000000000000e+00,5.000000000000000000e+00,5.000000000000000000e+00,5.000000000000000000e+00,5.000000000000000000e+00,5.000000000000000000e+00,5.000000000000000000e+00,5.000000000000000000e+00,5.000000000000000000e+00,5.000000000000000000e+00,5.000000000000000000e+00,5.000000000000000000e+00,5.000000000000000000e+00,5.000000000000000000e+00,5.000000000000000000e+00,5.000000000000000000e+00,5.000000000000000000e+00,5.000000000000000000e+00,5.000000000000000000e+00,5.000000000000000000e+00,5.000000000000000000e+00,5.000000000000000000e+00,5.000000000000000000e+00,5.000000000000000000e+00,5.000000000000000000e+00,5.000000000000000000e+00,5.000000000000000000e+00,5.000000000000000000e+00,5.000000000000000000e+00,5.000000000000000000e+00,5.000000000000000000e+00,5.000000000000000000e+00,5.000000000000000000e+00,3.318048000335693359e+00,3.306616306304931641e+00,3.268881320953369141e+00,3.242535114288330078e+00,3.226810455322265625e+00,3.227142095565795898e+00,3.275041341781616211e+00,3.348830699920654297e+00,5.000000000000000000e+00,5.000000000000000000e+00,5.000000000000000000e+00,5.000000000000000000e+00,5.000000000000000000e+00,5.000000000000000000e+00,5.000000000000000000e+00,5.000000000000000000e+00,5.000000000000000000e+00,5.000000000000000000e+00,5.000000000000000000e+00,5.000000000000000000e+00,5.000000000000000000e+00,4.855673313140869141e+00,4.696071147918701172e+00,4.546626567840576172e+00,4.406400203704833984e+00,4.274564743041992188e+00,4.150388717651367188e+00,4.033223628997802734e+00,3.922492504119873047e+00,3.817679166793823242e+00,3.718320846557617188e+00
3.097092390060424805e+00,3.175350427627563477e+00,3.257666110992431641e+00,3.344362974166870117e+00,3.435800313949584961e+00,3.532378435134887695e+00,3.634543418884277344e+00,3.742793560028076172e+00,3.857690095901489258e+00,3.979863882064819336e+00,4.110030174255371094e+00,4.248997688293457031e+00,4.397686004638671875e+00,4.557152271270751953e+00,4.728618621826171875e+00,4.913492679595947266e+00,5.000000000000000000e+00,5.000000000000000000e+00,5.000000000000000000e+00,5.000000000000000000e+00,5.000000000000000000e+00,5.000000000000000000e+00,5.000000000000000000e+00,5.000000000000000000e+00,5.000000000000000000e+00,5.000000000000000000e+00,5.000000000000000000e+00,5.000000000000000000e+00,5.000000000000000000e+00,5.000000000000000000e+00,5.000000000000000000e+00,5.000000000000000000e+00,5.000000000000000000e+00,5.000000000000000000e+00,5.000000000000000000e+00,5.000000000000000000e+00,5.000000000000000000e+00,5.000000000000000000e+00,5.000000000000000000e+00,5.000000000000000000e+00,5.000000000000000000e+00,5.000000000000000000e+00,5.000000000000000000e+00,5.000000000000000000e+00,5.000000000000000000e+00,5.000000000000000000e+00,5.000000000000000000e+00,5.000000000000000000e+00,5.000000000000000000e+00,3.314157724380493164e+00,3.294405698776245117e+00,3.278898000717163086e+00,3.240631580352783203e+00,3.228466272354125977e+00,3.230985403060913086e+00,3.262708187103271484e+00,3.348789930343627930e+00,5.000000000000000000e+00,5.000000000000000000e+00,5.000000000000000000e+00,5.000000000000000000e+00,5.000000000000000000e+00,5.000000000000000000e+00,5.000000000000000000e+00,5.000000000000000000e+00,5.000000000000000000e+00,5.000000000000000000e+00,5.000000000000000000e+00,5.000000000000000000e+00,5.000000000000000000e+00,4.855803012847900391e+00,4.696191787719726562e+00,4.546739578247070312e+00,4.406506538391113281e+00,4.274664878845214844e+00,4.150483608245849609e+00,4.033313274383544922e+00,3.922577381134033203e+00,3.817759037017822266e+00,3.718396902084350586e+00
3.097026348114013672e+00,3.175281286239624023e+00,3.257593393325805664e+00,3.344285964965820312e+00,3.435719490051269531e+00,3.532292604446411133e+00,3.634452581405639648e+00,3.742697477340698242e+00,3.857587575912475586e+00,3.979755401611328125e+00,4.109913825988769531e+00,4.248873710632324219e+00,4.397559642791748047e+00,4.557021617889404297e+00,4.728477954864501953e+00,4.913341045379638672e+00,5.000000000000000000e+00,5.000000000000000000e+00,5.000000000000000000e+00,5.000000000000000000e+00,5.000000000000000000e+00,5.000000000000000000e+00,5.000000000000000000e+00,5.000000000000000000e+00,5.000000000000000000e+00,5.000000000000000000e+00,5.000000000000000000e+00,5.000000000000000000e+00,5.000000000000000000e+00,5.000000000000000000e+00,5.000000000000000000e+00,5.000000000000000000e+00,5.000000000000000000e+00,5.000000000000000000e+00,5.000000000000000000e+00,5.000000000000000000e+00,5.000000000000000000e+00,5.000000000000000000e+00,5.000000000000000000e+00,5.000000000000000000e+00,5.000000000000000000e+00,5.000000000000000000e+00,5.000000000000000000e+00,5.000000000000000000e+00,5.000000000000000000e+00,5.000000000000000000e+00,5.000000000000000000e+00,5.000000000000000000e+00,5.000000000000000000e+00,3.313333272933959961e+00,3.305131435394287109e+00,3.285732030868530273e+00,3.238914489746093750e+00,3.235887527465820312e+00,3.232346534729003906e+00,3.261918783187866211e+00,3.366291522979736328e+00,5.000000000000000000e+00,5.000000000000000000e+00,5.000000000000000000e+00,5.000000000000000000e+00,5.000000000000000000e+00,5.000000000000000000e+00,5.000000000000000000e+00,5.000000000000000000e+00,5.000000000000000000e+00,5.000000000000000000e+00,5.000000000000000000e+00,5.000000000000000000e+00,5.000000000000000000e+00,4.855932712554931641e+00,4.696312904357910156e+00,4.546853542327880859e+00,4.406613349914550781e+00,4.274765491485595703e+00,4.150578022003173828e+00,4.033402442932128906e+00,3.922661781311035156e+00,3.817838907241821289e+00,3.718472719192504883e+00
3.096960783004760742e+00,3.175211906433105469e+00,3.257520198822021484e+00,3.344209432601928711e+00,3.435638189315795898e+00,3.532207012176513672e+00,3.634361982345581055e+00,3.742600917816162109e+00,3.857485771179199219e+00,3.979646205902099609e+00,4.109797954559326172e+00,4.248749732971191406e+00,4.397426605224609375e+00,4.556886196136474609e+00,4.728337764739990234e+00,4.913189411163330078e+00,5.000000000000000000e+00,5.000000000000000000e+00,5.000000000000000000e+00,5.000000000000000000e+00,5.000000000000000000e+00,5.000000000000000000e+00,5.000000000000000000e+00,5.000000000000000000e+00,5.000000000000000000e+00,5.000000000000000000e+00,5.000000000000000000e+00,5.000000000000000000e+00,5.000000000000000000e+00,5.000000000000000000e+00,5.000000000000000000e+00,5.000000000000000000e+00,5.000000000000000000e+00,5.000000000000000000e+00,5.000000000000000000e+00,5.000000000000000000e+00,5.000000000000000000e+00,5.000000000000000000e+00,5.000000000000000000e+00,5.000000000000000000e+00,5.000000000000000000e+00,5.000000000000000000e+00,5.000000000000000000e+00,5.000000000000000000e+00,5.000000000000000000e+00,5.000000000000000000e+00,5.000000000000000000e+00,5.000000000000000000e+00,5.000000000000000000e+00,3.310941219329833984e+00,3.322884082794189453e+00,3.269535064697265625e+00,3.230124711990356445e+00,3.223586082458496094e+00,3.225099563598632812e+00,3.251963615417480469e+00,3.386150360107421875e+00,5.000000000000000000e+00,5.000000000000000000e+00,5.000000000000000000e+00,5.000000000000000000e+00,5.000000000000000000e+00,5.000000000000000000e+00,5.000000000000000000e+00,5.000000000000000000e+00,5.000000000000000000e+00,5.000000000000000000e+00,5.000000000000000000e+00,5.000000000000000000e+00,5.000000000000000000e+00,4.856062412261962891e+00,4.696434497833251953e+00,4.546967029571533203e+00,4.406720161437988281e+00,4.274865627288818359e+00,4.150672435760498047e+00,4.033491611480712891e+00,3.922745943069458008e+00,3.817919254302978516e+00,3.718548536300659180e+00
3.096866369247436523e+00,3.175128936767578125e+00,3.257447481155395508e+00,3.344132423400878906e+00,3.435557365417480469e+00,3.532121181488037109e+00,3.634270906448364258e+00,3.742505073547363281e+00,3.857383251190185547e+00,3.979537725448608398e+00,4.109682083129882812e+00,4.248625755310058594e+00,4.397293567657470703e+00,4.556743144989013672e+00,4.728191852569580078e+00,4.913037300109863281e+00,5.000000000000000000e+00,5.000000000000000000e+00,5.000000000000000000e+00,5.000000000000000000e+00,5.000000000000000000e+00,5.000000000000000000e+00,5.000000000000000000e+00,5.000000000000000000e+00,5.000000000000000000e+00,5.000000000000000000e+00,5.000000000000000000e+00,5.000000000000000000e+00,5.000000000000000000e+00,5.000000000000000000e+00,5.000000000000000000e+00,5.000000000000000000e+00,5.000000000000000000e+00,5.000000000000000000e+00,5.000000000000000000e+00,5.000000000000000000e+00,5.000000000000000000e+00,5.000000000000000000e+00,5.000000000000000000e+00,5.000000000000000000e+00,5.000000000000000000e+00,5.000000000000000000e+00,5.000000000000000000e+00,5.000000000000000000e+00,5.000000000000000000e+00,5.000000000000000000e+00,5.000000000000000000e+00,5.000000000000000000e+00,5.000000000000000000e+00,3.265542745590209961e+00,3.279378652572631836e+00,3.272648572921752930e+00,3.244672060012817383e+00,3.230138778686523438e+00,3.243460893630981445e+00,3.279285907745361328e+00,3.370543479919433594e+00,5.000000000000000000e+00,5.000000000000000000e+00,5.000000000000000000e+00,5.000000000000000000e+00,5.000000000000000000e+00,5.000000000000000000e+00,5.000000000000000000e+00,5.000000000000000000e+00,5.000000000000000000e+00,5.000000000000000000e+00,5.000000000000000000e+00,5.000000000000000000e+00,5.000000000000000000e+00,4.856191635131835938e+00,4.696555614471435547e+00,4.547080993652343750e+00,4.406826972961425781e+00,4.274966239929199219e+00,4.150767326354980469e+00,4.033581256866455078e+00,3.922830820083618164e+00,3.817999124526977539e+00,3.718624830245971680e+00
3.096767187118530273e+00,3.175024747848510742e+00,3.257340431213378906e+00,3.344037532806396484e+00,3.435475587844848633e+00,3.532035827636718750e+00,3.634180545806884766e+00,3.742408514022827148e+00,3.857281208038330078e+00,3.979428768157958984e+00,4.109565734863281250e+00,4.248501777648925781e+00,4.397161006927490234e+00,4.556600570678710938e+00,4.728038311004638672e+00,4.912880420684814453e+00,5.000000000000000000e+00,5.000000000000000000e+00,5.000000000000000000e+00,5.000000000000000000e+00,5.000000000000000000e+00,5.000000000000000000e+00,5.000000000000000000e+00,5.000000000000000000e+00,5.000000000000000000e+00,5.000000000000000000e+00,5.000000000000000000e+00,5.000000000000000000e+00,5.000000000000000000e+00,5.000000000000000000e+00,5.000000000000000000e+00,5.000000000000000000e+00,5.000000000000000000e+00,5.000000000000000000e+00,5.000000000000000000e+00,5.000000000000000000e+00,5.000000000000000000e+00,5.000000000000000000e+00,5.000000000000000000e+00,5.000000000000000000e+00,5.000000000000000000e+00,5.000000000000000000e+00,5.000000000000000000e+00,5.000000000000000000e+00,5.000000000000000000e+00,5.000000000000000000e+00,5.000000000000000000e+00,5.000000000000000000e+00,5.000000000000000000e+00,3.234209299087524414e+00,3.249007701873779297e+00,3.273229122161865234e+00,3.260936737060546875e+00,3.238650321960449219e+00,3.254305601119995117e+00,3.249173164367675781e+00,3.363938570022583008e+00,5.000000000000000000e+00,5.000000000000000000e+00,5.000000000000000000e+00,5.000000000000000000e+00,5.000000000000000000e+00,5.000000000000000000e+00,5.000000000000000000e+00,5.000000000000000000e+00,5.000000000000000000e+00,5.000000000000000000e+00,5.000000000000000000e+00,5.000000000000000000e+00,5.000000000000000000e+00,4.856321334838867188e+00,4.696676731109619141e+00,4.547194004058837891e+00,4.406933307647705078e+00,4.275066375732421875e+00,4.150862216949462891e+00,4.033670902252197266e+00,3.922915220260620117e+00,3.818079710006713867e+00,3.718700647354125977e+00
3.096668004989624023e+00,3.174920797348022461e+00,3.257230520248413086e+00,3.343921899795532227e+00,3.435353517532348633e+00,3.531926393508911133e+00,3.634085655212402344e+00,3.742312669754028320e+00,3.857178926467895508e+00,3.979320049285888672e+00,4.109449863433837891e+00,4.248377799987792969e+00,4.397027969360351562e+00,4.556457996368408203e+00,4.727884769439697266e+00,4.912714481353759766e+00,5.000000000000000000e+00,5.000000000000000000e+00,5.000000000000000000e+00,5.000000000000000000e+00,5.000000000000000000e+00,5.000000000000000000e+00,5.000000000000000000e+00,5.000000000000000000e+00,5.000000000000000000e+00,5.000000000000000000e+00,5.000000000000000000e+00,5.000000000000000000e+00,5.000000000000000000e+00,5.000000000000000000e+00,5.000000000000000000e+00,5.000000000000000000e+00,5.000000000000000000e+00,5.000000000000000000e+00,5.000000000000000000e+00,5.000000000000000000e+00,5.000000000000000000e+00,5.000000000000000000e+00,5.000000000000000000e+00,5.000000000000000000e+00,5.000000000000000000e+00,5.000000000000000000e+00,5.000000000000000000e+00,5.000000000000000000e+00,5.000000000000000000e+00,5.000000000000000000e+00,5.000000000000000000e+00,5.000000000000000000e+00,5.000000000000000000e+00,3.205669879913330078e+00,3.338407278060913086e+00,3.278213500976562500e+00,3.273505210876464844e+00,3.268818616867065430e+00,3.194008111953735352e+00,3.183047056198120117e+00,3.361301422119140625e+00,3.372003078460693359e+00,5.000000000000000000e+00,5.000000000000000000e+00,5.000000000000000000e+00,5.000000000000000000e+00,5.000000000000000000e+00,5.000000000000000000e+00,5.000000000000000000e+00,5.000000000000000000e+00,5.000000000000000000e+00,5.000000000000000000e+00,5.000000000000000000e+00,5.000000000000000000e+00,4.856451034545898438e+00,4.696797847747802734e+00,4.547307968139648438e+00,4.407040119171142578e+00,4.275166988372802734e+00,4.150956630706787109e+00,4.033760070800781250e+00,3.922999620437622070e+00,3.818159580230712891e+00,3.718776941299438477e+00
3.096599102020263672e+00,3.174831867218017578e+00,3.257120847702026367e+00,3.343806266784667969e+00,3.435231924057006836e+00,3.531797409057617188e+00,3.633949041366577148e+00,3.742185592651367188e+00,3.857068538665771484e+00,3.979211091995239258e+00,4.109333992004394531e+00,4.248253822326660156e+00,4.396895408630371094e+00,4.556315422058105469e+00,4.727731227874755859e+00,4.912548542022705078e+00,5.000000000000000000e+00,5.000000000000000000e+00,5.000000000000000000e+00,5.000000000000000000e+00,5.000000000000000000e+00,5.000000000000000000e+00,5.000000000000000000e+00,5.000000000000000000e+00,5.000000000000000000e+00,5.000000000000000000e+00,5.000000000000000000e+00,5.000000000000000000e+00,5.000000000000000000e+00,5.000000000000000000e+00,5.000000000000000000e+00,5.000000000000000000e+00,5.000000000000000000e+00,5.000000000000000000e+00,5.000000000000000000e+00,5.000000000000000000e+00,5.000000000000000000e+00,5.000000000000000000e+00,5.000000000000000000e+00,5.000000000000000000e+00,5.000000000000000000e+00,5.000000000000000000e+00,5.000000000000000000e+00,5.000000000000000000e+00,5.000000000000000000e+00,5.000000000000000000e+00,5.000000000000000000e+00,5.000000000000000000e+00,5.000000000000000000e+00,3.163557291030883789e+00,3.138369083404541016e+00,3.280981302261352539e+00,3.269841432571411133e+00,3.258709192276000977e+00,3.172609567642211914e+00,3.147512912750244141e+00,5.000000000000000000e+00,5.000000000000000000e+00,5.000000000000000000e+00,5.000000000000000000e+00,5.000000000000000000e+00,5.000000000000000000e+00,5.000000000000000000e+00,5.000000000000000000e+00,5.000000000000000000e+00,5.000000000000000000e+00,5.000000000000000000e+00,5.000000000000000000e+00,5.000000000000000000e+00,5.000000000000000000e+00,4.856580734252929688e+00,4.696919441223144531e+00,4.547421455383300781e+00,4.407146930694580078e+00,4.275267601013183594e+00,4.151051521301269531e+00,4.033849239349365234e+00,3.923084497451782227e+00,3.818239450454711914e+00,3.718852758407592773e+00
3.096532821655273438e+00,3.174762487411499023e+00,3.257047176361083984e+00,3.343710422515869141e+00,3.435111999511718750e+00,3.531668424606323242e+00,3.633812427520751953e+00,3.742041349411010742e+00,3.856914520263671875e+00,3.979063987731933594e+00,4.109203338623046875e+00,4.248129844665527344e+00,4.396762371063232422e+00,4.556172847747802734e+00,4.727577686309814453e+00,4.912383079528808594e+00,5.000000000000000000e+00,5.000000000000000000e+00,5.000000000000000000e+00,5.000000000000000000e+00,5.000000000000000000e+00,5.000000000000000000e+00,5.000000000000000000e+00,5.000000000000000000e+00,5.000000000000000000e+00,5.000000000000000000e+00,5.000000000000000000e+00,5.000000000000000000e+00,5.000000000000000000e+00,5.000000000000000000e+00,5.000000000000000000e+00,5.000000000000000000e+00,5.000000000000000000e+00,5.000000000000000000e+00,5.000000000000000000e+00,5.000000000000000000e+00,5.000000000000000000e+00,5.000000000000000000e+00,5.000000000000000000e+00,5.000000000000000000e+00,5.000000000000000000e+00,5.000000000000000000e+00,5.000000000000000000e+00,5.000000000000000000e+00,5.000000000000000000e+00,5.000000000000000000e+00,5.000000000000000000e+00,5.000000000000000000e+00,5.000000000000000000e+00,3.125097751617431641e+00,3.362921476364135742e+00,3.295158863067626953e+00,3.280627727508544922e+00,5.000000000000000000e+00,3.148596763610839844e+00,3.117738008499145508e+00,3.151093959808349609e+00,3.334902286529541016e+00,5.000000000000000000e+00,5.000000000000000000e+00,5.000000000000000000e+00,5.000000000000000000e+00,5.000000000000000000e+00,5.000000000000000000e+00,5.000000000000000000e+00,5.000000000000000000e+00,5.000000000000000000e+00,5.000000000000000000e+00,5.000000000000000000e+00,5.000000000000000000e+00,4.856709957122802734e+00,4.697040081024169922e+00,4.547535419464111328e+00,4.407253742218017578e+00,4.275368213653564453e+00,4.151145935058593750e+00,4.033938884735107422e+00,3.923168897628784180e+00,3.818319797515869141e+00,3.718928575515747070e+00
3.096466779708862305e+00,3.174693107604980469e+00,3.256974220275878906e+00,3.343633651733398438e+00,3.435030698776245117e+00,3.531565189361572266e+00,3.633681774139404297e+00,3.741896629333496094e+00,3.856760740280151367e+00,3.978900194168090820e+00,4.109029293060302734e+00,4.247957229614257812e+00,4.396608352661132812e+00,4.556030750274658203e+00,4.727424144744873047e+00,4.912217140197753906e+00,5.000000000000000000e+00,5.000000000000000000e+00,5.000000000000000000e+00,5.000000000000000000e+00,5.000000000000000000e+00,5.000000000000000000e+00,5.000000000000000000e+00,5.000000000000000000e+00,5.000000000000000000e+00,5.000000000000000000e+00,5.000000000000000000e+00,5.000000000000000000e+00,5.000000000000000000e+00,5.000000000000000000e+00,5.000000000000000000e+00,5.000000000000000000e+00,5.000000000000000000e+00,5.000000000000000000e+00,5.000000000000000000e+00,5.000000000000000000e+00,5.000000000000000000e+00,5.000000000000000000e+00,5.000000000000000000e+00,5.000000000000000000e+00,5.000000000000000000e+00,5.000000000000000000e+00,5.000000000000000000e+00,5.000000000000000000e+00,5.000000000000000000e+00,5.000000000000000000e+00,5.000000000000000000e+00,5.000000000000000000e+00,5.000000000000000000e+00,5.000000000000000000e+00,5.000000000000000000e+00,3.312909126281738281e+00,3.300712823867797852e+00,5.000000000000000000e+00,3.129986286163330078e+00,3.096335649490356445e+00,3.114342451095581055e+00,3.327496528625488281e+00,5.000000000000000000e+00,5.000000000000000000e+00,5.000000000000000000e+00,5.000000000000000000e+00,5.000000000000000000e+00,5.000000000000000000e+00,5.000000000000000000e+00,5.000000000000000000e+00,5.000000000000000000e+00,5.000000000000000000e+00,5.000000000000000000e+00,5.000000000000000000e+00,4.856839656829833984e+00,4.697161674499511719e+00,4.547648906707763672e+00,4.407360076904296875e+00,4.275468349456787109e+00,4.151240348815917969e+00,4.034028530120849609e+00,3.923253774642944336e+00,3.818399906158447266e+00,3.719004869461059570e+00
3.096400737762451172e+00,3.174623727798461914e+00,3.256901264190673828e+00,3.343556642532348633e+00,3.434949636459350586e+00,3.531478881835937500e+00,3.633590936660766602e+00,3.741783857345581055e+00,3.856617212295532227e+00,3.978736877441406250e+00,4.108854770660400391e+00,4.247770786285400391e+00,4.396408557891845703e+00,4.555826187133789062e+00,4.727239608764648438e+00,4.912051200866699219e+00,5.000000000000000000e+00,5.000000000000000000e+00,5.000000000000000000e+00,5.000000000000000000e+00,5.000000000000000000e+00,5.000000000000000000e+00,5.000000000000000000e+00,5.000000000000000000e+00,5.000000000000000000e+00,5.000000000000000000e+00,5.000000000000000000e+00,5.000000000000000000e+00,5.000000000000000000e+00,5.000000000000000000e+00,5.000000000000000000e+00,5.000000000000000000e+00,5.000000000000000000e+00,5.000000000000000000e+00,5.000000000000000000e+00,5.000000000000000000e+00,5.000000000000000000e+00,5.000000000000000000e+00,5.000000000000000000e+00,5.000000000000000000e+00,5.000000000000000000e+00,5.000000000000000000e+00,5.000000000000000000e+00,5.000000000000000000e+00,5.000000000000000000e+00,5.000000000000000000e+00,5.000000000000000000e+00,5.000000000000000000e+00,5.000000000000000000e+00,5.000000000000000000e+00,5.000000000000000000e+00,3.331679582595825195e+00,3.318984508514404297e+00,5.000000000000000000e+00,3.124014854431152344e+00,3.069980382919311523e+00,3.079853057861328125e+00,5.000000000000000000e+00,5.000000000000000000e+00,5.000000000000000000e+00,5.000000000000000000e+00,5.000000000000000000e+00,5.000000000000000000e+00,5.000000000000000000e+00,5.000000000000000000e+00,5.000000000000000000e+00,5.000000000000000000e+00,5.000000000000000000e+00,5.000000000000000000e+00,5.000000000000000000e+00,4.856969356536865234e+00,4.697282791137695312e+00,4.547762393951416016e+00,4.407466888427734375e+00,4.275568962097167969e+00,4.151335239410400391e+00,4.034117698669433594e+00,3.923338174819946289e+00,3.818479776382446289e+00,3.719081640243530273e+00
3.096334695816040039e+00,3.174554347991943359e+00,3.256828069686889648e+00,3.343479633331298828e+00,3.434868335723876953e+00,3.531393051147460938e+00,3.633500099182128906e+00,3.741687536239624023e+00,3.856514692306518555e+00,3.978613376617431641e+00,4.108695983886718750e+00,4.247584342956542969e+00,4.396208763122558594e+00,4.555611610412597656e+00,4.727008819580078125e+00,4.911807537078857422e+00,5.000000000000000000e+00,5.000000000000000000e+00,5.000000000000000000e+00,5.000000000000000000e+00,5.000000000000000000e+00,5.000000000000000000e+00,5.000000000000000000e+00,5.000000000000000000e+00,5.000000000000000000e+00,5.000000000000000000e+00,5.000000000000000000e+00,5.000000000000000000e+00,5.000000000000000000e+00,5.000000000000000000e+00,5.000000000000000000e+00,5.000000000000000000e+00,5.000000000000000000e+00,5.000000000000000000e+00,5.000000000000000000e+00,5.000000000000000000e+00,5.000000000000000000e+00,5.000000000000000000e+00,5.000000000000000000e+00,5.000000000000000000e+00,5.000000000000000000e+00,5.000000000000000000e+00,5.000000000000000000e+00,5.000000000000000000e+00,5.000000000000000000e+00,5.000000000000000000e+00,5.000000000000000000e+00,5.000000000000000000e+00,5.000000000000000000e+00,5.000000000000000000e+00,5.000000000000000000e+00,3.347383260726928711e+00,3.336540460586547852e+00,5.000000000000000000e+00,3.117728948593139648e+00,3.059701919555664062e+00,3.065972805023193359e+00,5.000000000000000000e+00,5.000000000000000000e+00,5.000000000000000000e+00,5.000000000000000000e+00,5.000000000000000000e+00,5.000000000000000000e+00,5.000000000000000000e+00,5.000000000000000000e+00,5.000000000000000000e+00,5.000000000000000000e+00,5.000000000000000000e+00,5.000000000000000000e+00,5.000000000000000000e+00,4.857099056243896484e+00,4.697404384613037109e+00,4.547876358032226562e+00,4.407573699951171875e+00,4.275669097900390625e+00,4.151430130004882812e+00,4.034207344055175781e+00,3.923425912857055664e+00,3.818565845489501953e+00,3.719165325164794922e+00
3.096268892288208008e+00,3.174484968185424805e+00,3.256754875183105469e+00,3.343402624130249023e+00,3.434787034988403320e+00,3.531307220458984375e+00,3.633409261703491211e+00,3.741590976715087891e+00,3.856412410736083984e+00,3.978504419326782227e+00,4.108579635620117188e+00,4.247447967529296875e+00,4.396032333374023438e+00,4.555397033691406250e+00,4.726778030395507812e+00,4.911558151245117188e+00,5.000000000000000000e+00,5.000000000000000000e+00,5.000000000000000000e+00,5.000000000000000000e+00,5.000000000000000000e+00,5.000000000000000000e+00,5.000000000000000000e+00,5.000000000000000000e+00,5.000000000000000000e+00,5.000000000000000000e+00,5.000000000000000000e+00,5.000000000000000000e+00,5.000000000000000000e+00,5.000000000000000000e+00,5.000000000000000000e+00,5.000000000000000000e+00,5.000000000000000000e+00,5.000000000000000000e+00,5.000000000000000000e+00,5.000000000000000000e+00,5.000000000000000000e+00,5.000000000000000000e+00,5.000000000000000000e+00,5.000000000000000000e+00,5.000000000000000000e+00,5.000000000000000000e+00,5.000000000000000000e+00,5.000000000000000000e+00,5.000000000000000000e+00,5.000000000000000000e+00,5.000000000000000000e+00,5.000000000000000000e+00,5.000000000000000000e+00,5.000000000000000000e+00,5.000000000000000000e+00,3.370472192764282227e+00,3.350210189819335938e+00,5.000000000000000000e+00,5.000000000000000000e+00,3.070121526718139648e+00,3.078286409378051758e+00,5.000000000000000000e+00,5.000000000000000000e+00,5.000000000000000000e+00,5.000000000000000000e+00,5.000000000000000000e+00,5.000000000000000000e+00,5.000000000000000000e+00,5.000000000000000000e+00,5.000000000000000000e+00,5.000000000000000000e+00,5.000000000000000000e+00,5.000000000000000000e+00,5.000000000000000000e+00,4.857228755950927734e+00,4.697525024414062500e+00,4.547989845275878906e+00,4.407680511474609375e+00,4.275772094726562500e+00,4.151530742645263672e+00,4.034305572509765625e+00,3.923518896102905273e+00,3.818654537200927734e+00,3.719249010086059570e+00
3.096202850341796875e+00,3.174415588378906250e+00,3.256681680679321289e+00,3.343325614929199219e+00,3.434705972671508789e+00,3.531221389770507812e+00,3.633318424224853516e+00,3.741494655609130859e+00,3.856309890747070312e+00,3.978395462036132812e+00,4.108463287353515625e+00,4.247323989868164062e+00,4.395899295806884766e+00,4.555245876312255859e+00,4.726579189300537109e+00,4.911309242248535156e+00,5.000000000000000000e+00,5.000000000000000000e+00,5.000000000000000000e+00,5.000000000000000000e+00,5.000000000000000000e+00,5.000000000000000000e+00,5.000000000000000000e+00,5.000000000000000000e+00,5.000000000000000000e+00,5.000000000000000000e+00,5.000000000000000000e+00,5.000000000000000000e+00,5.000000000000000000e+00,5.000000000000000000e+00,5.000000000000000000e+00,5.000000000000000000e+00,5.000000000000000000e+00,5.000000000000000000e+00,5.000000000000000000e+00,5.000000000000000000e+00,5.000000000000000000e+00,5.000000000000000000e+00,5.000000000000000000e+00,5.000000000000000000e+00,5.000000000000000000e+00,5.000000000000000000e+00,5.000000000000000000e+00,5.000000000000000000e+00,5.000000000000000000e+00,5.000000000000000000e+00,5.000000000000000000e+00,5.000000000000000000e+00,5.000000000000000000e+00,5.000000000000000000e+00,5.000000000000000000e+00,3.410210371017456055e+00,3.386450290679931641e+00,5.000000000000000000e+00,5.000000000000000000e+00,3.088424444198608398e+00,3.083070278167724609e+00,5.000000000000000000e+00,5.000000000000000000e+00,5.000000000000000000e+00,5.000000000000000000e+00,5.000000000000000000e+00,5.000000000000000000e+00,5.000000000000000000e+00,5.000000000000000000e+00,5.000000000000000000e+00,5.000000000000000000e+00,5.000000000000000000e+00,5.000000000000000000e+00,5.000000000000000000e+00,4.857358455657958984e+00,4.697647571563720703e+00,4.548109054565429688e+00,4.407796382904052734e+00,4.275882720947265625e+00,4.151635169982910156e+00,4.034404277801513672e+00,3.923612117767333984e+00,3.818742752075195312e+00,3.719332933425903320e+00
3.096136808395385742e+00,3.174346208572387695e+00,3.256608724594116211e+00,3.343248844146728516e+00,3.434624671936035156e+00,3.531135559082031250e+00,3.633227348327636719e+00,3.741397857666015625e+00,3.856207609176635742e+00,3.978286504745483398e+00,4.108347415924072266e+00,4.247199535369873047e+00,4.395766258239746094e+00,4.555102825164794922e+00,4.726425170898437500e+00,4.911138534545898438e+00,5.000000000000000000e+00,5.000000000000000000e+00,5.000000000000000000e+00,5.000000000000000000e+00,5.000000000000000000e+00,5.000000000000000000e+00,5.000000000000000000e+00,5.000000000000000000e+00,5.000000000000000000e+00,5.000000000000000000e+00,5.000000000000000000e+00,5.000000000000000000e+00,5.000000000000000000e+00,5.000000000000000000e+00,5.000000000000000000e+00,5.000000000000000000e+00,5.000000000000000000e+00,5.000000000000000000e+00,5.000000000000000000e+00,5.000000000000000000e+00,5.000000000000000000e+00,5.000000000000000000e+00,5.000000000000000000e+00,5.000000000000000000e+00,5.000000000000000000e+00,5.000000000000000000e+00,5.000000000000000000e+00,5.000000000000000000e+00,5.000000000000000000e+00,5.000000000000000000e+00,5.000000000000000000e+00,5.000000000000000000e+00,5.000000000000000000e+00,5.000000000000000000e+00,5.000000000000000000e+00,3.452622413635253906e+00,3.455820560455322266e+00,5.000000000000000000e+00,5.000000000000000000e+00,3.087833404541015625e+00,3.072938203811645508e+00,5.000000000000000000e+00,5.000000000000000000e+00,5.000000000000000000e+00,5.000000000000000000e+00,5.000000000000000000e+00,5.000000000000000000e+00,5.000000000000000000e+00,5.000000000000000000e+00,5.000000000000000000e+00,5.000000000000000000e+00,5.000000000000000000e+00,5.000000000000000000e+00,5.000000000000000000e+00,4.857497692108154297e+00,4.697781562805175781e+00,4.548234462738037109e+00,4.407914161682128906e+00,4.275993347167968750e+00,4.151739120483398438e+00,4.034502983093261719e+00,3.923705577850341797e+00,3.818830966949462891e+00,3.719416618347167969e+00
3.096070766448974609e+00,3.174276828765869141e+00,3.256535768508911133e+00,3.343171834945678711e+00,3.434543609619140625e+00,3.531049728393554688e+00,3.633136510848999023e+00,3.741301536560058594e+00,3.856105327606201172e+00,3.978177547454833984e+00,4.108231067657470703e+00,4.247075080871582031e+00,4.395633220672607422e+00,4.554959774017333984e+00,4.726271629333496094e+00,4.910972595214843750e+00,5.000000000000000000e+00,5.000000000000000000e+00,5.000000000000000000e+00,5.000000000000000000e+00,5.000000000000000000e+00,5.000000000000000000e+00,5.000000000000000000e+00,5.000000000000000000e+00,5.000000000000000000e+00,5.000000000000000000e+00,5.000000000000000000e+00,5.000000000000000000e+00,5.000000000000000000e+00,5.000000000000000000e+00,5.000000000000000000e+00,5.000000000000000000e+00,5.000000000000000000e+00,5.000000000000000000e+00,5.000000000000000000e+00,5.000000000000000000e+00,5.000000000000000000e+00,5.000000000000000000e+00,5.000000000000000000e+00,5.000000000000000000e+00,5.000000000000000000e+00,5.000000000000000000e+00,5.000000000000000000e+00,5.000000000000000000e+00,5.000000000000000000e+00,5.000000000000000000e+00,5.000000000000000000e+00,5.000000000000000000e+00,5.000000000000000000e+00,5.000000000000000000e+00,5.000000000000000000e+00,3.482707262039184570e+00,3.484460592269897461e+00,5.000000000000000000e+00,5.000000000000000000e+00,3.081363916397094727e+00,3.059103012084960938e+00,5.000000000000000000e+00,5.000000000000000000e+00,5.000000000000000000e+00,5.000000000000000000e+00,5.000000000000000000e+00,5.000000000000000000e+00,5.000000000000000000e+00,5.000000000000000000e+00,5.000000000000000000e+00,5.000000000000000000e+00,5.000000000000000000e+00,5.000000000000000000e+00,5.000000000000000000e+00,4.857640743255615234e+00,4.697915077209472656e+00,4.548359394073486328e+00,4.408031940460205078e+00,4.276104450225830078e+00,4.151844024658203125e+00,4.034601211547851562e+00,3.923798799514770508e+00,3.818919658660888672e+00,3.719500303268432617e+00
3.096004724502563477e+00,3.174207448959350586e+00,3.256462812423706055e+00,3.343094825744628906e+00,3.434461832046508789e+00,3.530963897705078125e+00,3.633045673370361328e+00,3.741205215454101562e+00,3.856002807617187500e+00,3.978068590164184570e+00,4.108114719390869141e+00,4.246951103210449219e+00,4.395499706268310547e+00,4.554817199707031250e+00,4.726117610931396484e+00,4.910806655883789062e+00,5.000000000000000000e+00,5.000000000000000000e+00,5.000000000000000000e+00,5.000000000000000000e+00,5.000000000000000000e+00,5.000000000000000000e+00,5.000000000000000000e+00,5.000000000000000000e+00,5.000000000000000000e+00,5.000000000000000000e+00,5.000000000000000000e+00,5.000000000000000000e+00,5.000000000000000000e+00,5.000000000000000000e+00,5.000000000000000000e+00,5.000000000000000000e+00,5.000000000000000000e+00,5.000000000000000000e+00,5.000000000000000000e+00,5.000000000000000000e+00,5.000000000000000000e+00,5.000000000000000000e+00,5.000000000000000000e+00,5.000000000000000000e+00,5.000000000000000000e+00,5.000000000000000000e+00,5.000000000000000000e+00,5.000000000000000000e+00,5.000000000000000000e+00,5.000000000000000000e+00,5.000000000000000000e+00,5.000000000000000000e+00,5.000000000000000000e+00,5.000000000000000000e+00,5.000000000000000000e+00,3.514860391616821289e+00,3.506986856460571289e+00,5.000000000000000000e+00,5.000000000000000000e+00,3.075591802597045898e+00,3.054260730743408203e+00,5.000000000000000000e+00,5.000000000000000000e+00,5.000000000000000000e+00,5.000000000000000000e+00,5.000000000000000000e+00,5.000000000000000000e+00,5.000000000000000000e+00,5.000000000000000000e+00,5.000000000000000000e+00,5.000000000000000000e+00,5.000000000000000000e+00,5.000000000000000000e+00,5.000000000000000000e+00,4.857783317565917969e+00,4.698049068450927734e+00,4.548484802246093750e+00,4.408149719238281250e+00,4.276215076446533203e+00,4.151948451995849609e+00,4.034699916839599609e+00,3.923892021179199219e+00,3.819007873535156250e+00,3.719584465026855469e+00
3.095938920974731445e+00,3.174138069152832031e+00,3.256389856338500977e+00,3.343018054962158203e+00,3.434380769729614258e+00,3.530878067016601562e+00,3.632954835891723633e+00,3.741108894348144531e+00,3.855900526046752930e+00,3.977959632873535156e+00,4.107998847961425781e+00,4.246827125549316406e+00,4.395366668701171875e+00,4.554674148559570312e+00,4.725964069366455078e+00,4.910640716552734375e+00,5.000000000000000000e+00,5.000000000000000000e+00,5.000000000000000000e+00,5.000000000000000000e+00,5.000000000000000000e+00,5.000000000000000000e+00,5.000000000000000000e+00,5.000000000000000000e+00,5.000000000000000000e+00,5.000000000000000000e+00,5.000000000000000000e+00,5.000000000000000000e+00,5.000000000000000000e+00,5.000000000000000000e+00,5.000000000000000000e+00,5.000000000000000000e+00,5.000000000000000000e+00,5.000000000000000000e+00,5.000000000000000000e+00,5.000000000000000000e+00,5.000000000000000000e+00,5.000000000000000000e+00,5.000000000000000000e+00,5.000000000000000000e+00,5.000000000000000000e+00,5.000000000000000000e+00,5.000000000000000000e+00,5.000000000000000000e+00,5.000000000000000000e+00,5.000000000000000000e+00,5.000000000000000000e+00,5.000000000000000000e+00,5.000000000000000000e+00,5.000000000000000000e+00,5.000000000000000000e+00,3.553038835525512695e+00,3.532803297042846680e+00,5.000000000000000000e+00,5.000000000000000000e+00,3.076899766921997070e+00,3.056760072708129883e+00,5.000000000000000000e+00,5.000000000000000000e+00,5.000000000000000000e+00,5.000000000000000000e+00,5.000000000000000000e+00,5.000000000000000000e+00,5.000000000000000000e+00,5.000000000000000000e+00,5.000000000000000000e+00,5.000000000000000000e+00,5.000000000000000000e+00,5.000000000000000000e+00,5.000000000000000000e+00,4.857926368713378906e+00,4.698182582855224609e+00,4.548610210418701172e+00,4.408267498016357422e+00,4.276325702667236328e+00,4.152052879333496094e+00,4.034798622131347656e+00,3.923985481262207031e+00,3.819096088409423828e+00,3.719668149948120117e+00
3.095872879028320312e+00,3.174068450927734375e+00,3.256316661834716797e+00,3.342941045761108398e+00,3.434299468994140625e+00,3.530792236328125000e+00,3.632863998413085938e+00,3.741012573242187500e+00,3.855798244476318359e+00,3.977850198745727539e+00,4.107882499694824219e+00,4.246702671051025391e+00,4.395233631134033203e+00,4.554531097412109375e+00,4.725810050964355469e+00,4.910474777221679688e+00,5.000000000000000000e+00,5.000000000000000000e+00,5.000000000000000000e+00,5.000000000000000000e+00,5.000000000000000000e+00,5.000000000000000000e+00,5.000000000000000000e+00,5.000000000000000000e+00,5.000000000000000000e+00,5.000000000000000000e+00,5.000000000000000000e+00,5.000000000000000000e+00,5.000000000000000000e+00,5.000000000000000000e+00,5.000000000000000000e+00,5.000000000000000000e+00,5.000000000000000000e+00,5.000000000000000000e+00,5.000000000000000000e+00,5.000000000000000000e+00,5.000000000000000000e+00,5.000000000000000000e+00,5.000000000000000000e+00,5.000000000000000000e+00,5.000000000000000000e+00,5.000000000000000000e+00,5.000000000000000000e+00,5.000000000000000000e+00,5.000000000000000000e+00,5.000000000000000000e+00,5.000000000000000000e+00,5.000000000000000000e+00,5.000000000000000000e+00,5.000000000000000000e+00,5.000000000000000000e+00,3.593402624130249023e+00,3.562134265899658203e+00,5.000000000000000000e+00,5.000000000000000000e+00,3.085901975631713867e+00,3.050181627273559570e+00,5.000000000000000000e+00,5.000000000000000000e+00,5.000000000000000000e+00,5.000000000000000000e+00,5.000000000000000000e+00,5.000000000000000000e+00,5.000000000000000000e+00,5.000000000000000000e+00,5.000000000000000000e+00,5.000000000000000000e+00,5.000000000000000000e+00,5.000000000000000000e+00,5.000000000000000000e+00,4.858069419860839844e+00,4.698316574096679688e+00,4.548735618591308594e+00,4.408385276794433594e+00,4.276436805725097656e+00,4.152157306671142578e+00,4.034897327423095703e+00,3.924078702926635742e+00,3.819184780120849609e+00,3.719751834869384766e+00
3.095806837081909180e+00,3.173999071121215820e+00,3.256243705749511719e+00,3.342864036560058594e+00,3.434218406677246094e+00,3.530706405639648438e+00,3.632773160934448242e+00,3.740916252136230469e+00,3.855695724487304688e+00,3.977741241455078125e+00,4.107766151428222656e+00,4.246578693389892578e+00,4.395100593566894531e+00,4.554388523101806641e+00,4.725656509399414062e+00,4.854217052459716797e+00,4.853015899658203125e+00,4.851814270019531250e+00,4.850614070892333984e+00,4.849413871765136719e+00,4.848214626312255859e+00,4.847015857696533203e+00,4.845817565917968750e+00,4.844620227813720703e+00,4.843422889709472656e+00,4.842226982116699219e+00,4.841030597686767578e+00,4.839835643768310547e+00,4.838640689849853516e+00,4.837446689605712891e+00,4.836253643035888672e+00,4.835060596466064453e+00,4.833868503570556641e+00,4.832676410675048828e+00,4.831485271453857422e+00,4.830294609069824219e+00,4.829104900360107422e+00,4.827915191650390625e+00,4.826726913452148438e+00,4.825538635253906250e+00,4.824350833892822266e+00,4.823163986206054688e+00,4.821977615356445312e+00,4.820791721343994141e+00,4.819606304168701172e+00,4.818421840667724609e+00,4.817237854003906250e+00,4.816054344177246094e+00,4.814871311187744141e+00,4.813688755035400391e+00,4.812507152557373047e+00,4.811326026916503906e+00,3.560053110122680664e+00,4.808965206146240234e+00,4.807785987854003906e+00,4.806607246398925781e+00,3.033334732055664062e+00,4.804251194000244141e+00,4.803073883056640625e+00,4.801897525787353516e+00,4.800721168518066406e+00,4.799545764923095703e+00,4.798370838165283203e+00,4.797196865081787109e+00,4.796023368835449219e+00,4.794849872589111328e+00,4.793677330017089844e+00,4.792505264282226562e+00,4.791334152221679688e+00,4.790163040161132812e+00,4.788993358612060547e+00,4.698450088500976562e+00,4.548861026763916016e+00,4.408503055572509766e+00,4.276547908782958984e+00,4.152261734008789062e+00,4.034996032714843750e+00,3.924171924591064453e+00,3.819272994995117188e+00,3.719835996627807617e+00
3.095740795135498047e+00,3.173929691314697266e+00,3.256170749664306641e+00,3.342787265777587891e+00,3.434137105941772461e+00,3.530620574951171875e+00,3.632681846618652344e+00,3.740819931030273438e+00,3.770718336105346680e+00,3.769993543624877930e+00,3.769268512725830078e+00,3.768543720245361328e+00,3.767819404602050781e+00,3.767095565795898438e+00,3.766371726989746094e+00,3.765648126602172852e+00,3.764925003051757812e+00,3.764201879501342773e+00,3.763479232788085938e+00,3.762756586074829102e+00,3.762034893035888672e+00,3.761312961578369141e+00,3.760591268539428711e+00,3.759870290756225586e+00,3.759149074554443359e+00,3.758428335189819336e+00,3.757707595825195312e+00,3.756987810134887695e+00,3.756267786026000977e+00,3.755548000335693359e+00,3.754828929901123047e+00,3.754109859466552734e+00,3.753390789031982422e+00,3.752672195434570312e+00,3.751954078674316406e+00,3.751236200332641602e+00,3.750518321990966797e+00,3.749800682067871094e+00,3.749083757400512695e+00,3.748366832733154297e+00,3.747650146484375000e+00,3.746934175491333008e+00,3.746217966079711914e+00,3.745501995086669922e+00,3.744786262512207031e+00,3.744071483612060547e+00,3.743356227874755859e+00,3.742641448974609375e+00,3.741927385330200195e+00,3.741213083267211914e+00,3.740499258041381836e+00,3.739785432815551758e+00,3.489863157272338867e+00,3.738359212875366211e+00,3.737646341323852539e+00,3.736934185028076172e+00,2.933218240737915039e+00,2.944416999816894531e+00,3.734797716140747070e+00,3.734086751937866211e+00,3.733375549316406250e+00,3.732664346694946289e+00,3.731953620910644531e+00,3.731243610382080078e+00,3.730533361434936523e+00,3.729823589324951172e+00,3.729114294052124023e+00,3.728404760360717773e+00,3.727695703506469727e+00,3.726986885070800781e+00,3.726278781890869141e+00,3.725570440292358398e+00,3.724862337112426758e+00,3.724154949188232422e+00,3.723447561264038086e+00,3.722740173339843750e+00,3.722033262252807617e+00,3.721327066421508789e+00,3.720620632171630859e+00,3.719919681549072266e+00
3.083133220672607422e+00,3.082648277282714844e+00,3.082163572311401367e+00,3.081678867340087891e+00,3.081194400787353516e+00,3.080710411071777344e+00,3.080226182937622070e+00,3.079742193222045898e+00,3.079258441925048828e+00,3.078774690628051758e+00,3.078291177749633789e+00,3.077807664871215820e+00,3.077324867248535156e+00,3.076841592788696289e+00,3.076358795166015625e+00,3.075875997543334961e+00,3.075393676757812500e+00,3.074911117553710938e+00,3.074428796768188477e+00,3.073946475982666016e+00,3.073464870452880859e+00,3.072983026504516602e+00,3.072501182556152344e+00,3.072019815444946289e+00,3.071538448333740234e+00,3.071057081222534180e+00,3.070575952529907227e+00,3.070095300674438477e+00,3.069614410400390625e+00,3.069133758544921875e+00,3.068653583526611328e+00,3.068173170089721680e+00,3.067692995071411133e+00,3.067212820053100586e+00,3.066733360290527344e+00,3.066253423690795898e+00,3.065773963928222656e+00,3.065294504165649414e+00,3.064815521240234375e+00,3.064336299896240234e+00,3.063857316970825195e+00,3.063378572463989258e+00,3.062899827957153320e+00,3.062421321868896484e+00,3.061942815780639648e+00,3.061464786529541016e+00,3.060986757278442383e+00,3.060508728027343750e+00,3.060031175613403320e+00,3.059553623199462891e+00,3.059076070785522461e+00,3.058598518371582031e+00,3.058121681213378906e+00,3.057644605636596680e+00,3.057167530059814453e+00,3.056691169738769531e+00,3.056214570999145508e+00,3.055737972259521484e+00,3.055261611938476562e+00,3.054785728454589844e+00,3.054309606552124023e+00,3.053833723068237305e+00,3.053358078002929688e+00,3.052882671356201172e+00,3.052407264709472656e+00,3.051931858062744141e+00,3.051456928253173828e+00,3.050981998443603516e+00,3.050507068634033203e+00,3.050032377243041992e+00,3.049558162689208984e+00,3.049083709716796875e+00,3.048609495162963867e+00,3.048135757446289062e+00,3.047661781311035156e+00,3.047187805175781250e+00,3.046714305877685547e+00,3.046241044998168945e+00,3.045767545700073242e+00,3.045294284820556641e+00
2.604862213134765625e+00,2.604516267776489258e+00,2.604170083999633789e+00,2.603824138641357422e+00,2.603478193283081055e+00,2.603132486343383789e+00,2.602786779403686523e+00,2.602441072463989258e+00,2.602095842361450195e+00,2.601750373840332031e+00,2.601405143737792969e+00,2.601059913635253906e+00,2.600714683532714844e+00,2.600369691848754883e+00,2.600024700164794922e+00,2.599680185317993164e+00,2.599335193634033203e+00,2.598990678787231445e+00,2.598645925521850586e+00,2.598301410675048828e+00,2.597957372665405273e+00,2.597612857818603516e+00,2.597268819808959961e+00,2.596924781799316406e+00,2.596580743789672852e+00,2.596236705780029297e+00,2.595892906188964844e+00,2.595549345016479492e+00,2.595205783843994141e+00,2.594861984252929688e+00,2.594518899917602539e+00,2.594175338745117188e+00,2.593832015991210938e+00,2.593488931655883789e+00,2.593145847320556641e+00,2.592802762985229492e+00,2.592459917068481445e+00,2.592117071151733398e+00,2.591774463653564453e+00,2.591431856155395508e+00,2.591089248657226562e+00,2.590746879577636719e+00,2.590404510498046875e+00,2.590062141418457031e+00,2.589720010757446289e+00,2.589378118515014648e+00,2.589035987854003906e+00,2.588694095611572266e+00,2.588352441787719727e+00,2.588010549545288086e+00,2.587668895721435547e+00,2.587327241897583008e+00,2.586986064910888672e+00,2.586644649505615234e+00,2.586303234100341797e+00,2.585962295532226562e+00,2.585621118545532227e+00,2.585279941558837891e+00,2.584939002990722656e+00,2.584598302841186523e+00,2.584257602691650391e+00,2.583916902542114258e+00,2.583576202392578125e+00,2.583235979080200195e+00,2.582895517349243164e+00,2.582555294036865234e+00,2.582215070724487305e+00,2.581875085830688477e+00,2.581534862518310547e+00,2.581194877624511719e+00,2.580855369567871094e+00,2.580515384674072266e+00,2.580175876617431641e+00,2.579836368560791016e+00,2.579496860504150391e+00,2.579157352447509766e+00,2.578818082809448242e+00,2.578479051589965820e+00,2.578139781951904297e+00,2.577800750732421875e+00
2.255047798156738281e+00,2.254788398742675781e+00,2.254529237747192383e+00,2.254269838333129883e+00,2.254010677337646484e+00,2.253751516342163086e+00,2.253492355346679688e+00,2.253233432769775391e+00,2.252974271774291992e+00,2.252715349197387695e+00,2.252456665039062500e+00,2.252197742462158203e+00,2.251939058303833008e+00,2.251680374145507812e+00,2.251421689987182617e+00,2.251163244247436523e+00,2.250904560089111328e+00,2.250646352767944336e+00,2.250387907028198242e+00,2.250129461288452148e+00,2.249871253967285156e+00,2.249613046646118164e+00,2.249354839324951172e+00,2.249096632003784180e+00,2.248838663101196289e+00,2.248580694198608398e+00,2.248322725296020508e+00,2.248064994812011719e+00,2.247807264328002930e+00,2.247549533843994141e+00,2.247292041778564453e+00,2.247034311294555664e+00,2.246776819229125977e+00,2.246519088745117188e+00,2.246261835098266602e+00,2.246004581451416016e+00,2.245747089385986328e+00,2.245489835739135742e+00,2.245232820510864258e+00,2.244975566864013672e+00,2.244718313217163086e+00,2.244461536407470703e+00,2.244204521179199219e+00,2.243947505950927734e+00,2.243690729141235352e+00,2.243433952331542969e+00,2.243177175521850586e+00,2.242920637130737305e+00,2.242664098739624023e+00,2.242407560348510742e+00,2.242151021957397461e+00,2.241894483566284180e+00,2.241638183593750000e+00,2.241381883621215820e+00,2.241125583648681641e+00,2.240869522094726562e+00,2.240613222122192383e+00,2.240357160568237305e+00,2.240101099014282227e+00,2.239845275878906250e+00,2.239589452743530273e+00,2.239333391189575195e+00,2.239077568054199219e+00,2.238821983337402344e+00,2.238566398620605469e+00,2.238310575485229492e+00,2.238055229187011719e+00,2.237799644470214844e+00,2.237544298171997070e+00,2.237288713455200195e+00,2.237033605575561523e+00,2.236778259277343750e+00,2.236523151397705078e+00,2.236268043518066406e+00,2.236012935638427734e+00,2.235757827758789062e+00,2.235502719879150391e+00,2.235248088836669922e+00,2.234992980957031250e+00,2.234738349914550781e+00
1.988065123558044434e+00,1.987863421440124512e+00,1.987661838531494141e+00,1.987460255622863770e+00,1.987258791923522949e+00,1.987057328224182129e+00,1.986856102943420410e+00,1.986654758453369141e+00,1.986453413963317871e+00,1.986252069473266602e+00,1.986050844192504883e+00,1.985849618911743164e+00,1.985648393630981445e+00,1.985447287559509277e+00,1.985246181488037109e+00,1.985045075416564941e+00,1.984844088554382324e+00,1.984643101692199707e+00,1.984442114830017090e+00,1.984241247177124023e+00,1.984040617942810059e+00,1.983839750289916992e+00,1.983639001846313477e+00,1.983438253402709961e+00,1.983237624168395996e+00,1.983036875724792480e+00,1.982836365699768066e+00,1.982635736465454102e+00,1.982435226440429688e+00,1.982234716415405273e+00,1.982034444808959961e+00,1.981834053993225098e+00,1.981633663177490234e+00,1.981433391571044922e+00,1.981233119964599609e+00,1.981032848358154297e+00,1.980832576751708984e+00,1.980632424354553223e+00,1.980432510375976562e+00,1.980232477188110352e+00,1.980032324790954590e+00,1.979832410812377930e+00,1.979632377624511719e+00,1.979432463645935059e+00,1.979232549667358398e+00,1.979032993316650391e+00,1.978833198547363281e+00,1.978633403778076172e+00,1.978433609008789062e+00,1.978233933448791504e+00,1.978034257888793945e+00,1.977834701538085938e+00,1.977635383605957031e+00,1.977435827255249023e+00,1.977236270904541016e+00,1.977036833763122559e+00,1.976837396621704102e+00,1.976638078689575195e+00,1.976438760757446289e+00,1.976239681243896484e+00,1.976040482521057129e+00,1.975841283798217773e+00,1.975642085075378418e+00,1.975443005561828613e+00,1.975243926048278809e+00,1.975044846534729004e+00,1.974846005439758301e+00,1.974647045135498047e+00,1.974448204040527344e+00,1.974249243736267090e+00,1.974050402641296387e+00,1.973851561546325684e+00,1.973652839660644531e+00,1.973454356193542480e+00,1.973255634307861328e+00,1.973057031631469727e+00,1.972858428955078125e+00,1.972659826278686523e+00,1.972461342811584473e+00,1.972262859344482422e+00
1.777608036994934082e+00,1.777446866035461426e+00,1.777285695075988770e+00,1.777124524116516113e+00,1.776963472366333008e+00,1.776802301406860352e+00,1.776641249656677246e+00,1.776480197906494141e+00,1.776319265365600586e+00,1.776158452033996582e+00,1.775997519493103027e+00,1.775836586952209473e+00,1.775675654411315918e+00,1.775514841079711914e+00,1.775354027748107910e+00,1.775193214416503906e+00,1.775032401084899902e+00,1.774871706962585449e+00,1.774711012840270996e+00,1.774550318717956543e+00,1.774389624595642090e+00,1.774229049682617188e+00,1.774068593978881836e+00,1.773908019065856934e+00,1.773747563362121582e+00,1.773586988449096680e+00,1.773426532745361328e+00,1.773266077041625977e+00,1.773105621337890625e+00,1.772945284843444824e+00,1.772784948348999023e+00,1.772624611854553223e+00,1.772464275360107422e+00,1.772303938865661621e+00,1.772143721580505371e+00,1.771983742713928223e+00,1.771823525428771973e+00,1.771663308143615723e+00,1.771503210067749023e+00,1.771343111991882324e+00,1.771183013916015625e+00,1.771023154258728027e+00,1.770863175392150879e+00,1.770703196525573730e+00,1.770543217658996582e+00,1.770383238792419434e+00,1.770223379135131836e+00,1.770063519477844238e+00,1.769903779029846191e+00,1.769744038581848145e+00,1.769584178924560547e+00,1.769424438476562500e+00,1.769264698028564453e+00,1.769105076789855957e+00,1.768945336341857910e+00,1.768785953521728516e+00,1.768626332283020020e+00,1.768466711044311523e+00,1.768307209014892578e+00,1.768147587776184082e+00,1.767988085746765137e+00,1.767828702926635742e+00,1.767669200897216797e+00,1.767510056495666504e+00,1.767350673675537109e+00,1.767191290855407715e+00,1.767031908035278320e+00,1.766872644424438477e+00,1.766713380813598633e+00,1.766554117202758789e+00,1.766395092010498047e+00,1.766235947608947754e+00,1.766076803207397461e+00,1.765917658805847168e+00,1.765758633613586426e+00,1.765599489212036133e+00,1.765440464019775391e+00,1.765281677246093750e+00,1.765122771263122559e+00,1.764963746070861816e+00
1.607443690299987793e+00,1.607311844825744629e+00,1.607180118560791016e+00,1.607048273086547852e+00,1.606916546821594238e+00,1.606784820556640625e+00,1.606653094291687012e+00,1.606521368026733398e+00,1.606389760971069336e+00,1.606258034706115723e+00,1.606126427650451660e+00,1.605995059013366699e+00,1.605863451957702637e+00,1.605731844902038574e+00,1.605600357055664062e+00,1.605468750000000000e+00,1.605337262153625488e+00,1.605205774307250977e+00,1.605074405670166016e+00,1.604942917823791504e+00,1.604811549186706543e+00,1.604680061340332031e+00,1.604548692703247070e+00,1.604417443275451660e+00,1.604286074638366699e+00,1.604154944419860840e+00,1.604023694992065430e+00,1.603892326354980469e+00,1.603761076927185059e+00,1.603629946708679199e+00,1.603498697280883789e+00,1.603367567062377930e+00,1.603236436843872070e+00,1.603105306625366211e+00,1.602974176406860352e+00,1.602843046188354492e+00,1.602712035179138184e+00,1.602580904960632324e+00,1.602450013160705566e+00,1.602319002151489258e+00,1.602188110351562500e+00,1.602057099342346191e+00,1.601926207542419434e+00,1.601795196533203125e+00,1.601664304733276367e+00,1.601533651351928711e+00,1.601402759552001953e+00,1.601271986961364746e+00,1.601141095161437988e+00,1.601010322570800781e+00,1.600879549980163574e+00,1.600748777389526367e+00,1.600618243217468262e+00,1.600487589836120605e+00,1.600356817245483398e+00,1.600226163864135742e+00,1.600095629692077637e+00,1.599964857101440430e+00,1.599834322929382324e+00,1.599703907966613770e+00,1.599573373794555664e+00,1.599442839622497559e+00,1.599312305450439453e+00,1.599181771278381348e+00,1.599051356315612793e+00,1.598920822143554688e+00,1.598790645599365234e+00,1.598660230636596680e+00,1.598529815673828125e+00,1.598399400711059570e+00,1.598269104957580566e+00,1.598138809204101562e+00,1.598008513450622559e+00,1.597878336906433105e+00,1.597748160362243652e+00,1.597617864608764648e+00,1.597487688064575195e+00,1.597357511520385742e+00,1.597227334976196289e+00,1.597097158432006836e+00
1.467011690139770508e+00,1.466901898384094238e+00,1.466792106628417969e+00,1.466682314872741699e+00,1.466572523117065430e+00,1.466462850570678711e+00,1.466353178024291992e+00,1.466243386268615723e+00,1.466133713722229004e+00,1.466024041175842285e+00,1.465914487838745117e+00,1.465804815292358398e+00,1.465695142745971680e+00,1.465585589408874512e+00,1.465476155281066895e+00,1.465366601943969727e+00,1.465257048606872559e+00,1.465147495269775391e+00,1.465037941932678223e+00,1.464928388595581055e+00,1.464818954467773438e+00,1.464709520339965820e+00,1.464600086212158203e+00,1.464490652084350586e+00,1.464381217956542969e+00,1.464271783828735352e+00,1.464162349700927734e+00,1.464053153991699219e+00,1.463943839073181152e+00,1.463834404945373535e+00,1.463725090026855469e+00,1.463615775108337402e+00,1.463506579399108887e+00,1.463397264480590820e+00,1.463287949562072754e+00,1.463178753852844238e+00,1.463069558143615723e+00,1.462960362434387207e+00,1.462851166725158691e+00,1.462741971015930176e+00,1.462632894515991211e+00,1.462523818016052246e+00,1.462414622306823730e+00,1.462305545806884766e+00,1.462196469306945801e+00,1.462087392807006836e+00,1.461978316307067871e+00,1.461869359016418457e+00,1.461760401725769043e+00,1.461651444435119629e+00,1.461542367935180664e+00,1.461433410644531250e+00,1.461324453353881836e+00,1.461215496063232422e+00,1.461106538772583008e+00,1.460997819900512695e+00,1.460888862609863281e+00,1.460780024528503418e+00,1.460671186447143555e+00,1.460562348365783691e+00,1.460453510284423828e+00,1.460344672203063965e+00,1.460235834121704102e+00,1.460127234458923340e+00,1.460018396377563477e+00,1.459909677505493164e+00,1.459800958633422852e+00,1.459692239761352539e+00,1.459583520889282227e+00,1.459474802017211914e+00,1.459366321563720703e+00,1.459257602691650391e+00,1.459149003028869629e+00,1.459040403366088867e+00,1.458931803703308105e+00,1.458823204040527344e+00,1.458714604377746582e+00,1.458606123924255371e+00,1.458497643470764160e+00,1.458389043807983398e+00
1.349145293235778809e+00,1.349052429199218750e+00,1.348959565162658691e+00,1.348866939544677734e+00,1.348774075508117676e+00,1.348681211471557617e+00,1.348588466644287109e+00,1.348495721817016602e+00,1.348402857780456543e+00,1.348310112953186035e+00,1.348217368125915527e+00,1.348124623298645020e+00,1.348031878471374512e+00,1.347939252853393555e+00,1.347846508026123047e+00,1.347753882408142090e+00,1.347661256790161133e+00,1.347568631172180176e+00,1.347476005554199219e+00,1.347383379936218262e+00,1.347290754318237305e+00,1.347198128700256348e+00,1.347105622291564941e+00,1.347012996673583984e+00,1.346920371055603027e+00,1.346827864646911621e+00,1.346735358238220215e+00,1.346642732620239258e+00,1.346550226211547852e+00,1.346457719802856445e+00,1.346365332603454590e+00,1.346272945404052734e+00,1.346180438995361328e+00,1.346087932586669922e+00,1.345995545387268066e+00,1.345903158187866211e+00,1.345810651779174805e+00,1.345718264579772949e+00,1.345625877380371094e+00,1.345533490180969238e+00,1.345441102981567383e+00,1.345348834991455078e+00,1.345256447792053223e+00,1.345164179801940918e+00,1.345071911811828613e+00,1.344979643821716309e+00,1.344887375831604004e+00,1.344794988632202148e+00,1.344702839851379395e+00,1.344610571861267090e+00,1.344518303871154785e+00,1.344426035881042480e+00,1.344334006309509277e+00,1.344241738319396973e+00,1.344149589538574219e+00,1.344057321548461914e+00,1.343965172767639160e+00,1.343873023986816406e+00,1.343780875205993652e+00,1.343688845634460449e+00,1.343596816062927246e+00,1.343504667282104492e+00,1.343412637710571289e+00,1.343320488929748535e+00,1.343228459358215332e+00,1.343136429786682129e+00,1.343044519424438477e+00,1.342952489852905273e+00,1.342860460281372070e+00,1.342768430709838867e+00,1.342676401138305664e+00,1.342584490776062012e+00,1.342492461204528809e+00,1.342400670051574707e+00,1.342308759689331055e+00,1.342216849327087402e+00,1.342124938964843750e+00,1.342033028602600098e+00,1.341941118240356445e+00,1.341849207878112793e+00
1.248810410499572754e+00,1.248730897903442383e+00,1.248651266098022461e+00,1.248571753501892090e+00,1.248492240905761719e+00,1.248412847518920898e+00,1.248333334922790527e+00,1.248253822326660156e+00,1.248174309730529785e+00,1.248094797134399414e+00,1.248015284538269043e+00,1.247935891151428223e+00,1.247856378555297852e+00,1.247776985168457031e+00,1.247697591781616211e+00,1.247618079185485840e+00,1.247538685798645020e+00,1.247459292411804199e+00,1.247379899024963379e+00,1.247300624847412109e+00,1.247221231460571289e+00,1.247141838073730469e+00,1.247062563896179199e+00,1.246983170509338379e+00,1.246903896331787109e+00,1.246824502944946289e+00,1.246745228767395020e+00,1.246665954589843750e+00,1.246586680412292480e+00,1.246507287025451660e+00,1.246428012847900391e+00,1.246348857879638672e+00,1.246269702911376953e+00,1.246190428733825684e+00,1.246111154556274414e+00,1.246031999588012695e+00,1.245952725410461426e+00,1.245873570442199707e+00,1.245794296264648438e+00,1.245715141296386719e+00,1.245635986328125000e+00,1.245556831359863281e+00,1.245477676391601562e+00,1.245398521423339844e+00,1.245319366455078125e+00,1.245240330696105957e+00,1.245161294937133789e+00,1.245082139968872070e+00,1.245003104209899902e+00,1.244924068450927734e+00,1.244844913482666016e+00,1.244765877723693848e+00,1.244686841964721680e+00,1.244607806205749512e+00,1.244528770446777344e+00,1.244449734687805176e+00,1.244370698928833008e+00,1.244291782379150391e+00,1.244212865829467773e+00,1.244133830070495605e+00,1.244054913520812988e+00,1.243975877761840820e+00,1.243896961212158203e+00,1.243818163871765137e+00,1.243739247322082520e+00,1.243660330772399902e+00,1.243581414222717285e+00,1.243502497673034668e+00,1.243423581123352051e+00,1.243344664573669434e+00,1.243265986442565918e+00,1.243187069892883301e+00,1.243108272552490234e+00,1.243029356002807617e+00,1.242950558662414551e+00,1.242871761322021484e+00,1.242792963981628418e+00,1.242714285850524902e+00,1.242635488510131836e+00,1.242556691169738770e+00
1.162366151809692383e+00,1.162297248840332031e+00,1.162228345870971680e+00,1.162159323692321777e+00,1.162090420722961426e+00,1.162021517753601074e+00,1.161952733993530273e+00,1.161883831024169922e+00,1.161815047264099121e+00,1.161746144294738770e+00,1.161677241325378418e+00,1.161608457565307617e+00,1.161539554595947266e+00,1.161470770835876465e+00,1.161401987075805664e+00,1.161333084106445312e+00,1.161264300346374512e+00,1.161195516586303711e+00,1.161126732826232910e+00,1.161057949066162109e+00,1.160989165306091309e+00,1.160920500755310059e+00,1.160851716995239258e+00,1.160782933235168457e+00,1.160714268684387207e+00,1.160645484924316406e+00,1.160576701164245605e+00,1.160508036613464355e+00,1.160439372062683105e+00,1.160370588302612305e+00,1.160301923751831055e+00,1.160233259201049805e+00,1.160164594650268555e+00,1.160095930099487305e+00,1.160027265548706055e+00,1.159958600997924805e+00,1.159889936447143555e+00,1.159821391105651855e+00,1.159752726554870605e+00,1.159684062004089355e+00,1.159615516662597656e+00,1.159546852111816406e+00,1.159478306770324707e+00,1.159409642219543457e+00,1.159341096878051758e+00,1.159272551536560059e+00,1.159204006195068359e+00,1.159135460853576660e+00,1.159066915512084961e+00,1.158998370170593262e+00,1.158929824829101562e+00,1.158861398696899414e+00,1.158792853355407715e+00,1.158724308013916016e+00,1.158655762672424316e+00,1.158587336540222168e+00,1.158518791198730469e+00,1.158450365066528320e+00,1.158381938934326172e+00,1.158313512802124023e+00,1.158244967460632324e+00,1.158176660537719727e+00,1.158108234405517578e+00,1.158039808273315430e+00,1.157971382141113281e+00,1.157902956008911133e+00,1.157834649085998535e+00,1.157766222953796387e+00,1.157697916030883789e+00,1.157629489898681641e+00,1.157561063766479492e+00,1.157492756843566895e+00,1.157424449920654297e+00,1.157356142997741699e+00,1.157287836074829102e+00,1.157219409942626953e+00,1.157151103019714355e+00,1.157082796096801758e+00,1.157014489173889160e+00,1.156946182250976562e+00
1.087114572525024414e+00,1.087054371833801270e+00,1.086994051933288574e+00,1.086933732032775879e+00,1.086873531341552734e+00,1.086813211441040039e+00,1.086753010749816895e+00,1.086692690849304199e+00,1.086632490158081055e+00,1.086572170257568359e+00,1.086512088775634766e+00,1.086451768875122070e+00,1.086391568183898926e+00,1.086331367492675781e+00,1.086271166801452637e+00,1.086210966110229492e+00,1.086150765419006348e+00,1.086090564727783203e+00,1.086030364036560059e+00,1.085970282554626465e+00,1.085910081863403320e+00,1.085849881172180176e+00,1.085789799690246582e+00,1.085729598999023438e+00,1.085669517517089844e+00,1.085609436035156250e+00,1.085549235343933105e+00,1.085489153861999512e+00,1.085429072380065918e+00,1.085368990898132324e+00,1.085308790206909180e+00,1.085248708724975586e+00,1.085188627243041992e+00,1.085128545761108398e+00,1.085068464279174805e+00,1.085008502006530762e+00,1.084948420524597168e+00,1.084888458251953125e+00,1.084828376770019531e+00,1.084768295288085938e+00,1.084708213806152344e+00,1.084648251533508301e+00,1.084588170051574707e+00,1.084528207778930664e+00,1.084468126296997070e+00,1.084408164024353027e+00,1.084348201751708984e+00,1.084288239479064941e+00,1.084228277206420898e+00,1.084168195724487305e+00,1.084108352661132812e+00,1.084048390388488770e+00,1.083988428115844727e+00,1.083928465843200684e+00,1.083868503570556641e+00,1.083808660507202148e+00,1.083748698234558105e+00,1.083688735961914062e+00,1.083628892898559570e+00,1.083568930625915527e+00,1.083509087562561035e+00,1.083449125289916992e+00,1.083389282226562500e+00,1.083329319953918457e+00,1.083269596099853516e+00,1.083209753036499023e+00,1.083149790763854980e+00,1.083089947700500488e+00,1.083030104637145996e+00,1.082970261573791504e+00,1.082910537719726562e+00,1.082850694656372070e+00,1.082790851593017578e+00,1.082731008529663086e+00,1.082671284675598145e+00,1.082611441612243652e+00,1.082551598548889160e+00,1.082491874694824219e+00,1.082432150840759277e+00,1.082372307777404785e+00
1.021014213562011719e+00,1.020961046218872070e+00,1.020907878875732422e+00,1.020854711532592773e+00,1.020801544189453125e+00,1.020748376846313477e+00,1.020695209503173828e+00,1.020642042160034180e+00,1.020588874816894531e+00,1.020535707473754883e+00,1.020482659339904785e+00,1.020429491996765137e+00,1.020376324653625488e+00,1.020323276519775391e+00,1.020270228385925293e+00,1.020217061042785645e+00,1.020164012908935547e+00,1.020110845565795898e+00,1.020057797431945801e+00,1.020004749298095703e+00,1.019951581954956055e+00,1.019898533821105957e+00,1.019845485687255859e+00,1.019792437553405762e+00,1.019739389419555664e+00,1.019686341285705566e+00,1.019633293151855469e+00,1.019580245018005371e+00,1.019527316093444824e+00,1.019474267959594727e+00,1.019421219825744629e+00,1.019368171691894531e+00,1.019315123558044434e+00,1.019262194633483887e+00,1.019209146499633789e+00,1.019156217575073242e+00,1.019103169441223145e+00,1.019050240516662598e+00,1.018997192382812500e+00,1.018944263458251953e+00,1.018891334533691406e+00,1.018838405609130859e+00,1.018785357475280762e+00,1.018732428550720215e+00,1.018679499626159668e+00,1.018626570701599121e+00,1.018573641777038574e+00,1.018520712852478027e+00,1.018467783927917480e+00,1.018414855003356934e+00,1.018361926078796387e+00,1.018308997154235840e+00,1.018256068229675293e+00,1.018203258514404297e+00,1.018150329589843750e+00,1.018097519874572754e+00,1.018044590950012207e+00,1.017991781234741211e+00,1.017938852310180664e+00,1.017886042594909668e+00,1.017833113670349121e+00,1.017780303955078125e+00,1.017727375030517578e+00,1.017674565315246582e+00,1.017621755599975586e+00,1.017568945884704590e+00,1.017516136169433594e+00,1.017463326454162598e+00,1.017410516738891602e+00,1.017357707023620605e+00,1.017304897308349609e+00,1.017252087593078613e+00,1.017199277877807617e+00,1.017146587371826172e+00,1.017093777656555176e+00,1.017040967941284180e+00,1.016988277435302734e+00,1.016935467720031738e+00,1.016882658004760742e+00,1.016829967498779297e+00
9.624913930892944336e-01,9.624441266059875488e-01,9.623968601226806641e-01,9.623495936393737793e-01,9.623023271560668945e-01,9.622551202774047852e-01,9.622078537940979004e-01,9.621606469154357910e-01,9.621133804321289062e-01,9.620661735534667969e-01,9.620189666748046875e-01,9.619717597961425781e-01,9.619245529174804688e-01,9.618773460388183594e-01,9.618301391601562500e-01,9.617830514907836914e-01,9.617358446121215820e-01,9.616886377334594727e-01,9.616414904594421387e-01,9.615942835807800293e-01,9.615471363067626953e-01,9.614999294281005859e-01,9.614527821540832520e-01,9.614056348800659180e-01,9.613584876060485840e-01,9.613112807273864746e-01,9.612641334533691406e-01,9.612169861793518066e-01,9.611698985099792480e-01,9.611227512359619141e-01,9.610756039619445801e-01,9.610285162925720215e-01,9.609813690185546875e-01,9.609342813491821289e-01,9.608871340751647949e-01,9.608400464057922363e-01,9.607929587364196777e-01,9.607458114624023438e-01,9.606987237930297852e-01,9.606516361236572266e-01,9.606045484542846680e-01,9.605575203895568848e-01,9.605105519294738770e-01,9.604634642601013184e-01,9.604163765907287598e-01,9.603693485260009766e-01,9.603222608566284180e-01,9.602752327919006348e-01,9.602282047271728516e-01,9.601811766624450684e-01,9.601340889930725098e-01,9.600870609283447266e-01,9.600400328636169434e-01,9.599930047988891602e-01,9.599460363388061523e-01,9.598990082740783691e-01,9.598519802093505859e-01,9.598049521446228027e-01,9.597579836845397949e-01,9.597109556198120117e-01,9.596639871597290039e-01,9.596170186996459961e-01,9.595700502395629883e-01,9.595230221748352051e-01,9.594760537147521973e-01,9.594290852546691895e-01,9.593821167945861816e-01,9.593352079391479492e-01,9.592882394790649414e-01,9.592413902282714844e-01,9.591944217681884766e-01,9.591475129127502441e-01,9.591005444526672363e-01,9.590536355972290039e-01,9.590067267417907715e-01,9.589597582817077637e-01,9.589128494262695312e-01,9.588659405708312988e-01,9.588190317153930664e-01,9.587721228599548340e-01
9.103136658668518066e-01,9.102714061737060547e-01,9.102291464805603027e-01,9.101868867874145508e-01,9.101446270942687988e-01,9.101023674011230469e-01,9.100601077079772949e-01,9.100178480148315430e-01,9.099755883216857910e-01,9.099333286285400391e-01,9.098910689353942871e-01,9.098488688468933105e-01,9.098066091537475586e-01,9.097643494606018066e-01,9.097221493721008301e-01,9.096799492835998535e-01,9.096376895904541016e-01,9.095954895019531250e-01,9.095533490180969238e-01,9.095111489295959473e-01,9.094689488410949707e-01,9.094267487525939941e-01,9.093845486640930176e-01,9.093424081802368164e-01,9.093002080917358398e-01,9.092580080032348633e-01,9.092158079147338867e-01,9.091736674308776855e-01,9.091314673423767090e-01,9.090893268585205078e-01,9.090471267700195312e-01,9.090049862861633301e-01,9.089628458023071289e-01,9.089207053184509277e-01,9.088785052299499512e-01,9.088363647460937500e-01,9.087942242622375488e-01,9.087520837783813477e-01,9.087099432945251465e-01,9.086678624153137207e-01,9.086257219314575195e-01,9.085835814476013184e-01,9.085415005683898926e-01,9.084993600845336914e-01,9.084572792053222656e-01,9.084152579307556152e-01,9.083731770515441895e-01,9.083310365676879883e-01,9.082889556884765625e-01,9.082468748092651367e-01,9.082047939300537109e-01,9.081627130508422852e-01,9.081206321716308594e-01,9.080785512924194336e-01,9.080364704132080078e-01,9.079943895339965820e-01,9.079523682594299316e-01,9.079102873802185059e-01,9.078682661056518555e-01,9.078261852264404297e-01,9.077841043472290039e-01,9.077420830726623535e-01,9.077000617980957031e-01,9.076580405235290527e-01,9.076159596443176270e-01,9.075739383697509766e-01,9.075319170951843262e-01,9.074898958206176758e-01,9.074478745460510254e-01,9.074059128761291504e-01,9.073638916015625000e-01,9.073219895362854004e-01,9.072799682617187500e-01,9.072380065917968750e-01,9.071959853172302246e-01,9.071540236473083496e-01,9.071120023727416992e-01,9.070700407028198242e-01,9.070280790328979492e-01,9.069860577583312988e-01
8.635023236274719238e-01,8.634642362594604492e-01,8.634262084960937500e-01,8.633881807327270508e-01,8.633501529693603516e-01,8.633121252059936523e-01,8.632740974426269531e-01,8.632360696792602539e-01,8.631980419158935547e-01,8.631600737571716309e-01,8.631220459938049316e-01,8.630840182304382324e-01,8.630460500717163086e-01,8.630080223083496094e-01,8.629700541496276855e-01,8.629320263862609863e-01,8.628940582275390625e-01,8.628560304641723633e-01,8.628180623054504395e-01,8.627800941467285156e-01,8.627421855926513672e-01,8.627042174339294434e-01,8.626662492752075195e-01,8.626282811164855957e-01,8.625903129577636719e-01,8.625523447990417480e-01,8.625143766403198242e-01,8.624764084815979004e-01,8.624384999275207520e-01,8.624005317687988281e-01,8.623625636100769043e-01,8.623246550559997559e-01,8.622866868972778320e-01,8.622487783432006836e-01,8.622108697891235352e-01,8.621729016304016113e-01,8.621349930763244629e-01,8.620970845222473145e-01,8.620591759681701660e-01,8.620212078094482422e-01,8.619832992553710938e-01,8.619453907012939453e-01,8.619075417518615723e-01,8.618696331977844238e-01,8.618317246437072754e-01,8.617938160896301270e-01,8.617559075355529785e-01,8.617181181907653809e-01,8.616802692413330078e-01,8.616423606872558594e-01,8.616044521331787109e-01,8.615666031837463379e-01,8.615287542343139648e-01,8.614908456802368164e-01,8.614529967308044434e-01,8.614151477813720703e-01,8.613772988319396973e-01,8.613394498825073242e-01,8.613016009330749512e-01,8.612637519836425781e-01,8.612259030342102051e-01,8.611880540847778320e-01,8.611502051353454590e-01,8.611123561859130859e-01,8.610745072364807129e-01,8.610367178916931152e-01,8.609988689422607422e-01,8.609610795974731445e-01,8.609232306480407715e-01,8.608854413032531738e-01,8.608475923538208008e-01,8.608098030090332031e-01,8.607720136642456055e-01,8.607342243194580078e-01,8.606964945793151855e-01,8.606587052345275879e-01,8.606209158897399902e-01,8.605831265449523926e-01,8.605453372001647949e-01,8.605075478553771973e-01
8.212698698043823242e-01,8.212354183197021484e-01,8.212010264396667480e-01,8.211666345596313477e-01,8.211322426795959473e-01,8.210978507995605469e-01,8.210633993148803711e-01,8.210290074348449707e-01,8.209946155548095703e-01,8.209602832794189453e-01,8.209258913993835449e-01,8.208914995193481445e-01,8.208571076393127441e-01,8.208227157592773438e-01,8.207883834838867188e-01,8.207539916038513184e-01,8.207195997238159180e-01,8.206852674484252930e-01,8.206508755683898926e-01,8.206165432929992676e-01,8.205821514129638672e-01,8.205478191375732422e-01,8.205134868621826172e-01,8.204792141914367676e-01,8.204448819160461426e-01,8.204105496406555176e-01,8.203761577606201172e-01,8.203418254852294922e-01,8.203074932098388672e-01,8.202731609344482422e-01,8.202388286590576172e-01,8.202045559883117676e-01,8.201702237129211426e-01,8.201358914375305176e-01,8.201015591621398926e-01,8.200672268867492676e-01,8.200329542160034180e-01,8.199986219406127930e-01,8.199643492698669434e-01,8.199300169944763184e-01,8.198957443237304688e-01,8.198614120483398438e-01,8.198271393775939941e-01,8.197928667068481445e-01,8.197585344314575195e-01,8.197242617607116699e-01,8.196899890899658203e-01,8.196557164192199707e-01,8.196214437484741211e-01,8.195871710777282715e-01,8.195529580116271973e-01,8.195186853408813477e-01,8.194844126701354980e-01,8.194501996040344238e-01,8.194159269332885742e-01,8.193816542625427246e-01,8.193473815917968750e-01,8.193131685256958008e-01,8.192788958549499512e-01,8.192446827888488770e-01,8.192104101181030273e-01,8.191761970520019531e-01,8.191419243812561035e-01,8.191077113151550293e-01,8.190734982490539551e-01,8.190392255783081055e-01,8.190050125122070312e-01,8.189707994461059570e-01,8.189365863800048828e-01,8.189023733139038086e-01,8.188681602478027344e-01,8.188339471817016602e-01,8.187997341156005859e-01,8.187655210494995117e-01,8.187313079833984375e-01,8.186970949172973633e-01,8.186630010604858398e-01,8.186287879943847656e-01,8.185946345329284668e-01,8.185604214668273926e-01
7.829758524894714355e-01,7.829445600509643555e-01,7.829132676124572754e-01,7.828820347785949707e-01,7.828507423400878906e-01,7.828194499015808105e-01,7.827882170677185059e-01,7.827569246292114258e-01,7.827256917953491211e-01,7.826943993568420410e-01,7.826631665229797363e-01,7.826319336891174316e-01,7.826006412506103516e-01,7.825694084167480469e-01,7.825381755828857422e-01,7.825069427490234375e-01,7.824757099151611328e-01,7.824444770812988281e-01,7.824132442474365234e-01,7.823819518089294434e-01,7.823507785797119141e-01,7.823195457458496094e-01,7.822883129119873047e-01,7.822570800781250000e-01,7.822258472442626953e-01,7.821947336196899414e-01,7.821635007858276367e-01,7.821322679519653320e-01,7.821010947227478027e-01,7.820698618888854980e-01,7.820386290550231934e-01,7.820074558258056641e-01,7.819762229919433594e-01,7.819450497627258301e-01,7.819138765335083008e-01,7.818826436996459961e-01,7.818514704704284668e-01,7.818202972412109375e-01,7.817891240119934082e-01,7.817578911781311035e-01,7.817267179489135742e-01,7.816955447196960449e-01,7.816643714904785156e-01,7.816331982612609863e-01,7.816020250320434570e-01,7.815708518028259277e-01,7.815396785736083984e-01,7.815085649490356445e-01,7.814773917198181152e-01,7.814462184906005859e-01,7.814150452613830566e-01,7.813839316368103027e-01,7.813528180122375488e-01,7.813217043876647949e-01,7.812905311584472656e-01,7.812594175338745117e-01,7.812282443046569824e-01,7.811971306800842285e-01,7.811659574508666992e-01,7.811348438262939453e-01,7.811037302017211914e-01,7.810726165771484375e-01,7.810414433479309082e-01,7.810103297233581543e-01,7.809792160987854004e-01,7.809481024742126465e-01,7.809169888496398926e-01,7.808858752250671387e-01,7.808547616004943848e-01,7.808236479759216309e-01,7.807925343513488770e-01,7.807614207267761230e-01,7.807303667068481445e-01,7.806992530822753906e-01,7.806681394577026367e-01,7.806370258331298828e-01,7.806059718132019043e-01,7.805748581886291504e-01,7.805438041687011719e-01,7.805127501487731934e-01
7.480937838554382324e-01,7.480652928352355957e-01,7.480367422103881836e-01,7.480081915855407715e-01,7.479796409606933594e-01,7.479510903358459473e-01,7.479225397109985352e-01,7.478939890861511230e-01,7.478654980659484863e-01,7.478369474411010742e-01,7.478083968162536621e-01,7.477799057960510254e-01,7.477513551712036133e-01,7.477228045463562012e-01,7.476943135261535645e-01,7.476657629013061523e-01,7.476372718811035156e-01,7.476087212562561035e-01,7.475802302360534668e-01,7.475516796112060547e-01,7.475231885910034180e-01,7.474946975708007812e-01,7.474662065505981445e-01,7.474376559257507324e-01,7.474091649055480957e-01,7.473806738853454590e-01,7.473521828651428223e-01,7.473236918449401855e-01,7.472952604293823242e-01,7.472667694091796875e-01,7.472382783889770508e-01,7.472097873687744141e-01,7.471812963485717773e-01,7.471528053283691406e-01,7.471243143081665039e-01,7.470958232879638672e-01,7.470673918724060059e-01,7.470389008522033691e-01,7.470104098320007324e-01,7.469819784164428711e-01,7.469534873962402344e-01,7.469249963760375977e-01,7.468965649604797363e-01,7.468680739402770996e-01,7.468396425247192383e-01,7.468111515045166016e-01,7.467827200889587402e-01,7.467542886734008789e-01,7.467257976531982422e-01,7.466973662376403809e-01,7.466689348220825195e-01,7.466405034065246582e-01,7.466120123863220215e-01,7.465835809707641602e-01,7.465551495552062988e-01,7.465267777442932129e-01,7.464983463287353516e-01,7.464699149131774902e-01,7.464414834976196289e-01,7.464130520820617676e-01,7.463846206665039062e-01,7.463561892509460449e-01,7.463278174400329590e-01,7.462993860244750977e-01,7.462709546089172363e-01,7.462425231933593750e-01,7.462141513824462891e-01,7.461857199668884277e-01,7.461572885513305664e-01,7.461289167404174805e-01,7.461004853248596191e-01,7.460721135139465332e-01,7.460436820983886719e-01,7.460153102874755859e-01,7.459869384765625000e-01,7.459585070610046387e-01,7.459301352500915527e-01,7.459017634391784668e-01,7.458733320236206055e-01,7.458449602127075195e-01
