5.000000000000000000e+00,5.000000000000000000e+00,5.000000000000000000e+00,5.000000000000000000e+00,5.000000000000000000e+00,5.000000000000000000e+00,5.000000000000000000e+00,5.000000000000000000e+00,5.000000000000000000e+00,5.000000000000000000e+00,5.000000000000000000e+00,5.000000000000000000e+00,5.000000000000000000e+00,5.000000000000000000e+00,5.000000000000000000e+00,5.000000000000000000e+00,5.000000000000000000e+00,5.000000000000000000e+00,5.000000000000000000e+00,5.000000000000000000e+00,5.000000000000000000e+00,5.000000000000000000e+00,5.000000000000000000e+00,5.000000000000000000e+00,5.000000000000000000e+00,5.000000000000000000e+00,5.000000000000000000e+00,5.000000000000000000e+00,5.000000000000000000e+00,5.000000000000000000e+00,5.000000000000000000e+00,5.000000000000000000e+00,5.000000000000000000e+00,5.000000000000000000e+00,5.000000000000000000e+00,5.000000000000000000e+00,5.000000000000000000e+00,5.000000000000000000e+00,5.000000000000000000e+00,5.000000000000000000e+00,5.000000000000000000e+00,5.000000000000000000e+00,5.000000000000000000e+00,5.000000000000000000e+00,5.000000000000000000e+00,4.864293098449707031e+00,4.715847969055175781e+00,4.576194286346435547e+00,4.444574356079101562e+00,4.320313930511474609e+00,4.202812194824218750e+00,4.091533184051513672e+00,3.985994815826416016e+00,3.885764122009277344e+00,3.790450334548950195e+00,3.699701070785522461e+00,3.613195180892944336e+00,3.530642032623291016e+00,3.451777219772338867e+00,3.376358270645141602e+00,3.304164886474609375e+00,3.234994411468505859e+00,3.168660163879394531e+00,3.104991674423217773e+00,3.043831586837768555e+00,2.985034227371215820e+00,2.928465366363525391e+00,2.874000787734985352e+00,2.821532249450683594e+00,2.770945310592651367e+00,2.722140312194824219e+00,2.675024747848510742e+00,2.629512310028076172e+00,2.585522890090942383e+00,2.542980909347534180e+00,2.501816272735595703e+00,2.461963415145874023e+00,2.423359870910644531e+00,2.385948419570922852e+00,2.349669933319091797e+00
5.000000000000000000e+00,5.000000000000000000e+00,5.000000000000000000e+00,5.000000000000000000e+00,5.000000000000000000e+00,5.000000000000000000e+00,5.000000000000000000e+00,5.000000000000000000e+00,5.000000000000000000e+00,5.000000000000000000e+00,5.000000000000000000e+00,5.000000000000000000e+00,5.000000000000000000e+00,5.000000000000000000e+00,5.000000000000000000e+00,5.000000000000000000e+00,5.000000000000000000e+00,5.000000000000000000e+00,5.000000000000000000e+00,5.000000000000000000e+00,5.000000000000000000e+00,5.000000000000000000e+00,5.000000000000000000e+00,5.000000000000000000e+00,5.000000000000000000e+00,5.000000000000000000e+00,5.000000000000000000e+00,5.000000000000000000e+00,5.000000000000000000e+00,5.000000000000000000e+00,5.000000000000000000e+00,5.000000000000000000e+00,5.000000000000000000e+00,5.000000000000000000e+00,5.000000000000000000e+00,5.000000000000000000e+00,5.000000000000000000e+00,5.000000000000000000e+00,5.000000000000000000e+00,5.000000000000000000e+00,5.000000000000000000e+00,5.000000000000000000e+00,5.000000000000000000e+00,5.000000000000000000e+00,5.000000000000000000e+00,4.864399909973144531e+00,4.715948104858398438e+00,4.576288223266601562e+00,4.444663047790527344e+00,4.320397853851318359e+00,4.202891826629638672e+00,4.091608524322509766e+00,3.986066341400146484e+00,3.885832071304321289e+00,3.790515422821044922e+00,3.699762821197509766e+00,3.613253831863403320e+00,3.530698299407958984e+00,3.451830625534057617e+00,3.376409530639648438e+00,3.304214239120483398e+00,3.235041379928588867e+00,3.168705224990844727e+00,3.105035066604614258e+00,3.043877601623535156e+00,2.985086679458618164e+00,2.928523778915405273e+00,2.874064683914184570e+00,2.821593999862670898e+00,2.771004915237426758e+00,2.722197771072387695e+00,2.675080299377441406e+00,2.629565954208374023e+00,2.585574626922607422e+00,2.543030977249145508e+00,2.501862764358520508e+00,2.462002754211425781e+00,2.423392534255981445e+00,2.385974645614624023e+00,2.349694728851318359e+00
5.000000000000000000e+00,5.000000000000000000e+00,5.000000000000000000e+00,5.000000000000000000e+00,5.000000000000000000e+00,5.000000000000000000e+00,5.000000000000000000e+00,5.000000000000000000e+00,5.000000000000000000e+00,5.000000000000000000e+00,5.000000000000000000e+00,5.000000000000000000e+00,5.000000000000000000e+00,5.000000000000000000e+00,5.000000000000000000e+00,5.000000000000000000e+00,5.000000000000000000e+00,5.000000000000000000e+00,5.000000000000000000e+00,5.000000000000000000e+00,5.000000000000000000e+00,5.000000000000000000e+00,5.000000000000000000e+00,5.000000000000000000e+00,5.000000000000000000e+00,5.000000000000000000e+00,5.000000000000000000e+00,5.000000000000000000e+00,5.000000000000000000e+00,5.000000000000000000e+00,5.000000000000000000e+00,5.000000000000000000e+00,5.000000000000000000e+00,5.000000000000000000e+00,5.000000000000000000e+00,5.000000000000000000e+00,5.000000000000000000e+00,5.000000000000000000e+00,5.000000000000000000e+00,5.000000000000000000e+00,5.000000000000000000e+00,5.000000000000000000e+00,5.000000000000000000e+00,5.000000000000000000e+00,5.000000000000000000e+00,4.864506721496582031e+00,4.716048240661621094e+00,4.576382637023925781e+00,4.444752216339111328e+00,4.320481777191162109e+00,4.202971458435058594e+00,4.091684341430664062e+00,3.986137866973876953e+00,3.885900020599365234e+00,3.790580272674560547e+00,3.699824333190917969e+00,3.613312721252441406e+00,3.530754327774047852e+00,3.451884269714355469e+00,3.376461267471313477e+00,3.304263830184936523e+00,3.235098600387573242e+00,3.168769359588623047e+00,3.105105400085449219e+00,3.043949365615844727e+00,2.985155820846557617e+00,2.928590297698974609e+00,2.874128580093383789e+00,2.821655750274658203e+00,2.771064281463623047e+00,2.722255229949951172e+00,2.675135612487792969e+00,2.629614114761352539e+00,2.585615158081054688e+00,2.543064117431640625e+00,2.501890897750854492e+00,2.462029933929443359e+00,2.423418998718261719e+00,2.386000156402587891e+00,2.349719524383544922e+00
5.000000000000000000e+00,5.000000000000000000e+00,5.000000000000000000e+00,5.000000000000000000e+00,5.000000000000000000e+00,5.000000000000000000e+00,5.000000000000000000e+00,5.000000000000000000e+00,5.000000000000000000e+00,5.000000000000000000e+00,5.000000000000000000e+00,5.000000000000000000e+00,5.000000000000000000e+00,5.000000000000000000e+00,5.000000000000000000e+00,5.000000000000000000e+00,5.000000000000000000e+00,5.000000000000000000e+00,5.000000000000000000e+00,5.000000000000000000e+00,5.000000000000000000e+00,5.000000000000000000e+00,5.000000000000000000e+00,5.000000000000000000e+00,5.000000000000000000e+00,5.000000000000000000e+00,5.000000000000000000e+00,5.000000000000000000e+00,5.000000000000000000e+00,5.000000000000000000e+00,5.000000000000000000e+00,5.000000000000000000e+00,5.000000000000000000e+00,5.000000000000000000e+00,5.000000000000000000e+00,5.000000000000000000e+00,5.000000000000000000e+00,5.000000000000000000e+00,5.000000000000000000e+00,5.000000000000000000e+00,5.000000000000000000e+00,5.000000000000000000e+00,5.000000000000000000e+00,5.000000000000000000e+00,5.000000000000000000e+00,4.864613056182861328e+00,4.716148376464843750e+00,4.576477050781250000e+00,4.444840908050537109e+00,4.320565700531005859e+00,4.203051090240478516e+00,4.091759681701660156e+00,3.986209392547607422e+00,3.885968446731567383e+00,3.790644884109497070e+00,3.699885845184326172e+00,3.613371372222900391e+00,3.530817031860351562e+00,3.451955318450927734e+00,3.376539468765258789e+00,3.304348230361938477e+00,3.235179662704467773e+00,3.168847084045410156e+00,3.105180263519287109e+00,3.044021368026733398e+00,2.985224962234497070e+00,2.928656816482543945e+00,2.874192714691162109e+00,2.821715116500854492e+00,2.771114110946655273e+00,2.722296476364135742e+00,2.675168991088867188e+00,2.629645347595214844e+00,2.585644960403442383e+00,2.543092966079711914e+00,2.501919031143188477e+00,2.462056875228881836e+00,2.423445224761962891e+00,2.386025667190551758e+00,2.349744319915771484e+00
5.000000000000000000e+00,5.000000000000000000e+00,5.000000000000000000e+00,5.000000000000000000e+00,5.000000000000000000e+00,5.000000000000000000e+00,5.000000000000000000e+00,5.000000000000000000e+00,5.000000000000000000e+00,5.000000000000000000e+00,5.000000000000000000e+00,5.000000000000000000e+00,5.000000000000000000e+00,5.000000000000000000e+00,5.000000000000000000e+00,5.000000000000000000e+00,5.000000000000000000e+00,5.000000000000000000e+00,5.000000000000000000e+00,5.000000000000000000e+00,5.000000000000000000e+00,5.000000000000000000e+00,5.000000000000000000e+00,5.000000000000000000e+00,5.000000000000000000e+00,5.000000000000000000e+00,5.000000000000000000e+00,5.000000000000000000e+00,5.000000000000000000e+00,5.000000000000000000e+00,5.000000000000000000e+00,5.000000000000000000e+00,5.000000000000000000e+00,5.000000000000000000e+00,5.000000000000000000e+00,5.000000000000000000e+00,5.000000000000000000e+00,5.000000000000000000e+00,5.000000000000000000e+00,5.000000000000000000e+00,5.000000000000000000e+00,5.000000000000000000e+00,5.000000000000000000e+00,5.000000000000000000e+00,5.000000000000000000e+00,4.864719390869140625e+00,4.716248512268066406e+00,4.576571464538574219e+00,4.444930076599121094e+00,4.320650100708007812e+00,4.203130722045898438e+00,4.091835021972656250e+00,3.986281394958496094e+00,3.886037111282348633e+00,3.790724039077758789e+00,3.699974060058593750e+00,3.613467454910278320e+00,3.530913829803466797e+00,3.452047824859619141e+00,3.376627683639526367e+00,3.304432868957519531e+00,3.235260725021362305e+00,3.168925046920776367e+00,3.105254888534545898e+00,3.044093132019042969e+00,2.985286951065063477e+00,2.928708553314208984e+00,2.874234676361083984e+00,2.821750640869140625e+00,2.771148681640625000e+00,2.722329616546630859e+00,2.675200939178466797e+00,2.629676342010498047e+00,2.585675001144409180e+00,2.543122053146362305e+00,2.501946926116943359e+00,2.462084293365478516e+00,2.423471450805664062e+00,2.386051177978515625e+00,2.349769115447998047e+00
5.000000000000000000e+00,5.000000000000000000e+00,5.000000000000000000e+00,5.000000000000000000e+00,5.000000000000000000e+00,5.000000000000000000e+00,5.000000000000000000e+00,5.000000000000000000e+00,5.000000000000000000e+00,5.000000000000000000e+00,5.000000000000000000e+00,5.000000000000000000e+00,5.000000000000000000e+00,5.000000000000000000e+00,5.000000000000000000e+00,5.000000000000000000e+00,5.000000000000000000e+00,5.000000000000000000e+00,5.000000000000000000e+00,5.000000000000000000e+00,5.000000000000000000e+00,5.000000000000000000e+00,5.000000000000000000e+00,5.000000000000000000e+00,5.000000000000000000e+00,5.000000000000000000e+00,5.000000000000000000e+00,5.000000000000000000e+00,5.000000000000000000e+00,5.000000000000000000e+00,5.000000000000000000e+00,5.000000000000000000e+00,5.000000000000000000e+00,5.000000000000000000e+00,5.000000000000000000e+00,5.000000000000000000e+00,5.000000000000000000e+00,5.000000000000000000e+00,5.000000000000000000e+00,5.000000000000000000e+00,5.000000000000000000e+00,5.000000000000000000e+00,5.000000000000000000e+00,5.000000000000000000e+00,5.000000000000000000e+00,4.864826202392578125e+00,4.716348648071289062e+00,4.576665878295898438e+00,4.445018768310546875e+00,4.320734024047851562e+00,4.203219890594482422e+00,4.091935157775878906e+00,3.986390829086303711e+00,3.886154174804687500e+00,3.790835380554199219e+00,3.700080156326293945e+00,3.613568782806396484e+00,3.531010389328002930e+00,3.452140092849731445e+00,3.376716136932373047e+00,3.304517507553100586e+00,3.235338687896728516e+00,3.168990135192871094e+00,3.105308771133422852e+00,3.044136285781860352e+00,2.985326766967773438e+00,2.928746938705444336e+00,2.874271869659423828e+00,2.821786165237426758e+00,2.771183013916015625e+00,2.722362995147705078e+00,2.675233125686645508e+00,2.629707098007202148e+00,2.585705041885375977e+00,2.543151140213012695e+00,2.501975059509277344e+00,2.462111234664916992e+00,2.423497915267944336e+00,2.386076688766479492e+00,2.349793672561645508e+00
5.000000000000000000e+00,5.000000000000000000e+00,5.000000000000000000e+00,5.000000000000000000e+00,5.000000000000000000e+00,5.000000000000000000e+00,5.000000000000000000e+00,5.000000000000000000e+00,5.000000000000000000e+00,5.000000000000000000e+00,5.000000000000000000e+00,5.000000000000000000e+00,5.000000000000000000e+00,5.000000000000000000e+00,5.000000000000000000e+00,5.000000000000000000e+00,5.000000000000000000e+00,5.000000000000000000e+00,5.000000000000000000e+00,5.000000000000000000e+00,5.000000000000000000e+00,5.000000000000000000e+00,5.000000000000000000e+00,5.000000000000000000e+00,5.000000000000000000e+00,5.000000000000000000e+00,5.000000000000000000e+00,5.000000000000000000e+00,5.000000000000000000e+00,5.000000000000000000e+00,5.000000000000000000e+00,5.000000000000000000e+00,5.000000000000000000e+00,5.000000000000000000e+00,5.000000000000000000e+00,5.000000000000000000e+00,5.000000000000000000e+00,5.000000000000000000e+00,5.000000000000000000e+00,5.000000000000000000e+00,5.000000000000000000e+00,5.000000000000000000e+00,5.000000000000000000e+00,5.000000000000000000e+00,5.000000000000000000e+00,4.864933013916015625e+00,4.716452121734619141e+00,4.576782226562500000e+00,4.445147037506103516e+00,4.320871829986572266e+00,4.203357219696044922e+00,4.092064857482910156e+00,3.986513853073120117e+00,3.886271238327026367e+00,3.790946722030639648e+00,3.700186252593994141e+00,3.613669872283935547e+00,3.531106948852539062e+00,3.452223062515258789e+00,3.376784801483154297e+00,3.304573297500610352e+00,3.235385656356811523e+00,3.169035434722900391e+00,3.105351686477661133e+00,3.044177532196044922e+00,2.985367059707641602e+00,2.928785324096679688e+00,2.874308824539184570e+00,2.821821928024291992e+00,2.771217346191406250e+00,2.722396135330200195e+00,2.675265073776245117e+00,2.629738330841064453e+00,2.585734844207763672e+00,2.543179988861083984e+00,2.502003192901611328e+00,2.462138414382934570e+00,2.423524141311645508e+00,2.386102199554443359e+00,2.349818468093872070e+00
5.000000000000000000e+00,5.000000000000000000e+00,5.000000000000000000e+00,5.000000000000000000e+00,5.000000000000000000e+00,5.000000000000000000e+00,5.000000000000000000e+00,5.000000000000000000e+00,5.000000000000000000e+00,5.000000000000000000e+00,5.000000000000000000e+00,5.000000000000000000e+00,5.000000000000000000e+00,5.000000000000000000e+00,5.000000000000000000e+00,5.000000000000000000e+00,5.000000000000000000e+00,5.000000000000000000e+00,5.000000000000000000e+00,5.000000000000000000e+00,5.000000000000000000e+00,5.000000000000000000e+00,5.000000000000000000e+00,5.000000000000000000e+00,5.000000000000000000e+00,5.000000000000000000e+00,5.000000000000000000e+00,5.000000000000000000e+00,5.000000000000000000e+00,5.000000000000000000e+00,5.000000000000000000e+00,5.000000000000000000e+00,5.000000000000000000e+00,5.000000000000000000e+00,5.000000000000000000e+00,5.000000000000000000e+00,5.000000000000000000e+00,5.000000000000000000e+00,5.000000000000000000e+00,5.000000000000000000e+00,5.000000000000000000e+00,5.000000000000000000e+00,5.000000000000000000e+00,5.000000000000000000e+00,5.000000000000000000e+00,4.865097522735595703e+00,4.716624259948730469e+00,4.576944351196289062e+00,4.445300102233886719e+00,4.321016788482666016e+00,4.203494071960449219e+00,4.092194557189941406e+00,3.986637115478515625e+00,3.886388301849365234e+00,3.791053533554077148e+00,3.700275182723999023e+00,3.613742589950561523e+00,3.531164407730102539e+00,3.452276468276977539e+00,3.376836061477661133e+00,3.304621934890747070e+00,3.235432386398315430e+00,3.169080257415771484e+00,3.105395078659057617e+00,3.044219017028808594e+00,2.985406875610351562e+00,2.928823947906494141e+00,2.874345779418945312e+00,2.821857690811157227e+00,2.771251916885375977e+00,2.722429275512695312e+00,2.675297021865844727e+00,2.629769086837768555e+00,2.585764884948730469e+00,2.543208837509155273e+00,2.502031087875366211e+00,2.462165594100952148e+00,2.423550367355346680e+00,2.386127710342407227e+00,2.349843263626098633e+00
5.000000000000000000e+00,5.000000000000000000e+00,5.000000000000000000e+00,5.000000000000000000e+00,5.000000000000000000e+00,5.000000000000000000e+00,5.000000000000000000e+00,5.000000000000000000e+00,5.000000000000000000e+00,5.000000000000000000e+00,5.000000000000000000e+00,5.000000000000000000e+00,5.000000000000000000e+00,5.000000000000000000e+00,5.000000000000000000e+00,5.000000000000000000e+00,5.000000000000000000e+00,5.000000000000000000e+00,5.000000000000000000e+00,5.000000000000000000e+00,5.000000000000000000e+00,5.000000000000000000e+00,5.000000000000000000e+00,5.000000000000000000e+00,5.000000000000000000e+00,5.000000000000000000e+00,5.000000000000000000e+00,5.000000000000000000e+00,5.000000000000000000e+00,5.000000000000000000e+00,5.000000000000000000e+00,5.000000000000000000e+00,5.000000000000000000e+00,5.000000000000000000e+00,5.000000000000000000e+00,5.000000000000000000e+00,5.000000000000000000e+00,5.000000000000000000e+00,5.000000000000000000e+00,5.000000000000000000e+00,5.000000000000000000e+00,5.000000000000000000e+00,5.000000000000000000e+00,5.000000000000000000e+00,5.000000000000000000e+00,4.865281105041503906e+00,4.716796875000000000e+00,4.577106952667236328e+00,4.445453166961669922e+00,4.321161270141601562e+00,4.203630924224853516e+00,4.092311382293701172e+00,3.986733198165893555e+00,3.886465787887573242e+00,3.791118144989013672e+00,3.700336456298828125e+00,3.613801002502441406e+00,3.531220674514770508e+00,3.452329635620117188e+00,3.376887083053588867e+00,3.304671049118041992e+00,3.235479354858398438e+00,3.169125318527221680e+00,3.105438232421875000e+00,3.044260740280151367e+00,2.985446691513061523e+00,2.928862333297729492e+00,2.874382972717285156e+00,2.821893215179443359e+00,2.771286249160766602e+00,2.722462415695190430e+00,2.675329446792602539e+00,2.629800081253051758e+00,2.585794925689697266e+00,2.543237924575805664e+00,2.502059221267700195e+00,2.462192773818969727e+00,2.423576831817626953e+00,2.386153221130371094e+00,2.349868059158325195e+00
5.000000000000000000e+00,5.000000000000000000e+00,5.000000000000000000e+00,5.000000000000000000e+00,5.000000000000000000e+00,5.000000000000000000e+00,5.000000000000000000e+00,5.000000000000000000e+00,5.000000000000000000e+00,5.000000000000000000e+00,5.000000000000000000e+00,5.000000000000000000e+00,5.000000000000000000e+00,5.000000000000000000e+00,5.000000000000000000e+00,5.000000000000000000e+00,5.000000000000000000e+00,5.000000000000000000e+00,5.000000000000000000e+00,5.000000000000000000e+00,5.000000000000000000e+00,5.000000000000000000e+00,5.000000000000000000e+00,5.000000000000000000e+00,5.000000000000000000e+00,5.000000000000000000e+00,5.000000000000000000e+00,5.000000000000000000e+00,5.000000000000000000e+00,5.000000000000000000e+00,5.000000000000000000e+00,5.000000000000000000e+00,5.000000000000000000e+00,5.000000000000000000e+00,5.000000000000000000e+00,5.000000000000000000e+00,5.000000000000000000e+00,5.000000000000000000e+00,5.000000000000000000e+00,5.000000000000000000e+00,5.000000000000000000e+00,5.000000000000000000e+00,5.000000000000000000e+00,5.000000000000000000e+00,5.000000000000000000e+00,4.865464210510253906e+00,4.716969013214111328e+00,4.577262878417968750e+00,4.445581912994384766e+00,4.321265220642089844e+00,4.203712940216064453e+00,4.092386722564697266e+00,3.986804723739624023e+00,3.886533260345458984e+00,3.791182279586791992e+00,3.700397968292236328e+00,3.613859415054321289e+00,3.531276226043701172e+00,3.452383279800415039e+00,3.376938104629516602e+00,3.304719924926757812e+00,3.235526323318481445e+00,3.169170379638671875e+00,3.105481386184692383e+00,3.044302225112915039e+00,2.985486745834350586e+00,2.928900718688964844e+00,2.874419927597045898e+00,2.821928977966308594e+00,2.771320581436157227e+00,2.722495555877685547e+00,2.675361394882202148e+00,2.629831314086914062e+00,2.585824728012084961e+00,2.543267011642456055e+00,2.502087354660034180e+00,2.462219953536987305e+00,2.423603057861328125e+00,2.386178731918334961e+00,2.349892854690551758e+00
4.764536857604980469e+00,4.817059516906738281e+00,5.000000000000000000e+00,5.000000000000000000e+00,5.000000000000000000e+00,5.000000000000000000e+00,5.000000000000000000e+00,5.000000000000000000e+00,5.000000000000000000e+00,5.000000000000000000e+00,5.000000000000000000e+00,5.000000000000000000e+00,5.000000000000000000e+00,5.000000000000000000e+00,5.000000000000000000e+00,5.000000000000000000e+00,5.000000000000000000e+00,5.000000000000000000e+00,5.000000000000000000e+00,5.000000000000000000e+00,5.000000000000000000e+00,5.000000000000000000e+00,5.000000000000000000e+00,5.000000000000000000e+00,5.000000000000000000e+00,5.000000000000000000e+00,5.000000000000000000e+00,5.000000000000000000e+00,5.000000000000000000e+00,5.000000000000000000e+00,5.000000000000000000e+00,5.000000000000000000e+00,5.000000000000000000e+00,5.000000000000000000e+00,5.000000000000000000e+00,5.000000000000000000e+00,5.000000000000000000e+00,5.000000000000000000e+00,5.000000000000000000e+00,5.000000000000000000e+00,5.000000000000000000e+00,5.000000000000000000e+00,5.000000000000000000e+00,5.000000000000000000e+00,5.000000000000000000e+00,4.865607261657714844e+00,4.717082977294921875e+00,4.577356338500976562e+00,4.445670604705810547e+00,4.321349143981933594e+00,4.203792095184326172e+00,4.092461585998535156e+00,3.986875772476196289e+00,3.886601209640502930e+00,3.791246652603149414e+00,3.700459241867065430e+00,3.613918304443359375e+00,3.531332015991210938e+00,3.452436685562133789e+00,3.376989364624023438e+00,3.304768800735473633e+00,3.235573053359985352e+00,3.169215202331542969e+00,3.105524778366088867e+00,3.044343471527099609e+00,2.985526561737060547e+00,2.928939342498779297e+00,2.874456882476806641e+00,2.821964740753173828e+00,2.771355152130126953e+00,2.722528934478759766e+00,2.675393342971801758e+00,2.629862070083618164e+00,2.585854768753051758e+00,2.543295860290527344e+00,2.502115249633789062e+00,2.462247133255004883e+00,2.423629283905029297e+00,2.386204242706298828e+00,2.349917411804199219e+00
4.760718345642089844e+00,4.817697048187255859e+00,5.000000000000000000e+00,5.000000000000000000e+00,5.000000000000000000e+00,5.000000000000000000e+00,5.000000000000000000e+00,5.000000000000000000e+00,5.000000000000000000e+00,5.000000000000000000e+00,5.000000000000000000e+00,5.000000000000000000e+00,5.000000000000000000e+00,5.000000000000000000e+00,5.000000000000000000e+00,5.000000000000000000e+00,5.000000000000000000e+00,5.000000000000000000e+00,5.000000000000000000e+00,5.000000000000000000e+00,5.000000000000000000e+00,5.000000000000000000e+00,5.000000000000000000e+00,5.000000000000000000e+00,5.000000000000000000e+00,5.000000000000000000e+00,5.000000000000000000e+00,5.000000000000000000e+00,5.000000000000000000e+00,5.000000000000000000e+00,5.000000000000000000e+00,5.000000000000000000e+00,5.000000000000000000e+00,5.000000000000000000e+00,5.000000000000000000e+00,5.000000000000000000e+00,5.000000000000000000e+00,5.000000000000000000e+00,5.000000000000000000e+00,5.000000000000000000e+00,5.000000000000000000e+00,5.000000000000000000e+00,5.000000000000000000e+00,5.000000000000000000e+00,5.000000000000000000e+00,4.865713596343994141e+00,4.717182159423828125e+00,4.577450752258300781e+00,4.445758819580078125e+00,4.321433067321777344e+00,4.203871250152587891e+00,4.092536449432373047e+00,3.986946821212768555e+00,3.886668682098388672e+00,3.791311264038085938e+00,3.700520515441894531e+00,3.613976478576660156e+00,3.531388282775878906e+00,3.452489852905273438e+00,3.377040386199951172e+00,3.304817914962768555e+00,3.235620260238647461e+00,3.169260263442993164e+00,3.105567932128906250e+00,3.044385194778442383e+00,2.985566377639770508e+00,2.928977727890014648e+00,2.874494075775146484e+00,2.822000265121459961e+00,2.771389484405517578e+00,2.722562074661254883e+00,2.675425529479980469e+00,2.629893064498901367e+00,2.585884809494018555e+00,2.543324947357177734e+00,2.502143144607543945e+00,2.462274312973022461e+00,2.423655748367309570e+00,2.386229753494262695e+00,2.349942207336425781e+00
5.000000000000000000e+00,4.870059013366699219e+00,5.000000000000000000e+00,5.000000000000000000e+00,5.000000000000000000e+00,5.000000000000000000e+00,5.000000000000000000e+00,5.000000000000000000e+00,5.000000000000000000e+00,5.000000000000000000e+00,5.000000000000000000e+00,5.000000000000000000e+00,5.000000000000000000e+00,5.000000000000000000e+00,5.000000000000000000e+00,5.000000000000000000e+00,5.000000000000000000e+00,5.000000000000000000e+00,5.000000000000000000e+00,5.000000000000000000e+00,5.000000000000000000e+00,5.000000000000000000e+00,5.000000000000000000e+00,5.000000000000000000e+00,5.000000000000000000e+00,5.000000000000000000e+00,5.000000000000000000e+00,5.000000000000000000e+00,5.000000000000000000e+00,5.000000000000000000e+00,5.000000000000000000e+00,5.000000000000000000e+00,5.000000000000000000e+00,5.000000000000000000e+00,5.000000000000000000e+00,5.000000000000000000e+00,5.000000000000000000e+00,5.000000000000000000e+00,5.000000000000000000e+00,5.000000000000000000e+00,5.000000000000000000e+00,5.000000000000000000e+00,5.000000000000000000e+00,5.000000000000000000e+00,5.000000000000000000e+00,4.865819454193115234e+00,4.717282295227050781e+00,4.577544689178466797e+00,4.445847511291503906e+00,4.321516513824462891e+00,4.203950405120849609e+00,4.092611789703369141e+00,3.987018346786499023e+00,3.886736154556274414e+00,3.791375637054443359e+00,3.700582027435302734e+00,3.614034891128540039e+00,3.531443834304809570e+00,3.452543497085571289e+00,3.377091407775878906e+00,3.304866790771484375e+00,3.235666990280151367e+00,3.169305324554443359e+00,3.105611085891723633e+00,3.044426679611206055e+00,2.985606670379638672e+00,2.929015874862670898e+00,2.874531030654907227e+00,2.822036027908325195e+00,2.771423816680908203e+00,2.722595214843750000e+00,2.675457477569580078e+00,2.629924297332763672e+00,2.585914611816406250e+00,2.543353796005249023e+00,2.502171516418457031e+00,2.462301254272460938e+00,2.423681974411010742e+00,2.386255264282226562e+00,2.349967002868652344e+00
4.795641899108886719e+00,4.812714576721191406e+00,4.838664531707763672e+00,4.873171806335449219e+00,4.930955410003662109e+00,5.000000000000000000e+00,5.000000000000000000e+00,5.000000000000000000e+00,5.000000000000000000e+00,5.000000000000000000e+00,5.000000000000000000e+00,5.000000000000000000e+00,5.000000000000000000e+00,5.000000000000000000e+00,5.000000000000000000e+00,5.000000000000000000e+00,5.000000000000000000e+00,5.000000000000000000e+00,5.000000000000000000e+00,5.000000000000000000e+00,5.000000000000000000e+00,5.000000000000000000e+00,5.000000000000000000e+00,5.000000000000000000e+00,5.000000000000000000e+00,5.000000000000000000e+00,5.000000000000000000e+00,5.000000000000000000e+00,5.000000000000000000e+00,5.000000000000000000e+00,5.000000000000000000e+00,5.000000000000000000e+00,5.000000000000000000e+00,5.000000000000000000e+00,5.000000000000000000e+00,5.000000000000000000e+00,5.000000000000000000e+00,5.000000000000000000e+00,5.000000000000000000e+00,5.000000000000000000e+00,5.000000000000000000e+00,5.000000000000000000e+00,5.000000000000000000e+00,5.000000000000000000e+00,5.000000000000000000e+00,4.865925312042236328e+00,4.717381954193115234e+00,4.577638149261474609e+00,4.445936203002929688e+00,4.321599960327148438e+00,4.204029560089111328e+00,4.092686653137207031e+00,3.987089395523071289e+00,3.886804342269897461e+00,3.791439771652221680e+00,3.700643301010131836e+00,3.614093780517578125e+00,3.531499624252319336e+00,3.452596902847290039e+00,3.377142667770385742e+00,3.304915904998779297e+00,3.235713720321655273e+00,3.169350385665893555e+00,3.105654478073120117e+00,3.044468164443969727e+00,2.985646486282348633e+00,2.929054498672485352e+00,2.874567985534667969e+00,2.822071790695190430e+00,2.771458387374877930e+00,2.722628593444824219e+00,2.675489425659179688e+00,2.629955053329467773e+00,2.585944652557373047e+00,2.543382883071899414e+00,2.502199411392211914e+00,2.462328672409057617e+00,2.423708200454711914e+00,2.386280775070190430e+00,2.349991798400878906e+00
4.759171485900878906e+00,4.779586791992187500e+00,4.828495979309082031e+00,4.896926403045654297e+00,4.927467823028564453e+00,5.000000000000000000e+00,5.000000000000000000e+00,5.000000000000000000e+00,5.000000000000000000e+00,5.000000000000000000e+00,5.000000000000000000e+00,5.000000000000000000e+00,5.000000000000000000e+00,5.000000000000000000e+00,5.000000000000000000e+00,5.000000000000000000e+00,5.000000000000000000e+00,5.000000000000000000e+00,5.000000000000000000e+00,5.000000000000000000e+00,5.000000000000000000e+00,5.000000000000000000e+00,5.000000000000000000e+00,5.000000000000000000e+00,5.000000000000000000e+00,5.000000000000000000e+00,5.000000000000000000e+00,5.000000000000000000e+00,5.000000000000000000e+00,5.000000000000000000e+00,5.000000000000000000e+00,5.000000000000000000e+00,5.000000000000000000e+00,5.000000000000000000e+00,5.000000000000000000e+00,5.000000000000000000e+00,5.000000000000000000e+00,5.000000000000000000e+00,5.000000000000000000e+00,5.000000000000000000e+00,5.000000000000000000e+00,5.000000000000000000e+00,5.000000000000000000e+00,5.000000000000000000e+00,5.000000000000000000e+00,4.866031646728515625e+00,4.717481613159179688e+00,4.577732086181640625e+00,4.446024417877197266e+00,4.321683883666992188e+00,4.204108715057373047e+00,4.092761993408203125e+00,3.987160444259643555e+00,3.886871814727783203e+00,3.791504383087158203e+00,3.700704574584960938e+00,3.614152193069458008e+00,3.531555891036987305e+00,3.452650070190429688e+00,3.377193689346313477e+00,3.304964780807495117e+00,3.235760927200317383e+00,3.169395208358764648e+00,3.105697631835937500e+00,3.044509887695312500e+00,2.985686302185058594e+00,2.929092884063720703e+00,2.874605178833007812e+00,2.822107315063476562e+00,2.771492719650268555e+00,2.722661733627319336e+00,2.675521850585937500e+00,2.629986047744750977e+00,2.585974454879760742e+00,2.543411970138549805e+00,2.502227306365966797e+00,2.462355852127075195e+00,2.423734664916992188e+00,2.386306285858154297e+00,2.350016355514526367e+00
4.752962112426757812e+00,4.782288551330566406e+00,4.835163116455078125e+00,4.886898994445800781e+00,4.927483081817626953e+00,5.000000000000000000e+00,5.000000000000000000e+00,5.000000000000000000e+00,5.000000000000000000e+00,5.000000000000000000e+00,5.000000000000000000e+00,5.000000000000000000e+00,5.000000000000000000e+00,5.000000000000000000e+00,5.000000000000000000e+00,5.000000000000000000e+00,5.000000000000000000e+00,5.000000000000000000e+00,5.000000000000000000e+00,5.000000000000000000e+00,5.000000000000000000e+00,5.000000000000000000e+00,5.000000000000000000e+00,5.000000000000000000e+00,5.000000000000000000e+00,5.000000000000000000e+00,5.000000000000000000e+00,5.000000000000000000e+00,5.000000000000000000e+00,5.000000000000000000e+00,5.000000000000000000e+00,5.000000000000000000e+00,5.000000000000000000e+00,5.000000000000000000e+00,5.000000000000000000e+00,5.000000000000000000e+00,5.000000000000000000e+00,5.000000000000000000e+00,5.000000000000000000e+00,5.000000000000000000e+00,5.000000000000000000e+00,5.000000000000000000e+00,5.000000000000000000e+00,5.000000000000000000e+00,5.000000000000000000e+00,4.866125106811523438e+00,4.717572212219238281e+00,4.577819824218750000e+00,4.446110248565673828e+00,4.321766376495361328e+00,4.204187870025634766e+00,4.092836856842041016e+00,3.987231969833374023e+00,3.886939287185668945e+00,3.791568756103515625e+00,3.700766086578369141e+00,3.614210605621337891e+00,3.531611442565917969e+00,3.452703714370727539e+00,3.377244710922241211e+00,3.305013656616210938e+00,3.235807657241821289e+00,3.169440507888793945e+00,3.105740547180175781e+00,3.044551372528076172e+00,2.985726356506347656e+00,2.929131269454956055e+00,2.874642133712768555e+00,2.822143077850341797e+00,2.771527290344238281e+00,2.722694873809814453e+00,2.675553798675537109e+00,2.630017280578613281e+00,2.586004495620727539e+00,2.543440818786621094e+00,2.502255678176879883e+00,2.462382793426513672e+00,2.423760890960693359e+00,2.386331796646118164e+00,2.350041151046752930e+00
4.754265785217285156e+00,4.780811786651611328e+00,4.847659587860107422e+00,4.913439273834228516e+00,4.929975032806396484e+00,5.000000000000000000e+00,5.000000000000000000e+00,5.000000000000000000e+00,5.000000000000000000e+00,5.000000000000000000e+00,5.000000000000000000e+00,5.000000000000000000e+00,5.000000000000000000e+00,5.000000000000000000e+00,5.000000000000000000e+00,5.000000000000000000e+00,5.000000000000000000e+00,5.000000000000000000e+00,5.000000000000000000e+00,5.000000000000000000e+00,5.000000000000000000e+00,5.000000000000000000e+00,5.000000000000000000e+00,5.000000000000000000e+00,5.000000000000000000e+00,5.000000000000000000e+00,5.000000000000000000e+00,5.000000000000000000e+00,5.000000000000000000e+00,5.000000000000000000e+00,5.000000000000000000e+00,5.000000000000000000e+00,5.000000000000000000e+00,5.000000000000000000e+00,5.000000000000000000e+00,5.000000000000000000e+00,5.000000000000000000e+00,5.000000000000000000e+00,5.000000000000000000e+00,5.000000000000000000e+00,5.000000000000000000e+00,5.000000000000000000e+00,5.000000000000000000e+00,5.000000000000000000e+00,5.000000000000000000e+00,4.866207599639892578e+00,4.717648983001708984e+00,4.577892780303955078e+00,4.446178436279296875e+00,4.321831226348876953e+00,4.204250335693359375e+00,4.092897891998291016e+00,3.987291812896728516e+00,3.886998414993286133e+00,3.791626214981079102e+00,3.700822591781616211e+00,3.614266157150268555e+00,3.531665802001953125e+00,3.452757120132446289e+00,3.377295970916748047e+00,3.305062770843505859e+00,3.235854387283325195e+00,3.169485330581665039e+00,3.105784177780151367e+00,3.044592857360839844e+00,2.985766172409057617e+00,2.929169893264770508e+00,2.874679088592529297e+00,2.822178840637207031e+00,2.771561622619628906e+00,2.722728252410888672e+00,2.675585746765136719e+00,2.630048036575317383e+00,2.586034536361694336e+00,2.543469667434692383e+00,2.502283573150634766e+00,2.462410211563110352e+00,2.423787355422973633e+00,2.386357307434082031e+00,2.350065946578979492e+00
4.747170925140380859e+00,4.779915809631347656e+00,4.834671497344970703e+00,5.000000000000000000e+00,4.919212818145751953e+00,5.000000000000000000e+00,5.000000000000000000e+00,5.000000000000000000e+00,5.000000000000000000e+00,5.000000000000000000e+00,5.000000000000000000e+00,5.000000000000000000e+00,5.000000000000000000e+00,5.000000000000000000e+00,5.000000000000000000e+00,5.000000000000000000e+00,5.000000000000000000e+00,5.000000000000000000e+00,5.000000000000000000e+00,5.000000000000000000e+00,5.000000000000000000e+00,5.000000000000000000e+00,5.000000000000000000e+00,5.000000000000000000e+00,5.000000000000000000e+00,5.000000000000000000e+00,5.000000000000000000e+00,5.000000000000000000e+00,5.000000000000000000e+00,5.000000000000000000e+00,5.000000000000000000e+00,5.000000000000000000e+00,5.000000000000000000e+00,5.000000000000000000e+00,5.000000000000000000e+00,5.000000000000000000e+00,5.000000000000000000e+00,5.000000000000000000e+00,5.000000000000000000e+00,5.000000000000000000e+00,5.000000000000000000e+00,5.000000000000000000e+00,5.000000000000000000e+00,5.000000000000000000e+00,5.000000000000000000e+00,4.866289615631103516e+00,4.717726230621337891e+00,4.577965259552001953e+00,4.446247100830078125e+00,4.321896076202392578e+00,4.204311847686767578e+00,4.092956066131591797e+00,3.987346649169921875e+00,3.887050628662109375e+00,3.791676282882690430e+00,3.700869798660278320e+00,3.614311456680297852e+00,3.531709432601928711e+00,3.452798366546630859e+00,3.377336740493774414e+00,3.305103063583374023e+00,3.235894680023193359e+00,3.169524908065795898e+00,3.105823278427124023e+00,3.044631719589233398e+00,2.985804557800292969e+00,2.929207801818847656e+00,2.874716281890869141e+00,2.822214365005493164e+00,2.771595954895019531e+00,2.722761392593383789e+00,2.675617933273315430e+00,2.630079030990600586e+00,2.586064338684082031e+00,2.543498754501342773e+00,2.502311468124389648e+00,2.462437152862548828e+00,2.423813581466674805e+00,2.386383056640625000e+00,2.350090742111206055e+00
4.748309135437011719e+00,4.785586833953857422e+00,4.818696022033691406e+00,5.000000000000000000e+00,4.899587631225585938e+00,5.000000000000000000e+00,5.000000000000000000e+00,5.000000000000000000e+00,5.000000000000000000e+00,5.000000000000000000e+00,5.000000000000000000e+00,5.000000000000000000e+00,5.000000000000000000e+00,5.000000000000000000e+00,5.000000000000000000e+00,5.000000000000000000e+00,5.000000000000000000e+00,5.000000000000000000e+00,5.000000000000000000e+00,5.000000000000000000e+00,5.000000000000000000e+00,5.000000000000000000e+00,5.000000000000000000e+00,5.000000000000000000e+00,5.000000000000000000e+00,5.000000000000000000e+00,5.000000000000000000e+00,5.000000000000000000e+00,5.000000000000000000e+00,5.000000000000000000e+00,5.000000000000000000e+00,5.000000000000000000e+00,5.000000000000000000e+00,5.000000000000000000e+00,5.000000000000000000e+00,5.000000000000000000e+00,5.000000000000000000e+00,5.000000000000000000e+00,5.000000000000000000e+00,5.000000000000000000e+00,5.000000000000000000e+00,5.000000000000000000e+00,5.000000000000000000e+00,5.000000000000000000e+00,5.000000000000000000e+00,4.866371631622314453e+00,4.717803478240966797e+00,4.578037738800048828e+00,4.446315288543701172e+00,4.321960926055908203e+00,4.204372882843017578e+00,4.093013763427734375e+00,3.987402200698852539e+00,3.887102842330932617e+00,3.791725873947143555e+00,3.700917482376098633e+00,3.614356517791748047e+00,3.531752347946166992e+00,3.452839851379394531e+00,3.377376079559326172e+00,3.305140972137451172e+00,3.235930919647216797e+00,3.169559478759765625e+00,3.105856418609619141e+00,3.044663667678833008e+00,2.985835552215576172e+00,2.929237365722656250e+00,2.874745130538940430e+00,2.822243452072143555e+00,2.771624803543090820e+00,2.722790002822875977e+00,2.675646543502807617e+00,2.630107402801513672e+00,2.586092710494995117e+00,2.543526887893676758e+00,2.502339839935302734e+00,2.462464332580566406e+00,2.423840045928955078e+00,2.386408329010009766e+00,2.350115537643432617e+00
4.772555351257324219e+00,4.749212265014648438e+00,4.794738292694091797e+00,5.000000000000000000e+00,4.884102821350097656e+00,5.000000000000000000e+00,5.000000000000000000e+00,5.000000000000000000e+00,5.000000000000000000e+00,5.000000000000000000e+00,5.000000000000000000e+00,5.000000000000000000e+00,5.000000000000000000e+00,5.000000000000000000e+00,5.000000000000000000e+00,5.000000000000000000e+00,5.000000000000000000e+00,5.000000000000000000e+00,5.000000000000000000e+00,5.000000000000000000e+00,5.000000000000000000e+00,5.000000000000000000e+00,5.000000000000000000e+00,5.000000000000000000e+00,5.000000000000000000e+00,5.000000000000000000e+00,5.000000000000000000e+00,5.000000000000000000e+00,5.000000000000000000e+00,5.000000000000000000e+00,5.000000000000000000e+00,5.000000000000000000e+00,5.000000000000000000e+00,5.000000000000000000e+00,5.000000000000000000e+00,5.000000000000000000e+00,5.000000000000000000e+00,5.000000000000000000e+00,5.000000000000000000e+00,5.000000000000000000e+00,5.000000000000000000e+00,5.000000000000000000e+00,5.000000000000000000e+00,5.000000000000000000e+00,5.000000000000000000e+00,4.866453647613525391e+00,4.717880725860595703e+00,4.578110218048095703e+00,4.446383953094482422e+00,4.322025299072265625e+00,4.204433917999267578e+00,4.093071937561035156e+00,3.987457036972045898e+00,3.887155532836914062e+00,3.791775703430175781e+00,3.700964927673339844e+00,3.614402055740356445e+00,3.531795501708984375e+00,3.452881097793579102e+00,3.377415895462036133e+00,3.305178642272949219e+00,3.235967159271240234e+00,3.169594526290893555e+00,3.105889797210693359e+00,3.044695854187011719e+00,2.985866308212280273e+00,2.929267168045043945e+00,2.874773740768432617e+00,2.822271108627319336e+00,2.771651744842529297e+00,2.722815752029418945e+00,2.675671339035034180e+00,2.630131483078002930e+00,2.586115837097167969e+00,2.543549299240112305e+00,2.502361297607421875e+00,2.462486028671264648e+00,2.423861742019653320e+00,2.386430025100708008e+00,2.350136995315551758e+00
4.779273033142089844e+00,4.740028858184814453e+00,4.789247512817382812e+00,5.000000000000000000e+00,4.856929302215576172e+00,5.000000000000000000e+00,5.000000000000000000e+00,5.000000000000000000e+00,5.000000000000000000e+00,5.000000000000000000e+00,5.000000000000000000e+00,5.000000000000000000e+00,5.000000000000000000e+00,5.000000000000000000e+00,5.000000000000000000e+00,5.000000000000000000e+00,5.000000000000000000e+00,5.000000000000000000e+00,5.000000000000000000e+00,5.000000000000000000e+00,5.000000000000000000e+00,5.000000000000000000e+00,5.000000000000000000e+00,5.000000000000000000e+00,5.000000000000000000e+00,5.000000000000000000e+00,5.000000000000000000e+00,5.000000000000000000e+00,5.000000000000000000e+00,5.000000000000000000e+00,5.000000000000000000e+00,5.000000000000000000e+00,5.000000000000000000e+00,5.000000000000000000e+00,5.000000000000000000e+00,5.000000000000000000e+00,5.000000000000000000e+00,5.000000000000000000e+00,5.000000000000000000e+00,5.000000000000000000e+00,5.000000000000000000e+00,5.000000000000000000e+00,5.000000000000000000e+00,5.000000000000000000e+00,5.000000000000000000e+00,4.866535663604736328e+00,4.717957496643066406e+00,4.578183174133300781e+00,4.446452140808105469e+00,4.322090148925781250e+00,4.204495429992675781e+00,4.093130111694335938e+00,3.987512111663818359e+00,3.887207746505737305e+00,3.791825294494628906e+00,3.701012372970581055e+00,3.614447355270385742e+00,3.531839132308959961e+00,3.452922344207763672e+00,3.377455472946166992e+00,3.305216789245605469e+00,3.236003398895263672e+00,3.169629335403442383e+00,3.105923414230346680e+00,3.044727802276611328e+00,2.985897302627563477e+00,2.929296970367431641e+00,2.874802350997924805e+00,2.822298526763916016e+00,2.771678209304809570e+00,2.722841262817382812e+00,2.675696134567260742e+00,2.630155563354492188e+00,2.586139202117919922e+00,2.543571710586547852e+00,2.502382993698120117e+00,2.462507247924804688e+00,2.423882007598876953e+00,2.386449813842773438e+00,2.350156307220458984e+00
5.000000000000000000e+00,4.736741065979003906e+00,4.795207023620605469e+00,5.000000000000000000e+00,4.835343837738037109e+00,5.000000000000000000e+00,5.000000000000000000e+00,5.000000000000000000e+00,5.000000000000000000e+00,5.000000000000000000e+00,5.000000000000000000e+00,5.000000000000000000e+00,5.000000000000000000e+00,5.000000000000000000e+00,5.000000000000000000e+00,5.000000000000000000e+00,5.000000000000000000e+00,5.000000000000000000e+00,5.000000000000000000e+00,5.000000000000000000e+00,5.000000000000000000e+00,5.000000000000000000e+00,5.000000000000000000e+00,5.000000000000000000e+00,5.000000000000000000e+00,5.000000000000000000e+00,5.000000000000000000e+00,5.000000000000000000e+00,5.000000000000000000e+00,5.000000000000000000e+00,5.000000000000000000e+00,5.000000000000000000e+00,5.000000000000000000e+00,5.000000000000000000e+00,5.000000000000000000e+00,5.000000000000000000e+00,5.000000000000000000e+00,5.000000000000000000e+00,5.000000000000000000e+00,5.000000000000000000e+00,5.000000000000000000e+00,5.000000000000000000e+00,5.000000000000000000e+00,5.000000000000000000e+00,5.000000000000000000e+00,4.866617679595947266e+00,4.718034744262695312e+00,4.578255653381347656e+00,4.446520805358886719e+00,4.322154998779296875e+00,4.204556941986083984e+00,4.093188285827636719e+00,3.987566947937011719e+00,3.887259960174560547e+00,3.791875600814819336e+00,3.701059579849243164e+00,3.614492416381835938e+00,3.531882286071777344e+00,3.452963829040527344e+00,3.377494812011718750e+00,3.305254459381103516e+00,3.236039876937866211e+00,3.169664144515991211e+00,3.105956792831420898e+00,3.044760227203369141e+00,2.985928058624267578e+00,2.929326534271240234e+00,2.874831199645996094e+00,2.822326183319091797e+00,2.771704673767089844e+00,2.722867250442504883e+00,2.675720691680908203e+00,2.630179405212402344e+00,2.586162328720092773e+00,2.543594360351562500e+00,2.502404689788818359e+00,2.462528228759765625e+00,2.423902511596679688e+00,2.386469602584838867e+00,2.350175380706787109e+00
5.000000000000000000e+00,4.728465557098388672e+00,4.830324649810791016e+00,5.000000000000000000e+00,5.000000000000000000e+00,5.000000000000000000e+00,5.000000000000000000e+00,5.000000000000000000e+00,5.000000000000000000e+00,5.000000000000000000e+00,5.000000000000000000e+00,5.000000000000000000e+00,5.000000000000000000e+00,5.000000000000000000e+00,5.000000000000000000e+00,5.000000000000000000e+00,5.000000000000000000e+00,5.000000000000000000e+00,5.000000000000000000e+00,5.000000000000000000e+00,5.000000000000000000e+00,5.000000000000000000e+00,5.000000000000000000e+00,5.000000000000000000e+00,5.000000000000000000e+00,5.000000000000000000e+00,5.000000000000000000e+00,5.000000000000000000e+00,5.000000000000000000e+00,5.000000000000000000e+00,5.000000000000000000e+00,5.000000000000000000e+00,5.000000000000000000e+00,5.000000000000000000e+00,5.000000000000000000e+00,5.000000000000000000e+00,5.000000000000000000e+00,5.000000000000000000e+00,5.000000000000000000e+00,5.000000000000000000e+00,5.000000000000000000e+00,5.000000000000000000e+00,5.000000000000000000e+00,5.000000000000000000e+00,5.000000000000000000e+00,4.866699695587158203e+00,4.718111991882324219e+00,4.578328609466552734e+00,4.446589469909667969e+00,4.322219848632812500e+00,4.204617977142333984e+00,4.093245983123779297e+00,3.987622499465942383e+00,3.887312173843383789e+00,3.791925191879272461e+00,3.701107501983642578e+00,3.614537477493286133e+00,3.531925201416015625e+00,3.453005075454711914e+00,3.377534389495849609e+00,3.305292367935180664e+00,3.236076116561889648e+00,3.169699192047119141e+00,3.105990171432495117e+00,3.044792175292968750e+00,2.985959053039550781e+00,2.929356336593627930e+00,2.874859809875488281e+00,2.822353839874267578e+00,2.771731376647949219e+00,2.722892761230468750e+00,2.675745725631713867e+00,2.630203247070312500e+00,2.586185455322265625e+00,2.543616771697998047e+00,2.502426385879516602e+00,2.462549209594726562e+00,2.423922777175903320e+00,2.386489391326904297e+00,2.350194454193115234e+00
5.000000000000000000e+00,4.726306915283203125e+00,5.000000000000000000e+00,5.000000000000000000e+00,5.000000000000000000e+00,5.000000000000000000e+00,5.000000000000000000e+00,5.000000000000000000e+00,5.000000000000000000e+00,5.000000000000000000e+00,5.000000000000000000e+00,5.000000000000000000e+00,5.000000000000000000e+00,5.000000000000000000e+00,5.000000000000000000e+00,5.000000000000000000e+00,5.000000000000000000e+00,5.000000000000000000e+00,5.000000000000000000e+00,5.000000000000000000e+00,5.000000000000000000e+00,5.000000000000000000e+00,5.000000000000000000e+00,5.000000000000000000e+00,5.000000000000000000e+00,5.000000000000000000e+00,5.000000000000000000e+00,5.000000000000000000e+00,5.000000000000000000e+00,5.000000000000000000e+00,5.000000000000000000e+00,5.000000000000000000e+00,5.000000000000000000e+00,5.000000000000000000e+00,5.000000000000000000e+00,5.000000000000000000e+00,5.000000000000000000e+00,5.000000000000000000e+00,5.000000000000000000e+00,5.000000000000000000e+00,5.000000000000000000e+00,5.000000000000000000e+00,5.000000000000000000e+00,5.000000000000000000e+00,5.000000000000000000e+00,4.866781711578369141e+00,4.718189239501953125e+00,4.578401088714599609e+00,4.446658134460449219e+00,4.322284221649169922e+00,4.204679489135742188e+00,4.093304157257080078e+00,3.987677574157714844e+00,3.887364864349365234e+00,3.791975021362304688e+00,3.701154708862304688e+00,3.614583015441894531e+00,3.531968355178833008e+00,3.453046321868896484e+00,3.377573966979980469e+00,3.305330038070678711e+00,3.236112356185913086e+00,3.169733762741088867e+00,3.106023550033569336e+00,3.044824361801147461e+00,2.985990047454833984e+00,2.929386138916015625e+00,2.874888420104980469e+00,2.822381496429443359e+00,2.771758079528808594e+00,2.722918510437011719e+00,2.675770521163940430e+00,2.630227565765380859e+00,2.586208581924438477e+00,2.543638944625854492e+00,2.502448081970214844e+00,2.462570190429687500e+00,2.423943042755126953e+00,2.386509180068969727e+00,2.350213527679443359e+00
5.000000000000000000e+00,4.767661571502685547e+00,4.852654457092285156e+00,5.000000000000000000e+00,5.000000000000000000e+00,5.000000000000000000e+00,5.000000000000000000e+00,5.000000000000000000e+00,5.000000000000000000e+00,5.000000000000000000e+00,5.000000000000000000e+00,5.000000000000000000e+00,5.000000000000000000e+00,5.000000000000000000e+00,5.000000000000000000e+00,5.000000000000000000e+00,5.000000000000000000e+00,5.000000000000000000e+00,5.000000000000000000e+00,5.000000000000000000e+00,5.000000000000000000e+00,5.000000000000000000e+00,5.000000000000000000e+00,5.000000000000000000e+00,5.000000000000000000e+00,5.000000000000000000e+00,5.000000000000000000e+00,5.000000000000000000e+00,5.000000000000000000e+00,5.000000000000000000e+00,5.000000000000000000e+00,5.000000000000000000e+00,5.000000000000000000e+00,5.000000000000000000e+00,5.000000000000000000e+00,5.000000000000000000e+00,5.000000000000000000e+00,5.000000000000000000e+00,5.000000000000000000e+00,5.000000000000000000e+00,5.000000000000000000e+00,5.000000000000000000e+00,5.000000000000000000e+00,5.000000000000000000e+00,5.000000000000000000e+00,4.866863727569580078e+00,4.718266487121582031e+00,4.578473567962646484e+00,4.446726322174072266e+00,4.322349071502685547e+00,4.204740524291992188e+00,4.093362331390380859e+00,3.987732410430908203e+00,3.887417078018188477e+00,3.792025089263916016e+00,3.701202154159545898e+00,3.614628314971923828e+00,3.532011985778808594e+00,3.453087568283081055e+00,3.377613544464111328e+00,3.305368185043334961e+00,3.236148357391357422e+00,3.169768571853637695e+00,3.106057167053222656e+00,3.044856309890747070e+00,2.986020803451538086e+00,2.929415941238403320e+00,2.874917030334472656e+00,2.822408914566040039e+00,2.771784782409667969e+00,2.722944259643554688e+00,2.675795316696166992e+00,2.630251407623291016e+00,2.586231946945190430e+00,2.543661355972290039e+00,2.502469778060913086e+00,2.462591171264648438e+00,2.423963308334350586e+00,2.386528730392456055e+00,2.350232839584350586e+00
4.810497283935546875e+00,4.809607028961181641e+00,4.876513481140136719e+00,5.000000000000000000e+00,5.000000000000000000e+00,5.000000000000000000e+00,5.000000000000000000e+00,5.000000000000000000e+00,5.000000000000000000e+00,5.000000000000000000e+00,5.000000000000000000e+00,5.000000000000000000e+00,5.000000000000000000e+00,5.000000000000000000e+00,5.000000000000000000e+00,5.000000000000000000e+00,5.000000000000000000e+00,5.000000000000000000e+00,5.000000000000000000e+00,5.000000000000000000e+00,5.000000000000000000e+00,5.000000000000000000e+00,5.000000000000000000e+00,5.000000000000000000e+00,5.000000000000000000e+00,5.000000000000000000e+00,5.000000000000000000e+00,5.000000000000000000e+00,5.000000000000000000e+00,5.000000000000000000e+00,5.000000000000000000e+00,5.000000000000000000e+00,5.000000000000000000e+00,5.000000000000000000e+00,5.000000000000000000e+00,5.000000000000000000e+00,5.000000000000000000e+00,5.000000000000000000e+00,5.000000000000000000e+00,5.000000000000000000e+00,5.000000000000000000e+00,5.000000000000000000e+00,5.000000000000000000e+00,5.000000000000000000e+00,5.000000000000000000e+00,4.866946220397949219e+00,4.718343257904052734e+00,4.578546524047851562e+00,4.446794986724853516e+00,4.322413921356201172e+00,4.204802036285400391e+00,4.093420505523681641e+00,3.987787485122680664e+00,3.887469291687011719e+00,3.792074680328369141e+00,3.701249837875366211e+00,3.614673376083374023e+00,3.532055139541625977e+00,3.453129053115844727e+00,3.377652883529663086e+00,3.305405855178833008e+00,3.236185073852539062e+00,3.169803380966186523e+00,3.106090545654296875e+00,3.044888734817504883e+00,2.986051559448242188e+00,2.929445505142211914e+00,2.874945640563964844e+00,2.822436571121215820e+00,2.771811246871948242e+00,2.722970008850097656e+00,2.675820350646972656e+00,2.630275249481201172e+00,2.586255073547363281e+00,2.543684005737304688e+00,2.502491474151611328e+00,2.462612152099609375e+00,2.423983812332153320e+00,2.386548519134521484e+00,2.350251913070678711e+00
4.838840007781982422e+00,4.833119392395019531e+00,4.903114318847656250e+00,5.000000000000000000e+00,5.000000000000000000e+00,5.000000000000000000e+00,5.000000000000000000e+00,5.000000000000000000e+00,5.000000000000000000e+00,5.000000000000000000e+00,5.000000000000000000e+00,5.000000000000000000e+00,5.000000000000000000e+00,5.000000000000000000e+00,5.000000000000000000e+00,5.000000000000000000e+00,5.000000000000000000e+00,5.000000000000000000e+00,5.000000000000000000e+00,5.000000000000000000e+00,5.000000000000000000e+00,5.000000000000000000e+00,5.000000000000000000e+00,5.000000000000000000e+00,5.000000000000000000e+00,5.000000000000000000e+00,5.000000000000000000e+00,5.000000000000000000e+00,5.000000000000000000e+00,5.000000000000000000e+00,5.000000000000000000e+00,5.000000000000000000e+00,5.000000000000000000e+00,5.000000000000000000e+00,5.000000000000000000e+00,5.000000000000000000e+00,5.000000000000000000e+00,5.000000000000000000e+00,5.000000000000000000e+00,5.000000000000000000e+00,5.000000000000000000e+00,5.000000000000000000e+00,5.000000000000000000e+00,5.000000000000000000e+00,5.000000000000000000e+00,4.867027759552001953e+00,4.718420505523681641e+00,4.578619003295898438e+00,4.446863174438476562e+00,4.322478771209716797e+00,4.204863071441650391e+00,4.093478679656982422e+00,3.987842798233032227e+00,3.887521505355834961e+00,3.792124509811401367e+00,3.701297283172607422e+00,3.614718675613403320e+00,3.532098293304443359e+00,3.453170299530029297e+00,3.377692699432373047e+00,3.305443763732910156e+00,3.236221075057983398e+00,3.169838428497314453e+00,3.106123924255371094e+00,3.044920682907104492e+00,2.986082792282104492e+00,2.929475307464599609e+00,2.874974250793457031e+00,2.822464466094970703e+00,2.771837711334228516e+00,2.722995519638061523e+00,2.675844907760620117e+00,2.630299091339111328e+00,2.586278200149536133e+00,2.543706417083740234e+00,2.502513408660888672e+00,2.462633132934570312e+00,2.424004077911376953e+00,2.386568307876586914e+00,2.350270986557006836e+00
4.881723403930664062e+00,4.858145713806152344e+00,4.932992458343505859e+00,5.000000000000000000e+00,5.000000000000000000e+00,5.000000000000000000e+00,5.000000000000000000e+00,5.000000000000000000e+00,5.000000000000000000e+00,5.000000000000000000e+00,5.000000000000000000e+00,5.000000000000000000e+00,5.000000000000000000e+00,5.000000000000000000e+00,5.000000000000000000e+00,5.000000000000000000e+00,5.000000000000000000e+00,5.000000000000000000e+00,5.000000000000000000e+00,5.000000000000000000e+00,5.000000000000000000e+00,5.000000000000000000e+00,5.000000000000000000e+00,5.000000000000000000e+00,5.000000000000000000e+00,5.000000000000000000e+00,5.000000000000000000e+00,5.000000000000000000e+00,5.000000000000000000e+00,5.000000000000000000e+00,5.000000000000000000e+00,5.000000000000000000e+00,5.000000000000000000e+00,5.000000000000000000e+00,5.000000000000000000e+00,5.000000000000000000e+00,5.000000000000000000e+00,5.000000000000000000e+00,5.000000000000000000e+00,5.000000000000000000e+00,5.000000000000000000e+00,5.000000000000000000e+00,5.000000000000000000e+00,5.000000000000000000e+00,5.000000000000000000e+00,4.867110252380371094e+00,4.718497753143310547e+00,4.578691482543945312e+00,4.446931838989257812e+00,4.322543144226074219e+00,4.204924583435058594e+00,4.093536376953125000e+00,3.987897872924804688e+00,3.887574195861816406e+00,3.792174100875854492e+00,3.701344490051269531e+00,3.614764213562011719e+00,3.532141208648681641e+00,3.453211545944213867e+00,3.377732038497924805e+00,3.305481433868408203e+00,3.236257314682006836e+00,3.169872999191284180e+00,3.106157541275024414e+00,3.044952630996704102e+00,2.986113548278808594e+00,2.929505109786987305e+00,2.875002861022949219e+00,2.822491884231567383e+00,2.771864652633666992e+00,2.723021268844604492e+00,2.675869703292846680e+00,2.630323410034179688e+00,2.586301326751708984e+00,2.543728590011596680e+00,2.502534866333007812e+00,2.462654113769531250e+00,2.424024581909179688e+00,2.386588096618652344e+00,2.350290298461914062e+00
4.839713573455810547e+00,4.877022743225097656e+00,5.000000000000000000e+00,5.000000000000000000e+00,5.000000000000000000e+00,5.000000000000000000e+00,5.000000000000000000e+00,5.000000000000000000e+00,5.000000000000000000e+00,5.000000000000000000e+00,5.000000000000000000e+00,5.000000000000000000e+00,5.000000000000000000e+00,5.000000000000000000e+00,5.000000000000000000e+00,5.000000000000000000e+00,5.000000000000000000e+00,5.000000000000000000e+00,5.000000000000000000e+00,5.000000000000000000e+00,5.000000000000000000e+00,5.000000000000000000e+00,5.000000000000000000e+00,5.000000000000000000e+00,5.000000000000000000e+00,5.000000000000000000e+00,5.000000000000000000e+00,5.000000000000000000e+00,5.000000000000000000e+00,5.000000000000000000e+00,5.000000000000000000e+00,5.000000000000000000e+00,5.000000000000000000e+00,5.000000000000000000e+00,5.000000000000000000e+00,5.000000000000000000e+00,5.000000000000000000e+00,5.000000000000000000e+00,5.000000000000000000e+00,5.000000000000000000e+00,5.000000000000000000e+00,5.000000000000000000e+00,5.000000000000000000e+00,5.000000000000000000e+00,5.000000000000000000e+00,4.867192268371582031e+00,4.718575000762939453e+00,4.578763961791992188e+00,4.447000503540039062e+00,4.322607994079589844e+00,4.204985618591308594e+00,4.093594551086425781e+00,3.987952709197998047e+00,3.887626647949218750e+00,3.792224407196044922e+00,3.701391935348510742e+00,3.614809274673461914e+00,3.532184839248657227e+00,3.453252792358398438e+00,3.377771615982055664e+00,3.305519580841064453e+00,3.236293554306030273e+00,3.169907808303833008e+00,3.106190919876098633e+00,3.044985055923461914e+00,2.986144304275512695e+00,2.929534912109375000e+00,2.875031709671020508e+00,2.822519540786743164e+00,2.771891117095947266e+00,2.723047018051147461e+00,2.675894498825073242e+00,2.630347251892089844e+00,2.586324691772460938e+00,2.543751001358032227e+00,2.502556562423706055e+00,2.462675333023071289e+00,2.424044847488403320e+00,2.386607646942138672e+00,2.350309371948242188e+00
4.871482372283935547e+00,4.870270729064941406e+00,4.869060039520263672e+00,4.867849349975585938e+00,4.866639137268066406e+00,4.865430355072021484e+00,4.864221096038818359e+00,4.863013267517089844e+00,4.861805915832519531e+00,4.860599040985107422e+00,4.859392642974853516e+00,4.858187198638916016e+00,4.856981754302978516e+00,4.855777263641357422e+00,4.854573726654052734e+00,4.853370189666748047e+00,4.852167606353759766e+00,4.850965499877929688e+00,4.849763870239257812e+00,4.848563194274902344e+00,4.847362995147705078e+00,4.846163272857666016e+00,4.844964027404785156e+00,4.843765735626220703e+00,4.842567920684814453e+00,4.841370105743408203e+00,4.840173721313476562e+00,4.838977336883544922e+00,4.837781429290771484e+00,4.836586952209472656e+00,4.835392475128173828e+00,4.834198474884033203e+00,4.833005428314208984e+00,4.831812858581542969e+00,4.830620288848876953e+00,4.829429149627685547e+00,4.828238487243652344e+00,4.827047824859619141e+00,4.825858592987060547e+00,4.824669361114501953e+00,4.823480606079101562e+00,4.822292804718017578e+00,4.821105480194091797e+00,4.819918632507324219e+00,4.818732738494873047e+00,4.817547321319580078e+00,4.718651771545410156e+00,4.578836917877197266e+00,4.447069168090820312e+00,4.322672843933105469e+00,4.205047130584716797e+00,4.093652725219726562e+00,3.988008260726928711e+00,3.887678861618041992e+00,3.792273998260498047e+00,3.701439857482910156e+00,3.614854574203491211e+00,3.532227993011474609e+00,3.453294277191162109e+00,3.377810955047607422e+00,3.305557250976562500e+00,3.236330032348632812e+00,3.169942617416381836e+00,3.106224298477172852e+00,3.045017242431640625e+00,2.986175060272216797e+00,2.929564476013183594e+00,2.875060319900512695e+00,2.822547197341918945e+00,2.771917581558227539e+00,2.723072767257690430e+00,2.675919532775878906e+00,2.630371093750000000e+00,2.586347818374633789e+00,2.543773651123046875e+00,2.502578258514404297e+00,2.462696313858032227e+00,2.424065351486206055e+00,2.386627435684204102e+00,2.350328445434570312e+00
3.776034832000732422e+00,3.775307178497314453e+00,3.774579286575317383e+00,3.773852109909057617e+00,3.773124694824218750e+00,3.772397518157958984e+00,3.771671295166015625e+00,3.770944595336914062e+00,3.770218372344970703e+00,3.769492864608764648e+00,3.768767118453979492e+00,3.768041849136352539e+00,3.767317056655883789e+00,3.766592264175415039e+00,3.765867710113525391e+00,3.765143871307373047e+00,3.764419794082641602e+00,3.763696193695068359e+00,3.762973070144653320e+00,3.762249946594238281e+00,3.761527061462402344e+00,3.760804891586303711e+00,3.760082483291625977e+00,3.759360551834106445e+00,3.758639097213745117e+00,3.757917642593383789e+00,3.757196426391601562e+00,3.756475925445556641e+00,3.755755186080932617e+00,3.755034923553466797e+00,3.754315137863159180e+00,3.753595352172851562e+00,3.752875804901123047e+00,3.752156734466552734e+00,3.751437902450561523e+00,3.750719070434570312e+00,3.750000953674316406e+00,3.749282836914062500e+00,3.748564958572387695e+00,3.747847557067871094e+00,3.747130393981933594e+00,3.746413230895996094e+00,3.745696783065795898e+00,3.744980335235595703e+00,3.744263887405395508e+00,3.743548393249511719e+00,3.742832660675048828e+00,3.742117166519165039e+00,3.741402626037597656e+00,3.740687608718872070e+00,3.739973068237304688e+00,3.739259004592895508e+00,3.738544940948486328e+00,3.737831354141235352e+00,3.737118005752563477e+00,3.701487064361572266e+00,3.614900112152099609e+00,3.532271146774291992e+00,3.453335523605346680e+00,3.377850770950317383e+00,3.305595159530639648e+00,3.236366271972656250e+00,3.169977664947509766e+00,3.106257677078247070e+00,3.045049190521240234e+00,2.986206293106079102e+00,2.929594278335571289e+00,2.875088930130004883e+00,2.822574853897094727e+00,2.771944284439086914e+00,2.723098278045654297e+00,2.675944328308105469e+00,2.630395412445068359e+00,2.586370706558227539e+00,2.543796062469482422e+00,2.502600193023681641e+00,2.462717294692993164e+00,2.424085617065429688e+00,2.386647224426269531e+00,2.350347518920898438e+00
3.082806348800659180e+00,3.082320928573608398e+00,3.081835985183715820e+00,3.081351041793823242e+00,3.080866098403930664e+00,3.080381631851196289e+00,3.079896926879882812e+00,3.079412460327148438e+00,3.078928470611572266e+00,3.078444242477416992e+00,3.077960491180419922e+00,3.077476739883422852e+00,3.076992988586425781e+00,3.076509714126586914e+00,3.076026201248168945e+00,3.075542926788330078e+00,3.075060129165649414e+00,3.074577093124389648e+00,3.074094295501708984e+00,3.073611974716186523e+00,3.073129653930664062e+00,3.072647094726562500e+00,3.072165250778198242e+00,3.071683168411254883e+00,3.071201324462890625e+00,3.070719957351684570e+00,3.070238351821899414e+00,3.069756984710693359e+00,3.069275856018066406e+00,3.068794727325439453e+00,3.068313837051391602e+00,3.067833185195922852e+00,3.067352533340454102e+00,3.066872119903564453e+00,3.066391944885253906e+00,3.065911769866943359e+00,3.065431594848632812e+00,3.064952135086059570e+00,3.064472198486328125e+00,3.063992738723754883e+00,3.063513517379760742e+00,3.063034057617187500e+00,3.062554836273193359e+00,3.062076091766357422e+00,3.061597347259521484e+00,3.061118602752685547e+00,3.060640335083007812e+00,3.060161828994750977e+00,3.059683561325073242e+00,3.059205770492553711e+00,3.058727741241455078e+00,3.058249950408935547e+00,3.057772397994995117e+00,3.057294845581054688e+00,3.056817531585693359e+00,3.056340694427490234e+00,3.055863380432128906e+00,3.055386543273925781e+00,3.054909944534301758e+00,3.054433345794677734e+00,3.053956985473632812e+00,3.053480863571166992e+00,3.053004503250122070e+00,3.052528858184814453e+00,3.045081138610839844e+00,2.986237049102783203e+00,2.929624080657958984e+00,2.875117301940917969e+00,2.822602272033691406e+00,2.771970987319946289e+00,2.723124027252197266e+00,2.675968885421752930e+00,2.630419254302978516e+00,2.586394071578979492e+00,2.543818473815917969e+00,2.502621650695800781e+00,2.462738275527954102e+00,2.424105882644653320e+00,2.386667013168334961e+00,2.350366830825805664e+00
2.604631423950195312e+00,2.604285001754760742e+00,2.603938579559326172e+00,2.603592395782470703e+00,2.603246212005615234e+00,2.602900028228759766e+00,2.602554082870483398e+00,2.602208375930786133e+00,2.601862430572509766e+00,2.601516962051391602e+00,2.601171255111694336e+00,2.600825548171997070e+00,2.600480318069458008e+00,2.600134849548339844e+00,2.599789619445800781e+00,2.599444627761840820e+00,2.599099636077880859e+00,2.598754644393920898e+00,2.598409652709960938e+00,2.598064899444580078e+00,2.597720384597778320e+00,2.597375631332397461e+00,2.597031116485595703e+00,2.596686840057373047e+00,2.596342563629150391e+00,2.595998287200927734e+00,2.595654249191284180e+00,2.595309972763061523e+00,2.594965934753417969e+00,2.594622373580932617e+00,2.594278573989868164e+00,2.593934774398803711e+00,2.593591213226318359e+00,2.593247652053833008e+00,2.592904329299926758e+00,2.592561006546020508e+00,2.592217683792114258e+00,2.591874599456787109e+00,2.591531753540039062e+00,2.591188669204711914e+00,2.590845823287963867e+00,2.590502977371215820e+00,2.590160369873046875e+00,2.589817762374877930e+00,2.589475393295288086e+00,2.589132785797119141e+00,2.588790416717529297e+00,2.588448286056518555e+00,2.588106155395507812e+00,2.587764024734497070e+00,2.587422370910644531e+00,2.587080240249633789e+00,2.586738586425781250e+00,2.586396932601928711e+00,2.586055278778076172e+00,2.585713624954223633e+00,2.585372447967529297e+00,2.585031032562255859e+00,2.584689855575561523e+00,2.584348678588867188e+00,2.584007740020751953e+00,2.583666563034057617e+00,2.583325862884521484e+00,2.582985162734985352e+00,2.582644224166870117e+00,2.582303762435913086e+00,2.581963300704956055e+00,2.581622838973999023e+00,2.581282615661621094e+00,2.580942153930664062e+00,2.580602169036865234e+00,2.580262184143066406e+00,2.579921960830688477e+00,2.579582214355468750e+00,2.543840646743774414e+00,2.502643346786499023e+00,2.462759256362915039e+00,2.424126386642456055e+00,2.386686563491821289e+00,2.350385904312133789e+00
2.254876613616943359e+00,2.254617214202880859e+00,2.254357576370239258e+00,2.254097938537597656e+00,2.253838539123535156e+00,2.253579139709472656e+00,2.253319740295410156e+00,2.253060579299926758e+00,2.252801418304443359e+00,2.252542018890380859e+00,2.252283096313476562e+00,2.252023935317993164e+00,2.251765012741088867e+00,2.251506090164184570e+00,2.251247167587280273e+00,2.250988483428955078e+00,2.250729799270629883e+00,2.250471115112304688e+00,2.250212430953979492e+00,2.249953985214233398e+00,2.249695301055908203e+00,2.249436855316162109e+00,2.249178647994995117e+00,2.248920202255249023e+00,2.248661994934082031e+00,2.248403787612915039e+00,2.248145580291748047e+00,2.247887611389160156e+00,2.247629404067993164e+00,2.247371435165405273e+00,2.247113704681396484e+00,2.246855735778808594e+00,2.246597766876220703e+00,2.246340274810791016e+00,2.246082544326782227e+00,2.245824813842773438e+00,2.245567321777343750e+00,2.245309829711914062e+00,2.245052337646484375e+00,2.244795083999633789e+00,2.244537591934204102e+00,2.244280338287353516e+00,2.244023323059082031e+00,2.243766069412231445e+00,2.243508815765380859e+00,2.243252038955688477e+00,2.242995023727416992e+00,2.242738008499145508e+00,2.242481231689453125e+00,2.242224454879760742e+00,2.241967678070068359e+00,2.241710901260375977e+00,2.241454362869262695e+00,2.241197824478149414e+00,2.240941286087036133e+00,2.240684747695922852e+00,2.240428447723388672e+00,2.240172147750854492e+00,2.239915847778320312e+00,2.239659547805786133e+00,2.239403486251831055e+00,2.239147424697875977e+00,2.238891363143920898e+00,2.238635540008544922e+00,2.238379478454589844e+00,2.238123655319213867e+00,2.237867832183837891e+00,2.237612009048461914e+00,2.237356424331665039e+00,2.237100839614868164e+00,2.236845254898071289e+00,2.236589670181274414e+00,2.236334323883056641e+00,2.236078977584838867e+00,2.235823631286621094e+00,2.235568284988403320e+00,2.235313177108764648e+00,2.235058069229125977e+00,2.234802961349487305e+00,2.234547853469848633e+00
1.987933397293090820e+00,1.987731575965881348e+00,1.987529993057250977e+00,1.987328290939331055e+00,1.987126469612121582e+00,1.986924886703491211e+00,1.986723184585571289e+00,1.986521601676940918e+00,1.986320257186889648e+00,1.986118793487548828e+00,1.985917329788208008e+00,1.985715866088867188e+00,1.985514521598815918e+00,1.985313177108764648e+00,1.985112071037292480e+00,1.984910845756530762e+00,1.984709501266479492e+00,1.984508395195007324e+00,1.984307169914245605e+00,1.984106063842773438e+00,1.983905196189880371e+00,1.983704209327697754e+00,1.983503222465515137e+00,1.983302235603332520e+00,1.983101367950439453e+00,1.982900500297546387e+00,1.982699871063232422e+00,1.982499122619628906e+00,1.982298374176025391e+00,1.982097744941711426e+00,1.981896996498107910e+00,1.981696605682373047e+00,1.981496095657348633e+00,1.981295585632324219e+00,1.981095075607299805e+00,1.980894565582275391e+00,1.980694174766540527e+00,1.980494022369384766e+00,1.980293631553649902e+00,1.980093359947204590e+00,1.979893088340759277e+00,1.979692935943603516e+00,1.979492664337158203e+00,1.979292869567871094e+00,1.979092717170715332e+00,1.978892683982849121e+00,1.978692650794982910e+00,1.978492617607116699e+00,1.978292703628540039e+00,1.978093028068542480e+00,1.977893233299255371e+00,1.977693438529968262e+00,1.977493643760681152e+00,1.977293848991394043e+00,1.977094173431396484e+00,1.976894736289978027e+00,1.976695179939270020e+00,1.976495623588562012e+00,1.976296067237854004e+00,1.976096510887145996e+00,1.975897073745727539e+00,1.975697875022888184e+00,1.975498557090759277e+00,1.975299239158630371e+00,1.975099921226501465e+00,1.974900722503662109e+00,1.974701404571533203e+00,1.974502563476562500e+00,1.974303364753723145e+00,1.974104285240173340e+00,1.973905205726623535e+00,1.973706245422363281e+00,1.973507285118103027e+00,1.973308563232421875e+00,1.973109722137451172e+00,1.972910881042480469e+00,1.972712039947509766e+00,1.972513318061828613e+00,1.972314596176147461e+00,1.972116112709045410e+00
1.777503967285156250e+00,1.777342557907104492e+00,1.777181148529052734e+00,1.777020096778869629e+00,1.776858806610107422e+00,1.776697516441345215e+00,1.776536345481872559e+00,1.776375055313110352e+00,1.776213884353637695e+00,1.776052951812744141e+00,1.775891900062561035e+00,1.775730729103088379e+00,1.775569677352905273e+00,1.775408744812011719e+00,1.775247693061828613e+00,1.775086879730224609e+00,1.774925947189331055e+00,1.774765014648437500e+00,1.774604201316833496e+00,1.774443387985229492e+00,1.774282455444335938e+00,1.774121880531311035e+00,1.773961186408996582e+00,1.773800373077392578e+00,1.773639678955078125e+00,1.773478984832763672e+00,1.773318409919738770e+00,1.773157954216003418e+00,1.772997379302978516e+00,1.772836804389953613e+00,1.772676229476928711e+00,1.772515773773193359e+00,1.772355318069458008e+00,1.772194981575012207e+00,1.772034645080566406e+00,1.771874189376831055e+00,1.771713852882385254e+00,1.771553516387939453e+00,1.771393418312072754e+00,1.771233201026916504e+00,1.771072864532470703e+00,1.770912647247314453e+00,1.770752549171447754e+00,1.770592331886291504e+00,1.770432353019714355e+00,1.770272254943847656e+00,1.770112276077270508e+00,1.769952178001403809e+00,1.769792199134826660e+00,1.769632220268249512e+00,1.769472479820251465e+00,1.769312500953674316e+00,1.769152641296386719e+00,1.768992781639099121e+00,1.768832921981811523e+00,1.768673062324523926e+00,1.768513560295104980e+00,1.768353700637817383e+00,1.768194079399108887e+00,1.768034338951110840e+00,1.767874717712402344e+00,1.767715096473693848e+00,1.767555594444274902e+00,1.767396092414855957e+00,1.767236471176147461e+00,1.767076969146728516e+00,1.766917467117309570e+00,1.766758084297180176e+00,1.766598820686340332e+00,1.766439437866210938e+00,1.766280055046081543e+00,1.766120672225952148e+00,1.765961408615112305e+00,1.765802025794982910e+00,1.765643000602722168e+00,1.765483856201171875e+00,1.765324592590332031e+00,1.765165448188781738e+00,1.765006303787231445e+00,1.764847159385681152e+00
1.607360243797302246e+00,1.607227444648742676e+00,1.607095599174499512e+00,1.606963634490966797e+00,1.606831908226013184e+00,1.606700062751770020e+00,1.606568217277526855e+00,1.606436371803283691e+00,1.606304526329040527e+00,1.606172680854797363e+00,1.606041073799133301e+00,1.605909347534179688e+00,1.605777621269226074e+00,1.605645895004272461e+00,1.605514287948608398e+00,1.605382561683654785e+00,1.605251073837280273e+00,1.605119466781616211e+00,1.604987859725952148e+00,1.604856371879577637e+00,1.604724764823913574e+00,1.604593276977539062e+00,1.604461908340454102e+00,1.604330420494079590e+00,1.604198932647705078e+00,1.604067444801330566e+00,1.603936076164245605e+00,1.603804707527160645e+00,1.603673458099365234e+00,1.603542089462280273e+00,1.603410720825195312e+00,1.603279471397399902e+00,1.603148102760314941e+00,1.603016853332519531e+00,1.602885723114013672e+00,1.602754592895507812e+00,1.602623343467712402e+00,1.602492094039916992e+00,1.602360963821411133e+00,1.602229833602905273e+00,1.602098822593688965e+00,1.601967811584472656e+00,1.601836681365966797e+00,1.601705670356750488e+00,1.601574659347534180e+00,1.601443767547607422e+00,1.601312756538391113e+00,1.601181745529174805e+00,1.601050853729248047e+00,1.600919961929321289e+00,1.600788950920104980e+00,1.600658297538757324e+00,1.600527405738830566e+00,1.600396513938903809e+00,1.600265741348266602e+00,1.600134968757629395e+00,1.600004196166992188e+00,1.599873542785644531e+00,1.599742770195007324e+00,1.599612116813659668e+00,1.599481344223022461e+00,1.599350690841674805e+00,1.599220037460327148e+00,1.599089622497558594e+00,1.598958969116210938e+00,1.598828434944152832e+00,1.598697781562805176e+00,1.598567247390747070e+00,1.598436713218688965e+00,1.598306417465209961e+00,1.598175883293151855e+00,1.598045468330383301e+00,1.597915053367614746e+00,1.597784638404846191e+00,1.597654223442077637e+00,1.597524046897888184e+00,1.597393631935119629e+00,1.597263336181640625e+00,1.597133040428161621e+00,1.597002744674682617e+00
1.466950058937072754e+00,1.466839551925659180e+00,1.466729044914245605e+00,1.466618418693542480e+00,1.466508150100708008e+00,1.466397643089294434e+00,1.466287136077880859e+00,1.466176629066467285e+00,1.466066241264343262e+00,1.465955853462219238e+00,1.465845465660095215e+00,1.465735077857971191e+00,1.465624809265136719e+00,1.465514898300170898e+00,1.465405225753784180e+00,1.465295553207397461e+00,1.465185880661010742e+00,1.465076327323913574e+00,1.464966654777526855e+00,1.464857101440429688e+00,1.464747428894042969e+00,1.464637875556945801e+00,1.464528322219848633e+00,1.464418888092041016e+00,1.464309334754943848e+00,1.464199781417846680e+00,1.464090347290039062e+00,1.463980793952941895e+00,1.463871359825134277e+00,1.463762044906616211e+00,1.463652610778808594e+00,1.463543176651000977e+00,1.463433742523193359e+00,1.463324427604675293e+00,1.463214993476867676e+00,1.463105797767639160e+00,1.462996482849121094e+00,1.462887048721313477e+00,1.462777853012084961e+00,1.462668538093566895e+00,1.462559223175048828e+00,1.462450146675109863e+00,1.462340831756591797e+00,1.462231636047363281e+00,1.462122440338134766e+00,1.462013244628906250e+00,1.461904048919677734e+00,1.461795091629028320e+00,1.461685895919799805e+00,1.461576819419860840e+00,1.461467623710632324e+00,1.461358547210693359e+00,1.461249589920043945e+00,1.461140513420104980e+00,1.461031556129455566e+00,1.460922479629516602e+00,1.460813522338867188e+00,1.460704445838928223e+00,1.460595607757568359e+00,1.460486650466918945e+00,1.460377693176269531e+00,1.460268735885620117e+00,1.460159897804260254e+00,1.460050940513610840e+00,1.459942221641540527e+00,1.459833383560180664e+00,1.459724426269531250e+00,1.459615588188171387e+00,1.459506869316101074e+00,1.459398031234741211e+00,1.459289312362670898e+00,1.459180593490600586e+00,1.459071874618530273e+00,1.458963155746459961e+00,1.458854317665100098e+00,1.458745718002319336e+00,1.458637118339538574e+00,1.458528399467468262e+00,1.458419799804687500e+00,1.458311080932617188e+00
1.349100112915039062e+00,1.349006533622741699e+00,1.348913073539733887e+00,1.348819613456726074e+00,1.348726153373718262e+00,1.348632812500000000e+00,1.348539352416992188e+00,1.348445892333984375e+00,1.348352551460266113e+00,1.348259091377258301e+00,1.348165750503540039e+00,1.348072409629821777e+00,1.347979068756103516e+00,1.347885727882385254e+00,1.347792387008666992e+00,1.347699046134948730e+00,1.347605705261230469e+00,1.347512602806091309e+00,1.347419261932373047e+00,1.347326040267944336e+00,1.347232818603515625e+00,1.347139477729797363e+00,1.347046256065368652e+00,1.346953153610229492e+00,1.346860289573669434e+00,1.346767663955688477e+00,1.346675038337707520e+00,1.346582412719726562e+00,1.346489787101745605e+00,1.346397161483764648e+00,1.346304655075073242e+00,1.346212029457092285e+00,1.346119523048400879e+00,1.346027016639709473e+00,1.345934391021728516e+00,1.345841884613037109e+00,1.345749497413635254e+00,1.345656991004943848e+00,1.345564484596252441e+00,1.345471978187561035e+00,1.345379590988159180e+00,1.345287084579467773e+00,1.345194697380065918e+00,1.345102310180664062e+00,1.345009922981262207e+00,1.344917535781860352e+00,1.344825148582458496e+00,1.344732761383056641e+00,1.344640493392944336e+00,1.344548106193542480e+00,1.344455838203430176e+00,1.344363451004028320e+00,1.344271183013916016e+00,1.344178795814514160e+00,1.344086647033691406e+00,1.343994379043579102e+00,1.343902111053466797e+00,1.343809843063354492e+00,1.343717694282531738e+00,1.343625545501708984e+00,1.343533277511596680e+00,1.343441128730773926e+00,1.343348860740661621e+00,1.343256711959838867e+00,1.343164563179016113e+00,1.343072533607482910e+00,1.342980384826660156e+00,1.342888236045837402e+00,1.342796206474304199e+00,1.342704057693481445e+00,1.342612028121948242e+00,1.342519998550415039e+00,1.342427968978881836e+00,1.342335939407348633e+00,1.342243909835815430e+00,1.342151880264282227e+00,1.342059850692749023e+00,1.341967940330505371e+00,1.341875910758972168e+00,1.341784000396728516e+00
1.248777389526367188e+00,1.248697280883789062e+00,1.248617172241210938e+00,1.248537063598632812e+00,1.248457074165344238e+00,1.248376965522766113e+00,1.248296976089477539e+00,1.248216867446899414e+00,1.248136878013610840e+00,1.248056769371032715e+00,1.247976779937744141e+00,1.247896790504455566e+00,1.247816920280456543e+00,1.247736930847167969e+00,1.247656941413879395e+00,1.247576951980590820e+00,1.247496962547302246e+00,1.247416973114013672e+00,1.247337102890014648e+00,1.247257232666015625e+00,1.247177243232727051e+00,1.247097373008728027e+00,1.247017502784729004e+00,1.246937632560729980e+00,1.246857762336730957e+00,1.246777892112731934e+00,1.246698021888732910e+00,1.246618151664733887e+00,1.246538400650024414e+00,1.246458530426025391e+00,1.246378779411315918e+00,1.246299028396606445e+00,1.246219158172607422e+00,1.246139407157897949e+00,1.246059656143188477e+00,1.245980024337768555e+00,1.245900750160217285e+00,1.245821595191955566e+00,1.245742321014404297e+00,1.245663046836853027e+00,1.245583772659301758e+00,1.245504498481750488e+00,1.245425224304199219e+00,1.245346188545227051e+00,1.245266914367675781e+00,1.245187759399414062e+00,1.245108485221862793e+00,1.245029330253601074e+00,1.244950175285339355e+00,1.244871020317077637e+00,1.244791865348815918e+00,1.244712829589843750e+00,1.244633674621582031e+00,1.244554519653320312e+00,1.244475364685058594e+00,1.244396448135375977e+00,1.244317293167114258e+00,1.244238257408142090e+00,1.244159102439880371e+00,1.244080066680908203e+00,1.244001030921936035e+00,1.243922114372253418e+00,1.243843078613281250e+00,1.243764042854309082e+00,1.243685007095336914e+00,1.243605971336364746e+00,1.243527054786682129e+00,1.243448138236999512e+00,1.243369102478027344e+00,1.243290185928344727e+00,1.243211269378662109e+00,1.243132233619689941e+00,1.243053436279296875e+00,1.242974519729614258e+00,1.242895603179931641e+00,1.242816686630249023e+00,1.242737770080566406e+00,1.242658853530883789e+00,1.242580175399780273e+00,1.242501258850097656e+00
1.162342429161071777e+00,1.162273168563842773e+00,1.162203788757324219e+00,1.162134289741516113e+00,1.162064909934997559e+00,1.161995530128479004e+00,1.161926269531250000e+00,1.161856889724731445e+00,1.161787629127502441e+00,1.161718249320983887e+00,1.161648869514465332e+00,1.161579608917236328e+00,1.161510229110717773e+00,1.161440968513488770e+00,1.161371707916259766e+00,1.161302447319030762e+00,1.161233067512512207e+00,1.161163806915283203e+00,1.161094546318054199e+00,1.161025404930114746e+00,1.160956144332885742e+00,1.160886883735656738e+00,1.160817623138427734e+00,1.160748481750488281e+00,1.160679221153259277e+00,1.160610079765319824e+00,1.160540819168090820e+00,1.160471677780151367e+00,1.160402417182922363e+00,1.160333275794982910e+00,1.160264134407043457e+00,1.160194993019104004e+00,1.160125851631164551e+00,1.160056710243225098e+00,1.159987568855285645e+00,1.159918427467346191e+00,1.159849286079406738e+00,1.159780263900756836e+00,1.159711241722106934e+00,1.159642100334167480e+00,1.159572958946228027e+00,1.159503936767578125e+00,1.159434795379638672e+00,1.159365892410278320e+00,1.159296751022338867e+00,1.159227728843688965e+00,1.159158825874328613e+00,1.159090161323547363e+00,1.159021496772766113e+00,1.158952951431274414e+00,1.158884406089782715e+00,1.158815741539001465e+00,1.158747196197509766e+00,1.158678650856018066e+00,1.158609986305236816e+00,1.158541440963745117e+00,1.158473014831542969e+00,1.158404469490051270e+00,1.158335924148559570e+00,1.158267378807067871e+00,1.158198833465576172e+00,1.158130407333374023e+00,1.158061981201171875e+00,1.157993435859680176e+00,1.157924890518188477e+00,1.157856464385986328e+00,1.157787919044494629e+00,1.157719612121582031e+00,1.157651066780090332e+00,1.157582640647888184e+00,1.157514214515686035e+00,1.157445788383483887e+00,1.157377362251281738e+00,1.157309055328369141e+00,1.157240629196166992e+00,1.157172203063964844e+00,1.157103776931762695e+00,1.157035470008850098e+00,1.156967043876647949e+00,1.156898736953735352e+00
1.087098240852355957e+00,1.087037563323974609e+00,1.086976885795593262e+00,1.086916208267211914e+00,1.086855530738830566e+00,1.086794853210449219e+00,1.086734175682067871e+00,1.086673498153686523e+00,1.086612939834594727e+00,1.086552262306213379e+00,1.086491584777832031e+00,1.086430907249450684e+00,1.086370229721069336e+00,1.086309671401977539e+00,1.086249113082885742e+00,1.086188435554504395e+00,1.086127877235412598e+00,1.086067199707031250e+00,1.086006641387939453e+00,1.085946083068847656e+00,1.085885524749755859e+00,1.085824966430664062e+00,1.085764408111572266e+00,1.085703849792480469e+00,1.085643291473388672e+00,1.085582733154296875e+00,1.085522294044494629e+00,1.085461735725402832e+00,1.085401177406311035e+00,1.085340619087219238e+00,1.085280179977416992e+00,1.085219621658325195e+00,1.085159182548522949e+00,1.085098743438720703e+00,1.085038185119628906e+00,1.084977746009826660e+00,1.084917187690734863e+00,1.084856748580932617e+00,1.084796309471130371e+00,1.084735870361328125e+00,1.084675431251525879e+00,1.084614992141723633e+00,1.084554553031921387e+00,1.084494113922119141e+00,1.084433794021606445e+00,1.084373354911804199e+00,1.084312915802001953e+00,1.084252476692199707e+00,1.084192156791687012e+00,1.084131717681884766e+00,1.084071397781372070e+00,1.084011077880859375e+00,1.083950638771057129e+00,1.083890318870544434e+00,1.083829998970031738e+00,1.083769559860229492e+00,1.083709359169006348e+00,1.083649039268493652e+00,1.083589076995849609e+00,1.083528995513916016e+00,1.083469033241271973e+00,1.083409070968627930e+00,1.083349108695983887e+00,1.083289265632629395e+00,1.083229303359985352e+00,1.083169460296630859e+00,1.083109498023986816e+00,1.083049535751342773e+00,1.082989692687988281e+00,1.082929849624633789e+00,1.082869887351989746e+00,1.082810044288635254e+00,1.082750082015991211e+00,1.082690238952636719e+00,1.082630395889282227e+00,1.082570552825927734e+00,1.082510709762573242e+00,1.082450866699218750e+00,1.082391023635864258e+00,1.082331180572509766e+00
1.021003723144531250e+00,1.020950078964233398e+00,1.020896553993225098e+00,1.020843029022216797e+00,1.020789504051208496e+00,1.020735979080200195e+00,1.020682454109191895e+00,1.020628929138183594e+00,1.020575404167175293e+00,1.020521879196166992e+00,1.020468473434448242e+00,1.020414948463439941e+00,1.020361423492431641e+00,1.020308017730712891e+00,1.020254492759704590e+00,1.020200967788696289e+00,1.020147562026977539e+00,1.020094156265258789e+00,1.020040631294250488e+00,1.019987225532531738e+00,1.019933819770812988e+00,1.019880294799804688e+00,1.019827008247375488e+00,1.019773483276367188e+00,1.019720077514648438e+00,1.019666671752929688e+00,1.019613265991210938e+00,1.019559860229492188e+00,1.019506454467773438e+00,1.019453048706054688e+00,1.019399762153625488e+00,1.019346356391906738e+00,1.019292950630187988e+00,1.019239544868469238e+00,1.019186258316040039e+00,1.019132852554321289e+00,1.019079566001892090e+00,1.019026160240173340e+00,1.018972873687744141e+00,1.018919587135314941e+00,1.018866181373596191e+00,1.018812894821166992e+00,1.018759489059448242e+00,1.018706202507019043e+00,1.018652915954589844e+00,1.018599629402160645e+00,1.018546342849731445e+00,1.018493056297302246e+00,1.018439769744873047e+00,1.018386483192443848e+00,1.018333196640014648e+00,1.018279910087585449e+00,1.018226742744445801e+00,1.018173456192016602e+00,1.018120169639587402e+00,1.018066883087158203e+00,1.018013715744018555e+00,1.017960429191589355e+00,1.017907261848449707e+00,1.017853975296020508e+00,1.017800807952880859e+00,1.017747521400451660e+00,1.017694354057312012e+00,1.017641186714172363e+00,1.017588019371032715e+00,1.017534732818603516e+00,1.017481565475463867e+00,1.017428398132324219e+00,1.017375230789184570e+00,1.017322301864624023e+00,1.017269492149353027e+00,1.017216682434082031e+00,1.017163753509521484e+00,1.017110943794250488e+00,1.017058134078979492e+00,1.017005205154418945e+00,1.016952514648437500e+00,1.016899704933166504e+00,1.016846895217895508e+00,1.016794085502624512e+00
9.624854326248168945e-01,9.624378681182861328e-01,9.623902440071105957e-01,9.623426198959350586e-01,9.622950553894042969e-01,9.622476100921630859e-01,9.622000455856323242e-01,9.621524810791015625e-01,9.621049165725708008e-01,9.620573520660400391e-01,9.620097875595092773e-01,9.619622230529785156e-01,9.619147181510925293e-01,9.618671536445617676e-01,9.618196487426757812e-01,9.617720842361450195e-01,9.617245793342590332e-01,9.616771936416625977e-01,9.616296887397766113e-01,9.615821838378906250e-01,9.615346789360046387e-01,9.614871740341186523e-01,9.614396691322326660e-01,9.613921642303466797e-01,9.613446593284606934e-01,9.612972140312194824e-01,9.612497091293334961e-01,9.612022638320922852e-01,9.611548185348510742e-01,9.611074328422546387e-01,9.610599875450134277e-01,9.610125422477722168e-01,9.609650969505310059e-01,9.609176516532897949e-01,9.608702063560485840e-01,9.608227610588073730e-01,9.607753157615661621e-01,9.607279300689697266e-01,9.606804847717285156e-01,9.606330394744873047e-01,9.605856537818908691e-01,9.605383872985839844e-01,9.604909420013427734e-01,9.604435563087463379e-01,9.603961706161499023e-01,9.603487849235534668e-01,9.603013992309570312e-01,9.602540135383605957e-01,9.602066278457641602e-01,9.601593017578125000e-01,9.601119160652160645e-01,9.600645303726196289e-01,9.600172042846679688e-01,9.599699378013610840e-01,9.599226117134094238e-01,9.598752856254577637e-01,9.598279595375061035e-01,9.597805738449096680e-01,9.597332477569580078e-01,9.596859812736511230e-01,9.596386551856994629e-01,9.595913290977478027e-01,9.595440030097961426e-01,9.594966769218444824e-01,9.594494104385375977e-01,9.594022035598754883e-01,9.593549370765686035e-01,9.593076705932617188e-01,9.592603445053100586e-01,9.592130780220031738e-01,9.591658115386962891e-01,9.591185450553894043e-01,9.590712785720825195e-01,9.590240120887756348e-01,9.589768052101135254e-01,9.589295387268066406e-01,9.588822722434997559e-01,9.588351249694824219e-01,9.587879180908203125e-01,9.587407112121582031e-01
9.103114008903503418e-01,9.102688431739807129e-01,9.102262854576110840e-01,9.101837277412414551e-01,9.101411700248718262e-01,9.100986123085021973e-01,9.100561141967773438e-01,9.100135564804077148e-01,9.099710583686828613e-01,9.099285006523132324e-01,9.098859429359436035e-01,9.098433852195739746e-01,9.098008871078491211e-01,9.097583293914794922e-01,9.097158312797546387e-01,9.096733331680297852e-01,9.096307754516601562e-01,9.095882773399353027e-01,9.095458984375000000e-01,9.095034003257751465e-01,9.094609022140502930e-01,9.094184041023254395e-01,9.093759059906005859e-01,9.093334078788757324e-01,9.092909097671508789e-01,9.092484712600708008e-01,9.092059731483459473e-01,9.091634750366210938e-01,9.091210365295410156e-01,9.090785980224609375e-01,9.090362191200256348e-01,9.089937806129455566e-01,9.089512825012207031e-01,9.089088439941406250e-01,9.088664054870605469e-01,9.088239669799804688e-01,9.087815284729003906e-01,9.087390899658203125e-01,9.086967110633850098e-01,9.086542725563049316e-01,9.086118340492248535e-01,9.085694551467895508e-01,9.085271358489990234e-01,9.084846973419189453e-01,9.084423184394836426e-01,9.083998799324035645e-01,9.083575010299682617e-01,9.083151221275329590e-01,9.082727432250976562e-01,9.082303643226623535e-01,9.081879854202270508e-01,9.081456065177917480e-01,9.081032276153564453e-01,9.080608487129211426e-01,9.080185890197753906e-01,9.079762101173400879e-01,9.079338908195495605e-01,9.078915119171142578e-01,9.078491926193237305e-01,9.078068137168884277e-01,9.077644944190979004e-01,9.077221751213073730e-01,9.076797962188720703e-01,9.076374769210815430e-01,9.075951576232910156e-01,9.075528383255004883e-01,9.075106382369995117e-01,9.074683189392089844e-01,9.074259996414184570e-01,9.073836803436279297e-01,9.073414206504821777e-01,9.072991013526916504e-01,9.072568416595458984e-01,9.072145223617553711e-01,9.071722626686096191e-01,9.071299433708190918e-01,9.070876836776733398e-01,9.070454239845275879e-01,9.070032238960266113e-01,9.069609642028808594e-01
8.635030388832092285e-01,8.634647130966186523e-01,8.634263873100280762e-01,8.633881211280822754e-01,8.633497953414916992e-01,8.633115291595458984e-01,8.632732033729553223e-01,8.632349967956542969e-01,8.631967306137084961e-01,8.631584644317626953e-01,8.631201982498168945e-01,8.630818724632263184e-01,8.630436062812805176e-01,8.630053400993347168e-01,8.629670739173889160e-01,8.629288077354431152e-01,8.628906011581420898e-01,8.628523349761962891e-01,8.628140687942504883e-01,8.627759218215942383e-01,8.627376556396484375e-01,8.626994490623474121e-01,8.626611828804016113e-01,8.626229763031005859e-01,8.625847101211547852e-01,8.625465035438537598e-01,8.625082969665527344e-01,8.624700307846069336e-01,8.624318242073059082e-01,8.623936176300048828e-01,8.623554110527038574e-01,8.623172640800476074e-01,8.622791171073913574e-01,8.622409105300903320e-01,8.622027039527893066e-01,8.621644973754882812e-01,8.621262907981872559e-01,8.620881438255310059e-01,8.620499372482299805e-01,8.620117306709289551e-01,8.619735836982727051e-01,8.619354367256164551e-01,8.618972301483154297e-01,8.618591427803039551e-01,8.618209958076477051e-01,8.617828488349914551e-01,8.617447018623352051e-01,8.617065548896789551e-01,8.616684079170227051e-01,8.616302609443664551e-01,8.615921139717102051e-01,8.615539669990539551e-01,8.615158200263977051e-01,8.614776730537414551e-01,8.614395260810852051e-01,8.614014983177185059e-01,8.613634109497070312e-01,8.613252639770507812e-01,8.612871766090393066e-01,8.612490296363830566e-01,8.612109422683715820e-01,8.611728549003601074e-01,8.611347079277038574e-01,8.610966205596923828e-01,8.610585331916809082e-01,8.610204458236694336e-01,8.609823584556579590e-01,8.609443902969360352e-01,8.609063029289245605e-01,8.608682155609130859e-01,8.608301281929016113e-01,8.607920408248901367e-01,8.607540130615234375e-01,8.607159256935119629e-01,8.606778383255004883e-01,8.606398105621337891e-01,8.606017231941223145e-01,8.605636954307556152e-01,8.605256676673889160e-01,8.604876995086669922e-01
8.212729692459106445e-01,8.212383389472961426e-01,8.212037086486816406e-01,8.211690187454223633e-01,8.211343884468078613e-01,8.210997581481933594e-01,8.210651278495788574e-01,8.210304975509643555e-01,8.209959268569946289e-01,8.209612965583801270e-01,8.209266662597656250e-01,8.208920359611511230e-01,8.208574056625366211e-01,8.208228349685668945e-01,8.207882046699523926e-01,8.207535743713378906e-01,8.207190036773681641e-01,8.206843733787536621e-01,8.206497430801391602e-01,8.206151723861694336e-01,8.205806612968444824e-01,8.205460309982299805e-01,8.205114603042602539e-01,8.204768896102905273e-01,8.204423189163208008e-01,8.204076886177062988e-01,8.203731179237365723e-01,8.203385472297668457e-01,8.203039765357971191e-01,8.202694058418273926e-01,8.202348351478576660e-01,8.202002644538879395e-01,8.201658129692077637e-01,8.201312422752380371e-01,8.200966715812683105e-01,8.200621008872985840e-01,8.200275897979736328e-01,8.199930191040039062e-01,8.199585080146789551e-01,8.199239373207092285e-01,8.198893666267395020e-01,8.198548555374145508e-01,8.198203444480895996e-01,8.197857737541198730e-01,8.197513222694396973e-01,8.197168111801147461e-01,8.196823000907897949e-01,8.196477890014648438e-01,8.196132779121398926e-01,8.195787668228149414e-01,8.195442557334899902e-01,8.195097446441650391e-01,8.194752335548400879e-01,8.194407224655151367e-01,8.194062113761901855e-01,8.193717002868652344e-01,8.193373084068298340e-01,8.193027973175048828e-01,8.192683458328247070e-01,8.192338347434997559e-01,8.191993832588195801e-01,8.191648721694946289e-01,8.191304206848144531e-01,8.190959692001342773e-01,8.190614581108093262e-01,8.190270066261291504e-01,8.189925551414489746e-01,8.189581036567687988e-01,8.189237117767333984e-01,8.188892602920532227e-01,8.188548088073730469e-01,8.188203573226928711e-01,8.187859058380126953e-01,8.187514543533325195e-01,8.187170028686523438e-01,8.186825513839721680e-01,8.186481595039367676e-01,8.186137080192565918e-01,8.185792565345764160e-01,8.185448646545410156e-01
