3.780620813369750977e+00,3.740272760391235352e+00,3.700776815414428711e+00,3.662106037139892578e+00,3.624235391616821289e+00,3.587139606475830078e+00,3.550795793533325195e+00,3.515181064605712891e+00,3.480273485183715820e+00,3.446052074432373047e+00,3.412497520446777344e+00,3.379590272903442383e+00,3.347311496734619141e+00,3.315643310546875000e+00,3.284569025039672852e+00,3.254071712493896484e+00,3.224135398864746094e+00,3.194744825363159180e+00,3.165885210037231445e+00,3.137542724609375000e+00,3.109702348709106445e+00,3.082352399826049805e+00,3.055479288101196289e+00,3.029070615768432617e+00,3.003114461898803711e+00,2.977599620819091797e+00,2.952514410018920898e+00,2.927848577499389648e+00,2.903591394424438477e+00,2.879732608795166016e+00,2.856263160705566406e+00,2.833172798156738281e+00,2.810452699661254883e+00,2.788094043731689453e+00,2.766088724136352539e+00,2.744427919387817383e+00,2.723103523254394531e+00,2.702108144760131836e+00,2.681434154510498047e+00,2.661073923110961914e+00,2.641020536422729492e+00,2.621267318725585938e+00,2.601807355880737305e+00,2.582633972167968750e+00,2.563741207122802734e+00,2.545122861862182617e+00,2.526772975921630859e+00,2.508685827255249023e+00,2.490855693817138672e+00,2.473277330398559570e+00,2.455945491790771484e+00,2.438854694366455078e+00,2.422000169754028320e+00,2.405376911163330078e+00,2.388980388641357422e+00,6.544992923736572266e-01,6.315346956253051758e-01,6.198657751083374023e-01,6.156941056251525879e-01,6.115781664848327637e-01,6.075168848037719727e-01,6.034625172615051270e-01,5.993398427963256836e-01,5.960280299186706543e-01,5.926733016967773438e-01,5.893544554710388184e-01,5.860725641250610352e-01,5.828270316123962402e-01,5.800534486770629883e-01,5.796478986740112305e-01,5.800459384918212891e-01,5.804444551467895508e-01,5.818930864334106445e-01,2.115047454833984375e+00,2.102359771728515625e+00,2.089823246002197266e+00,2.077435493469238281e+00,2.065193653106689453e+00,2.053095102310180664e+00,2.041137695312500000e+00
3.780623435974121094e+00,3.740275144577026367e+00,3.700779199600219727e+00,3.662108421325683594e+00,3.624237775802612305e+00,3.587141990661621094e+00,3.550798177719116211e+00,3.515183210372924805e+00,3.480275630950927734e+00,3.446054697036743164e+00,3.412499904632568359e+00,3.379592657089233398e+00,3.347313404083251953e+00,3.315645456314086914e+00,3.284570932388305664e+00,3.254073619842529297e+00,3.224137067794799805e+00,3.194746732711791992e+00,3.165887117385864258e+00,3.137544393539428711e+00,3.109704494476318359e+00,3.082354545593261719e+00,3.055481195449829102e+00,3.029072284698486328e+00,3.003116130828857422e+00,2.977601051330566406e+00,2.952516078948974609e+00,2.927850008010864258e+00,2.903592824935913086e+00,2.879734277725219727e+00,2.856264591217041016e+00,2.833174228668212891e+00,2.810454368591308594e+00,2.788095712661743164e+00,2.766090393066406250e+00,2.744429349899291992e+00,2.723104953765869141e+00,2.702109575271606445e+00,2.681435346603393555e+00,2.661075115203857422e+00,2.641021966934204102e+00,2.621268510818481445e+00,2.601808547973632812e+00,2.582635164260864258e+00,2.563742399215698242e+00,2.545124053955078125e+00,2.526774406433105469e+00,2.508687019348144531e+00,2.490856885910034180e+00,2.473278522491455078e+00,2.455946445465087891e+00,2.438855648040771484e+00,2.422001123428344727e+00,2.405377864837646484e+00,6.641240119934082031e-01,6.381092071533203125e-01,6.249760389328002930e-01,6.189711689949035645e-01,6.148114800453186035e-01,6.107073426246643066e-01,6.066575646400451660e-01,6.026612520217895508e-01,5.987311005592346191e-01,5.963050723075866699e-01,5.937137007713317871e-01,5.908807516098022461e-01,5.880747437477111816e-01,5.852952599525451660e-01,5.844156742095947266e-01,5.840122103691101074e-01,5.843519568443298340e-01,5.846920609474182129e-01,5.851544141769409180e-01,2.115048170089721680e+00,2.102360486984252930e+00,2.089824199676513672e+00,2.077436208724975586e+00,2.065194368362426758e+00,2.053096055984497070e+00,2.041138648986816406e+00
3.780626296997070312e+00,3.740278005599975586e+00,3.700782060623168945e+00,3.662110805511474609e+00,3.624239921569824219e+00,3.587144136428833008e+00,3.550800323486328125e+00,3.515185356140136719e+00,3.480277776718139648e+00,3.446056842803955078e+00,3.412502050399780273e+00,3.379594564437866211e+00,3.347315788269042969e+00,3.315647602081298828e+00,3.284573078155517578e+00,3.254075288772583008e+00,3.224138975143432617e+00,3.194748401641845703e+00,3.165888786315917969e+00,3.137546062469482422e+00,3.109706163406372070e+00,3.082356214523315430e+00,3.055482864379882812e+00,3.029074192047119141e+00,3.003118038177490234e+00,2.977602958679199219e+00,2.952517747879028320e+00,2.927851676940917969e+00,2.903594255447387695e+00,2.879735708236694336e+00,2.856266021728515625e+00,2.833175659179687500e+00,2.810455560684204102e+00,2.788097143173217773e+00,2.766091823577880859e+00,2.744430780410766602e+00,2.723106384277343750e+00,2.702111005783081055e+00,2.681436777114868164e+00,2.661076545715332031e+00,2.641023159027099609e+00,2.621269702911376953e+00,2.601809740066528320e+00,2.582636356353759766e+00,2.563743591308593750e+00,2.545125246047973633e+00,2.526775360107421875e+00,2.508688211441040039e+00,2.490858078002929688e+00,2.473279714584350586e+00,2.455947637557983398e+00,2.438856840133666992e+00,2.422002315521240234e+00,6.740360856056213379e-01,6.448221206665039062e-01,6.304835081100463867e-01,6.225276589393615723e-01,6.180791854858398438e-01,6.139314174652099609e-01,6.098389625549316406e-01,6.058007478713989258e-01,6.022202968597412109e-01,5.997659564018249512e-01,5.973315238952636719e-01,5.949167609214782715e-01,5.925214886665344238e-01,5.903406739234924316e-01,5.898329615592956543e-01,5.892100334167480469e-01,5.885883569717407227e-01,5.887963175773620605e-01,5.891415476799011230e-01,2.127891063690185547e+00,2.115049123764038086e+00,2.102361440658569336e+00,2.089824914932250977e+00,2.077437162399291992e+00,2.065195322036743164e+00,2.053096771240234375e+00,2.041139364242553711e+00
3.780628919601440430e+00,3.740280628204345703e+00,3.700784444808959961e+00,3.662113666534423828e+00,3.624242782592773438e+00,3.587146997451782227e+00,3.550802946090698242e+00,3.515187740325927734e+00,3.480279922485351562e+00,3.446058988571166992e+00,3.412504196166992188e+00,3.379596710205078125e+00,3.347317695617675781e+00,3.315649747848510742e+00,3.284574985504150391e+00,3.254077672958374023e+00,3.224141120910644531e+00,3.194750547409057617e+00,3.165890693664550781e+00,3.137547969818115234e+00,3.109707832336425781e+00,3.082357883453369141e+00,3.055484533309936523e+00,3.029075860977172852e+00,3.003119707107543945e+00,2.977604627609252930e+00,2.952519416809082031e+00,2.927853345870971680e+00,2.903596162796020508e+00,2.879737377166748047e+00,2.856267452239990234e+00,2.833177089691162109e+00,2.810456991195678711e+00,2.788098573684692383e+00,2.766093015670776367e+00,2.744432210922241211e+00,2.723107814788818359e+00,2.702112436294555664e+00,2.681438207626342773e+00,2.661077976226806641e+00,2.641024589538574219e+00,2.621271133422851562e+00,2.601810932159423828e+00,2.582637548446655273e+00,2.563744783401489258e+00,2.545126438140869141e+00,2.526776552200317383e+00,2.508689403533935547e+00,2.490859270095825195e+00,2.473280906677246094e+00,2.455948829650878906e+00,2.438858032226562500e+00,6.842484474182128906e-01,6.516776680946350098e-01,6.360889673233032227e-01,6.279919147491455078e-01,6.213818192481994629e-01,6.171897649765014648e-01,6.130538582801818848e-01,6.089730858802795410e-01,6.057503819465637207e-01,6.032672524452209473e-01,6.008043289184570312e-01,5.983614921569824219e-01,5.963408350944519043e-01,5.951178073883056641e-01,5.966651439666748047e-01,5.955576896667480469e-01,5.944542884826660156e-01,5.934516787528991699e-01,5.933087468147277832e-01,2.140890598297119141e+00,2.127891778945922852e+00,2.115050077438354492e+00,2.102362155914306641e+00,2.089825868606567383e+00,2.077437877655029297e+00,2.065196037292480469e+00,2.053097724914550781e+00,2.041140079498291016e+00
3.780631542205810547e+00,3.740283012390136719e+00,3.700786828994750977e+00,3.662116050720214844e+00,3.624245166778564453e+00,3.587149143218994141e+00,3.550805330276489258e+00,3.515190124511718750e+00,3.480282545089721680e+00,3.446061372756958008e+00,3.412506341934204102e+00,3.379598617553710938e+00,3.347319841384887695e+00,3.315651655197143555e+00,3.284576892852783203e+00,3.254079580307006836e+00,3.224143028259277344e+00,3.194752454757690430e+00,3.165892601013183594e+00,3.137549877166748047e+00,3.109709978103637695e+00,3.082359552383422852e+00,3.055486202239990234e+00,3.029077529907226562e+00,3.003121376037597656e+00,2.977606058120727539e+00,2.952520847320556641e+00,2.927855014801025391e+00,2.903597593307495117e+00,2.879738807678222656e+00,2.856269121170043945e+00,2.833178758621215820e+00,2.810458660125732422e+00,2.788100004196166992e+00,2.766094446182250977e+00,2.744433403015136719e+00,2.723109245300292969e+00,2.702113628387451172e+00,2.681439399719238281e+00,2.661079168319702148e+00,2.641025781631469727e+00,2.621272563934326172e+00,2.601812362670898438e+00,2.582638978958129883e+00,2.563746213912963867e+00,2.545127630233764648e+00,2.526777744293212891e+00,2.508690595626831055e+00,2.490860462188720703e+00,2.473281860351562500e+00,2.455950021743774414e+00,2.438858985900878906e+00,6.586806178092956543e-01,6.417950391769409180e-01,6.335529685020446777e-01,6.255198717117309570e-01,6.204828619956970215e-01,6.163029074668884277e-01,6.121788620948791504e-01,6.093221306800842285e-01,6.068096160888671875e-01,6.043177843093872070e-01,6.024641394615173340e-01,6.011846065521240234e-01,6.003451347351074219e-01,6.037712693214416504e-01,6.026372909545898438e-01,6.015075445175170898e-01,6.003820300102233887e-01,2.167371273040771484e+00,2.154049873352050781e+00,2.140891551971435547e+00,2.127892732620239258e+00,2.115050792694091797e+00,2.102363109588623047e+00,2.089826583862304688e+00,2.077438831329345703e+00,2.065196990966796875e+00,2.053098440170288086e+00,2.041141033172607422e+00
3.780634403228759766e+00,3.740285634994506836e+00,3.700789451599121094e+00,3.662118434906005859e+00,3.624247550964355469e+00,3.587151527404785156e+00,3.550807476043701172e+00,3.515192508697509766e+00,3.480284690856933594e+00,3.446063518524169922e+00,3.412508726119995117e+00,3.379601001739501953e+00,3.347321987152099609e+00,3.315653562545776367e+00,3.284578800201416016e+00,3.254081487655639648e+00,3.224144935607910156e+00,3.194754362106323242e+00,3.165894508361816406e+00,3.137551784515380859e+00,3.109711647033691406e+00,3.082361459732055664e+00,3.055488109588623047e+00,3.029079437255859375e+00,3.003123283386230469e+00,2.977607727050781250e+00,2.952522516250610352e+00,2.927856445312500000e+00,2.903599023818969727e+00,2.879740238189697266e+00,2.856270551681518555e+00,2.833180189132690430e+00,2.810460090637207031e+00,2.788101673126220703e+00,2.766096115112304688e+00,2.744435071945190430e+00,2.723110437393188477e+00,2.702115058898925781e+00,2.681440830230712891e+00,2.661080360412597656e+00,2.641026973724365234e+00,2.621273756027221680e+00,2.601813554763793945e+00,2.582640171051025391e+00,2.563747406005859375e+00,2.545129060745239258e+00,2.526778936386108398e+00,2.508691787719726562e+00,2.490861415863037109e+00,2.473283052444458008e+00,2.455950975418090820e+00,6.658356785774230957e-01,6.476043462753295898e-01,6.392133831977844238e-01,6.310369968414306641e-01,6.238113045692443848e-01,6.195864677429199219e-01,6.154997348785400391e-01,6.129361391067504883e-01,6.103938817977905273e-01,6.087145209312438965e-01,6.074084043502807617e-01,6.061078310012817383e-01,6.056652069091796875e-01,6.096335649490356445e-01,6.098871827125549316e-01,6.087301373481750488e-01,6.075774431228637695e-01,2.180859327316284180e+00,2.167372226715087891e+00,2.154050827026367188e+00,2.140892267227172852e+00,2.127893447875976562e+00,2.115051507949829102e+00,2.102363824844360352e+00,2.089827299118041992e+00,2.077439546585083008e+00,2.065197706222534180e+00,2.053099155426025391e+00,2.041141748428344727e+00
3.780637025833129883e+00,3.740288496017456055e+00,3.700792312622070312e+00,3.662121295928955078e+00,3.624249935150146484e+00,3.587153911590576172e+00,3.550809860229492188e+00,3.515194654464721680e+00,3.480286836624145508e+00,3.446065664291381836e+00,3.412510871887207031e+00,3.379603147506713867e+00,3.347324132919311523e+00,3.315655946731567383e+00,3.284581184387207031e+00,3.254083633422851562e+00,3.224146842956542969e+00,3.194756031036376953e+00,3.165896415710449219e+00,3.137553453445434570e+00,3.109713315963745117e+00,3.082363128662109375e+00,3.055489778518676758e+00,3.029081106185913086e+00,3.003124713897705078e+00,2.977609634399414062e+00,2.952524423599243164e+00,2.927858114242553711e+00,2.903600692749023438e+00,2.879741907119750977e+00,2.856271982192993164e+00,2.833181619644165039e+00,2.810461521148681641e+00,2.788102865219116211e+00,2.766097545623779297e+00,2.744436502456665039e+00,2.723112106323242188e+00,2.702116489410400391e+00,2.681442260742187500e+00,2.661081790924072266e+00,2.641028404235839844e+00,2.621274948120117188e+00,2.601814746856689453e+00,2.582641363143920898e+00,2.563748598098754883e+00,2.545130252838134766e+00,2.526780128479003906e+00,2.508692979812622070e+00,2.490862846374511719e+00,2.473284244537353516e+00,6.913338303565979004e-01,6.549360156059265137e-01,6.449757814407348633e-01,6.366523504257202148e-01,6.285409927368164062e-01,6.229052543640136719e-01,6.191877126693725586e-01,6.165934205055236816e-01,6.150959730148315430e-01,6.137623190879821777e-01,6.124344468116760254e-01,6.111122965812683105e-01,6.110803484916687012e-01,6.151202321052551270e-01,6.173137426376342773e-01,6.161283254623413086e-01,6.149474978446960449e-01,2.194516181945800781e+00,2.180860280990600586e+00,2.167373180389404297e+00,2.154051780700683594e+00,2.140893220901489258e+00,2.127894401550292969e+00,2.115052461624145508e+00,2.102364540100097656e+00,2.089828252792358398e+00,2.077440261840820312e+00,2.065198421478271484e+00,2.053100109100341797e+00,2.041142463684082031e+00
3.780639648437500000e+00,3.740291118621826172e+00,3.700794696807861328e+00,3.662123680114746094e+00,3.624252557754516602e+00,3.587156534194946289e+00,3.550812482833862305e+00,3.515197277069091797e+00,3.480288982391357422e+00,3.446067810058593750e+00,3.412512779235839844e+00,3.379605293273925781e+00,3.347326040267944336e+00,3.315657854080200195e+00,3.284583091735839844e+00,3.254085540771484375e+00,3.224148988723754883e+00,3.194758176803588867e+00,3.165898323059082031e+00,3.137555122375488281e+00,3.109715223312377930e+00,3.082365036010742188e+00,3.055491447448730469e+00,3.029082536697387695e+00,3.003126382827758789e+00,2.977611064910888672e+00,2.952525854110717773e+00,2.927859783172607422e+00,2.903602361679077148e+00,2.879743576049804688e+00,2.856273651123046875e+00,2.833183050155639648e+00,2.810462951660156250e+00,2.788104295730590820e+00,2.766098737716674805e+00,2.744437694549560547e+00,2.723113298416137695e+00,2.702117919921875000e+00,2.681443452835083008e+00,2.661083221435546875e+00,2.641029834747314453e+00,2.621276378631591797e+00,2.601816177368164062e+00,2.582642555236816406e+00,2.563749790191650391e+00,2.545131206512451172e+00,2.526781320571899414e+00,2.508694171905517578e+00,2.490864038467407227e+00,2.473285436630249023e+00,6.688986420631408691e-01,6.541255116462707520e-01,6.439912915229797363e-01,6.341663002967834473e-01,6.262598037719726562e-01,6.229806542396545410e-01,6.216126680374145508e-01,6.202506422996520996e-01,6.188945174217224121e-01,6.175444126129150391e-01,6.162000894546508789e-01,6.165932416915893555e-01,6.207065582275390625e-01,6.248751282691955566e-01,6.237085461616516113e-01,6.224985122680664062e-01,2.208345174789428711e+00,2.194517135620117188e+00,2.180860996246337891e+00,2.167373895645141602e+00,2.154052495956420898e+00,2.140894174575805664e+00,2.127895355224609375e+00,2.115053415298461914e+00,2.102365493774414062e+00,2.089828968048095703e+00,2.077441215515136719e+00,2.065199375152587891e+00,2.053101062774658203e+00,2.041143417358398438e+00
3.780642032623291016e+00,3.740293502807617188e+00,3.700797080993652344e+00,3.662126064300537109e+00,3.624254941940307617e+00,3.587158918380737305e+00,3.550814628601074219e+00,3.515199422836303711e+00,3.480291604995727539e+00,3.446070194244384766e+00,3.412515163421630859e+00,3.379607200622558594e+00,3.347328186035156250e+00,3.315659761428833008e+00,3.284584999084472656e+00,3.254087448120117188e+00,3.224150657653808594e+00,3.194760084152221680e+00,3.165900230407714844e+00,3.137557268142700195e+00,3.109717130661010742e+00,3.082366943359375000e+00,3.055493116378784180e+00,3.029084205627441406e+00,3.003128051757812500e+00,2.977612733840942383e+00,2.952527523040771484e+00,2.927861213684082031e+00,2.903603792190551758e+00,2.879745006561279297e+00,2.856275320053100586e+00,2.833184719085693359e+00,2.810464620590209961e+00,2.788105964660644531e+00,2.766100168228149414e+00,2.744439125061035156e+00,2.723114728927612305e+00,2.702119112014770508e+00,2.681444883346557617e+00,2.661084413528442383e+00,2.641031026840209961e+00,2.621277570724487305e+00,2.601817369461059570e+00,2.582643985748291016e+00,2.563750982284545898e+00,2.545132637023925781e+00,2.526782512664794922e+00,2.508695363998413086e+00,2.490864992141723633e+00,6.976650357246398926e-01,6.630577445030212402e-01,6.533170342445373535e-01,6.432076692581176758e-01,6.334064006805419922e-01,6.281911134719848633e-01,6.268775463104248047e-01,6.254923343658447266e-01,6.241132616996765137e-01,6.227402687072753906e-01,6.213732957839965820e-01,6.222063899040222168e-01,6.263952255249023438e-01,6.306408643722534180e-01,6.314775943756103516e-01,2.236532211303710938e+00,2.222349882125854492e+00,2.208346366882324219e+00,2.194518327713012695e+00,2.180862426757812500e+00,2.167375087738037109e+00,2.154053688049316406e+00,2.140895128250122070e+00,2.127896308898925781e+00,2.115054368972778320e+00,2.102366685867309570e+00,2.089830160140991211e+00,2.077442169189453125e+00,2.065200328826904297e+00,2.053101778030395508e+00,2.041144371032714844e+00
3.780645132064819336e+00,3.740296363830566406e+00,3.700799465179443359e+00,3.662128448486328125e+00,3.624257326126098633e+00,3.587161064147949219e+00,3.550817012786865234e+00,3.515201568603515625e+00,3.480293750762939453e+00,3.446072340011596680e+00,3.412517309188842773e+00,3.379609584808349609e+00,3.347330331802368164e+00,3.315662145614624023e+00,3.284586906433105469e+00,3.254089355468750000e+00,3.224152565002441406e+00,3.194761991500854492e+00,3.165901899337768555e+00,3.137558937072753906e+00,3.109718799591064453e+00,3.082368612289428711e+00,3.055495023727416992e+00,3.029086112976074219e+00,3.003129959106445312e+00,2.977614641189575195e+00,2.952528953552246094e+00,2.927862882614135742e+00,2.903605461120605469e+00,2.879746437072753906e+00,2.856276750564575195e+00,2.833186388015747070e+00,2.810466289520263672e+00,2.788107633590698242e+00,2.766102075576782227e+00,2.744441032409667969e+00,2.723116397857666016e+00,2.702120542526245117e+00,2.681446313858032227e+00,2.661085844039916992e+00,2.641032457351684570e+00,2.621279001235961914e+00,2.601818799972534180e+00,2.582645416259765625e+00,2.563752412796020508e+00,2.545134067535400391e+00,2.526783943176269531e+00,2.508696794509887695e+00,2.490866661071777344e+00,6.744602918624877930e-01,6.626504063606262207e-01,6.525105237960815430e-01,6.424258947372436523e-01,6.332184672355651855e-01,6.319015622138977051e-01,6.305902004241943359e-01,6.292842030525207520e-01,6.279836297035217285e-01,6.266341805458068848e-01,6.279227733612060547e-01,6.321891546249389648e-01,6.365139484405517578e-01,6.394426226615905762e-01,2.250897645950317383e+00,2.236533164978027344e+00,2.222350835800170898e+00,2.208347320556640625e+00,2.194519042968750000e+00,2.180863142013549805e+00,2.167376041412353516e+00,2.154054641723632812e+00,2.140896081924438477e+00,2.127897024154663086e+00,2.115055084228515625e+00,2.102367401123046875e+00,2.089830875396728516e+00,2.077442884445190430e+00,2.065201044082641602e+00,2.053102731704711914e+00,2.041145086288452148e+00
3.780647754669189453e+00,3.740298986434936523e+00,3.700802326202392578e+00,3.662131309509277344e+00,3.624259948730468750e+00,3.587163925170898438e+00,3.550819158554077148e+00,3.515203952789306641e+00,3.480296134948730469e+00,3.446074724197387695e+00,3.412519693374633789e+00,3.379611968994140625e+00,3.347332715988159180e+00,3.315664291381835938e+00,3.284589529037475586e+00,3.254091739654541016e+00,3.224154949188232422e+00,3.194763898849487305e+00,3.165904045104980469e+00,3.137561082839965820e+00,3.109720945358276367e+00,3.082370519638061523e+00,3.055496931076049805e+00,3.029088020324707031e+00,3.003131628036499023e+00,2.977616548538208008e+00,2.952531099319458008e+00,2.927864789962768555e+00,2.903607368469238281e+00,2.879748344421386719e+00,2.856278419494628906e+00,2.833187818527221680e+00,2.810467720031738281e+00,2.788109064102172852e+00,2.766103267669677734e+00,2.744442224502563477e+00,2.723117828369140625e+00,2.702122211456298828e+00,2.681447744369506836e+00,2.661087512969970703e+00,2.641033887863159180e+00,2.621280193328857422e+00,2.601819992065429688e+00,2.582646608352661133e+00,2.563753604888916016e+00,2.545135259628295898e+00,2.526785135269165039e+00,2.508697986602783203e+00,7.041133046150207520e-01,6.711505055427551270e-01,6.620864272117614746e-01,6.517060399055480957e-01,6.416460871696472168e-01,6.369887590408325195e-01,6.356561779975891113e-01,6.343291401863098145e-01,6.330076456069946289e-01,6.316916942596435547e-01,6.311427950859069824e-01,6.369014978408813477e-01,6.424974799156188965e-01,6.469650268554687500e-01,2.265448808670043945e+00,2.250898599624633789e+00,2.236534118652343750e+00,2.222351789474487305e+00,2.208348274230957031e+00,2.194519996643066406e+00,2.180864095687866211e+00,2.167376756668090820e+00,2.154055356979370117e+00,2.140896797180175781e+00,2.127897977828979492e+00,2.115056037902832031e+00,2.102368354797363281e+00,2.089831590652465820e+00,2.077443838119506836e+00,2.065201759338378906e+00,2.053103446960449219e+00,2.041145801544189453e+00
3.780650377273559570e+00,3.740301609039306641e+00,3.700805187225341797e+00,3.662133932113647461e+00,3.624262571334838867e+00,3.587166309356689453e+00,3.550822019577026367e+00,3.515206575393676758e+00,3.480298757553100586e+00,3.446076869964599609e+00,3.412521839141845703e+00,3.379613876342773438e+00,3.347334623336791992e+00,3.315666198730468750e+00,3.284591436386108398e+00,3.254093647003173828e+00,3.224156856536865234e+00,3.194766044616699219e+00,3.165906190872192383e+00,3.137562990188598633e+00,3.109722614288330078e+00,3.082372188568115234e+00,3.055498600006103516e+00,3.029089689254760742e+00,3.003133296966552734e+00,2.977617979049682617e+00,2.952532529830932617e+00,2.927866458892822266e+00,2.903609037399291992e+00,2.879750013351440430e+00,2.856280088424682617e+00,2.833189487457275391e+00,2.810469150543212891e+00,2.788110494613647461e+00,2.766104698181152344e+00,2.744443655014038086e+00,2.723119020462036133e+00,2.702123403549194336e+00,2.681449174880981445e+00,2.661088705062866211e+00,2.641035318374633789e+00,2.621281623840332031e+00,2.601821422576904297e+00,2.582648038864135742e+00,2.563754796981811523e+00,2.545136451721191406e+00,2.526786327362060547e+00,2.508698940277099609e+00,6.801151633262634277e-01,6.707331538200378418e-01,6.612581610679626465e-01,6.509035229682922363e-01,6.421585083007812500e-01,6.408042311668395996e-01,6.394556760787963867e-01,6.381127238273620605e-01,6.367754340171813965e-01,6.355599164962768555e-01,6.380529403686523438e-01,6.439390182495117188e-01,6.499347090721130371e-01,2.280189037322998047e+00,2.265449762344360352e+00,2.250899553298950195e+00,2.236535072326660156e+00,2.222352743148803711e+00,2.208349227905273438e+00,2.194520950317382812e+00,2.180864810943603516e+00,2.167377710342407227e+00,2.154056310653686523e+00,2.140897750854492188e+00,2.127898931503295898e+00,2.115056991577148438e+00,2.102369070053100586e+00,2.089832544326782227e+00,2.077444553375244141e+00,2.065202713012695312e+00,2.053104162216186523e+00,2.041146516799926758e+00
3.780652999877929688e+00,3.740304231643676758e+00,3.700807571411132812e+00,3.662136316299438477e+00,3.624264955520629883e+00,3.587168693542480469e+00,3.550824165344238281e+00,3.515208959579467773e+00,3.480300903320312500e+00,3.446079254150390625e+00,3.412524223327636719e+00,3.379616260528564453e+00,3.347336769104003906e+00,3.315668106079101562e+00,3.284593343734741211e+00,3.254095554351806641e+00,3.224158763885498047e+00,3.194767951965332031e+00,3.165907859802246094e+00,3.137564897537231445e+00,3.109724521636962891e+00,3.082374334335327148e+00,3.055500745773315430e+00,3.029091596603393555e+00,3.003134965896606445e+00,2.977619647979736328e+00,2.952534198760986328e+00,2.927867889404296875e+00,2.903610467910766602e+00,2.879751443862915039e+00,2.856281518936157227e+00,2.833190917968750000e+00,2.810470819473266602e+00,2.788111925125122070e+00,2.766106367111206055e+00,2.744445085525512695e+00,2.723120450973510742e+00,2.702124834060668945e+00,2.681450366973876953e+00,2.661089897155761719e+00,2.641036510467529297e+00,2.621282815933227539e+00,2.601822614669799805e+00,2.582649230957031250e+00,2.563756227493286133e+00,2.545137643814086914e+00,2.526787757873535156e+00,7.104135751724243164e-01,6.794432997703552246e-01,6.703162789344787598e-01,6.604319810867309570e-01,6.501029729843139648e-01,6.460363268852233887e-01,6.446656584739685059e-01,6.433007717132568359e-01,6.419417262077331543e-01,6.407297253608703613e-01,6.403548121452331543e-01,6.451160907745361328e-01,6.511338353157043457e-01,2.295122623443603516e+00,2.280189990997314453e+00,2.265450716018676758e+00,2.250900506973266602e+00,2.236536026000976562e+00,2.222353696823120117e+00,2.208350181579589844e+00,2.194521903991699219e+00,2.180865764617919922e+00,2.167378664016723633e+00,2.154057025909423828e+00,2.140898466110229492e+00,2.127899646759033203e+00,2.115057706832885742e+00,2.102369785308837891e+00,2.089833259582519531e+00,2.077445507049560547e+00,2.065203428268432617e+00,2.053105115890502930e+00,2.041147470474243164e+00
3.780656099319458008e+00,3.740307092666625977e+00,3.700810432434082031e+00,3.662138938903808594e+00,3.624267339706420898e+00,3.587170839309692383e+00,3.550826549530029297e+00,3.515211105346679688e+00,3.480303049087524414e+00,3.446081399917602539e+00,3.412526369094848633e+00,3.379618406295776367e+00,3.347338914871215820e+00,3.315670490264892578e+00,3.284595489501953125e+00,3.254097461700439453e+00,3.224160671234130859e+00,3.194769620895385742e+00,3.165909767150878906e+00,3.137566566467285156e+00,3.109726428985595703e+00,3.082376003265380859e+00,3.055502414703369141e+00,3.029093265533447266e+00,3.003136873245239258e+00,2.977621555328369141e+00,2.952536106109619141e+00,2.927869558334350586e+00,2.903611898422241211e+00,2.879752874374389648e+00,2.856282949447631836e+00,2.833192348480224609e+00,2.810472249984741211e+00,2.788113355636596680e+00,2.766107797622680664e+00,2.744446516036987305e+00,2.723121881484985352e+00,2.702126264572143555e+00,2.681451797485351562e+00,2.661091327667236328e+00,2.641037702560424805e+00,2.621284246444702148e+00,2.601823806762695312e+00,2.582650423049926758e+00,2.563757419586181641e+00,2.545138835906982422e+00,2.526788711547851562e+00,6.883826255798339844e-01,6.790155172348022461e-01,6.698999404907226562e-01,6.596077680587768555e-01,6.513545513153076172e-01,6.499612331390380859e-01,6.485738754272460938e-01,6.472006440162658691e-01,6.459844112396240234e-01,6.447727084159851074e-01,6.464981436729431152e-01,6.523373126983642578e-01,6.584911942481994629e-01,2.295123815536499023e+00,2.280191183090209961e+00,2.265451431274414062e+00,2.250901222229003906e+00,2.236536741256713867e+00,2.222354650497436523e+00,2.208350896835327148e+00,2.194522619247436523e+00,2.180866718292236328e+00,2.167379617691040039e+00,2.154057979583740234e+00,2.140899419784545898e+00,2.127900600433349609e+00,2.115058422088623047e+00,2.102370738983154297e+00,2.089834213256835938e+00,2.077446222305297852e+00,2.065204143524169922e+00,2.053105831146240234e+00,2.041148185729980469e+00
3.780658483505249023e+00,3.740309715270996094e+00,3.700812816619873047e+00,3.662141561508178711e+00,3.624269962310791016e+00,3.587173700332641602e+00,3.550829172134399414e+00,3.515213251113891602e+00,3.480305194854736328e+00,3.446083545684814453e+00,3.412528276443481445e+00,3.379620313644409180e+00,3.347341060638427734e+00,3.315672397613525391e+00,3.284597396850585938e+00,3.254099607467651367e+00,3.224162817001342773e+00,3.194771766662597656e+00,3.165911436080932617e+00,3.137568473815917969e+00,3.109728097915649414e+00,3.082377672195434570e+00,3.055504083633422852e+00,3.029094934463500977e+00,3.003138542175292969e+00,2.977622985839843750e+00,2.952537536621093750e+00,2.927871227264404297e+00,2.903613805770874023e+00,2.879754781723022461e+00,2.856284379959106445e+00,2.833193778991699219e+00,2.810473442077636719e+00,2.788114786148071289e+00,2.766108989715576172e+00,2.744447946548461914e+00,2.723123311996459961e+00,2.702127695083618164e+00,2.681453227996826172e+00,2.661092758178710938e+00,2.641039133071899414e+00,2.621285676956176758e+00,2.601824998855590820e+00,2.582651615142822266e+00,2.563758611679077148e+00,2.545140027999877930e+00,7.166901826858520508e-01,6.879435181617736816e-01,6.785882711410522461e-01,6.693947315216064453e-01,6.587857007980346680e-01,6.553446054458618164e-01,6.539341807365417480e-01,6.525624394416809082e-01,6.513258814811706543e-01,6.500940918922424316e-01,6.498819589614868164e-01,6.535453796386718750e-01,6.597220897674560547e-01,2.310254096984863281e+00,2.295124769210815430e+00,2.280192136764526367e+00,2.265452623367309570e+00,2.250902414321899414e+00,2.236537933349609375e+00,2.222355604171752930e+00,2.208351850509643555e+00,2.194523572921752930e+00,2.180867433547973633e+00,2.167380332946777344e+00,2.154058694839477539e+00,2.140900135040283203e+00,2.127901315689086914e+00,2.115059375762939453e+00,2.102371215820312500e+00,2.089834690093994141e+00,2.077446460723876953e+00,2.065204381942749023e+00,2.053106069564819336e+00,2.041148424148559570e+00
3.780661106109619141e+00,3.740312099456787109e+00,3.700815200805664062e+00,3.662143945693969727e+00,3.624272346496582031e+00,3.587175846099853516e+00,3.550831317901611328e+00,3.515215873718261719e+00,3.480307817459106445e+00,3.446085929870605469e+00,3.412530422210693359e+00,3.379622459411621094e+00,3.347342967987060547e+00,3.315674543380737305e+00,3.284599304199218750e+00,3.254101514816284180e+00,3.224164724349975586e+00,3.194773674011230469e+00,3.165913581848144531e+00,3.137570381164550781e+00,3.109730005264282227e+00,3.082379579544067383e+00,3.055505752563476562e+00,3.029096603393554688e+00,3.003139972686767578e+00,2.977624654769897461e+00,2.952539205551147461e+00,2.927872657775878906e+00,2.903615236282348633e+00,2.879756212234497070e+00,2.856286048889160156e+00,2.833195447921752930e+00,2.810475111007690430e+00,2.788116216659545898e+00,2.766110420227050781e+00,2.744449138641357422e+00,2.723124742507934570e+00,2.702128887176513672e+00,2.681454420089721680e+00,2.661093950271606445e+00,2.641040563583374023e+00,2.621286869049072266e+00,2.601826429367065430e+00,2.582652807235717773e+00,2.563759803771972656e+00,2.545141220092773438e+00,6.971094608306884766e-01,6.875050067901611328e-01,6.781616210937500000e-01,6.685480475425720215e-01,6.608178615570068359e-01,6.593838334083557129e-01,6.580137610435485840e-01,6.567565202713012695e-01,6.555041670799255371e-01,6.542565226554870605e-01,6.562102437019348145e-01,6.609576344490051270e-01,6.672759652137756348e-01,2.310254573822021484e+00,2.295125246047973633e+00,2.280192375183105469e+00,2.265453100204467773e+00,2.250902891159057617e+00,2.236538171768188477e+00,2.222355842590332031e+00,2.208352088928222656e+00,2.194524049758911133e+00,2.180867910385131836e+00,2.167380571365356445e+00,2.154059171676635742e+00,2.140900373458862305e+00,2.127901554107666016e+00,2.115059614181518555e+00,2.102371692657470703e+00,2.089834928512573242e+00,2.077446699142456055e+00,2.065204858779907227e+00,2.053106307983398438e+00,2.041148662567138672e+00
3.780664205551147461e+00,3.740314722061157227e+00,3.700817823410034180e+00,3.662146329879760742e+00,3.624274730682373047e+00,3.587178230285644531e+00,3.550833702087402344e+00,3.515218019485473633e+00,3.480309963226318359e+00,3.446088075637817383e+00,3.412532806396484375e+00,3.379624843597412109e+00,3.347345352172851562e+00,3.315676450729370117e+00,3.284601211547851562e+00,3.254103422164916992e+00,3.224166393280029297e+00,3.194775581359863281e+00,3.165915250778198242e+00,3.137572526931762695e+00,3.109731674194335938e+00,3.082381248474121094e+00,3.055507659912109375e+00,3.029098510742187500e+00,3.003141641616821289e+00,2.977626085281372070e+00,2.952540636062622070e+00,2.927874088287353516e+00,2.903616428375244141e+00,2.879757404327392578e+00,2.856287002563476562e+00,2.833196401596069336e+00,2.810476064682006836e+00,2.788117408752441406e+00,2.766111373901367188e+00,2.744450092315673828e+00,2.723125457763671875e+00,2.702129602432250977e+00,2.681455135345458984e+00,2.661094665527343750e+00,2.641041040420532227e+00,2.621287345886230469e+00,2.601826906204223633e+00,2.582653522491455078e+00,2.563760280609130859e+00,7.229573130607604980e-01,6.966686248779296875e-01,6.870670318603515625e-01,6.777355074882507324e-01,6.677035689353942871e-01,6.649249792098999023e-01,6.635568737983703613e-01,6.622784733772277832e-01,6.610049009323120117e-01,6.597363352775573730e-01,6.596968173980712891e-01,6.626630425453186035e-01,6.685399413108825684e-01,2.325585365295410156e+00,2.310255050659179688e+00,2.295125484466552734e+00,2.280192852020263672e+00,2.265453338623046875e+00,2.250903129577636719e+00,2.236538648605346680e+00,2.222356081008911133e+00,2.208352565765380859e+00,2.194524288177490234e+00,2.180868148803710938e+00,2.167380809783935547e+00,2.154059410095214844e+00,2.140900850296020508e+00,2.127901792526245117e+00,2.115059852600097656e+00,2.102371931076049805e+00,2.089835166931152344e+00,2.077447175979614258e+00,2.065205097198486328e+00,2.053106546401977539e+00,2.041148900985717773e+00
3.780666589736938477e+00,3.740317344665527344e+00,3.700820446014404297e+00,3.662148952484130859e+00,3.624276876449584961e+00,3.587180376052856445e+00,3.550835847854614258e+00,3.515219688415527344e+00,3.480311632156372070e+00,3.446089744567871094e+00,3.412534475326538086e+00,3.379626035690307617e+00,3.347346544265747070e+00,3.315677881240844727e+00,3.284602403640747070e+00,3.254104614257812500e+00,3.224167585372924805e+00,3.194776296615600586e+00,3.165916204452514648e+00,3.137573003768920898e+00,3.109732627868652344e+00,3.082381725311279297e+00,3.055508136749267578e+00,3.029098987579345703e+00,3.003142118453979492e+00,2.977626800537109375e+00,2.952541112899780273e+00,2.927874803543090820e+00,2.903616905212402344e+00,2.879757881164550781e+00,2.856287717819213867e+00,2.833196878433227539e+00,2.810476541519165039e+00,2.788117885589599609e+00,2.766112089157104492e+00,2.744450569152832031e+00,2.723125934600830078e+00,2.702130317687988281e+00,2.681455612182617188e+00,2.661095142364501953e+00,2.641041517257690430e+00,2.621287822723388672e+00,2.601827383041381836e+00,2.582653760910034180e+00,2.563760757446289062e+00,7.072285413742065430e-01,6.969261169433593750e-01,6.866296529769897461e-01,6.773098707199096680e-01,6.705601215362548828e-01,6.691942214965820312e-01,6.678940057754516602e-01,6.665988564491271973e-01,6.653086543083190918e-01,6.640234589576721191e-01,6.662186980247497559e-01,6.698087453842163086e-01,2.341120719909667969e+00,2.325585842132568359e+00,2.310255289077758789e+00,2.295125722885131836e+00,2.280193328857421875e+00,2.265453577041625977e+00,2.250903367996215820e+00,2.236538887023925781e+00,2.222356557846069336e+00,2.208352804183959961e+00,2.194524526596069336e+00,2.180868625640869141e+00,2.167381048202514648e+00,2.154059648513793945e+00,2.140901088714599609e+00,2.127902269363403320e+00,2.115060091018676758e+00,2.102372169494628906e+00,2.089835643768310547e+00,2.077447414398193359e+00,2.065205335617065430e+00,2.053106784820556641e+00,2.041149139404296875e+00
3.780667781829833984e+00,3.740318298339843750e+00,3.700821161270141602e+00,3.662149667739868164e+00,3.624277591705322266e+00,3.587181091308593750e+00,3.550836563110351562e+00,3.515220880508422852e+00,3.480312347412109375e+00,3.446090459823608398e+00,3.412535190582275391e+00,3.379626750946044922e+00,3.347347259521484375e+00,3.315678596496582031e+00,3.284603595733642578e+00,3.254105329513549805e+00,3.224168300628662109e+00,3.194777250289916992e+00,3.165916681289672852e+00,3.137573719024658203e+00,3.109733104705810547e+00,3.082382678985595703e+00,3.055508613586425781e+00,3.029099464416503906e+00,3.003143072128295898e+00,2.977627277374267578e+00,2.952541828155517578e+00,2.927875280380249023e+00,2.903617620468139648e+00,2.879758358001708984e+00,2.856288433074951172e+00,2.833197593688964844e+00,2.810477018356323242e+00,2.788118362426757812e+00,2.766112565994262695e+00,2.744451284408569336e+00,2.723126411437988281e+00,2.702130794525146484e+00,2.681456089019775391e+00,2.661095380783081055e+00,2.641041994094848633e+00,2.621288299560546875e+00,2.601827859878540039e+00,2.582654237747192383e+00,7.292124032974243164e-01,7.077726721763610840e-01,6.971838474273681641e-01,6.867772936820983887e-01,6.768661737442016602e-01,6.749281883239746094e-01,6.736056804656982422e-01,6.722882390022277832e-01,6.709759831428527832e-01,6.696688532829284668e-01,6.698126196861267090e-01,6.728708148002624512e-01,6.775967478752136230e-01,2.341121196746826172e+00,2.325586080551147461e+00,2.310255765914916992e+00,2.295126199722290039e+00,2.280193567276000977e+00,2.265454053878784180e+00,2.250903606414794922e+00,2.236539125442504883e+00,2.222356796264648438e+00,2.208353281021118164e+00,2.194524765014648438e+00,2.180868864059448242e+00,2.167381525039672852e+00,2.154059886932373047e+00,2.140901327133178711e+00,2.127902507781982422e+00,2.115060567855834961e+00,2.102372407913208008e+00,2.089835882186889648e+00,2.077447652816772461e+00,2.065205574035644531e+00,2.053107023239135742e+00,2.041149616241455078e+00
3.780668735504150391e+00,3.740319490432739258e+00,3.700822114944458008e+00,3.662150382995605469e+00,3.624278783798217773e+00,3.587181806564331055e+00,3.550837278366088867e+00,3.515221595764160156e+00,3.480313301086425781e+00,3.446091175079345703e+00,3.412535905838012695e+00,3.379627704620361328e+00,3.347347974777221680e+00,3.315679311752319336e+00,3.284604072570800781e+00,3.254106283187866211e+00,3.224169015884399414e+00,3.194777965545654297e+00,3.165917634963989258e+00,3.137574195861816406e+00,3.109733819961547852e+00,3.082383155822753906e+00,3.055509567260742188e+00,3.029100179672241211e+00,3.003143548965454102e+00,2.977627992630004883e+00,2.952542304992675781e+00,2.927875757217407227e+00,2.903618097305297852e+00,2.879759073257446289e+00,2.856288909912109375e+00,2.833198070526123047e+00,2.810477733612060547e+00,2.788118839263916016e+00,2.766113042831420898e+00,2.744451761245727539e+00,2.723126888275146484e+00,2.702131032943725586e+00,2.681456565856933594e+00,2.661096096038818359e+00,2.641042232513427734e+00,2.621288776397705078e+00,2.601828336715698242e+00,2.582654714584350586e+00,7.189596891403198242e-01,7.081764936447143555e-01,6.974416971206665039e-01,6.870275139808654785e-01,6.810641288757324219e-01,6.796132922172546387e-01,6.781686544418334961e-01,6.767406463623046875e-01,6.754109263420104980e-01,6.740864515304565430e-01,6.765371561050415039e-01,6.796571016311645508e-01,2.356865644454956055e+00,2.341121435165405273e+00,2.325586318969726562e+00,2.310256004333496094e+00,2.295126676559448242e+00,2.280193805694580078e+00,2.265454292297363281e+00,2.250904083251953125e+00,2.236539363861083984e+00,2.222357034683227539e+00,2.208353519439697266e+00,2.194525241851806641e+00,2.180869102478027344e+00,2.167381763458251953e+00,2.154060363769531250e+00,2.140901565551757812e+00,2.127902746200561523e+00,2.115060806274414062e+00,2.102372884750366211e+00,2.089836120605468750e+00,2.077447891235351562e+00,2.065206050872802734e+00,2.053107500076293945e+00,2.041149854660034180e+00
3.780669450759887695e+00,3.740320205688476562e+00,3.700823307037353516e+00,3.662151336669921875e+00,3.624279737472534180e+00,3.587182998657226562e+00,3.550837993621826172e+00,3.515222311019897461e+00,3.480314016342163086e+00,3.446092367172241211e+00,3.412536621093750000e+00,3.379628419876098633e+00,3.347348928451538086e+00,3.315680027008056641e+00,3.284604787826538086e+00,3.254106760025024414e+00,3.224169731140136719e+00,3.194778442382812500e+00,3.165918350219726562e+00,3.137575149536132812e+00,3.109734296798706055e+00,3.082383871078491211e+00,3.055510044097900391e+00,3.029100656509399414e+00,3.003144025802612305e+00,2.977628469467163086e+00,2.952543020248413086e+00,2.927876234054565430e+00,2.903618812561035156e+00,2.879759550094604492e+00,2.856289386749267578e+00,2.833198547363281250e+00,2.810478210449218750e+00,2.788119316101074219e+00,2.766113519668579102e+00,2.744452238082885742e+00,2.723127603530883789e+00,2.702131509780883789e+00,2.681457042694091797e+00,2.661096572875976562e+00,2.641042947769165039e+00,2.621289014816284180e+00,2.601828813552856445e+00,7.366786599159240723e-01,7.185332179069519043e-01,7.084426283836364746e-01,6.976997852325439453e-01,6.875225305557250977e-01,6.860441565513610840e-01,6.845721006393432617e-01,6.831063032150268555e-01,6.816467642784118652e-01,6.801935434341430664e-01,6.813172698020935059e-01,6.836097240447998047e-01,2.372823238372802734e+00,2.356866121292114258e+00,2.341121912002563477e+00,2.325586795806884766e+00,2.310256481170654297e+00,2.295126914978027344e+00,2.280194282531738281e+00,2.265454769134521484e+00,2.250904321670532227e+00,2.236539840698242188e+00,2.222357511520385742e+00,2.208353757858276367e+00,2.194525480270385742e+00,2.180869340896606445e+00,2.167382240295410156e+00,2.154060602188110352e+00,2.140902042388916016e+00,2.127902984619140625e+00,2.115061044692993164e+00,2.102373123168945312e+00,2.089836359024047852e+00,2.077448129653930664e+00,2.065206289291381836e+00,2.053107738494873047e+00,2.041150093078613281e+00
3.777288436889648438e+00,3.740321159362792969e+00,3.700824022293090820e+00,3.662152528762817383e+00,3.624280452728271484e+00,3.587183952331542969e+00,3.550839185714721680e+00,3.515223026275634766e+00,3.480314731597900391e+00,3.446093082427978516e+00,3.412537574768066406e+00,3.379629135131835938e+00,3.347349643707275391e+00,3.315680980682373047e+00,3.284605503082275391e+00,3.254107475280761719e+00,3.224170446395874023e+00,3.194779157638549805e+00,3.165918827056884766e+00,3.137575626373291016e+00,3.109735250473022461e+00,3.082384347915649414e+00,3.055510520935058594e+00,3.029101371765136719e+00,3.003144502639770508e+00,2.977629184722900391e+00,2.952543497085571289e+00,2.927877187728881836e+00,2.903619289398193359e+00,2.879760026931762695e+00,2.856290102005004883e+00,2.833199024200439453e+00,2.810478687286376953e+00,2.788119792938232422e+00,2.766113996505737305e+00,2.744452714920043945e+00,2.723128080368041992e+00,2.702132225036621094e+00,2.681457519531250000e+00,2.661097049713134766e+00,2.641043424606323242e+00,2.621289730072021484e+00,2.601829051971435547e+00,7.316531538963317871e-01,7.190948128700256348e-01,7.087088823318481445e-01,6.979580521583557129e-01,6.925978660583496094e-01,6.910975575447082520e-01,6.896038055419921875e-01,6.881163716316223145e-01,6.866522431373596191e-01,6.855512261390686035e-01,6.907513141632080078e-01,6.931077837944030762e-01,2.372823476791381836e+00,2.356866359710693359e+00,2.341122150421142578e+00,2.325587272644042969e+00,2.310256719589233398e+00,2.295127153396606445e+00,2.280194520950317383e+00,2.265455007553100586e+00,2.250904798507690430e+00,2.236540317535400391e+00,2.222357749938964844e+00,2.208353996276855469e+00,2.194525718688964844e+00,2.180869817733764648e+00,2.167382478713989258e+00,2.154061079025268555e+00,2.140902280807495117e+00,2.127903461456298828e+00,2.115061283111572266e+00,2.102373361587524414e+00,2.089836835861206055e+00,2.077448606491088867e+00,2.065206527709960938e+00,2.053107976913452148e+00,2.041150331497192383e+00
3.083625316619873047e+00,3.083139657974243164e+00,3.082654237747192383e+00,3.082169294357299805e+00,3.081684112548828125e+00,3.081199169158935547e+00,3.080714464187622070e+00,3.080229759216308594e+00,3.079745292663574219e+00,3.079261064529418945e+00,3.078776597976684570e+00,3.078292846679687500e+00,3.077808856964111328e+00,3.077325105667114258e+00,3.076841592788696289e+00,3.076358079910278320e+00,3.075874805450439453e+00,3.075391769409179688e+00,3.074908733367919922e+00,3.074425935745239258e+00,3.073943376541137695e+00,3.073460817337036133e+00,3.055511236190795898e+00,3.029102087020874023e+00,3.003145456314086914e+00,2.977629661560058594e+00,2.952543973922729492e+00,2.927877664566040039e+00,2.903620004653930664e+00,2.879760503768920898e+00,2.856290578842163086e+00,2.833199739456176758e+00,2.810479164123535156e+00,2.788120269775390625e+00,2.766114473342895508e+00,2.744453191757202148e+00,2.723128318786621094e+00,2.702132701873779297e+00,2.681458234786987305e+00,2.661097288131713867e+00,2.641043663024902344e+00,2.621290206909179688e+00,7.500112652778625488e-01,7.296261787414550781e-01,7.196572422981262207e-01,7.089753746986389160e-01,6.992779970169067383e-01,6.977486610412597656e-01,6.962260007858276367e-01,6.947099566459655762e-01,6.932714581489562988e-01,6.919286251068115234e-01,6.980435848236083984e-01,7.004501819610595703e-01,2.388998746871948242e+00,2.372823953628540039e+00,2.356866598129272461e+00,2.341122627258300781e+00,2.325587511062622070e+00,2.310257196426391602e+00,2.295127630233764648e+00,2.280194997787475586e+00,2.265455484390258789e+00,2.250905036926269531e+00,2.236540555953979492e+00,2.222358226776123047e+00,2.208354473114013672e+00,2.194526195526123047e+00,2.180870056152343750e+00,2.167382955551147461e+00,2.154061317443847656e+00,2.140902519226074219e+00,2.127903699874877930e+00,2.115061759948730469e+00,2.102373600006103516e+00,2.089837074279785156e+00,2.077448844909667969e+00,2.065206766128540039e+00,2.053108215332031250e+00,2.041150569915771484e+00
2.605204343795776367e+00,2.604857683181762695e+00,2.604511260986328125e+00,2.604164838790893555e+00,2.603818416595458984e+00,2.603472471237182617e+00,2.603126287460327148e+00,2.602780103683471680e+00,2.602434396743774414e+00,2.602088451385498047e+00,2.601742506027221680e+00,2.601397037506103516e+00,2.601051330566406250e+00,2.600705862045288086e+00,2.600360631942749023e+00,2.600015163421630859e+00,2.599669933319091797e+00,2.599324941635131836e+00,2.598979949951171875e+00,2.598635196685791016e+00,2.598290205001831055e+00,2.597945451736450195e+00,2.597600936889648438e+00,2.597256183624267578e+00,2.596911668777465820e+00,2.596567392349243164e+00,2.596223115921020508e+00,2.595878839492797852e+00,2.595534801483154297e+00,2.595190763473510742e+00,2.594846963882446289e+00,2.594503164291381836e+00,2.594159364700317383e+00,2.593815565109252930e+00,2.593472242355346680e+00,2.593128681182861328e+00,2.592785120010375977e+00,2.592442035675048828e+00,2.592098712921142578e+00,2.591755867004394531e+00,2.591412782669067383e+00,2.591069698333740234e+00,7.448028326034545898e-01,7.302051782608032227e-01,7.202206254005432129e-01,7.092419862747192383e-01,7.045290470123291016e-01,7.029765844345092773e-01,7.014310956001281738e-01,7.000194787979125977e-01,6.986504197120666504e-01,7.018653750419616699e-01,7.079497575759887695e-01,2.405396223068237305e+00,2.388999223709106445e+00,2.372824430465698242e+00,2.356867313385009766e+00,2.341122865676879883e+00,2.325587749481201172e+00,2.310257434844970703e+00,2.295128107070922852e+00,2.280195236206054688e+00,2.265455722808837891e+00,2.250905513763427734e+00,2.236540794372558594e+00,2.222358465194702148e+00,2.208354711532592773e+00,2.194526433944702148e+00,2.180870294570922852e+00,2.167383193969726562e+00,2.154061555862426758e+00,2.140902757644653320e+00,2.127903938293457031e+00,2.115061998367309570e+00,2.102373838424682617e+00,2.089837312698364258e+00,2.077449083328247070e+00,2.065207242965698242e+00,2.053108453750610352e+00,2.041150808334350586e+00
2.255297422409057617e+00,2.255037546157836914e+00,2.254778146743774414e+00,2.254518270492553711e+00,2.254258871078491211e+00,2.253999471664428711e+00,2.253739833831787109e+00,2.253480434417724609e+00,2.253221273422241211e+00,2.252961874008178711e+00,2.252702713012695312e+00,2.252443552017211914e+00,2.252184629440307617e+00,2.251925706863403320e+00,2.251666545867919922e+00,2.251407623291015625e+00,2.251148939132690430e+00,2.250890016555786133e+00,2.250631332397460938e+00,2.250372648239135742e+00,2.250114202499389648e+00,2.249855518341064453e+00,2.249597072601318359e+00,2.249338626861572266e+00,2.249080181121826172e+00,2.248821973800659180e+00,2.248563766479492188e+00,2.248305559158325195e+00,2.248047590255737305e+00,2.247789382934570312e+00,2.247531414031982422e+00,2.247273445129394531e+00,2.247015476226806641e+00,2.246757745742797852e+00,2.246500015258789062e+00,2.246242284774780273e+00,2.245984554290771484e+00,2.245727062225341797e+00,2.245469331741333008e+00,2.245212078094482422e+00,2.244954586029052734e+00,2.244697093963623047e+00,7.410669326782226562e-01,7.307851910591125488e-01,7.206213474273681641e-01,7.114424109458923340e-01,7.098594903945922852e-01,7.083018422126770020e-01,7.069002985954284668e-01,7.055041790008544922e-01,7.041136026382446289e-01,7.156117558479309082e-01,2.241870164871215820e+00,2.241613626480102539e+00,2.241356849670410156e+00,2.241100311279296875e+00,2.240844011306762695e+00,2.240587472915649414e+00,2.240330934524536133e+00,2.240074872970581055e+00,2.239818572998046875e+00,2.239562273025512695e+00,2.239306211471557617e+00,2.239050149917602539e+00,2.236541271209716797e+00,2.222358703613281250e+00,2.208355188369750977e+00,2.194526910781860352e+00,2.180870532989501953e+00,2.167383432388305664e+00,2.154062032699584961e+00,2.140903234481811523e+00,2.127904176712036133e+00,2.115062236785888672e+00,2.102374315261840820e+00,2.089837551116943359e+00,2.077449321746826172e+00,2.065207481384277344e+00,2.053108930587768555e+00,2.041151046752929688e+00
1.988253593444824219e+00,1.988051652908325195e+00,1.987850069999694824e+00,1.987648248672485352e+00,1.987446427345275879e+00,1.987244725227355957e+00,1.987043023109436035e+00,1.986841559410095215e+00,1.986639976501464844e+00,1.986438393592834473e+00,1.986236810684204102e+00,1.986035346984863281e+00,1.985833883285522461e+00,1.985632658004760742e+00,1.985431313514709473e+00,1.985229969024658203e+00,1.985028624534606934e+00,1.984827399253845215e+00,1.984626173973083496e+00,1.984425187110900879e+00,1.984224081039428711e+00,1.984022974967956543e+00,1.983821988105773926e+00,1.983621001243591309e+00,1.983420252799987793e+00,1.983219265937805176e+00,1.983018398284912109e+00,1.982817530632019043e+00,1.982616782188415527e+00,1.982416033744812012e+00,1.982215523719787598e+00,1.982014775276184082e+00,1.981814146041870117e+00,1.981613516807556152e+00,1.981413006782531738e+00,1.981212496757507324e+00,1.981012225151062012e+00,1.980811834335327148e+00,1.980611324310302734e+00,1.980411052703857422e+00,1.980210661888122559e+00,1.980010390281677246e+00,7.416642904281616211e-01,7.313660979270935059e-01,7.208968400955200195e-01,7.168784141540527344e-01,7.153471708297729492e-01,7.139176130294799805e-01,7.124936580657958984e-01,7.110754251480102539e-01,7.189747691154479980e-01,7.260266542434692383e-01,1.977810382843017578e+00,1.977610826492309570e+00,1.977411150932312012e+00,1.977211356163024902e+00,1.977011680603027344e+00,1.976812124252319336e+00,1.976612448692321777e+00,1.976413130760192871e+00,1.976213693618774414e+00,1.976014137268066406e+00,1.975814700126647949e+00,1.975615382194519043e+00,1.975416183471679688e+00,1.975216865539550781e+00,1.975017666816711426e+00,1.974818348884582520e+00,1.974619150161743164e+00,1.974420070648193359e+00,1.974221110343933105e+00,1.974022030830383301e+00,1.973823070526123047e+00,1.973623991012573242e+00,1.973425149917602539e+00,1.973226189613342285e+00,1.973027586936950684e+00,1.972828745841979980e+00,1.972629904747009277e+00,1.972431182861328125e+00
1.777754426002502441e+00,1.777593135833740234e+00,1.777431845664978027e+00,1.777270436286926270e+00,1.777109146118164062e+00,1.776947736740112305e+00,1.776786565780639648e+00,1.776625514030456543e+00,1.776464223861694336e+00,1.776303052902221680e+00,1.776141881942749023e+00,1.775980830192565918e+00,1.775819659233093262e+00,1.775658726692199707e+00,1.775497794151306152e+00,1.775336742401123047e+00,1.775175809860229492e+00,1.775014758110046387e+00,1.774854063987731934e+00,1.774693131446838379e+00,1.774532318115234375e+00,1.774371504783630371e+00,1.774210691452026367e+00,1.774049878120422363e+00,1.773889303207397461e+00,1.773728609085083008e+00,1.773567914962768555e+00,1.773407220840454102e+00,1.773246526718139648e+00,1.773085951805114746e+00,1.772925615310668945e+00,1.772765040397644043e+00,1.772604465484619141e+00,1.772444009780883789e+00,1.772283554077148438e+00,1.772123336791992188e+00,1.771962881088256836e+00,1.771802544593811035e+00,1.771642208099365234e+00,1.771481871604919434e+00,1.771321535110473633e+00,7.863495945930480957e-01,7.696011662483215332e-01,7.319478988647460938e-01,7.240375876426696777e-01,7.225340604782104492e-01,7.210756540298461914e-01,7.196230888366699219e-01,7.181763052940368652e-01,7.167354822158813477e-01,7.340870499610900879e-01,1.769560694694519043e+00,1.769400715827941895e+00,1.769241094589233398e+00,1.769081115722656250e+00,1.768921256065368652e+00,1.768761515617370605e+00,1.768601655960083008e+00,1.768442153930664062e+00,1.768282413482666016e+00,1.768122673034667969e+00,1.767962932586669922e+00,1.767803311347961426e+00,1.767643690109252930e+00,1.767484307289123535e+00,1.767324686050415039e+00,1.767165184020996094e+00,1.767005681991577148e+00,1.766846179962158203e+00,1.766686797142028809e+00,1.766527533531188965e+00,1.766368150711059570e+00,1.766208767890930176e+00,1.766049504280090332e+00,1.765890121459960938e+00,1.765731096267700195e+00,1.765571832656860352e+00,1.765412688255310059e+00,1.765253424644470215e+00,1.765094280242919922e+00
1.607559800148010254e+00,1.607427954673767090e+00,1.607295989990234375e+00,1.607164025306701660e+00,1.607032179832458496e+00,1.606900215148925781e+00,1.606768369674682617e+00,1.606636643409729004e+00,1.606504797935485840e+00,1.606372952461242676e+00,1.606241226196289062e+00,1.606109380722045898e+00,1.605977773666381836e+00,1.605846047401428223e+00,1.605714321136474609e+00,1.605582594871520996e+00,1.605450987815856934e+00,1.605319261550903320e+00,1.605187892913818359e+00,1.605056285858154297e+00,1.604924678802490234e+00,1.604793071746826172e+00,1.604661583900451660e+00,1.604529976844787598e+00,1.604398727416992188e+00,1.604267239570617676e+00,1.604135751724243164e+00,1.604004263877868652e+00,1.603872895240783691e+00,1.603741645812988281e+00,1.603610277175903320e+00,1.603478908538818359e+00,1.603347659111022949e+00,1.603216290473937988e+00,1.603085041046142578e+00,1.602953910827636719e+00,1.602822661399841309e+00,1.602691411972045898e+00,1.602560281753540039e+00,1.602429032325744629e+00,8.084625601768493652e-01,7.794641852378845215e-01,7.598884105682373047e-01,7.479370832443237305e-01,7.413080334663391113e-01,7.283786535263061523e-01,7.268965840339660645e-01,7.254204154014587402e-01,7.239503860473632812e-01,7.369392514228820801e-01,1.600987911224365234e+00,1.600857019424438477e+00,1.600726246833801270e+00,1.600595355033874512e+00,1.600464463233947754e+00,1.600333690643310547e+00,1.600202918052673340e+00,1.600072026252746582e+00,1.599941372871398926e+00,1.599810719490051270e+00,1.599679946899414062e+00,1.599549293518066406e+00,1.599418520927429199e+00,1.599287867546081543e+00,1.599157452583312988e+00,1.599026799201965332e+00,1.598896145820617676e+00,1.598765611648559570e+00,1.598635077476501465e+00,1.598504662513732910e+00,1.598374128341674805e+00,1.598243474960327148e+00,1.598112940788269043e+00,1.597982406616210938e+00,1.597851872444152832e+00,1.597721338272094727e+00,1.597590923309326172e+00,1.597460389137268066e+00,1.597329974174499512e+00,1.597199559211730957e+00
1.467105388641357422e+00,1.466995596885681152e+00,1.466885685920715332e+00,1.466775774955749512e+00,1.466665863990783691e+00,1.466556072235107422e+00,1.466446280479431152e+00,1.466336488723754883e+00,1.466226696968078613e+00,1.466116786003112793e+00,1.466006994247436523e+00,1.465897321701049805e+00,1.465787649154663086e+00,1.465677857398986816e+00,1.465568184852600098e+00,1.465458512306213379e+00,1.465348720550537109e+00,1.465239048004150391e+00,1.465129494667053223e+00,1.465019941329956055e+00,1.464910268783569336e+00,1.464800715446472168e+00,1.464691042900085449e+00,1.464581608772277832e+00,1.464472055435180664e+00,1.464362502098083496e+00,1.464252948760986328e+00,1.464143514633178711e+00,1.464033961296081543e+00,1.463924646377563477e+00,1.463815212249755859e+00,1.463705658912658691e+00,1.463596343994140625e+00,1.463486909866333008e+00,1.463377475738525391e+00,1.463268160820007324e+00,1.463158845901489258e+00,1.463049530982971191e+00,1.462940216064453125e+00,1.462830901145935059e+00,7.907275557518005371e-01,7.731970548629760742e-01,7.591093182563781738e-01,7.502033114433288574e-01,7.446886301040649414e-01,7.439427375793457031e-01,7.459098696708679199e-01,7.313120961189270020e-01,7.345049977302551270e-01,1.461738824844360352e+00,1.461629748344421387e+00,1.461520671844482422e+00,1.461411595344543457e+00,1.461302518844604492e+00,1.461193442344665527e+00,1.461084485054016113e+00,1.460975408554077148e+00,1.460866332054138184e+00,1.460757493972778320e+00,1.460648536682128906e+00,1.460539579391479492e+00,1.460430502891540527e+00,1.460321426391601562e+00,1.460212469100952148e+00,1.460103392601013184e+00,1.459994435310363770e+00,1.459885597229003906e+00,1.459776520729064941e+00,1.459667563438415527e+00,1.459558725357055664e+00,1.459449768066406250e+00,1.459340929985046387e+00,1.459231972694396973e+00,1.459123253822326660e+00,1.459014296531677246e+00,1.458905458450317383e+00,1.458796739578247070e+00,1.458688020706176758e+00,1.458579182624816895e+00,1.458470463752746582e+00
1.349222421646118164e+00,1.349129438400268555e+00,1.349036455154418945e+00,1.348943471908569336e+00,1.348850488662719727e+00,1.348757624626159668e+00,1.348664760589599609e+00,1.348571896553039551e+00,1.348479032516479492e+00,1.348386049270629883e+00,1.348293185234069824e+00,1.348200440406799316e+00,1.348107695579528809e+00,1.348014831542968750e+00,1.347921967506408691e+00,1.347829222679138184e+00,1.347736477851867676e+00,1.347643733024597168e+00,1.347550988197326660e+00,1.347458243370056152e+00,1.347365498542785645e+00,1.347272753715515137e+00,1.347180128097534180e+00,1.347087502479553223e+00,1.346994876861572266e+00,1.346902132034301758e+00,1.346809506416320801e+00,1.346716880798339844e+00,1.346624255180358887e+00,1.346531629562377930e+00,1.346439123153686523e+00,1.346346497535705566e+00,1.346253871917724609e+00,1.346161365509033203e+00,1.346068859100341797e+00,1.345976352691650391e+00,1.345883727073669434e+00,1.345791220664978027e+00,1.345698714256286621e+00,8.018039464950561523e-01,7.850947380065917969e-01,7.695913314819335938e-01,7.586595416069030762e-01,7.520959973335266113e-01,7.476851940155029297e-01,7.496042251586914062e-01,7.522855997085571289e-01,7.611804604530334473e-01,1.344774603843688965e+00,1.344682216644287109e+00,1.344589710235595703e+00,1.344497323036193848e+00,1.344404935836791992e+00,1.344312548637390137e+00,1.344220161437988281e+00,1.344127774238586426e+00,1.344035387039184570e+00,1.343943119049072266e+00,1.343850731849670410e+00,1.343758463859558105e+00,1.343666195869445801e+00,1.343573927879333496e+00,1.343481540679931641e+00,1.343389391899108887e+00,1.343297123908996582e+00,1.343204855918884277e+00,1.343112587928771973e+00,1.343020439147949219e+00,1.342928171157836914e+00,1.342836022377014160e+00,1.342743873596191406e+00,1.342651605606079102e+00,1.342559456825256348e+00,1.342467427253723145e+00,1.342375159263610840e+00,1.342283010482788086e+00,1.342190980911254883e+00,1.342098951339721680e+00,1.342006802558898926e+00,1.341914772987365723e+00
1.248874306678771973e+00,1.248794555664062500e+00,1.248714923858642578e+00,1.248635292053222656e+00,1.248555660247802734e+00,1.248476147651672363e+00,1.248396515846252441e+00,1.248316884040832520e+00,1.248237371444702148e+00,1.248157739639282227e+00,1.248078227043151855e+00,1.247998714447021484e+00,1.247919201850891113e+00,1.247839570045471191e+00,1.247760057449340820e+00,1.247680544853210449e+00,1.247601032257080078e+00,1.247521638870239258e+00,1.247442126274108887e+00,1.247362613677978516e+00,1.247283220291137695e+00,1.247203707695007324e+00,1.247124314308166504e+00,1.247044920921325684e+00,1.246965527534484863e+00,1.246886014938354492e+00,1.246806621551513672e+00,1.246727228164672852e+00,1.246647953987121582e+00,1.246568560600280762e+00,1.246489167213439941e+00,1.246409773826599121e+00,1.246330499649047852e+00,1.246251106262207031e+00,1.246171951293945312e+00,1.246092557907104492e+00,1.246013283729553223e+00,1.245934009552001953e+00,1.245854616165161133e+00,7.957246899604797363e-01,7.814517021179199219e-01,7.692779898643493652e-01,7.583417892456054688e-01,7.535310983657836914e-01,7.491684556007385254e-01,7.509263753890991211e-01,7.546622157096862793e-01,7.640683650970458984e-01,1.245061755180358887e+00,1.244982481002807617e+00,1.244903206825256348e+00,1.244824051856994629e+00,1.244744777679443359e+00,1.244665622711181641e+00,1.244586467742919922e+00,1.244507193565368652e+00,1.244428038597106934e+00,1.244349002838134766e+00,1.244269728660583496e+00,1.244190573692321777e+00,1.244111537933349609e+00,1.244032382965087891e+00,1.243953227996826172e+00,1.243874192237854004e+00,1.243795037269592285e+00,1.243716001510620117e+00,1.243636965751647949e+00,1.243557810783386230e+00,1.243478775024414062e+00,1.243399858474731445e+00,1.243320703506469727e+00,1.243241667747497559e+00,1.243162631988525391e+00,1.243083715438842773e+00,1.243004679679870605e+00,1.242925643920898438e+00,1.242846846580505371e+00,1.242767810821533203e+00,1.242688775062561035e+00,1.242609977722167969e+00
1.162419676780700684e+00,1.162350654602050781e+00,1.162281632423400879e+00,1.162212610244750977e+00,1.162143588066101074e+00,1.162074685096740723e+00,1.162005662918090820e+00,1.161936759948730469e+00,1.161867737770080566e+00,1.161798834800720215e+00,1.161729931831359863e+00,1.161661028861999512e+00,1.161592125892639160e+00,1.161523222923278809e+00,1.161454319953918457e+00,1.161385416984558105e+00,1.161316514015197754e+00,1.161247730255126953e+00,1.161178827285766602e+00,1.161109924316406250e+00,1.161041021347045898e+00,1.160972237586975098e+00,1.160903453826904297e+00,1.160834550857543945e+00,1.160765767097473145e+00,1.160696983337402344e+00,1.160628080368041992e+00,1.160559415817260742e+00,1.160490512847900391e+00,1.160421729087829590e+00,1.160352826118469238e+00,1.160284042358398438e+00,1.160215139389038086e+00,1.160146474838256836e+00,1.160077571868896484e+00,1.160008788108825684e+00,1.159940004348754883e+00,1.159871220588684082e+00,1.159802436828613281e+00,7.930060029029846191e-01,7.790998816490173340e-01,7.690073251724243164e-01,7.591482400894165039e-01,7.513654828071594238e-01,7.486557364463806152e-01,7.472866177558898926e-01,7.482032179832458496e-01,7.507053017616271973e-01,7.622715830802917480e-01,1.159046530723571777e+00,1.158977866172790527e+00,1.158909201622009277e+00,1.158840537071228027e+00,1.158771872520446777e+00,1.158703207969665527e+00,1.158634662628173828e+00,1.158565998077392578e+00,1.158497333526611328e+00,1.158428788185119629e+00,1.158360123634338379e+00,1.158291578292846680e+00,1.158223032951354980e+00,1.158154368400573730e+00,1.158085942268371582e+00,1.158017277717590332e+00,1.157948732376098633e+00,1.157880306243896484e+00,1.157811760902404785e+00,1.157743096351623535e+00,1.157674670219421387e+00,1.157606124877929688e+00,1.157537579536437988e+00,1.157469153404235840e+00,1.157400727272033691e+00,1.157332181930541992e+00,1.157263636589050293e+00,1.157195329666137695e+00,1.157126784324645996e+00,1.157058358192443848e+00,1.156989932060241699e+00
1.087159752845764160e+00,1.087099432945251465e+00,1.087038993835449219e+00,1.086978673934936523e+00,1.086918354034423828e+00,1.086858034133911133e+00,1.086797714233398438e+00,1.086737394332885742e+00,1.086677074432373047e+00,1.086616754531860352e+00,1.086556434631347656e+00,1.086496233940124512e+00,1.086435914039611816e+00,1.086375594139099121e+00,1.086315393447875977e+00,1.086255073547363281e+00,1.086194872856140137e+00,1.086134552955627441e+00,1.086074233055114746e+00,1.086013913154602051e+00,1.085953712463378906e+00,1.085893392562866211e+00,1.085833072662353516e+00,1.085772871971130371e+00,1.085712552070617676e+00,1.085652351379394531e+00,1.085592150688171387e+00,1.085531830787658691e+00,1.085471630096435547e+00,1.085411429405212402e+00,1.085351228713989258e+00,1.085290908813476562e+00,1.085230708122253418e+00,1.085170507431030273e+00,1.085110306739807129e+00,1.085050106048583984e+00,1.084990024566650391e+00,1.084929823875427246e+00,1.084869623184204102e+00,1.084809541702270508e+00,7.779988646507263184e-01,7.675749659538269043e-01,7.586893439292907715e-01,7.513260841369628906e-01,7.461092472076416016e-01,7.441270351409912109e-01,7.433721423149108887e-01,7.449384927749633789e-01,7.509926557540893555e-01,1.084208130836486816e+00,1.084148049354553223e+00,1.084088087081909180e+00,1.084027886390686035e+00,1.083967804908752441e+00,1.083907842636108398e+00,1.083847761154174805e+00,1.083787679672241211e+00,1.083727717399597168e+00,1.083667635917663574e+00,1.083607554435729980e+00,1.083547592163085938e+00,1.083487510681152344e+00,1.083427548408508301e+00,1.083367586135864258e+00,1.083307504653930664e+00,1.083247542381286621e+00,1.083187580108642578e+00,1.083127617835998535e+00,1.083067655563354492e+00,1.083007693290710449e+00,1.082947731018066406e+00,1.082887768745422363e+00,1.082827806472778320e+00,1.082767844200134277e+00,1.082707881927490234e+00,1.082647919654846191e+00,1.082588076591491699e+00,1.082528114318847656e+00,1.082468271255493164e+00,1.082408428192138672e+00
1.021052598953247070e+00,1.020999431610107422e+00,1.020946145057678223e+00,1.020892858505249023e+00,1.020839691162109375e+00,1.020786523818969727e+00,1.020733237266540527e+00,1.020679950714111328e+00,1.020626783370971680e+00,1.020573496818542480e+00,1.020520210266113281e+00,1.020467042922973633e+00,1.020413756370544434e+00,1.020360589027404785e+00,1.020307421684265137e+00,1.020254135131835938e+00,1.020200848579406738e+00,1.020147681236267090e+00,1.020094513893127441e+00,1.020041346549987793e+00,1.019988179206848145e+00,1.019935011863708496e+00,1.019881725311279297e+00,1.019828677177429199e+00,1.019775390625000000e+00,1.019722223281860352e+00,1.019669175148010254e+00,1.019616007804870605e+00,1.019562840461730957e+00,1.019509673118591309e+00,1.019456624984741211e+00,1.019403457641601562e+00,1.019350290298461914e+00,1.019297242164611816e+00,1.019244074821472168e+00,1.019190907478332520e+00,1.019137859344482422e+00,1.019084811210632324e+00,1.019031643867492676e+00,1.018978595733642578e+00,1.018925547599792480e+00,7.701725959777832031e-01,7.569509148597717285e-01,7.481021285057067871e-01,7.417880892753601074e-01,7.403212785720825195e-01,7.394766807556152344e-01,7.404359579086303711e-01,7.441146969795227051e-01,7.519154548645019531e-01,1.018395066261291504e+00,1.018342137336730957e+00,1.018289089202880859e+00,1.018236041069030762e+00,1.018183112144470215e+00,1.018130064010620117e+00,1.018077015876770020e+00,1.018024086952209473e+00,1.017971158027648926e+00,1.017918109893798828e+00,1.017865180969238281e+00,1.017812252044677734e+00,1.017759203910827637e+00,1.017706274986267090e+00,1.017653346061706543e+00,1.017600417137145996e+00,1.017547488212585449e+00,1.017494559288024902e+00,1.017441630363464355e+00,1.017388701438903809e+00,1.017335772514343262e+00,1.017282843589782715e+00,1.017229914665222168e+00,1.017177104949951172e+00,1.017124176025390625e+00,1.017071247100830078e+00,1.017018437385559082e+00,1.016965508460998535e+00,1.016912698745727539e+00,1.016859889030456543e+00
9.625240564346313477e-01,9.624767303466796875e-01,9.624293446540832520e-01,9.623819589614868164e-01,9.623345732688903809e-01,9.622873067855834961e-01,9.622399806976318359e-01,9.621926546096801758e-01,9.621452689170837402e-01,9.620979428291320801e-01,9.620506167411804199e-01,9.620034098625183105e-01,9.619560837745666504e-01,9.619087576866149902e-01,9.618614315986633301e-01,9.618141055107116699e-01,9.617668390274047852e-01,9.617196321487426758e-01,9.616723060607910156e-01,9.616250395774841309e-01,9.615777730941772461e-01,9.615304470062255859e-01,9.614831805229187012e-01,9.614360332489013672e-01,9.613887667655944824e-01,9.613415002822875977e-01,9.612942337989807129e-01,9.612469673156738281e-01,9.611997008323669434e-01,9.611526131629943848e-01,9.611053466796875000e-01,9.610580801963806152e-01,9.610108733177185059e-01,9.609636664390563965e-01,9.609163999557495117e-01,9.608691930770874023e-01,9.608221054077148438e-01,9.607748985290527344e-01,9.607276916503906250e-01,9.606804847717285156e-01,9.606332778930664062e-01,9.605861306190490723e-01,9.605390429496765137e-01,7.480767965316772461e-01,7.387173771858215332e-01,7.350296378135681152e-01,7.341564297676086426e-01,7.349178194999694824e-01,7.378750443458557129e-01,7.420293092727661133e-01,7.516147494316101074e-01,9.601146578788757324e-01,9.600675106048583984e-01,9.600203633308410645e-01,9.599733352661132812e-01,9.599262475967407227e-01,9.598791003227233887e-01,9.598320126533508301e-01,9.597848653793334961e-01,9.597377777099609375e-01,9.596908092498779297e-01,9.596436619758605957e-01,9.595965743064880371e-01,9.595494866371154785e-01,9.595023989677429199e-01,9.594553112983703613e-01,9.594083428382873535e-01,9.593613147735595703e-01,9.593142271041870117e-01,9.592671394348144531e-01,9.592201113700866699e-01,9.591730833053588867e-01,9.591259956359863281e-01,9.590790867805480957e-01,9.590320587158203125e-01,9.589849710464477539e-01,9.589379429817199707e-01,9.588909149169921875e-01,9.588439464569091797e-01,9.587970376014709473e-01
9.103413224220275879e-01,9.102989435195922852e-01,9.102566242218017578e-01,9.102142453193664551e-01,9.101718664169311523e-01,9.101296067237854004e-01,9.100872278213500977e-01,9.100448489189147949e-01,9.100025296211242676e-01,9.099601507186889648e-01,9.099178314208984375e-01,9.098755717277526855e-01,9.098332524299621582e-01,9.097909331321716309e-01,9.097486138343811035e-01,9.097062945365905762e-01,9.096639752388000488e-01,9.096217155456542969e-01,9.095793962478637695e-01,9.095370769500732422e-01,9.094948172569274902e-01,9.094524979591369629e-01,9.094101786613464355e-01,9.093680381774902344e-01,9.093257188796997070e-01,9.092834591865539551e-01,9.092411398887634277e-01,9.091988801956176758e-01,9.091566205024719238e-01,9.091144204139709473e-01,9.090721607208251953e-01,9.090299010276794434e-01,9.089876413345336914e-01,9.089453816413879395e-01,9.089031219482421875e-01,9.088609218597412109e-01,9.088187813758850098e-01,9.087765216827392578e-01,9.087342619895935059e-01,9.086920619010925293e-01,9.086498618125915527e-01,9.086076021194458008e-01,9.085655212402343750e-01,9.085232615470886230e-01,7.389718890190124512e-01,7.295151352882385254e-01,7.275657653808593750e-01,7.277300357818603516e-01,7.305085659027099609e-01,7.344928383827209473e-01,7.402310371398925781e-01,7.519751191139221191e-01,9.081436395645141602e-01,9.081014394760131836e-01,9.080593585968017578e-01,9.080172181129455566e-01,9.079750776290893555e-01,9.079328775405883789e-01,9.078907370567321777e-01,9.078485965728759766e-01,9.078065156936645508e-01,9.077643752098083496e-01,9.077222347259521484e-01,9.076800942420959473e-01,9.076380133628845215e-01,9.075958728790283203e-01,9.075538516044616699e-01,9.075117111206054688e-01,9.074695706367492676e-01,9.074274897575378418e-01,9.073853492736816406e-01,9.073432683944702148e-01,9.073011875152587891e-01,9.072591662406921387e-01,9.072170853614807129e-01,9.071750044822692871e-01,9.071329236030578613e-01,9.070908427238464355e-01,9.070487618446350098e-01,9.070068001747131348e-01
8.635257482528686523e-01,8.634876608848571777e-01,8.634495139122009277e-01,8.634113669395446777e-01,8.633732795715332031e-01,8.633352518081665039e-01,8.632971048355102539e-01,8.632590174674987793e-01,8.632208704948425293e-01,8.631827831268310547e-01,8.631446957588195801e-01,8.631066679954528809e-01,8.630685806274414062e-01,8.630304932594299316e-01,8.629924058914184570e-01,8.629543185234069824e-01,8.629162311553955078e-01,8.628782629966735840e-01,8.628401756286621094e-01,8.628020882606506348e-01,8.627640008926391602e-01,8.627259731292724609e-01,8.626878857612609863e-01,8.626499176025390625e-01,8.626118898391723633e-01,8.625738024711608887e-01,8.625357747077941895e-01,8.624977469444274902e-01,8.624596595764160156e-01,8.624217510223388672e-01,8.623836636543273926e-01,8.623456358909606934e-01,8.623076081275939941e-01,8.622695803642272949e-01,8.622315526008605957e-01,8.621935844421386719e-01,8.621556162834167480e-01,8.621176481246948242e-01,8.620796203613281250e-01,8.620415925979614258e-01,8.620036244392395020e-01,8.619655966758728027e-01,8.619276881217956543e-01,8.618897199630737305e-01,8.618517518043518066e-01,7.280806303024291992e-01,7.199899554252624512e-01,7.193911671638488770e-01,7.208589315414428711e-01,7.258329391479492188e-01,7.313349843025207520e-01,7.422023415565490723e-01,7.531487941741943359e-01,7.537693381309509277e-01,8.614721894264221191e-01,8.614342212677001953e-01,8.613963127136230469e-01,8.613583445549011230e-01,8.613204360008239746e-01,8.612824678421020508e-01,8.612446188926696777e-01,8.612067103385925293e-01,8.611687421798706055e-01,8.611308336257934570e-01,8.610929250717163086e-01,8.610550165176391602e-01,8.610171675682067871e-01,8.609792590141296387e-01,8.609413504600524902e-01,8.609034419059753418e-01,8.608655333518981934e-01,8.608276247978210449e-01,8.607897758483886719e-01,8.607519268989562988e-01,8.607140779495239258e-01,8.606761693954467773e-01,8.606383204460144043e-01,8.606004118919372559e-01,8.605625629425048828e-01,8.605247735977172852e-01
8.212897777557373047e-01,8.212552666664123535e-01,8.212208151817321777e-01,8.211863040924072266e-01,8.211518526077270508e-01,8.211174607276916504e-01,8.210829496383666992e-01,8.210484981536865234e-01,8.210139870643615723e-01,8.209795355796813965e-01,8.209450840950012207e-01,8.209106922149658203e-01,8.208762407302856445e-01,8.208417892456054688e-01,8.208073377609252930e-01,8.207728862762451172e-01,8.207384347915649414e-01,8.207040429115295410e-01,8.206695914268493652e-01,8.206351399421691895e-01,8.206006884574890137e-01,8.205662965774536133e-01,8.205318450927734375e-01,8.204975128173828125e-01,8.204630613327026367e-01,8.204286694526672363e-01,8.203942179679870605e-01,8.203598260879516602e-01,8.203253746032714844e-01,8.202910423278808594e-01,8.202566504478454590e-01,8.202222585678100586e-01,8.201878666877746582e-01,8.201534152030944824e-01,8.201190233230590820e-01,8.200846314430236816e-01,8.200503587722778320e-01,8.200159668922424316e-01,8.199815750122070312e-01,8.199471831321716309e-01,8.199127912521362305e-01,8.198783993721008301e-01,8.198441267013549805e-01,8.198097348213195801e-01,8.197754025459289551e-01,8.197410106658935547e-01,7.190659046173095703e-01,7.130499482154846191e-01,7.126799821853637695e-01,7.181280255317687988e-01,7.224253416061401367e-01,7.273427248001098633e-01,7.329980134963989258e-01,7.312570810317993164e-01,7.421454191207885742e-01,7.412553429603576660e-01,8.193633556365966797e-01,8.193290233612060547e-01,8.192946910858154297e-01,8.192603588104248047e-01,8.192260861396789551e-01,8.191917538642883301e-01,8.191574811935424805e-01,8.191231489181518555e-01,8.190888166427612305e-01,8.190545439720153809e-01,8.190202713012695312e-01,8.189859986305236816e-01,8.189516663551330566e-01,8.189173936843872070e-01,8.188831210136413574e-01,8.188487887382507324e-01,8.188145160675048828e-01,8.187803030014038086e-01,8.187460303306579590e-01,8.187117576599121094e-01,8.186774849891662598e-01,8.186432123184204102e-01,8.186089396476745605e-01,8.185747265815734863e-01
7.829927802085876465e-01,7.829614281654357910e-01,7.829300761222839355e-01,7.828987240791320801e-01,7.828673720359802246e-01,7.828361392021179199e-01,7.828047871589660645e-01,7.827734351158142090e-01,7.827421426773071289e-01,7.827107906341552734e-01,7.826794385910034180e-01,7.826482057571411133e-01,7.826168537139892578e-01,7.825855612754821777e-01,7.825542092323303223e-01,7.825229167938232422e-01,7.824916243553161621e-01,7.824603319168090820e-01,7.824290394783020020e-01,7.823977470397949219e-01,7.823664546012878418e-01,7.823351621627807617e-01,7.823038101196289062e-01,7.822726368904113770e-01,7.822413444519042969e-01,7.822100520133972168e-01,7.821787595748901367e-01,7.821474671363830566e-01,7.821161746978759766e-01,7.820849418640136719e-01,7.820536494255065918e-01,7.820224165916442871e-01,7.819911241531372070e-01,7.819598317146301270e-01,7.819285988807678223e-01,7.818973064422607422e-01,7.818661332130432129e-01,7.818348407745361328e-01,7.818036079406738281e-01,7.817723155021667480e-01,7.817410826683044434e-01,7.817098498344421387e-01,7.816786766052246094e-01,7.816473841667175293e-01,7.816161513328552246e-01,7.815849184989929199e-01,7.815536856651306152e-01,7.138312458992004395e-01,7.091156244277954102e-01,7.093738317489624023e-01,7.164260149002075195e-01,7.141991853713989258e-01,7.176801562309265137e-01,7.188446521759033203e-01,7.252412438392639160e-01,7.322140932083129883e-01,7.812415957450866699e-01,7.812103629112243652e-01,7.811791300773620605e-01,7.811479568481445312e-01,7.811167836189270020e-01,7.810856103897094727e-01,7.810543775558471680e-01,7.810232043266296387e-01,7.809920310974121094e-01,7.809607982635498047e-01,7.809296846389770508e-01,7.808985114097595215e-01,7.808673381805419922e-01,7.808361649513244629e-01,7.808049917221069336e-01,7.807738184928894043e-01,7.807426452636718750e-01,7.807115316390991211e-01,7.806803584098815918e-01,7.806491851806640625e-01,7.806180119514465332e-01,7.805868387222290039e-01,7.805557250976562500e-01,7.805246114730834961e-01
7.481082677841186523e-01,7.480796575546264648e-01,7.480509877204895020e-01,7.480223774909973145e-01,7.479937672615051270e-01,7.479652166366577148e-01,7.479366064071655273e-01,7.479079961776733398e-01,7.478793859481811523e-01,7.478508353233337402e-01,7.478222250938415527e-01,7.477936744689941406e-01,7.477650642395019531e-01,7.477365136146545410e-01,7.477079033851623535e-01,7.476792931556701660e-01,7.476507425308227539e-01,7.476221919059753418e-01,7.475935816764831543e-01,7.475650310516357422e-01,7.475364804267883301e-01,7.475078701972961426e-01,7.474793195724487305e-01,7.474507689476013184e-01,7.474222183227539062e-01,7.473936676979064941e-01,7.473651170730590820e-01,7.473365068435668945e-01,7.473079562187194824e-01,7.472794651985168457e-01,7.472509145736694336e-01,7.472223639488220215e-01,7.471938133239746094e-01,7.471652626991271973e-01,7.471367120742797852e-01,7.471081614494323730e-01,7.470796704292297363e-01,7.470511198043823242e-01,7.470225691795349121e-01,7.469940781593322754e-01,7.469655275344848633e-01,7.469369769096374512e-01,7.469085454940795898e-01,7.468799948692321777e-01,7.468514442443847656e-01,7.468229532241821289e-01,7.467944025993347168e-01,7.467659115791320801e-01,7.467374205589294434e-01,7.066017389297485352e-01,7.035939693450927734e-01,7.095598578453063965e-01,7.082507610321044922e-01,7.113918066024780273e-01,7.197336554527282715e-01,7.465379238128662109e-01,7.465094327926635742e-01,7.464809417724609375e-01,7.464524507522583008e-01,7.464239597320556641e-01,7.463955283164978027e-01,7.463670372962951660e-01,7.463385462760925293e-01,7.463100552558898926e-01,7.462815642356872559e-01,7.462530732154846191e-01,7.462247014045715332e-01,7.461962103843688965e-01,7.461677193641662598e-01,7.461392879486083984e-01,7.461107969284057617e-01,7.460823059082031250e-01,7.460538744926452637e-01,7.460254430770874023e-01,7.459970116615295410e-01,7.459685206413269043e-01,7.459400892257690430e-01,7.459116578102111816e-01,7.458831667900085449e-01,7.458547949790954590e-01
7.161995172500610352e-01,7.161732912063598633e-01,7.161470651626586914e-01,7.161208391189575195e-01,7.160946130752563477e-01,7.160684466361999512e-01,7.160422205924987793e-01,7.160159945487976074e-01,7.159897685050964355e-01,7.159636020660400391e-01,7.159373760223388672e-01,7.159112095832824707e-01,7.158849835395812988e-01,7.158588171005249023e-01,7.158325910568237305e-01,7.158063650131225586e-01,7.157801985740661621e-01,7.157540321350097656e-01,7.157278656959533691e-01,7.157016396522521973e-01,7.156754732131958008e-01,7.156492471694946289e-01,7.156230807304382324e-01,7.155969142913818359e-01,7.155707478523254395e-01,7.155445814132690430e-01,7.155184149742126465e-01,7.154921889305114746e-01,7.154660224914550781e-01,7.154399156570434570e-01,7.154137492179870605e-01,7.153875827789306641e-01,7.153614163398742676e-01,7.153351902961730957e-01,7.153090238571166992e-01,7.152828574180603027e-01,7.152568101882934570e-01,7.152306437492370605e-01,7.152044773101806641e-01,7.151783108711242676e-01,7.151521444320678711e-01,7.151259779930114746e-01,7.150999307632446289e-01,7.150737643241882324e-01,7.150475978851318359e-01,7.150214314460754395e-01,7.149953246116638184e-01,7.149691581726074219e-01,7.149431109428405762e-01,7.149169445037841797e-01,7.027987837791442871e-01,7.006235718727111816e-01,7.099226713180541992e-01,7.148123979568481445e-01,7.147863507270812988e-01,7.147602438926696777e-01,7.147340774536132812e-01,7.147079706192016602e-01,7.146818637847900391e-01,7.146556973457336426e-01,7.146296501159667969e-01,7.146035432815551758e-01,7.145774364471435547e-01,7.145513296127319336e-01,7.145252227783203125e-01,7.144991159439086914e-01,7.144730687141418457e-01,7.144469618797302246e-01,7.144208550453186035e-01,7.143947482109069824e-01,7.143686413764953613e-01,7.143425345420837402e-01,7.143164873123168945e-01,7.142904400825500488e-01,7.142643332481384277e-01,7.142382264137268066e-01,7.142121791839599609e-01,7.141860723495483398e-01,7.141599655151367188e-01,7.141339778900146484e-01
6.869014501571655273e-01,6.868773102760314941e-01,6.868531703948974609e-01,6.868290901184082031e-01,6.868049502372741699e-01,6.867808699607849121e-01,6.867567300796508789e-01,6.867326498031616211e-01,6.867085099220275879e-01,6.866844296455383301e-01,6.866602897644042969e-01,6.866362094879150391e-01,6.866121292114257812e-01,6.865879893302917480e-01,6.865639090538024902e-01,6.865398287773132324e-01,6.865156888961791992e-01,6.864916682243347168e-01,6.864675283432006836e-01,6.864434480667114258e-01,6.864193677902221680e-01,6.863952875137329102e-01,6.863711476325988770e-01,6.863471269607543945e-01,6.863230466842651367e-01,6.862989664077758789e-01,6.862748861312866211e-01,6.862508058547973633e-01,6.862267255783081055e-01,6.862027049064636230e-01,6.861785650253295898e-01,6.861545443534851074e-01,6.861304640769958496e-01,6.861063838005065918e-01,6.860823035240173340e-01,6.860582232475280762e-01,6.860342025756835938e-01,6.860101222991943359e-01,6.859860420227050781e-01,6.859620213508605957e-01,6.859379410743713379e-01,6.859138607978820801e-01,6.858898997306823730e-01,6.858658194541931152e-01,6.858417391777038574e-01,6.858177185058593750e-01,6.857936382293701172e-01,6.857696175575256348e-01,6.857455968856811523e-01,6.857215762138366699e-01,6.856974959373474121e-01,6.856734752655029297e-01,6.856494545936584473e-01,6.856253743171691895e-01,6.856014132499694824e-01,6.855773925781250000e-01,6.855533123016357422e-01,6.855292916297912598e-01,6.855052709579467773e-01,6.854812502861022949e-01,6.854572296142578125e-01,6.854332089424133301e-01,6.854091882705688477e-01,6.853851675987243652e-01,6.853611469268798828e-01,6.853371262550354004e-01,6.853131651878356934e-01,6.852891445159912109e-01,6.852651238441467285e-01,6.852411031723022461e-01,6.852170825004577637e-01,6.851931214332580566e-01,6.851691007614135742e-01,6.851451396942138672e-01,6.851211190223693848e-01,6.850971579551696777e-01,6.850731372833251953e-01,6.850491166114807129e-01,6.850251555442810059e-01,6.850011944770812988e-01
6.599062085151672363e-01,6.598839163780212402e-01,6.598616838455200195e-01,6.598393917083740234e-01,6.598170995712280273e-01,6.597949266433715820e-01,6.597726345062255859e-01,6.597504019737243652e-01,6.597281098365783691e-01,6.597058773040771484e-01,6.596836447715759277e-01,6.596614122390747070e-01,6.596391797065734863e-01,6.596168875694274902e-01,6.595946550369262695e-01,6.595724225044250488e-01,6.595501899719238281e-01,6.595279574394226074e-01,6.595057249069213867e-01,6.594834923744201660e-01,6.594612598419189453e-01,6.594390273094177246e-01,6.594167947769165039e-01,6.593945622444152832e-01,6.593723297119140625e-01,6.593500971794128418e-01,6.593278646469116211e-01,6.593056321144104004e-01,6.592833995819091797e-01,6.592612266540527344e-01,6.592389941215515137e-01,6.592168211936950684e-01,6.591945886611938477e-01,6.591723561286926270e-01,6.591501235961914062e-01,6.591278910636901855e-01,6.591057777404785156e-01,6.590835452079772949e-01,6.590613126754760742e-01,6.590390801429748535e-01,6.590169072151184082e-01,6.589946746826171875e-01,6.589725017547607422e-01,6.589503288269042969e-01,6.589280962944030762e-01,6.589059233665466309e-01,6.588836908340454102e-01,6.588615179061889648e-01,6.588393449783325195e-01,6.588171720504760742e-01,6.587949395179748535e-01,6.587727665901184082e-01,6.587505936622619629e-01,6.587283611297607422e-01,6.587062478065490723e-01,6.586840748786926270e-01,6.586618423461914062e-01,6.586396694183349609e-01,6.586174964904785156e-01,6.585953235626220703e-01,6.585732102394104004e-01,6.585509777069091797e-01,6.585288047790527344e-01,6.585066318511962891e-01,6.584844589233398438e-01,6.584622859954833984e-01,6.584401726722717285e-01,6.584179997444152832e-01,6.583958268165588379e-01,6.583736538887023926e-01,6.583514809608459473e-01,6.583293676376342773e-01,6.583071947097778320e-01,6.582850813865661621e-01,6.582629084587097168e-01,6.582407355308532715e-01,6.582185626029968262e-01,6.581964492797851562e-01,6.581742763519287109e-01,6.581521630287170410e-01
6.349525451660156250e-01,6.349319219589233398e-01,6.349112987518310547e-01,6.348906755447387695e-01,6.348700523376464844e-01,6.348494887351989746e-01,6.348288655281066895e-01,6.348083019256591797e-01,6.347876787185668945e-01,6.347670555114746094e-01,6.347464323043823242e-01,6.347259283065795898e-01,6.347053050994873047e-01,6.346846818923950195e-01,6.346641182899475098e-01,6.346434950828552246e-01,6.346228718757629395e-01,6.346023678779602051e-01,6.345817446708679199e-01,6.345611810684204102e-01,6.345405578613281250e-01,6.345199942588806152e-01,6.344993710517883301e-01,6.344788670539855957e-01,6.344582438468933105e-01,6.344376802444458008e-01,6.344171166419982910e-01,6.343964934349060059e-01,6.343759298324584961e-01,6.343554258346557617e-01,6.343348026275634766e-01,6.343142390251159668e-01,6.342936754226684570e-01,6.342731118202209473e-01,6.342525482177734375e-01,6.342319250106811523e-01,6.342114210128784180e-01,6.341908574104309082e-01,6.341702938079833984e-01,6.341497302055358887e-01,6.341291666030883789e-01,6.341086030006408691e-01,6.340880990028381348e-01,6.340675354003906250e-01,6.340469717979431152e-01,6.340264081954956055e-01,6.340058445930480957e-01,6.339852809906005859e-01,6.339647769927978516e-01,6.339442133903503418e-01,6.339236497879028320e-01,6.339031457901000977e-01,6.338825821876525879e-01,6.338620185852050781e-01,6.338415145874023438e-01,6.338210105895996094e-01,6.338004469871520996e-01,6.337798833847045898e-01,6.337593793869018555e-01,6.337388157844543457e-01,6.337183117866516113e-01,6.336978077888488770e-01,6.336772441864013672e-01,6.336566805839538574e-01,6.336361765861511230e-01,6.336156129837036133e-01,6.335951685905456543e-01,6.335746049880981445e-01,6.335541009902954102e-01,6.335335969924926758e-01,6.335130333900451660e-01,6.334925293922424316e-01,6.334720253944396973e-01,6.334515213966369629e-01,6.334310173988342285e-01,6.334105134010314941e-01,6.333899497985839844e-01,6.333694458007812500e-01,6.333489418029785156e-01,6.333284974098205566e-01
6.118173003196716309e-01,6.117981672286987305e-01,6.117790341377258301e-01,6.117599010467529297e-01,6.117407679557800293e-01,6.117216348648071289e-01,6.117025017738342285e-01,6.116833686828613281e-01,6.116642355918884277e-01,6.116451025009155273e-01,6.116259694099426270e-01,6.116068959236145020e-01,6.115877628326416016e-01,6.115686297416687012e-01,6.115494966506958008e-01,6.115303635597229004e-01,6.115112900733947754e-01,6.114922165870666504e-01,6.114730834960937500e-01,6.114539504051208496e-01,6.114348173141479492e-01,6.114156842231750488e-01,6.113966107368469238e-01,6.113775372505187988e-01,6.113584041595458984e-01,6.113392710685729980e-01,6.113201975822448730e-01,6.113010644912719727e-01,6.112819314002990723e-01,6.112629175186157227e-01,6.112437844276428223e-01,6.112246513366699219e-01,6.112055778503417969e-01,6.111864447593688965e-01,6.111673712730407715e-01,6.111482381820678711e-01,6.111292243003845215e-01,6.111100912094116211e-01,6.110910177230834961e-01,6.110718846321105957e-01,6.110528111457824707e-01,6.110337376594543457e-01,6.110146641731262207e-01,6.109955906867980957e-01,6.109764575958251953e-01,6.109573841094970703e-01,6.109383106231689453e-01,6.109192371368408203e-01,6.109001636505126953e-01,6.108810901641845703e-01,6.108620166778564453e-01,6.108429431915283203e-01,6.108238697052001953e-01,6.108047366142272949e-01,6.107857227325439453e-01,6.107666492462158203e-01,6.107475757598876953e-01,6.107285022735595703e-01,6.107094287872314453e-01,6.106903553009033203e-01,6.106713414192199707e-01,6.106522679328918457e-01,6.106331944465637207e-01,6.106141209602355957e-01,6.105950474739074707e-01,6.105759739875793457e-01,6.105569601058959961e-01,6.105378866195678711e-01,6.105188131332397461e-01,6.104997396469116211e-01,6.104807257652282715e-01,6.104616522789001465e-01,6.104425787925720215e-01,6.104235649108886719e-01,6.104045510292053223e-01,6.103854775428771973e-01,6.103664040565490723e-01,6.103473901748657227e-01,6.103283166885375977e-01,6.103093028068542480e-01
5.903087258338928223e-01,5.902909040451049805e-01,5.902730822563171387e-01,5.902552604675292969e-01,5.902374386787414551e-01,5.902196764945983887e-01,5.902018547058105469e-01,5.901840329170227051e-01,5.901662111282348633e-01,5.901483893394470215e-01,5.901306271553039551e-01,5.901128649711608887e-01,5.900950431823730469e-01,5.900772213935852051e-01,5.900593996047973633e-01,5.900416374206542969e-01,5.900238156318664551e-01,5.900060534477233887e-01,5.899882316589355469e-01,5.899704694747924805e-01,5.899526476860046387e-01,5.899348258972167969e-01,5.899170637130737305e-01,5.898993015289306641e-01,5.898814797401428223e-01,5.898637175559997559e-01,5.898458957672119141e-01,5.898281335830688477e-01,5.898103713989257812e-01,5.897926092147827148e-01,5.897747874259948730e-01,5.897570252418518066e-01,5.897392034530639648e-01,5.897214412689208984e-01,5.897036790847778320e-01,5.896858572959899902e-01,5.896681547164916992e-01,5.896503329277038574e-01,5.896325707435607910e-01,5.896148085594177246e-01,5.895970463752746582e-01,5.895792245864868164e-01,5.895615220069885254e-01,5.895437002182006836e-01,5.895259380340576172e-01,5.895081758499145508e-01,5.894904136657714844e-01,5.894726514816284180e-01,5.894548892974853516e-01,5.894371271133422852e-01,5.894193649291992188e-01,5.894016027450561523e-01,5.893838405609130859e-01,5.893660783767700195e-01,5.893483757972717285e-01,5.893306136131286621e-01,5.893128514289855957e-01,5.892950892448425293e-01,5.892773270606994629e-01,5.892595648765563965e-01,5.892418622970581055e-01,5.892241001129150391e-01,5.892063379287719727e-01,5.891885757446289062e-01,5.891708135604858398e-01,5.891530513763427734e-01,5.891353487968444824e-01,5.891175866127014160e-01,5.890998840332031250e-01,5.890821218490600586e-01,5.890643596649169922e-01,5.890466570854187012e-01,5.890288949012756348e-01,5.890111923217773438e-01,5.889934301376342773e-01,5.889757275581359863e-01,5.889579653739929199e-01,5.889402031898498535e-01,5.889225006103515625e-01,5.889047980308532715e-01
5.702610611915588379e-01,5.702444314956665039e-01,5.702278017997741699e-01,5.702111721038818359e-01,5.701945424079895020e-01,5.701779723167419434e-01,5.701613426208496094e-01,5.701447129249572754e-01,5.701280832290649414e-01,5.701114535331726074e-01,5.700948238372802734e-01,5.700782537460327148e-01,5.700616240501403809e-01,5.700449943542480469e-01,5.700284242630004883e-01,5.700117945671081543e-01,5.699951648712158203e-01,5.699785947799682617e-01,5.699619650840759277e-01,5.699453353881835938e-01,5.699287652969360352e-01,5.699121356010437012e-01,5.698955059051513672e-01,5.698789358139038086e-01,5.698623657226562500e-01,5.698457360267639160e-01,5.698291659355163574e-01,5.698125362396240234e-01,5.697959065437316895e-01,5.697793364524841309e-01,5.697627663612365723e-01,5.697461366653442383e-01,5.697295665740966797e-01,5.697129368782043457e-01,5.696963667869567871e-01,5.696797370910644531e-01,5.696632266044616699e-01,5.696465969085693359e-01,5.696300268173217773e-01,5.696133971214294434e-01,5.695968270301818848e-01,5.695802569389343262e-01,5.695636868476867676e-01,5.695471167564392090e-01,5.695304870605468750e-01,5.695139169692993164e-01,5.694973468780517578e-01,5.694807171821594238e-01,5.694642066955566406e-01,5.694476366043090820e-01,5.694310069084167480e-01,5.694144368171691895e-01,5.693978667259216309e-01,5.693812966346740723e-01,5.693647265434265137e-01,5.693481564521789551e-01,5.693315863609313965e-01,5.693150162696838379e-01,5.692984461784362793e-01,5.692818760871887207e-01,5.692653059959411621e-01,5.692487359046936035e-01,5.692321658134460449e-01,5.692155957221984863e-01,5.691990256309509277e-01,5.691824555397033691e-01,5.691659450531005859e-01,5.691493749618530273e-01,5.691328048706054688e-01,5.691162347793579102e-01,5.690996646881103516e-01,5.690830945968627930e-01,5.690665841102600098e-01,5.690500140190124512e-01,5.690335035324096680e-01,5.690169334411621094e-01,5.690003633499145508e-01,5.689837932586669922e-01,5.689672231674194336e-01,5.689507126808166504e-01
