3.094374179840087891e+00,3.172495126724243164e+00,3.254662990570068359e+00,3.341197013854980469e+00,3.432453870773315430e+00,3.528835296630859375e+00,3.630786180496215820e+00,3.738802433013916016e+00,3.853443384170532227e+00,3.975336790084838867e+00,4.105193614959716797e+00,4.243820667266845703e+00,4.392137527465820312e+00,4.551196575164794922e+00,4.722209930419921875e+00,4.906576156616210938e+00,5.000000000000000000e+00,5.000000000000000000e+00,5.000000000000000000e+00,5.000000000000000000e+00,5.000000000000000000e+00,5.000000000000000000e+00,5.000000000000000000e+00,5.000000000000000000e+00,5.000000000000000000e+00,5.000000000000000000e+00,5.000000000000000000e+00,5.000000000000000000e+00,5.000000000000000000e+00,5.000000000000000000e+00,5.000000000000000000e+00,5.000000000000000000e+00,5.000000000000000000e+00,5.000000000000000000e+00,5.000000000000000000e+00,5.000000000000000000e+00,5.000000000000000000e+00,5.000000000000000000e+00,5.000000000000000000e+00,5.000000000000000000e+00,5.000000000000000000e+00,5.000000000000000000e+00,5.000000000000000000e+00,5.000000000000000000e+00,5.000000000000000000e+00,5.000000000000000000e+00,5.000000000000000000e+00,5.000000000000000000e+00,5.000000000000000000e+00,5.000000000000000000e+00,5.000000000000000000e+00,5.000000000000000000e+00,5.000000000000000000e+00,5.000000000000000000e+00,5.000000000000000000e+00,5.000000000000000000e+00,5.000000000000000000e+00,5.000000000000000000e+00,5.000000000000000000e+00,5.000000000000000000e+00,5.000000000000000000e+00,5.000000000000000000e+00,5.000000000000000000e+00,5.000000000000000000e+00,5.000000000000000000e+00,5.000000000000000000e+00,5.000000000000000000e+00,5.000000000000000000e+00,5.000000000000000000e+00,5.000000000000000000e+00,4.861681461334228516e+00,4.701735973358154297e+00,4.551947116851806641e+00,4.411407947540283203e+00,4.279287338256835938e+00,4.154850006103515625e+00,4.037445068359375000e+00,3.926493644714355469e+00,3.821476459503173828e+00,3.721930503845214844e+00
3.094307661056518555e+00,3.172425270080566406e+00,3.254589319229125977e+00,3.341122627258300781e+00,3.432379961013793945e+00,3.528757095336914062e+00,3.630703210830688477e+00,3.738714933395385742e+00,3.853349924087524414e+00,3.975237607955932617e+00,4.105087757110595703e+00,4.243707656860351562e+00,4.392016410827636719e+00,4.551066875457763672e+00,4.722069740295410156e+00,4.906424999237060547e+00,5.000000000000000000e+00,5.000000000000000000e+00,5.000000000000000000e+00,5.000000000000000000e+00,5.000000000000000000e+00,5.000000000000000000e+00,5.000000000000000000e+00,5.000000000000000000e+00,5.000000000000000000e+00,5.000000000000000000e+00,5.000000000000000000e+00,5.000000000000000000e+00,5.000000000000000000e+00,5.000000000000000000e+00,5.000000000000000000e+00,5.000000000000000000e+00,5.000000000000000000e+00,5.000000000000000000e+00,5.000000000000000000e+00,5.000000000000000000e+00,5.000000000000000000e+00,5.000000000000000000e+00,5.000000000000000000e+00,5.000000000000000000e+00,5.000000000000000000e+00,5.000000000000000000e+00,5.000000000000000000e+00,5.000000000000000000e+00,5.000000000000000000e+00,5.000000000000000000e+00,5.000000000000000000e+00,5.000000000000000000e+00,5.000000000000000000e+00,5.000000000000000000e+00,5.000000000000000000e+00,5.000000000000000000e+00,5.000000000000000000e+00,5.000000000000000000e+00,5.000000000000000000e+00,5.000000000000000000e+00,5.000000000000000000e+00,5.000000000000000000e+00,5.000000000000000000e+00,5.000000000000000000e+00,5.000000000000000000e+00,5.000000000000000000e+00,5.000000000000000000e+00,5.000000000000000000e+00,5.000000000000000000e+00,5.000000000000000000e+00,5.000000000000000000e+00,5.000000000000000000e+00,5.000000000000000000e+00,5.000000000000000000e+00,4.861861705780029297e+00,4.701870441436767578e+00,4.552073478698730469e+00,4.411526679992675781e+00,4.279398441314697266e+00,4.154954910278320312e+00,4.037544250488281250e+00,3.926587343215942383e+00,3.821565151214599609e+00,3.722015142440795898e+00
3.094241380691528320e+00,3.172355413436889648e+00,3.254515886306762695e+00,3.341045379638671875e+00,3.432301282882690430e+00,3.528679132461547852e+00,3.630620241165161133e+00,3.738627195358276367e+00,3.853256940841674805e+00,3.975138187408447266e+00,4.104982376098632812e+00,4.243594646453857422e+00,4.391895294189453125e+00,4.550937175750732422e+00,4.721929550170898438e+00,4.906273841857910156e+00,5.000000000000000000e+00,5.000000000000000000e+00,5.000000000000000000e+00,5.000000000000000000e+00,5.000000000000000000e+00,5.000000000000000000e+00,5.000000000000000000e+00,5.000000000000000000e+00,5.000000000000000000e+00,5.000000000000000000e+00,5.000000000000000000e+00,5.000000000000000000e+00,5.000000000000000000e+00,5.000000000000000000e+00,5.000000000000000000e+00,5.000000000000000000e+00,5.000000000000000000e+00,5.000000000000000000e+00,5.000000000000000000e+00,5.000000000000000000e+00,5.000000000000000000e+00,5.000000000000000000e+00,5.000000000000000000e+00,5.000000000000000000e+00,5.000000000000000000e+00,5.000000000000000000e+00,5.000000000000000000e+00,5.000000000000000000e+00,5.000000000000000000e+00,5.000000000000000000e+00,5.000000000000000000e+00,5.000000000000000000e+00,5.000000000000000000e+00,5.000000000000000000e+00,5.000000000000000000e+00,5.000000000000000000e+00,5.000000000000000000e+00,5.000000000000000000e+00,5.000000000000000000e+00,5.000000000000000000e+00,5.000000000000000000e+00,5.000000000000000000e+00,5.000000000000000000e+00,5.000000000000000000e+00,5.000000000000000000e+00,5.000000000000000000e+00,5.000000000000000000e+00,5.000000000000000000e+00,5.000000000000000000e+00,5.000000000000000000e+00,5.000000000000000000e+00,5.000000000000000000e+00,5.000000000000000000e+00,5.000000000000000000e+00,4.862006187438964844e+00,4.702004909515380859e+00,4.552199363708496094e+00,4.411644935607910156e+00,4.279510021209716797e+00,4.155059814453125000e+00,4.037643432617187500e+00,3.926681041717529297e+00,3.821654081344604492e+00,3.722099304199218750e+00
3.094174861907958984e+00,3.172285795211791992e+00,3.254442691802978516e+00,3.340967893600463867e+00,3.432219505310058594e+00,3.528596162796020508e+00,3.630537748336791992e+00,3.738539218902587891e+00,3.853163719177246094e+00,3.975039243698120117e+00,4.104876041412353516e+00,4.243481636047363281e+00,4.391774177551269531e+00,4.550806999206542969e+00,4.721789836883544922e+00,4.906122684478759766e+00,5.000000000000000000e+00,5.000000000000000000e+00,5.000000000000000000e+00,5.000000000000000000e+00,5.000000000000000000e+00,5.000000000000000000e+00,5.000000000000000000e+00,5.000000000000000000e+00,5.000000000000000000e+00,5.000000000000000000e+00,5.000000000000000000e+00,5.000000000000000000e+00,5.000000000000000000e+00,5.000000000000000000e+00,5.000000000000000000e+00,5.000000000000000000e+00,5.000000000000000000e+00,5.000000000000000000e+00,5.000000000000000000e+00,5.000000000000000000e+00,5.000000000000000000e+00,5.000000000000000000e+00,5.000000000000000000e+00,5.000000000000000000e+00,5.000000000000000000e+00,5.000000000000000000e+00,5.000000000000000000e+00,5.000000000000000000e+00,5.000000000000000000e+00,5.000000000000000000e+00,5.000000000000000000e+00,5.000000000000000000e+00,5.000000000000000000e+00,5.000000000000000000e+00,5.000000000000000000e+00,5.000000000000000000e+00,5.000000000000000000e+00,5.000000000000000000e+00,5.000000000000000000e+00,5.000000000000000000e+00,5.000000000000000000e+00,5.000000000000000000e+00,5.000000000000000000e+00,5.000000000000000000e+00,5.000000000000000000e+00,5.000000000000000000e+00,5.000000000000000000e+00,5.000000000000000000e+00,5.000000000000000000e+00,5.000000000000000000e+00,5.000000000000000000e+00,5.000000000000000000e+00,5.000000000000000000e+00,5.000000000000000000e+00,4.862149715423583984e+00,4.702139854431152344e+00,4.552325725555419922e+00,4.411763191223144531e+00,4.279621601104736328e+00,4.155165195465087891e+00,4.037742614746093750e+00,3.926774978637695312e+00,3.821743249893188477e+00,3.722183465957641602e+00
3.094108581542968750e+00,3.172215938568115234e+00,3.254369020462036133e+00,3.340890407562255859e+00,3.432137727737426758e+00,3.528509616851806641e+00,3.630450248718261719e+00,3.738451719284057617e+00,3.853070259094238281e+00,3.974939823150634766e+00,4.104770660400390625e+00,4.243368625640869141e+00,4.391653537750244141e+00,4.550676822662353516e+00,4.721650123596191406e+00,4.905971527099609375e+00,5.000000000000000000e+00,5.000000000000000000e+00,5.000000000000000000e+00,5.000000000000000000e+00,5.000000000000000000e+00,5.000000000000000000e+00,5.000000000000000000e+00,5.000000000000000000e+00,5.000000000000000000e+00,5.000000000000000000e+00,5.000000000000000000e+00,5.000000000000000000e+00,5.000000000000000000e+00,5.000000000000000000e+00,5.000000000000000000e+00,5.000000000000000000e+00,5.000000000000000000e+00,5.000000000000000000e+00,5.000000000000000000e+00,5.000000000000000000e+00,5.000000000000000000e+00,5.000000000000000000e+00,5.000000000000000000e+00,5.000000000000000000e+00,5.000000000000000000e+00,5.000000000000000000e+00,5.000000000000000000e+00,5.000000000000000000e+00,5.000000000000000000e+00,5.000000000000000000e+00,5.000000000000000000e+00,5.000000000000000000e+00,5.000000000000000000e+00,5.000000000000000000e+00,5.000000000000000000e+00,5.000000000000000000e+00,3.944934606552124023e+00,5.000000000000000000e+00,5.000000000000000000e+00,5.000000000000000000e+00,5.000000000000000000e+00,5.000000000000000000e+00,5.000000000000000000e+00,5.000000000000000000e+00,5.000000000000000000e+00,5.000000000000000000e+00,5.000000000000000000e+00,5.000000000000000000e+00,5.000000000000000000e+00,5.000000000000000000e+00,5.000000000000000000e+00,5.000000000000000000e+00,5.000000000000000000e+00,5.000000000000000000e+00,4.862293720245361328e+00,4.702274322509765625e+00,4.552452087402343750e+00,4.411881923675537109e+00,4.279733180999755859e+00,4.155270099639892578e+00,4.037842273712158203e+00,3.926868677139282227e+00,3.821829080581665039e+00,3.722262144088745117e+00
3.094042062759399414e+00,3.172146081924438477e+00,3.254295587539672852e+00,3.340812921524047852e+00,3.432056427001953125e+00,3.528423547744750977e+00,3.630358695983886719e+00,3.738358974456787109e+00,3.852977514266967773e+00,3.974841117858886719e+00,4.104664802551269531e+00,4.243255615234375000e+00,4.391532421112060547e+00,4.550547122955322266e+00,4.721509933471679688e+00,4.905820846557617188e+00,5.000000000000000000e+00,5.000000000000000000e+00,5.000000000000000000e+00,5.000000000000000000e+00,5.000000000000000000e+00,5.000000000000000000e+00,5.000000000000000000e+00,5.000000000000000000e+00,5.000000000000000000e+00,5.000000000000000000e+00,5.000000000000000000e+00,5.000000000000000000e+00,5.000000000000000000e+00,5.000000000000000000e+00,5.000000000000000000e+00,5.000000000000000000e+00,5.000000000000000000e+00,5.000000000000000000e+00,5.000000000000000000e+00,5.000000000000000000e+00,5.000000000000000000e+00,5.000000000000000000e+00,5.000000000000000000e+00,5.000000000000000000e+00,5.000000000000000000e+00,5.000000000000000000e+00,5.000000000000000000e+00,5.000000000000000000e+00,5.000000000000000000e+00,5.000000000000000000e+00,5.000000000000000000e+00,5.000000000000000000e+00,5.000000000000000000e+00,5.000000000000000000e+00,5.000000000000000000e+00,5.000000000000000000e+00,3.930538177490234375e+00,3.938520669937133789e+00,5.000000000000000000e+00,5.000000000000000000e+00,5.000000000000000000e+00,5.000000000000000000e+00,5.000000000000000000e+00,5.000000000000000000e+00,5.000000000000000000e+00,5.000000000000000000e+00,5.000000000000000000e+00,5.000000000000000000e+00,5.000000000000000000e+00,5.000000000000000000e+00,5.000000000000000000e+00,5.000000000000000000e+00,5.000000000000000000e+00,5.000000000000000000e+00,4.862437725067138672e+00,4.702408790588378906e+00,4.552577972412109375e+00,4.412000179290771484e+00,4.279844760894775391e+00,4.155372619628906250e+00,4.037935256958007812e+00,3.926953554153442383e+00,3.821909189224243164e+00,3.722338438034057617e+00
3.093975543975830078e+00,3.172076225280761719e+00,3.254221916198730469e+00,3.340735673904418945e+00,3.431974649429321289e+00,3.528337001800537109e+00,3.630267143249511719e+00,3.738261699676513672e+00,3.852878808975219727e+00,3.974741697311401367e+00,4.104558944702148438e+00,4.243142604827880859e+00,4.391410827636718750e+00,4.550416946411132812e+00,4.721370220184326172e+00,4.905669689178466797e+00,5.000000000000000000e+00,5.000000000000000000e+00,5.000000000000000000e+00,5.000000000000000000e+00,5.000000000000000000e+00,5.000000000000000000e+00,5.000000000000000000e+00,5.000000000000000000e+00,5.000000000000000000e+00,5.000000000000000000e+00,5.000000000000000000e+00,5.000000000000000000e+00,5.000000000000000000e+00,5.000000000000000000e+00,5.000000000000000000e+00,5.000000000000000000e+00,5.000000000000000000e+00,5.000000000000000000e+00,5.000000000000000000e+00,5.000000000000000000e+00,5.000000000000000000e+00,5.000000000000000000e+00,5.000000000000000000e+00,5.000000000000000000e+00,5.000000000000000000e+00,5.000000000000000000e+00,5.000000000000000000e+00,5.000000000000000000e+00,5.000000000000000000e+00,5.000000000000000000e+00,5.000000000000000000e+00,5.000000000000000000e+00,5.000000000000000000e+00,5.000000000000000000e+00,5.000000000000000000e+00,5.000000000000000000e+00,3.949099302291870117e+00,3.960315465927124023e+00,5.000000000000000000e+00,5.000000000000000000e+00,5.000000000000000000e+00,5.000000000000000000e+00,5.000000000000000000e+00,5.000000000000000000e+00,5.000000000000000000e+00,5.000000000000000000e+00,5.000000000000000000e+00,5.000000000000000000e+00,5.000000000000000000e+00,5.000000000000000000e+00,5.000000000000000000e+00,5.000000000000000000e+00,5.000000000000000000e+00,5.000000000000000000e+00,4.862581729888916016e+00,4.702543258666992188e+00,4.552701473236083984e+00,4.412112712860107422e+00,4.279946327209472656e+00,4.155467510223388672e+00,4.038024902343750000e+00,3.927038669586181641e+00,3.821989536285400391e+00,3.722414731979370117e+00
3.093909263610839844e+00,3.172006607055664062e+00,3.254148721694946289e+00,3.340658187866210938e+00,3.431892871856689453e+00,3.528250694274902344e+00,3.630175590515136719e+00,3.738164663314819336e+00,3.852776050567626953e+00,3.974637269973754883e+00,4.104453563690185547e+00,4.243029594421386719e+00,4.391290187835693359e+00,4.550287246704101562e+00,4.721230030059814453e+00,4.905518531799316406e+00,5.000000000000000000e+00,5.000000000000000000e+00,5.000000000000000000e+00,5.000000000000000000e+00,5.000000000000000000e+00,5.000000000000000000e+00,5.000000000000000000e+00,5.000000000000000000e+00,5.000000000000000000e+00,5.000000000000000000e+00,5.000000000000000000e+00,5.000000000000000000e+00,5.000000000000000000e+00,5.000000000000000000e+00,5.000000000000000000e+00,5.000000000000000000e+00,5.000000000000000000e+00,5.000000000000000000e+00,5.000000000000000000e+00,5.000000000000000000e+00,5.000000000000000000e+00,5.000000000000000000e+00,5.000000000000000000e+00,5.000000000000000000e+00,5.000000000000000000e+00,5.000000000000000000e+00,5.000000000000000000e+00,5.000000000000000000e+00,5.000000000000000000e+00,5.000000000000000000e+00,5.000000000000000000e+00,5.000000000000000000e+00,5.000000000000000000e+00,5.000000000000000000e+00,5.000000000000000000e+00,5.000000000000000000e+00,4.014110088348388672e+00,5.000000000000000000e+00,5.000000000000000000e+00,5.000000000000000000e+00,5.000000000000000000e+00,5.000000000000000000e+00,5.000000000000000000e+00,5.000000000000000000e+00,5.000000000000000000e+00,5.000000000000000000e+00,5.000000000000000000e+00,5.000000000000000000e+00,5.000000000000000000e+00,5.000000000000000000e+00,5.000000000000000000e+00,5.000000000000000000e+00,5.000000000000000000e+00,5.000000000000000000e+00,4.862718582153320312e+00,4.702667236328125000e+00,4.552815914154052734e+00,4.412219524383544922e+00,4.280046939849853516e+00,4.155562877655029297e+00,4.038115024566650391e+00,3.927123785018920898e+00,3.822070121765136719e+00,3.722491264343261719e+00
3.093842983245849609e+00,3.171936750411987305e+00,3.254075288772583008e+00,3.340580701828002930e+00,3.431811094284057617e+00,3.528164148330688477e+00,3.630084514617919922e+00,3.738068103790283203e+00,3.852673053741455078e+00,3.974527597427368164e+00,4.104341983795166016e+00,4.242916584014892578e+00,4.391169071197509766e+00,4.550157070159912109e+00,4.721090316772460938e+00,4.905367374420166016e+00,5.000000000000000000e+00,5.000000000000000000e+00,5.000000000000000000e+00,5.000000000000000000e+00,5.000000000000000000e+00,5.000000000000000000e+00,5.000000000000000000e+00,5.000000000000000000e+00,5.000000000000000000e+00,5.000000000000000000e+00,5.000000000000000000e+00,5.000000000000000000e+00,5.000000000000000000e+00,5.000000000000000000e+00,5.000000000000000000e+00,5.000000000000000000e+00,5.000000000000000000e+00,5.000000000000000000e+00,5.000000000000000000e+00,5.000000000000000000e+00,5.000000000000000000e+00,5.000000000000000000e+00,5.000000000000000000e+00,5.000000000000000000e+00,5.000000000000000000e+00,5.000000000000000000e+00,5.000000000000000000e+00,5.000000000000000000e+00,5.000000000000000000e+00,5.000000000000000000e+00,5.000000000000000000e+00,5.000000000000000000e+00,5.000000000000000000e+00,3.977901458740234375e+00,3.968136072158813477e+00,3.955356836318969727e+00,3.950274705886840820e+00,3.964797735214233398e+00,4.007187843322753906e+00,4.020144939422607422e+00,5.000000000000000000e+00,5.000000000000000000e+00,5.000000000000000000e+00,5.000000000000000000e+00,5.000000000000000000e+00,5.000000000000000000e+00,5.000000000000000000e+00,5.000000000000000000e+00,5.000000000000000000e+00,5.000000000000000000e+00,5.000000000000000000e+00,5.000000000000000000e+00,5.000000000000000000e+00,5.000000000000000000e+00,4.862849235534667969e+00,4.702789306640625000e+00,4.552930355072021484e+00,4.412326812744140625e+00,4.280148029327392578e+00,4.155658245086669922e+00,4.038204669952392578e+00,3.927208662033081055e+00,3.822150707244873047e+00,3.722567558288574219e+00
3.093776464462280273e+00,3.171866893768310547e+00,3.254001617431640625e+00,3.340503215789794922e+00,3.431729555130004883e+00,3.528078079223632812e+00,3.629992961883544922e+00,3.737971067428588867e+00,3.852570056915283203e+00,3.974417686462402344e+00,4.104225158691406250e+00,4.242797851562500000e+00,4.391047954559326172e+00,4.550027370452880859e+00,4.720950603485107422e+00,4.905216217041015625e+00,5.000000000000000000e+00,5.000000000000000000e+00,5.000000000000000000e+00,5.000000000000000000e+00,5.000000000000000000e+00,5.000000000000000000e+00,5.000000000000000000e+00,5.000000000000000000e+00,5.000000000000000000e+00,5.000000000000000000e+00,5.000000000000000000e+00,5.000000000000000000e+00,5.000000000000000000e+00,5.000000000000000000e+00,5.000000000000000000e+00,5.000000000000000000e+00,5.000000000000000000e+00,5.000000000000000000e+00,5.000000000000000000e+00,5.000000000000000000e+00,5.000000000000000000e+00,5.000000000000000000e+00,5.000000000000000000e+00,5.000000000000000000e+00,5.000000000000000000e+00,5.000000000000000000e+00,5.000000000000000000e+00,5.000000000000000000e+00,5.000000000000000000e+00,5.000000000000000000e+00,5.000000000000000000e+00,5.000000000000000000e+00,5.000000000000000000e+00,3.961704969406127930e+00,3.955091714859008789e+00,3.916508674621582031e+00,3.900084495544433594e+00,3.906863927841186523e+00,3.941257953643798828e+00,4.037631034851074219e+00,5.000000000000000000e+00,5.000000000000000000e+00,5.000000000000000000e+00,5.000000000000000000e+00,5.000000000000000000e+00,5.000000000000000000e+00,5.000000000000000000e+00,5.000000000000000000e+00,5.000000000000000000e+00,5.000000000000000000e+00,5.000000000000000000e+00,5.000000000000000000e+00,5.000000000000000000e+00,5.000000000000000000e+00,4.862979412078857422e+00,4.702911376953125000e+00,4.553044319152832031e+00,4.412434577941894531e+00,4.280249118804931641e+00,4.155753135681152344e+00,4.038294315338134766e+00,3.927293777465820312e+00,3.822231292724609375e+00,3.722643613815307617e+00
3.093710184097290039e+00,3.171797037124633789e+00,3.253928184509277344e+00,3.340425968170166016e+00,3.431647777557373047e+00,3.527991771697998047e+00,3.629901647567749023e+00,3.737874031066894531e+00,3.852466821670532227e+00,3.974308490753173828e+00,4.104108333587646484e+00,4.242672920227050781e+00,4.390921115875244141e+00,4.549897193908691406e+00,4.720810413360595703e+00,4.905065536499023438e+00,5.000000000000000000e+00,5.000000000000000000e+00,5.000000000000000000e+00,5.000000000000000000e+00,5.000000000000000000e+00,5.000000000000000000e+00,5.000000000000000000e+00,5.000000000000000000e+00,5.000000000000000000e+00,5.000000000000000000e+00,5.000000000000000000e+00,5.000000000000000000e+00,5.000000000000000000e+00,5.000000000000000000e+00,5.000000000000000000e+00,5.000000000000000000e+00,5.000000000000000000e+00,5.000000000000000000e+00,5.000000000000000000e+00,5.000000000000000000e+00,5.000000000000000000e+00,5.000000000000000000e+00,5.000000000000000000e+00,5.000000000000000000e+00,5.000000000000000000e+00,5.000000000000000000e+00,5.000000000000000000e+00,5.000000000000000000e+00,5.000000000000000000e+00,5.000000000000000000e+00,5.000000000000000000e+00,5.000000000000000000e+00,5.000000000000000000e+00,3.987956285476684570e+00,3.978182077407836914e+00,3.921689271926879883e+00,3.900254487991333008e+00,3.909394502639770508e+00,3.947451829910278320e+00,4.055180549621582031e+00,5.000000000000000000e+00,5.000000000000000000e+00,5.000000000000000000e+00,5.000000000000000000e+00,5.000000000000000000e+00,5.000000000000000000e+00,5.000000000000000000e+00,5.000000000000000000e+00,5.000000000000000000e+00,5.000000000000000000e+00,5.000000000000000000e+00,5.000000000000000000e+00,5.000000000000000000e+00,5.000000000000000000e+00,4.863110065460205078e+00,4.703032970428466797e+00,4.553158760070800781e+00,4.412541866302490234e+00,4.280350208282470703e+00,4.155848026275634766e+00,4.038384437561035156e+00,3.927378892898559570e+00,3.822311878204345703e+00,3.722720146179199219e+00
3.093643665313720703e+00,3.171727418899536133e+00,3.253854990005493164e+00,3.340348482131958008e+00,3.431565999984741211e+00,3.527905225753784180e+00,3.629810094833374023e+00,3.737776994705200195e+00,3.852364301681518555e+00,3.974198818206787109e+00,4.103991508483886719e+00,4.242547988891601562e+00,4.390787124633789062e+00,4.549760818481445312e+00,4.720670700073242188e+00,4.904914379119873047e+00,5.000000000000000000e+00,5.000000000000000000e+00,5.000000000000000000e+00,5.000000000000000000e+00,5.000000000000000000e+00,5.000000000000000000e+00,5.000000000000000000e+00,5.000000000000000000e+00,5.000000000000000000e+00,5.000000000000000000e+00,5.000000000000000000e+00,5.000000000000000000e+00,5.000000000000000000e+00,5.000000000000000000e+00,5.000000000000000000e+00,5.000000000000000000e+00,5.000000000000000000e+00,5.000000000000000000e+00,5.000000000000000000e+00,5.000000000000000000e+00,5.000000000000000000e+00,5.000000000000000000e+00,5.000000000000000000e+00,5.000000000000000000e+00,5.000000000000000000e+00,5.000000000000000000e+00,5.000000000000000000e+00,5.000000000000000000e+00,5.000000000000000000e+00,5.000000000000000000e+00,5.000000000000000000e+00,5.000000000000000000e+00,5.000000000000000000e+00,3.995182037353515625e+00,3.964662313461303711e+00,3.929200887680053711e+00,3.901801109313964844e+00,3.902594327926635742e+00,3.944577217102050781e+00,4.072002887725830078e+00,5.000000000000000000e+00,5.000000000000000000e+00,5.000000000000000000e+00,5.000000000000000000e+00,5.000000000000000000e+00,5.000000000000000000e+00,5.000000000000000000e+00,5.000000000000000000e+00,5.000000000000000000e+00,5.000000000000000000e+00,5.000000000000000000e+00,5.000000000000000000e+00,5.000000000000000000e+00,5.000000000000000000e+00,4.863240242004394531e+00,4.703155040740966797e+00,4.553272724151611328e+00,4.412649154663085938e+00,4.280450820922851562e+00,4.155943393707275391e+00,4.038474559783935547e+00,3.927463769912719727e+00,3.822392463684082031e+00,3.722796440124511719e+00
3.093549251556396484e+00,3.171643972396850586e+00,3.253781557083129883e+00,3.340270996093750000e+00,3.431484222412109375e+00,3.527818918228149414e+00,3.629719018936157227e+00,3.737680435180664062e+00,3.852261304855346680e+00,3.974089145660400391e+00,4.103874683380126953e+00,4.242423057556152344e+00,4.390653610229492188e+00,4.549617290496826172e+00,4.720524311065673828e+00,4.904763221740722656e+00,5.000000000000000000e+00,5.000000000000000000e+00,5.000000000000000000e+00,5.000000000000000000e+00,5.000000000000000000e+00,5.000000000000000000e+00,5.000000000000000000e+00,5.000000000000000000e+00,5.000000000000000000e+00,5.000000000000000000e+00,5.000000000000000000e+00,5.000000000000000000e+00,5.000000000000000000e+00,5.000000000000000000e+00,5.000000000000000000e+00,5.000000000000000000e+00,5.000000000000000000e+00,5.000000000000000000e+00,5.000000000000000000e+00,5.000000000000000000e+00,5.000000000000000000e+00,5.000000000000000000e+00,5.000000000000000000e+00,5.000000000000000000e+00,5.000000000000000000e+00,5.000000000000000000e+00,5.000000000000000000e+00,5.000000000000000000e+00,5.000000000000000000e+00,5.000000000000000000e+00,5.000000000000000000e+00,5.000000000000000000e+00,5.000000000000000000e+00,4.000616550445556641e+00,3.970643281936645508e+00,3.928066730499267578e+00,3.900534391403198242e+00,3.905998945236206055e+00,3.934376001358032227e+00,4.090356826782226562e+00,5.000000000000000000e+00,5.000000000000000000e+00,5.000000000000000000e+00,5.000000000000000000e+00,5.000000000000000000e+00,5.000000000000000000e+00,5.000000000000000000e+00,5.000000000000000000e+00,5.000000000000000000e+00,5.000000000000000000e+00,5.000000000000000000e+00,5.000000000000000000e+00,5.000000000000000000e+00,5.000000000000000000e+00,4.863370418548583984e+00,4.703276634216308594e+00,4.553387165069580078e+00,4.412756443023681641e+00,4.280551910400390625e+00,4.156038761138916016e+00,4.038564205169677734e+00,3.927548408508300781e+00,3.822473049163818359e+00,3.722872734069824219e+00
3.093450546264648438e+00,3.171540260314941406e+00,3.253674268722534180e+00,3.340175628662109375e+00,3.431401729583740234e+00,3.527732849121093750e+00,3.629627466201782227e+00,3.737583637237548828e+00,3.852158308029174805e+00,3.973979473114013672e+00,4.103757858276367188e+00,4.242298603057861328e+00,4.390519618988037109e+00,4.549473762512207031e+00,4.720369815826416016e+00,4.904605388641357422e+00,5.000000000000000000e+00,5.000000000000000000e+00,5.000000000000000000e+00,5.000000000000000000e+00,5.000000000000000000e+00,5.000000000000000000e+00,5.000000000000000000e+00,5.000000000000000000e+00,5.000000000000000000e+00,5.000000000000000000e+00,5.000000000000000000e+00,5.000000000000000000e+00,5.000000000000000000e+00,5.000000000000000000e+00,5.000000000000000000e+00,5.000000000000000000e+00,5.000000000000000000e+00,5.000000000000000000e+00,5.000000000000000000e+00,5.000000000000000000e+00,5.000000000000000000e+00,5.000000000000000000e+00,5.000000000000000000e+00,5.000000000000000000e+00,5.000000000000000000e+00,5.000000000000000000e+00,5.000000000000000000e+00,5.000000000000000000e+00,5.000000000000000000e+00,5.000000000000000000e+00,5.000000000000000000e+00,5.000000000000000000e+00,5.000000000000000000e+00,4.009674072265625000e+00,3.984306812286376953e+00,3.916886329650878906e+00,3.890073776245117188e+00,3.890792608261108398e+00,3.938558340072631836e+00,4.120069980621337891e+00,5.000000000000000000e+00,5.000000000000000000e+00,5.000000000000000000e+00,5.000000000000000000e+00,5.000000000000000000e+00,5.000000000000000000e+00,5.000000000000000000e+00,5.000000000000000000e+00,5.000000000000000000e+00,5.000000000000000000e+00,5.000000000000000000e+00,5.000000000000000000e+00,5.000000000000000000e+00,5.000000000000000000e+00,4.863500595092773438e+00,4.703398704528808594e+00,4.553501605987548828e+00,4.412863254547119141e+00,4.280652999877929688e+00,4.156133651733398438e+00,4.038654327392578125e+00,3.927633523941040039e+00,3.822553396224975586e+00,3.722949266433715820e+00
3.093351840972900391e+00,3.171436548233032227e+00,3.253565073013305664e+00,3.340060234069824219e+00,3.431280374526977539e+00,3.527622699737548828e+00,3.629531621932983398e+00,3.737486600875854492e+00,3.852055072784423828e+00,3.973870277404785156e+00,4.103641033172607422e+00,4.242173671722412109e+00,4.390386104583740234e+00,4.549330234527587891e+00,4.720214843750000000e+00,4.904438495635986328e+00,5.000000000000000000e+00,5.000000000000000000e+00,5.000000000000000000e+00,5.000000000000000000e+00,5.000000000000000000e+00,5.000000000000000000e+00,5.000000000000000000e+00,5.000000000000000000e+00,5.000000000000000000e+00,5.000000000000000000e+00,5.000000000000000000e+00,5.000000000000000000e+00,5.000000000000000000e+00,5.000000000000000000e+00,5.000000000000000000e+00,5.000000000000000000e+00,5.000000000000000000e+00,5.000000000000000000e+00,5.000000000000000000e+00,5.000000000000000000e+00,5.000000000000000000e+00,5.000000000000000000e+00,5.000000000000000000e+00,5.000000000000000000e+00,5.000000000000000000e+00,5.000000000000000000e+00,5.000000000000000000e+00,5.000000000000000000e+00,5.000000000000000000e+00,5.000000000000000000e+00,5.000000000000000000e+00,5.000000000000000000e+00,5.000000000000000000e+00,5.000000000000000000e+00,3.932854413986206055e+00,3.929711818695068359e+00,3.904443264007568359e+00,3.907498359680175781e+00,3.930668830871582031e+00,4.093432426452636719e+00,5.000000000000000000e+00,5.000000000000000000e+00,5.000000000000000000e+00,5.000000000000000000e+00,5.000000000000000000e+00,5.000000000000000000e+00,5.000000000000000000e+00,5.000000000000000000e+00,5.000000000000000000e+00,5.000000000000000000e+00,5.000000000000000000e+00,5.000000000000000000e+00,5.000000000000000000e+00,5.000000000000000000e+00,4.863631248474121094e+00,4.703520774841308594e+00,4.553616046905517578e+00,4.412971019744873047e+00,4.280754089355468750e+00,4.156229019165039062e+00,4.038743972778320312e+00,3.927718639373779297e+00,3.822633981704711914e+00,3.723025798797607422e+00
3.093283176422119141e+00,3.171348333358764648e+00,3.253455877304077148e+00,3.339945316314697266e+00,3.431159019470214844e+00,3.527494430541992188e+00,3.629395961761474609e+00,3.737359523773193359e+00,3.851943254470825195e+00,3.973760604858398438e+00,4.103524208068847656e+00,4.242048740386962891e+00,4.390252590179443359e+00,4.549186706542968750e+00,4.720060825347900391e+00,4.904272079467773438e+00,5.000000000000000000e+00,5.000000000000000000e+00,5.000000000000000000e+00,5.000000000000000000e+00,5.000000000000000000e+00,5.000000000000000000e+00,5.000000000000000000e+00,5.000000000000000000e+00,5.000000000000000000e+00,5.000000000000000000e+00,5.000000000000000000e+00,5.000000000000000000e+00,5.000000000000000000e+00,5.000000000000000000e+00,5.000000000000000000e+00,5.000000000000000000e+00,5.000000000000000000e+00,5.000000000000000000e+00,5.000000000000000000e+00,5.000000000000000000e+00,5.000000000000000000e+00,5.000000000000000000e+00,5.000000000000000000e+00,5.000000000000000000e+00,5.000000000000000000e+00,5.000000000000000000e+00,5.000000000000000000e+00,5.000000000000000000e+00,5.000000000000000000e+00,5.000000000000000000e+00,5.000000000000000000e+00,5.000000000000000000e+00,5.000000000000000000e+00,5.000000000000000000e+00,3.885798215866088867e+00,3.918823480606079102e+00,3.926892995834350586e+00,3.919833660125732422e+00,3.880221128463745117e+00,4.078020095825195312e+00,5.000000000000000000e+00,5.000000000000000000e+00,5.000000000000000000e+00,5.000000000000000000e+00,5.000000000000000000e+00,5.000000000000000000e+00,5.000000000000000000e+00,5.000000000000000000e+00,5.000000000000000000e+00,5.000000000000000000e+00,5.000000000000000000e+00,5.000000000000000000e+00,5.000000000000000000e+00,5.000000000000000000e+00,4.863761425018310547e+00,4.703642845153808594e+00,4.553730010986328125e+00,4.413078308105468750e+00,4.280855178833007812e+00,4.156324386596679688e+00,4.038833618164062500e+00,3.927803516387939453e+00,3.822714567184448242e+00,3.723102092742919922e+00
3.093216657638549805e+00,3.171278476715087891e+00,3.253382444381713867e+00,3.339850425720214844e+00,3.431040048599243164e+00,3.527365922927856445e+00,3.629259586334228516e+00,3.737215518951416016e+00,3.851790428161621094e+00,3.973613023757934570e+00,4.103392601013183594e+00,4.241923809051513672e+00,4.390118598937988281e+00,4.549043178558349609e+00,4.719905853271484375e+00,4.904104709625244141e+00,5.000000000000000000e+00,5.000000000000000000e+00,5.000000000000000000e+00,5.000000000000000000e+00,5.000000000000000000e+00,5.000000000000000000e+00,5.000000000000000000e+00,5.000000000000000000e+00,5.000000000000000000e+00,5.000000000000000000e+00,5.000000000000000000e+00,5.000000000000000000e+00,5.000000000000000000e+00,5.000000000000000000e+00,5.000000000000000000e+00,5.000000000000000000e+00,5.000000000000000000e+00,5.000000000000000000e+00,5.000000000000000000e+00,5.000000000000000000e+00,5.000000000000000000e+00,5.000000000000000000e+00,5.000000000000000000e+00,5.000000000000000000e+00,5.000000000000000000e+00,5.000000000000000000e+00,5.000000000000000000e+00,5.000000000000000000e+00,5.000000000000000000e+00,5.000000000000000000e+00,5.000000000000000000e+00,5.000000000000000000e+00,5.000000000000000000e+00,5.000000000000000000e+00,3.850563526153564453e+00,3.900926589965820312e+00,3.902483701705932617e+00,3.894751071929931641e+00,3.855158805847167969e+00,3.898469209671020508e+00,5.000000000000000000e+00,5.000000000000000000e+00,5.000000000000000000e+00,5.000000000000000000e+00,5.000000000000000000e+00,5.000000000000000000e+00,5.000000000000000000e+00,5.000000000000000000e+00,5.000000000000000000e+00,5.000000000000000000e+00,5.000000000000000000e+00,5.000000000000000000e+00,5.000000000000000000e+00,5.000000000000000000e+00,4.863892078399658203e+00,4.703764438629150391e+00,4.553843975067138672e+00,4.413185596466064453e+00,4.280955791473388672e+00,4.156419277191162109e+00,4.038923740386962891e+00,3.927888631820678711e+00,3.822795152664184570e+00,3.723178625106811523e+00
3.093150615692138672e+00,3.171208858489990234e+00,3.253309011459350586e+00,3.339772939682006836e+00,3.430958747863769531e+00,3.527263402938842773e+00,3.629130125045776367e+00,3.737071514129638672e+00,3.851637363433837891e+00,3.973450183868408203e+00,4.103219032287597656e+00,4.241750717163085938e+00,4.389963150024414062e+00,4.548899650573730469e+00,4.719751358032226562e+00,4.903938293457031250e+00,5.000000000000000000e+00,5.000000000000000000e+00,5.000000000000000000e+00,5.000000000000000000e+00,5.000000000000000000e+00,5.000000000000000000e+00,5.000000000000000000e+00,5.000000000000000000e+00,5.000000000000000000e+00,5.000000000000000000e+00,5.000000000000000000e+00,5.000000000000000000e+00,5.000000000000000000e+00,5.000000000000000000e+00,5.000000000000000000e+00,5.000000000000000000e+00,5.000000000000000000e+00,5.000000000000000000e+00,5.000000000000000000e+00,5.000000000000000000e+00,5.000000000000000000e+00,5.000000000000000000e+00,5.000000000000000000e+00,5.000000000000000000e+00,5.000000000000000000e+00,5.000000000000000000e+00,5.000000000000000000e+00,5.000000000000000000e+00,5.000000000000000000e+00,5.000000000000000000e+00,5.000000000000000000e+00,5.000000000000000000e+00,5.000000000000000000e+00,5.000000000000000000e+00,3.793389081954956055e+00,3.899294376373291016e+00,3.900930166244506836e+00,3.888523817062377930e+00,3.841886758804321289e+00,3.879692077636718750e+00,5.000000000000000000e+00,5.000000000000000000e+00,5.000000000000000000e+00,5.000000000000000000e+00,5.000000000000000000e+00,5.000000000000000000e+00,5.000000000000000000e+00,5.000000000000000000e+00,5.000000000000000000e+00,5.000000000000000000e+00,5.000000000000000000e+00,5.000000000000000000e+00,5.000000000000000000e+00,5.000000000000000000e+00,4.864022254943847656e+00,4.703886508941650391e+00,4.553958415985107422e+00,4.413292884826660156e+00,4.281056880950927734e+00,4.156514644622802734e+00,4.039013862609863281e+00,3.927973747253417969e+00,3.822875261306762695e+00,3.723254919052124023e+00
3.093084096908569336e+00,3.171139240264892578e+00,3.253235816955566406e+00,3.339695692062377930e+00,3.430876970291137695e+00,3.527176856994628906e+00,3.629039049148559570e+00,3.736958980560302734e+00,3.851495027542114258e+00,3.973286867141723633e+00,4.103045463562011719e+00,4.241565227508544922e+00,4.389764308929443359e+00,4.548695087432861328e+00,4.719565868377685547e+00,4.903771400451660156e+00,5.000000000000000000e+00,5.000000000000000000e+00,5.000000000000000000e+00,5.000000000000000000e+00,5.000000000000000000e+00,5.000000000000000000e+00,5.000000000000000000e+00,5.000000000000000000e+00,5.000000000000000000e+00,5.000000000000000000e+00,5.000000000000000000e+00,5.000000000000000000e+00,5.000000000000000000e+00,5.000000000000000000e+00,5.000000000000000000e+00,5.000000000000000000e+00,5.000000000000000000e+00,5.000000000000000000e+00,5.000000000000000000e+00,5.000000000000000000e+00,5.000000000000000000e+00,5.000000000000000000e+00,5.000000000000000000e+00,5.000000000000000000e+00,5.000000000000000000e+00,5.000000000000000000e+00,5.000000000000000000e+00,5.000000000000000000e+00,5.000000000000000000e+00,5.000000000000000000e+00,5.000000000000000000e+00,5.000000000000000000e+00,5.000000000000000000e+00,5.000000000000000000e+00,5.000000000000000000e+00,3.900862455368041992e+00,3.902911186218261719e+00,3.880306720733642578e+00,3.825174570083618164e+00,3.860008001327514648e+00,5.000000000000000000e+00,5.000000000000000000e+00,5.000000000000000000e+00,5.000000000000000000e+00,5.000000000000000000e+00,5.000000000000000000e+00,5.000000000000000000e+00,5.000000000000000000e+00,5.000000000000000000e+00,5.000000000000000000e+00,5.000000000000000000e+00,5.000000000000000000e+00,5.000000000000000000e+00,5.000000000000000000e+00,4.864152431488037109e+00,4.704008579254150391e+00,4.554072856903076172e+00,4.413400173187255859e+00,4.281157970428466797e+00,4.156610012054443359e+00,4.039103507995605469e+00,3.928058862686157227e+00,3.822955846786499023e+00,3.723331451416015625e+00
3.093018054962158203e+00,3.171069383621215820e+00,3.253162145614624023e+00,3.339618444442749023e+00,3.430795431137084961e+00,3.527090549468994141e+00,3.628947496414184570e+00,3.736862421035766602e+00,3.851392507553100586e+00,3.973164081573486328e+00,4.102888107299804688e+00,4.241379737854003906e+00,4.389565944671630859e+00,4.548481464385986328e+00,4.719336032867431641e+00,4.903527259826660156e+00,5.000000000000000000e+00,5.000000000000000000e+00,5.000000000000000000e+00,5.000000000000000000e+00,5.000000000000000000e+00,5.000000000000000000e+00,5.000000000000000000e+00,5.000000000000000000e+00,5.000000000000000000e+00,5.000000000000000000e+00,5.000000000000000000e+00,5.000000000000000000e+00,5.000000000000000000e+00,5.000000000000000000e+00,5.000000000000000000e+00,5.000000000000000000e+00,5.000000000000000000e+00,5.000000000000000000e+00,5.000000000000000000e+00,5.000000000000000000e+00,5.000000000000000000e+00,5.000000000000000000e+00,5.000000000000000000e+00,5.000000000000000000e+00,5.000000000000000000e+00,5.000000000000000000e+00,5.000000000000000000e+00,5.000000000000000000e+00,5.000000000000000000e+00,5.000000000000000000e+00,5.000000000000000000e+00,5.000000000000000000e+00,5.000000000000000000e+00,5.000000000000000000e+00,5.000000000000000000e+00,3.899956703186035156e+00,3.904706716537475586e+00,3.865639925003051758e+00,3.805333375930786133e+00,5.000000000000000000e+00,5.000000000000000000e+00,5.000000000000000000e+00,5.000000000000000000e+00,5.000000000000000000e+00,5.000000000000000000e+00,5.000000000000000000e+00,5.000000000000000000e+00,5.000000000000000000e+00,5.000000000000000000e+00,5.000000000000000000e+00,5.000000000000000000e+00,5.000000000000000000e+00,5.000000000000000000e+00,5.000000000000000000e+00,4.864283084869384766e+00,4.704130172729492188e+00,4.554187297821044922e+00,4.413507461547851562e+00,4.281259059906005859e+00,4.156704902648925781e+00,4.039193630218505859e+00,3.928146600723266602e+00,3.823042154312133789e+00,3.723416090011596680e+00
3.092951536178588867e+00,3.170999765396118164e+00,3.253088951110839844e+00,3.339540958404541016e+00,3.430713891983032227e+00,3.527004480361938477e+00,3.628856420516967773e+00,3.736765623092651367e+00,3.851289510726928711e+00,3.973054885864257812e+00,4.102771282196044922e+00,4.241243839263916016e+00,4.389390468597412109e+00,4.548268318176269531e+00,4.719106197357177734e+00,4.903279304504394531e+00,5.000000000000000000e+00,5.000000000000000000e+00,5.000000000000000000e+00,5.000000000000000000e+00,5.000000000000000000e+00,5.000000000000000000e+00,5.000000000000000000e+00,5.000000000000000000e+00,5.000000000000000000e+00,5.000000000000000000e+00,5.000000000000000000e+00,5.000000000000000000e+00,5.000000000000000000e+00,5.000000000000000000e+00,5.000000000000000000e+00,5.000000000000000000e+00,5.000000000000000000e+00,5.000000000000000000e+00,5.000000000000000000e+00,5.000000000000000000e+00,5.000000000000000000e+00,5.000000000000000000e+00,5.000000000000000000e+00,5.000000000000000000e+00,5.000000000000000000e+00,5.000000000000000000e+00,5.000000000000000000e+00,5.000000000000000000e+00,5.000000000000000000e+00,5.000000000000000000e+00,5.000000000000000000e+00,5.000000000000000000e+00,5.000000000000000000e+00,5.000000000000000000e+00,5.000000000000000000e+00,3.900455474853515625e+00,3.901927709579467773e+00,5.000000000000000000e+00,3.795124292373657227e+00,5.000000000000000000e+00,5.000000000000000000e+00,5.000000000000000000e+00,5.000000000000000000e+00,5.000000000000000000e+00,5.000000000000000000e+00,5.000000000000000000e+00,5.000000000000000000e+00,5.000000000000000000e+00,5.000000000000000000e+00,5.000000000000000000e+00,5.000000000000000000e+00,5.000000000000000000e+00,5.000000000000000000e+00,5.000000000000000000e+00,4.864413261413574219e+00,4.704252243041992188e+00,4.554301738739013672e+00,4.413614749908447266e+00,4.281362056732177734e+00,4.156805992126464844e+00,4.039291858673095703e+00,3.928240537643432617e+00,3.823131084442138672e+00,3.723500490188598633e+00
3.092885494232177734e+00,3.170929908752441406e+00,3.253015518188476562e+00,3.339463949203491211e+00,3.430632352828979492e+00,3.526918172836303711e+00,3.628765106201171875e+00,3.736669063568115234e+00,3.851186990737915039e+00,3.972945451736450195e+00,4.102654933929443359e+00,4.241119384765625000e+00,4.389256954193115234e+00,4.548117637634277344e+00,4.718909263610839844e+00,4.903031349182128906e+00,5.000000000000000000e+00,5.000000000000000000e+00,5.000000000000000000e+00,5.000000000000000000e+00,5.000000000000000000e+00,5.000000000000000000e+00,5.000000000000000000e+00,5.000000000000000000e+00,5.000000000000000000e+00,5.000000000000000000e+00,5.000000000000000000e+00,5.000000000000000000e+00,5.000000000000000000e+00,5.000000000000000000e+00,5.000000000000000000e+00,5.000000000000000000e+00,5.000000000000000000e+00,5.000000000000000000e+00,5.000000000000000000e+00,5.000000000000000000e+00,5.000000000000000000e+00,5.000000000000000000e+00,5.000000000000000000e+00,5.000000000000000000e+00,5.000000000000000000e+00,5.000000000000000000e+00,5.000000000000000000e+00,5.000000000000000000e+00,5.000000000000000000e+00,5.000000000000000000e+00,5.000000000000000000e+00,5.000000000000000000e+00,5.000000000000000000e+00,5.000000000000000000e+00,5.000000000000000000e+00,3.912871360778808594e+00,3.910985231399536133e+00,3.878894567489624023e+00,3.818205595016479492e+00,5.000000000000000000e+00,5.000000000000000000e+00,5.000000000000000000e+00,5.000000000000000000e+00,5.000000000000000000e+00,5.000000000000000000e+00,5.000000000000000000e+00,5.000000000000000000e+00,5.000000000000000000e+00,5.000000000000000000e+00,5.000000000000000000e+00,5.000000000000000000e+00,5.000000000000000000e+00,5.000000000000000000e+00,5.000000000000000000e+00,4.864543914794921875e+00,4.704375267028808594e+00,4.554420948028564453e+00,4.413731098175048828e+00,4.281473159790039062e+00,4.156910896301269531e+00,4.039391517639160156e+00,3.928334236145019531e+00,3.823220252990722656e+00,3.723584651947021484e+00
3.092818975448608398e+00,3.170860528945922852e+00,3.252942323684692383e+00,3.339386463165283203e+00,3.430550813674926758e+00,3.526832103729248047e+00,3.628674030303955078e+00,3.736572027206420898e+00,3.851083993911743164e+00,3.972836256027221680e+00,4.102538108825683594e+00,4.240994453430175781e+00,4.389123439788818359e+00,4.547974109649658203e+00,4.718755245208740234e+00,4.902862071990966797e+00,5.000000000000000000e+00,5.000000000000000000e+00,5.000000000000000000e+00,5.000000000000000000e+00,5.000000000000000000e+00,5.000000000000000000e+00,5.000000000000000000e+00,5.000000000000000000e+00,5.000000000000000000e+00,5.000000000000000000e+00,5.000000000000000000e+00,5.000000000000000000e+00,5.000000000000000000e+00,5.000000000000000000e+00,5.000000000000000000e+00,5.000000000000000000e+00,5.000000000000000000e+00,5.000000000000000000e+00,5.000000000000000000e+00,5.000000000000000000e+00,5.000000000000000000e+00,5.000000000000000000e+00,5.000000000000000000e+00,5.000000000000000000e+00,5.000000000000000000e+00,5.000000000000000000e+00,5.000000000000000000e+00,5.000000000000000000e+00,5.000000000000000000e+00,5.000000000000000000e+00,5.000000000000000000e+00,5.000000000000000000e+00,5.000000000000000000e+00,5.000000000000000000e+00,4.105745315551757812e+00,3.988991975784301758e+00,5.000000000000000000e+00,3.891257286071777344e+00,3.843652725219726562e+00,5.000000000000000000e+00,5.000000000000000000e+00,5.000000000000000000e+00,5.000000000000000000e+00,5.000000000000000000e+00,5.000000000000000000e+00,5.000000000000000000e+00,5.000000000000000000e+00,5.000000000000000000e+00,5.000000000000000000e+00,5.000000000000000000e+00,5.000000000000000000e+00,5.000000000000000000e+00,5.000000000000000000e+00,5.000000000000000000e+00,4.864683628082275391e+00,4.704509735107421875e+00,4.554546833038330078e+00,4.413849830627441406e+00,4.281585216522216797e+00,4.157016277313232422e+00,4.039490699768066406e+00,3.928428173065185547e+00,3.823309183120727539e+00,3.723669290542602539e+00
3.092752933502197266e+00,3.170790672302246094e+00,3.252868890762329102e+00,3.339309453964233398e+00,3.430469274520874023e+00,3.526745796203613281e+00,3.628582715988159180e+00,3.736475467681884766e+00,3.850981473922729492e+00,3.972726583480834961e+00,4.102421760559082031e+00,4.240869998931884766e+00,4.388989925384521484e+00,4.547831058502197266e+00,4.718600749969482422e+00,4.902695178985595703e+00,5.000000000000000000e+00,5.000000000000000000e+00,5.000000000000000000e+00,5.000000000000000000e+00,5.000000000000000000e+00,5.000000000000000000e+00,5.000000000000000000e+00,5.000000000000000000e+00,5.000000000000000000e+00,5.000000000000000000e+00,5.000000000000000000e+00,5.000000000000000000e+00,5.000000000000000000e+00,5.000000000000000000e+00,5.000000000000000000e+00,5.000000000000000000e+00,5.000000000000000000e+00,5.000000000000000000e+00,5.000000000000000000e+00,5.000000000000000000e+00,5.000000000000000000e+00,5.000000000000000000e+00,5.000000000000000000e+00,5.000000000000000000e+00,5.000000000000000000e+00,5.000000000000000000e+00,5.000000000000000000e+00,5.000000000000000000e+00,5.000000000000000000e+00,5.000000000000000000e+00,5.000000000000000000e+00,5.000000000000000000e+00,5.000000000000000000e+00,5.000000000000000000e+00,4.173285961151123047e+00,4.148208141326904297e+00,5.000000000000000000e+00,3.887725830078125000e+00,3.847105741500854492e+00,5.000000000000000000e+00,5.000000000000000000e+00,5.000000000000000000e+00,5.000000000000000000e+00,5.000000000000000000e+00,5.000000000000000000e+00,5.000000000000000000e+00,5.000000000000000000e+00,5.000000000000000000e+00,5.000000000000000000e+00,5.000000000000000000e+00,5.000000000000000000e+00,5.000000000000000000e+00,5.000000000000000000e+00,5.000000000000000000e+00,4.864827632904052734e+00,4.704644680023193359e+00,4.554673194885253906e+00,4.413968563079833984e+00,4.281696319580078125e+00,4.157121181488037109e+00,4.039590358734130859e+00,3.928522348403930664e+00,3.823398113250732422e+00,3.723753690719604492e+00
3.092686414718627930e+00,3.170721054077148438e+00,3.252795696258544922e+00,3.339231967926025391e+00,3.430387735366821289e+00,3.526659727096557617e+00,3.628491640090942383e+00,3.736378669738769531e+00,3.850878477096557617e+00,3.972617626190185547e+00,4.102304935455322266e+00,4.240745544433593750e+00,4.388856410980224609e+00,4.547687530517578125e+00,4.718446731567382812e+00,4.902528762817382812e+00,5.000000000000000000e+00,5.000000000000000000e+00,5.000000000000000000e+00,5.000000000000000000e+00,5.000000000000000000e+00,5.000000000000000000e+00,5.000000000000000000e+00,5.000000000000000000e+00,5.000000000000000000e+00,5.000000000000000000e+00,5.000000000000000000e+00,5.000000000000000000e+00,5.000000000000000000e+00,5.000000000000000000e+00,5.000000000000000000e+00,5.000000000000000000e+00,5.000000000000000000e+00,5.000000000000000000e+00,5.000000000000000000e+00,5.000000000000000000e+00,5.000000000000000000e+00,5.000000000000000000e+00,5.000000000000000000e+00,5.000000000000000000e+00,5.000000000000000000e+00,5.000000000000000000e+00,5.000000000000000000e+00,5.000000000000000000e+00,5.000000000000000000e+00,5.000000000000000000e+00,5.000000000000000000e+00,5.000000000000000000e+00,5.000000000000000000e+00,5.000000000000000000e+00,4.254575729370117188e+00,5.000000000000000000e+00,5.000000000000000000e+00,3.889066457748413086e+00,3.850333452224731445e+00,5.000000000000000000e+00,5.000000000000000000e+00,5.000000000000000000e+00,5.000000000000000000e+00,5.000000000000000000e+00,5.000000000000000000e+00,5.000000000000000000e+00,5.000000000000000000e+00,5.000000000000000000e+00,5.000000000000000000e+00,5.000000000000000000e+00,5.000000000000000000e+00,5.000000000000000000e+00,5.000000000000000000e+00,5.000000000000000000e+00,4.864971637725830078e+00,4.704779148101806641e+00,4.554800033569335938e+00,4.414087295532226562e+00,4.281808376312255859e+00,4.157226562500000000e+00,4.039689540863037109e+00,3.928616285324096680e+00,3.823487281799316406e+00,3.723838090896606445e+00
3.092620372772216797e+00,3.170651197433471680e+00,3.252722263336181641e+00,3.339154958724975586e+00,3.430306196212768555e+00,3.526573419570922852e+00,3.628400087356567383e+00,3.736282110214233398e+00,3.850775957107543945e+00,3.972507953643798828e+00,4.102188587188720703e+00,4.240620613098144531e+00,4.388722896575927734e+00,4.547544479370117188e+00,4.718292236328125000e+00,4.902362346649169922e+00,5.000000000000000000e+00,5.000000000000000000e+00,5.000000000000000000e+00,5.000000000000000000e+00,5.000000000000000000e+00,5.000000000000000000e+00,5.000000000000000000e+00,5.000000000000000000e+00,5.000000000000000000e+00,5.000000000000000000e+00,5.000000000000000000e+00,5.000000000000000000e+00,5.000000000000000000e+00,5.000000000000000000e+00,5.000000000000000000e+00,5.000000000000000000e+00,5.000000000000000000e+00,5.000000000000000000e+00,5.000000000000000000e+00,5.000000000000000000e+00,5.000000000000000000e+00,5.000000000000000000e+00,5.000000000000000000e+00,5.000000000000000000e+00,5.000000000000000000e+00,5.000000000000000000e+00,5.000000000000000000e+00,5.000000000000000000e+00,5.000000000000000000e+00,5.000000000000000000e+00,5.000000000000000000e+00,5.000000000000000000e+00,5.000000000000000000e+00,5.000000000000000000e+00,4.326102256774902344e+00,5.000000000000000000e+00,5.000000000000000000e+00,3.894566059112548828e+00,3.876180648803710938e+00,5.000000000000000000e+00,5.000000000000000000e+00,5.000000000000000000e+00,5.000000000000000000e+00,5.000000000000000000e+00,5.000000000000000000e+00,5.000000000000000000e+00,5.000000000000000000e+00,5.000000000000000000e+00,5.000000000000000000e+00,5.000000000000000000e+00,5.000000000000000000e+00,5.000000000000000000e+00,5.000000000000000000e+00,5.000000000000000000e+00,4.865116119384765625e+00,4.704914093017578125e+00,4.554925918579101562e+00,4.414205551147460938e+00,4.281919479370117188e+00,4.157331943511962891e+00,4.039788722991943359e+00,3.928709983825683594e+00,3.823576211929321289e+00,3.723922252655029297e+00
3.092553853988647461e+00,3.170581817626953125e+00,3.252648830413818359e+00,3.339077472686767578e+00,3.430224657058715820e+00,3.526487350463867188e+00,3.628308773040771484e+00,3.736185073852539062e+00,3.850672960281372070e+00,3.972398757934570312e+00,4.102071762084960938e+00,4.240496158599853516e+00,4.388589382171630859e+00,4.547400951385498047e+00,4.718137741088867188e+00,4.902195930480957031e+00,5.000000000000000000e+00,5.000000000000000000e+00,5.000000000000000000e+00,5.000000000000000000e+00,5.000000000000000000e+00,5.000000000000000000e+00,5.000000000000000000e+00,5.000000000000000000e+00,5.000000000000000000e+00,5.000000000000000000e+00,5.000000000000000000e+00,5.000000000000000000e+00,5.000000000000000000e+00,5.000000000000000000e+00,5.000000000000000000e+00,5.000000000000000000e+00,5.000000000000000000e+00,5.000000000000000000e+00,5.000000000000000000e+00,5.000000000000000000e+00,5.000000000000000000e+00,5.000000000000000000e+00,5.000000000000000000e+00,5.000000000000000000e+00,5.000000000000000000e+00,5.000000000000000000e+00,5.000000000000000000e+00,5.000000000000000000e+00,5.000000000000000000e+00,5.000000000000000000e+00,5.000000000000000000e+00,5.000000000000000000e+00,5.000000000000000000e+00,5.000000000000000000e+00,4.340336322784423828e+00,5.000000000000000000e+00,5.000000000000000000e+00,3.911213159561157227e+00,5.000000000000000000e+00,5.000000000000000000e+00,5.000000000000000000e+00,5.000000000000000000e+00,5.000000000000000000e+00,5.000000000000000000e+00,5.000000000000000000e+00,5.000000000000000000e+00,5.000000000000000000e+00,5.000000000000000000e+00,5.000000000000000000e+00,5.000000000000000000e+00,5.000000000000000000e+00,5.000000000000000000e+00,5.000000000000000000e+00,5.000000000000000000e+00,4.865259647369384766e+00,4.705049037933349609e+00,4.555052280426025391e+00,4.414324283599853516e+00,4.282031536102294922e+00,4.157436847686767578e+00,4.039887905120849609e+00,3.928803920745849609e+00,3.823665142059326172e+00,3.724007129669189453e+00
3.092487335205078125e+00,3.170511960983276367e+00,3.252575635910034180e+00,3.339000225067138672e+00,3.430142879486083984e+00,3.526401042938232422e+00,3.628217697143554688e+00,3.736088514328002930e+00,3.850569963455200195e+00,3.972289323806762695e+00,4.101954936981201172e+00,4.240371704101562500e+00,4.388455867767333984e+00,4.547257900238037109e+00,4.717983722686767578e+00,4.854219436645507812e+00,4.853009700775146484e+00,4.851800918579101562e+00,4.850593090057373047e+00,4.849385261535644531e+00,4.848178386688232422e+00,4.846971511840820312e+00,4.845766067504882812e+00,4.844560623168945312e+00,4.843356132507324219e+00,4.842152118682861328e+00,4.840948104858398438e+00,4.839745521545410156e+00,4.838542938232421875e+00,4.837341785430908203e+00,4.836140632629394531e+00,4.834939956665039062e+00,4.833740234375000000e+00,4.832540512084960938e+00,4.831342220306396484e+00,4.830143928527832031e+00,4.828946590423583984e+00,4.827749729156494141e+00,4.826553344726562500e+00,4.825357913970947266e+00,4.824162960052490234e+00,4.822968006134033203e+00,4.821774005889892578e+00,4.820580482482910156e+00,4.819387912750244141e+00,4.818195819854736328e+00,4.817004203796386719e+00,4.815813541412353516e+00,4.814622879028320312e+00,4.813433170318603516e+00,4.812243461608886719e+00,4.811055183410644531e+00,4.809867382049560547e+00,3.850723981857299805e+00,4.807492733001708984e+00,4.806306362152099609e+00,4.805120468139648438e+00,4.803935527801513672e+00,4.802751064300537109e+00,4.801567077636718750e+00,4.800383567810058594e+00,4.799201011657714844e+00,4.798018455505371094e+00,4.796836853027343750e+00,4.795656204223632812e+00,4.794475555419921875e+00,4.793295860290527344e+00,4.792116165161132812e+00,4.790937900543212891e+00,4.789759635925292969e+00,4.788581848144531250e+00,4.705183506011962891e+00,4.555178642272949219e+00,4.414443016052246094e+00,4.282143115997314453e+00,4.157542228698730469e+00,4.039987564086914062e+00,3.928898096084594727e+00,3.823754072189331055e+00,3.724091291427612305e+00
3.092421293258666992e+00,3.170442342758178711e+00,3.252502202987670898e+00,3.338922977447509766e+00,3.430061578750610352e+00,3.526315212249755859e+00,3.628126382827758789e+00,3.735991716384887695e+00,3.770750284194946289e+00,3.770020723342895508e+00,3.769290924072265625e+00,3.768562078475952148e+00,3.767832756042480469e+00,3.767103910446166992e+00,3.766375780105590820e+00,3.765647649765014648e+00,3.764919519424438477e+00,3.764192342758178711e+00,3.763464927673339844e+00,3.762737751007080078e+00,3.762010812759399414e+00,3.761284589767456055e+00,3.760558366775512695e+00,3.759832382202148438e+00,3.759106874465942383e+00,3.758381605148315430e+00,3.757656335830688477e+00,3.756931543350219727e+00,3.756207227706909180e+00,3.755482912063598633e+00,3.754758834838867188e+00,3.754035472869873047e+00,3.753311872482299805e+00,3.752588748931884766e+00,3.751866102218627930e+00,3.751143455505371094e+00,3.750421047210693359e+00,3.749698877334594727e+00,3.748977422714233398e+00,3.748255968093872070e+00,3.747534513473510742e+00,3.746814012527465820e+00,3.746093273162841797e+00,3.745372772216796875e+00,3.744652509689331055e+00,3.743933200836181641e+00,3.743213415145874023e+00,3.742494106292724609e+00,3.741775512695312500e+00,3.741056680679321289e+00,3.740338325500488281e+00,3.739620447158813477e+00,3.738902330398559570e+00,3.738184690475463867e+00,3.737467288970947266e+00,3.736750602722167969e+00,3.736033678054809570e+00,3.735316991806030273e+00,3.734601259231567383e+00,3.733885288238525391e+00,3.733169317245483398e+00,3.732453823089599609e+00,3.731739044189453125e+00,3.731024265289306641e+00,3.730309486389160156e+00,3.729595422744750977e+00,3.728881359100341797e+00,3.728167533874511719e+00,3.727454423904418945e+00,3.726741075515747070e+00,3.726027965545654297e+00,3.725315093994140625e+00,3.724603176116943359e+00,3.723890781402587891e+00,3.723178863525390625e+00,3.722467660903930664e+00,3.721756219863891602e+00,3.721045255661010742e+00,3.720334291458129883e+00,3.719624042510986328e+00
3.083177566528320312e+00,3.082689523696899414e+00,3.082201719284057617e+00,3.081714391708374023e+00,3.081226825714111328e+00,3.080739259719848633e+00,3.080251932144165039e+00,3.079765081405639648e+00,3.079278230667114258e+00,3.078791379928588867e+00,3.078304767608642578e+00,3.077818393707275391e+00,3.077332019805908203e+00,3.076845884323120117e+00,3.076360225677490234e+00,3.075874567031860352e+00,3.075388669967651367e+00,3.074903249740600586e+00,3.074418067932128906e+00,3.073932647705078125e+00,3.073447704315185547e+00,3.072962760925292969e+00,3.072478055953979492e+00,3.071993350982666016e+00,3.071508884429931641e+00,3.071024894714355469e+00,3.070540666580200195e+00,3.070056438446044922e+00,3.069572687149047852e+00,3.069089174270629883e+00,3.068605661392211914e+00,3.068122148513793945e+00,3.067639112472534180e+00,3.067156076431274414e+00,3.066673040390014648e+00,3.066190481185913086e+00,3.065707921981811523e+00,3.065225362777709961e+00,3.064742803573608398e+00,3.064260959625244141e+00,3.063778877258300781e+00,3.063297033309936523e+00,3.062815427780151367e+00,3.062333822250366211e+00,3.061852455139160156e+00,3.061371326446533203e+00,3.060890197753906250e+00,3.060409069061279297e+00,3.059928178787231445e+00,3.059447765350341797e+00,3.058967351913452148e+00,3.058486700057983398e+00,3.058006763458251953e+00,3.057526826858520508e+00,3.057046651840209961e+00,3.056566953659057617e+00,3.056087493896484375e+00,3.055608034133911133e+00,3.055128574371337891e+00,3.054649829864501953e+00,3.054170608520507812e+00,3.053691625595092773e+00,3.053212881088256836e+00,3.052734613418579102e+00,3.052256107330322266e+00,3.051777839660644531e+00,3.051300048828125000e+00,3.050822019577026367e+00,3.050343990325927734e+00,3.049866676330566406e+00,3.049389123916625977e+00,3.048911809921264648e+00,3.048434495925903320e+00,3.047957658767700195e+00,3.047480583190917969e+00,3.047003746032714844e+00,3.046527385711669922e+00,3.046051025390625000e+00,3.045574665069580078e+00,3.045098543167114258e+00
2.604892969131469727e+00,2.604544639587402344e+00,2.604196310043334961e+00,2.603848218917846680e+00,2.603500366210937500e+00,2.603152275085449219e+00,2.602804422378540039e+00,2.602456569671630859e+00,2.602108955383300781e+00,2.601761341094970703e+00,2.601413726806640625e+00,2.601066350936889648e+00,2.600719213485717773e+00,2.600371837615966797e+00,2.600024700164794922e+00,2.599677562713623047e+00,2.599330663681030273e+00,2.598984003067016602e+00,2.598637104034423828e+00,2.598290443420410156e+00,2.597944259643554688e+00,2.597597599029541016e+00,2.597251176834106445e+00,2.596904993057250977e+00,2.596558809280395508e+00,2.596212625503540039e+00,2.595866918563842773e+00,2.595520973205566406e+00,2.595175027847290039e+00,2.594829320907592773e+00,2.594483613967895508e+00,2.594138145446777344e+00,2.593792676925659180e+00,2.593447446823120117e+00,2.593101978302001953e+00,2.592756748199462891e+00,2.592411756515502930e+00,2.592066764831542969e+00,2.591721773147583008e+00,2.591377019882202148e+00,2.591032266616821289e+00,2.590687751770019531e+00,2.590342998504638672e+00,2.589998722076416016e+00,2.589654445648193359e+00,2.589310169219970703e+00,2.588966131210327148e+00,2.588621854782104492e+00,2.588277816772460938e+00,2.587934017181396484e+00,2.587590217590332031e+00,2.587246417999267578e+00,2.586902856826782227e+00,2.586559534072875977e+00,2.586215972900390625e+00,2.585872650146484375e+00,2.585529327392578125e+00,2.585186243057250977e+00,2.584843158721923828e+00,2.584500074386596680e+00,2.584157228469848633e+00,2.583814382553100586e+00,2.583471775054931641e+00,2.583129167556762695e+00,2.582786560058593750e+00,2.582444190979003906e+00,2.582101821899414062e+00,2.581759691238403320e+00,2.581417322158813477e+00,2.581075191497802734e+00,2.580733299255371094e+00,2.580391407012939453e+00,2.580049514770507812e+00,2.579707860946655273e+00,2.579366445541381836e+00,2.579024791717529297e+00,2.578683137893676758e+00,2.578341960906982422e+00,2.578000783920288086e+00,2.577659368515014648e+00
2.255070209503173828e+00,2.254809141159057617e+00,2.254548311233520508e+00,2.254287242889404297e+00,2.254026412963867188e+00,2.253765583038330078e+00,2.253504753112792969e+00,2.253244161605834961e+00,2.252983331680297852e+00,2.252722978591918945e+00,2.252462387084960938e+00,2.252202033996582031e+00,2.251941442489624023e+00,2.251681327819824219e+00,2.251420974731445312e+00,2.251160621643066406e+00,2.250900506973266602e+00,2.250640392303466797e+00,2.250380516052246094e+00,2.250120401382446289e+00,2.249860525131225586e+00,2.249600648880004883e+00,2.249341011047363281e+00,2.249081134796142578e+00,2.248821496963500977e+00,2.248562097549438477e+00,2.248302459716796875e+00,2.248043060302734375e+00,2.247783660888671875e+00,2.247524261474609375e+00,2.247265100479125977e+00,2.247005701065063477e+00,2.246746540069580078e+00,2.246487379074096680e+00,2.246228456497192383e+00,2.245969295501708984e+00,2.245710372924804688e+00,2.245451450347900391e+00,2.245192527770996094e+00,2.244933843612670898e+00,2.244675159454345703e+00,2.244416475296020508e+00,2.244157791137695312e+00,2.243899345397949219e+00,2.243640899658203125e+00,2.243382453918457031e+00,2.243124008178710938e+00,2.242865800857543945e+00,2.242607593536376953e+00,2.242349386215209961e+00,2.242091178894042969e+00,2.241833209991455078e+00,2.241575241088867188e+00,2.241317272186279297e+00,2.241059541702270508e+00,2.240801572799682617e+00,2.240543842315673828e+00,2.240286111831665039e+00,2.240028381347656250e+00,2.239770889282226562e+00,2.239513158798217773e+00,2.239255905151367188e+00,2.238998413085937500e+00,2.238741159439086914e+00,2.238483905792236328e+00,2.238226652145385742e+00,2.237969398498535156e+00,2.237712144851684570e+00,2.237455368041992188e+00,2.237198352813720703e+00,2.236941337585449219e+00,2.236684560775756836e+00,2.236427783966064453e+00,2.236170768737792969e+00,2.235914230346679688e+00,2.235657453536987305e+00,2.235400915145874023e+00,2.235144376754760742e+00,2.234888076782226562e+00,2.234631538391113281e+00
1.988081812858581543e+00,1.987879037857055664e+00,1.987676262855529785e+00,1.987473249435424805e+00,1.987270593643188477e+00,1.987067699432373047e+00,1.986865043640136719e+00,1.986662507057189941e+00,1.986459732055664062e+00,1.986257314682006836e+00,1.986054778099060059e+00,1.985852241516113281e+00,1.985649824142456055e+00,1.985447287559509277e+00,1.985244989395141602e+00,1.985042810440063477e+00,1.984840393066406250e+00,1.984638214111328125e+00,1.984435796737670898e+00,1.984233736991882324e+00,1.984031677246093750e+00,1.983829498291015625e+00,1.983627557754516602e+00,1.983425617218017578e+00,1.983223557472229004e+00,1.983021736145019531e+00,1.982819676399230957e+00,1.982617974281311035e+00,1.982416272163391113e+00,1.982214331626892090e+00,1.982012987136840820e+00,1.981811404228210449e+00,1.981609582901000977e+00,1.981408119201660156e+00,1.981206655502319336e+00,1.981004953384399414e+00,1.980803608894348145e+00,1.980602025985717773e+00,1.980400681495666504e+00,1.980199456214904785e+00,1.979997992515563965e+00,1.979796886444091797e+00,1.979595661163330078e+00,1.979394435882568359e+00,1.979193329811096191e+00,1.978992342948913574e+00,1.978791117668151855e+00,1.978590250015258789e+00,1.978389263153076172e+00,1.978188276290893555e+00,1.977987408638000488e+00,1.977786660194396973e+00,1.977585673332214355e+00,1.977385044097900391e+00,1.977184176445007324e+00,1.976983547210693359e+00,1.976782917976379395e+00,1.976582169532775879e+00,1.976381778717041016e+00,1.976181268692016602e+00,1.975980639457702637e+00,1.975780248641967773e+00,1.975579977035522461e+00,1.975379467010498047e+00,1.975179195404052734e+00,1.974979043006896973e+00,1.974778652191162109e+00,1.974578499794006348e+00,1.974378466606140137e+00,1.974178194999694824e+00,1.973978161811828613e+00,1.973778009414672852e+00,1.973578095436096191e+00,1.973378181457519531e+00,1.973178148269653320e+00,1.972978353500366211e+00,1.972778677940368652e+00,1.972578644752502441e+00,1.972378969192504883e+00,1.972179412841796875e+00
1.777621030807495117e+00,1.777458667755126953e+00,1.777296543121337891e+00,1.777134537696838379e+00,1.776972293853759766e+00,1.776810288429260254e+00,1.776648044586181641e+00,1.776486039161682129e+00,1.776324152946472168e+00,1.776162028312683105e+00,1.776000142097473145e+00,1.775838255882263184e+00,1.775676250457763672e+00,1.775514483451843262e+00,1.775352478027343750e+00,1.775190830230712891e+00,1.775029063224792480e+00,1.774867177009582520e+00,1.774705529212951660e+00,1.774543762207031250e+00,1.774382114410400391e+00,1.774220585823059082e+00,1.774058818817138672e+00,1.773897409439086914e+00,1.773735880851745605e+00,1.773574233055114746e+00,1.773412823677062988e+00,1.773251295089721680e+00,1.773089885711669922e+00,1.772928595542907715e+00,1.772767066955566406e+00,1.772605776786804199e+00,1.772444605827331543e+00,1.772283196449279785e+00,1.772122025489807129e+00,1.771960616111755371e+00,1.771799683570861816e+00,1.771638631820678711e+00,1.771477341651916504e+00,1.771316409111022949e+00,1.771155357360839844e+00,1.770994186401367188e+00,1.770833253860473633e+00,1.770672321319580078e+00,1.770511269569396973e+00,1.770350337028503418e+00,1.770189523696899414e+00,1.770028591156005859e+00,1.769867777824401855e+00,1.769707083702087402e+00,1.769546151161193848e+00,1.769385457038879395e+00,1.769224762916564941e+00,1.769063949584960938e+00,1.768903374671936035e+00,1.768742680549621582e+00,1.768582105636596680e+00,1.768421649932861328e+00,1.768260955810546875e+00,1.768100500106811523e+00,1.767940044403076172e+00,1.767779469490051270e+00,1.767619132995605469e+00,1.767458796501159668e+00,1.767298340797424316e+00,1.767138004302978516e+00,1.766977787017822266e+00,1.766817331314086914e+00,1.766657233238220215e+00,1.766497015953063965e+00,1.766336679458618164e+00,1.766176581382751465e+00,1.766016364097595215e+00,1.765856385231018066e+00,1.765696287155151367e+00,1.765536189079284668e+00,1.765376210212707520e+00,1.765216350555419922e+00,1.765056252479553223e+00,1.764896392822265625e+00
1.607453823089599609e+00,1.607321262359619141e+00,1.607188582420349121e+00,1.607056021690368652e+00,1.606923460960388184e+00,1.606790781021118164e+00,1.606658339500427246e+00,1.606525659561157227e+00,1.606393218040466309e+00,1.606260895729064941e+00,1.606128334999084473e+00,1.605995893478393555e+00,1.605863571166992188e+00,1.605731129646301270e+00,1.605598807334899902e+00,1.605466365814208984e+00,1.605334043502807617e+00,1.605201840400695801e+00,1.605069398880004883e+00,1.604937195777893066e+00,1.604804873466491699e+00,1.604672789573669434e+00,1.604540586471557617e+00,1.604408383369445801e+00,1.604276299476623535e+00,1.604144215583801270e+00,1.604012012481689453e+00,1.603879928588867188e+00,1.603747844696044922e+00,1.603615760803222656e+00,1.603483796119689941e+00,1.603351712226867676e+00,1.603219866752624512e+00,1.603087902069091797e+00,1.602955937385559082e+00,1.602824091911315918e+00,1.602692127227783203e+00,1.602560281753540039e+00,1.602428436279296875e+00,1.602296590805053711e+00,1.602164864540100098e+00,1.602033257484436035e+00,1.601901412010192871e+00,1.601769685745239258e+00,1.601638078689575195e+00,1.601506233215332031e+00,1.601374626159667969e+00,1.601243019104003906e+00,1.601111292839050293e+00,1.600979804992675781e+00,1.600848317146301270e+00,1.600716590881347656e+00,1.600585103034973145e+00,1.600453615188598633e+00,1.600322127342224121e+00,1.600190639495849609e+00,1.600059151649475098e+00,1.599927663803100586e+00,1.599796295166015625e+00,1.599664807319641113e+00,1.599533557891845703e+00,1.599402189254760742e+00,1.599270820617675781e+00,1.599139571189880371e+00,1.599008321762084961e+00,1.598876953125000000e+00,1.598745822906494141e+00,1.598614692687988281e+00,1.598483324050903320e+00,1.598352193832397461e+00,1.598221182823181152e+00,1.598089933395385742e+00,1.597958922386169434e+00,1.597827672958374023e+00,1.597696661949157715e+00,1.597565650939941406e+00,1.597434520721435547e+00,1.597303628921508789e+00,1.597172737121582031e+00,1.597041606903076172e+00
1.467019796371459961e+00,1.466909289360046387e+00,1.466798901557922363e+00,1.466688394546508789e+00,1.466578006744384766e+00,1.466467618942260742e+00,1.466357111930847168e+00,1.466246724128723145e+00,1.466136336326599121e+00,1.466025948524475098e+00,1.465915679931640625e+00,1.465805292129516602e+00,1.465695023536682129e+00,1.465584754943847656e+00,1.465474486351013184e+00,1.465364217758178711e+00,1.465253949165344238e+00,1.465143799781799316e+00,1.465033650398254395e+00,1.464923381805419922e+00,1.464813232421875000e+00,1.464702963829040527e+00,1.464592933654785156e+00,1.464482784271240234e+00,1.464372634887695312e+00,1.464262604713439941e+00,1.464152574539184570e+00,1.464042425155639648e+00,1.463932394981384277e+00,1.463822364807128906e+00,1.463712334632873535e+00,1.463602423667907715e+00,1.463492393493652344e+00,1.463382482528686523e+00,1.463272452354431152e+00,1.463162541389465332e+00,1.463052749633789062e+00,1.462942719459533691e+00,1.462832927703857422e+00,1.462723135948181152e+00,1.462613224983215332e+00,1.462503433227539062e+00,1.462393522262573242e+00,1.462283730506896973e+00,1.462174057960510254e+00,1.462064266204833984e+00,1.461954474449157715e+00,1.461844921112060547e+00,1.461735367774963379e+00,1.461625576019287109e+00,1.461515903472900391e+00,1.461406350135803223e+00,1.461296558380126953e+00,1.461187005043029785e+00,1.461077451705932617e+00,1.460967779159545898e+00,1.460858225822448730e+00,1.460748672485351562e+00,1.460639119148254395e+00,1.460529565811157227e+00,1.460420012474060059e+00,1.460310578346252441e+00,1.460201144218444824e+00,1.460091590881347656e+00,1.459982275962829590e+00,1.459872841835021973e+00,1.459763288497924805e+00,1.459653973579406738e+00,1.459544658660888672e+00,1.459435224533081055e+00,1.459325909614562988e+00,1.459216594696044922e+00,1.459107279777526855e+00,1.458997964859008789e+00,1.458888769149780273e+00,1.458779454231262207e+00,1.458670258522033691e+00,1.458560943603515625e+00,1.458451747894287109e+00,1.458342552185058594e+00
1.349152088165283203e+00,1.349058508872985840e+00,1.348965167999267578e+00,1.348871827125549316e+00,1.348778247833251953e+00,1.348684906959533691e+00,1.348591566085815430e+00,1.348498225212097168e+00,1.348404884338378906e+00,1.348311424255371094e+00,1.348218202590942383e+00,1.348124861717224121e+00,1.348031520843505859e+00,1.347938299179077148e+00,1.347844958305358887e+00,1.347751736640930176e+00,1.347658514976501465e+00,1.347565174102783203e+00,1.347471952438354492e+00,1.347378849983215332e+00,1.347285628318786621e+00,1.347192406654357910e+00,1.347099184989929199e+00,1.347006082534790039e+00,1.346912980079650879e+00,1.346819758415222168e+00,1.346726655960083008e+00,1.346633553504943848e+00,1.346540451049804688e+00,1.346447348594665527e+00,1.346354246139526367e+00,1.346261262893676758e+00,1.346168279647827148e+00,1.346075177192687988e+00,1.345982193946838379e+00,1.345889091491699219e+00,1.345796108245849609e+00,1.345703125000000000e+00,1.345610141754150391e+00,1.345517277717590332e+00,1.345424294471740723e+00,1.345331311225891113e+00,1.345238447189331055e+00,1.345145463943481445e+00,1.345052599906921387e+00,1.344959735870361328e+00,1.344866871833801270e+00,1.344774007797241211e+00,1.344681262969970703e+00,1.344588279724121094e+00,1.344495534896850586e+00,1.344402670860290527e+00,1.344310164451599121e+00,1.344217300415039062e+00,1.344124555587768555e+00,1.344031810760498047e+00,1.343939065933227539e+00,1.343846321105957031e+00,1.343753695487976074e+00,1.343660950660705566e+00,1.343568325042724609e+00,1.343475580215454102e+00,1.343382954597473145e+00,1.343290328979492188e+00,1.343197584152221680e+00,1.343104958534240723e+00,1.343012452125549316e+00,1.342919826507568359e+00,1.342827200889587402e+00,1.342734694480895996e+00,1.342642068862915039e+00,1.342549562454223633e+00,1.342457056045532227e+00,1.342364430427551270e+00,1.342272043228149414e+00,1.342179536819458008e+00,1.342087030410766602e+00,1.341994524002075195e+00,1.341902017593383789e+00,1.341809630393981934e+00
1.248815894126892090e+00,1.248735904693603516e+00,1.248655796051025391e+00,1.248575806617736816e+00,1.248495817184448242e+00,1.248415708541870117e+00,1.248335719108581543e+00,1.248255729675292969e+00,1.248175621032714844e+00,1.248095750808715820e+00,1.248015761375427246e+00,1.247935771942138672e+00,1.247855901718139648e+00,1.247775912284851074e+00,1.247695922851562500e+00,1.247616052627563477e+00,1.247536063194274902e+00,1.247456192970275879e+00,1.247376322746276855e+00,1.247296452522277832e+00,1.247216582298278809e+00,1.247136712074279785e+00,1.247056841850280762e+00,1.246976971626281738e+00,1.246897220611572266e+00,1.246817350387573242e+00,1.246737480163574219e+00,1.246657729148864746e+00,1.246577978134155273e+00,1.246498227119445801e+00,1.246418476104736328e+00,1.246338605880737305e+00,1.246258854866027832e+00,1.246179223060607910e+00,1.246099472045898438e+00,1.246019721031188965e+00,1.245939970016479492e+00,1.245860338211059570e+00,1.245780706405639648e+00,1.245700955390930176e+00,1.245621323585510254e+00,1.245541691780090332e+00,1.245461940765380859e+00,1.245382428169250488e+00,1.245302677154541016e+00,1.245223164558410645e+00,1.245143532752990723e+00,1.245063900947570801e+00,1.244984388351440430e+00,1.244904756546020508e+00,1.244825124740600586e+00,1.244745612144470215e+00,1.244666099548339844e+00,1.244586586952209473e+00,1.244507074356079102e+00,1.244427442550659180e+00,1.244348049163818359e+00,1.244268655776977539e+00,1.244189262390136719e+00,1.244109749794006348e+00,1.244030237197875977e+00,1.243950843811035156e+00,1.243871331214904785e+00,1.243791937828063965e+00,1.243712544441223145e+00,1.243633031845092773e+00,1.243553757667541504e+00,1.243474364280700684e+00,1.243394970893859863e+00,1.243315577507019043e+00,1.243236303329467773e+00,1.243156909942626953e+00,1.243077516555786133e+00,1.242998242378234863e+00,1.242918848991394043e+00,1.242839574813842773e+00,1.242760300636291504e+00,1.242681026458740234e+00,1.242601752281188965e+00,1.242522478103637695e+00
1.162370681762695312e+00,1.162301301956176758e+00,1.162232041358947754e+00,1.162162542343139648e+00,1.162093281745910645e+00,1.162024021148681641e+00,1.161954641342163086e+00,1.161885380744934082e+00,1.161816000938415527e+00,1.161746740341186523e+00,1.161677479743957520e+00,1.161608099937438965e+00,1.161538839340209961e+00,1.161469697952270508e+00,1.161400318145751953e+00,1.161331057548522949e+00,1.161261796951293945e+00,1.161192655563354492e+00,1.161123394966125488e+00,1.161054134368896484e+00,1.160984992980957031e+00,1.160915851593017578e+00,1.160846590995788574e+00,1.160777449607849121e+00,1.160708189010620117e+00,1.160639047622680664e+00,1.160569906234741211e+00,1.160500764846801758e+00,1.160431623458862305e+00,1.160362482070922852e+00,1.160293340682983398e+00,1.160224199295043945e+00,1.160155057907104492e+00,1.160086035728454590e+00,1.160016894340515137e+00,1.159947872161865234e+00,1.159878730773925781e+00,1.159809589385986328e+00,1.159740567207336426e+00,1.159671545028686523e+00,1.159602522850036621e+00,1.159533500671386719e+00,1.159464478492736816e+00,1.159395456314086914e+00,1.159326434135437012e+00,1.159257411956787109e+00,1.159188389778137207e+00,1.159119486808776855e+00,1.159050464630126953e+00,1.158981561660766602e+00,1.158912539482116699e+00,1.158843517303466797e+00,1.158774614334106445e+00,1.158705711364746094e+00,1.158636808395385742e+00,1.158567905426025391e+00,1.158498883247375488e+00,1.158429980278015137e+00,1.158361077308654785e+00,1.158292293548583984e+00,1.158223390579223633e+00,1.158154487609863281e+00,1.158085703849792480e+00,1.158017039299011230e+00,1.157948136329650879e+00,1.157879352569580078e+00,1.157810449600219727e+00,1.157741665840148926e+00,1.157672882080078125e+00,1.157603979110717773e+00,1.157535195350646973e+00,1.157466530799865723e+00,1.157397627830505371e+00,1.157328844070434570e+00,1.157260179519653320e+00,1.157191395759582520e+00,1.157122611999511719e+00,1.157053947448730469e+00,1.156985163688659668e+00,1.156916499137878418e+00
1.087118387222290039e+00,1.087057828903198242e+00,1.086997032165527344e+00,1.086936473846435547e+00,1.086875796318054199e+00,1.086815118789672852e+00,1.086754560470581055e+00,1.086693882942199707e+00,1.086633205413818359e+00,1.086572647094726562e+00,1.086511969566345215e+00,1.086451411247253418e+00,1.086390733718872070e+00,1.086330175399780273e+00,1.086269617080688477e+00,1.086209058761596680e+00,1.086148500442504883e+00,1.086087822914123535e+00,1.086027264595031738e+00,1.085966825485229492e+00,1.085906267166137695e+00,1.085845708847045898e+00,1.085785150527954102e+00,1.085724592208862305e+00,1.085664153099060059e+00,1.085603594779968262e+00,1.085543155670166016e+00,1.085482597351074219e+00,1.085422039031982422e+00,1.085361599922180176e+00,1.085301160812377930e+00,1.085240721702575684e+00,1.085180282592773438e+00,1.085119724273681641e+00,1.085059285163879395e+00,1.084998846054077148e+00,1.084938406944274902e+00,1.084877967834472656e+00,1.084817528724670410e+00,1.084757208824157715e+00,1.084696769714355469e+00,1.084636330604553223e+00,1.084575891494750977e+00,1.084515571594238281e+00,1.084455132484436035e+00,1.084394812583923340e+00,1.084334373474121094e+00,1.084274053573608398e+00,1.084213733673095703e+00,1.084153294563293457e+00,1.084092974662780762e+00,1.084032654762268066e+00,1.083972334861755371e+00,1.083912014961242676e+00,1.083851695060729980e+00,1.083791375160217285e+00,1.083731055259704590e+00,1.083670735359191895e+00,1.083610534667968750e+00,1.083550214767456055e+00,1.083489894866943359e+00,1.083429694175720215e+00,1.083369374275207520e+00,1.083309173583984375e+00,1.083248972892761230e+00,1.083188652992248535e+00,1.083128452301025391e+00,1.083068132400512695e+00,1.083008050918579102e+00,1.082947969436645508e+00,1.082887649536132812e+00,1.082827448844909668e+00,1.082767367362976074e+00,1.082707047462463379e+00,1.082646965980529785e+00,1.082586765289306641e+00,1.082526564598083496e+00,1.082466363906860352e+00,1.082406282424926758e+00,1.082346081733703613e+00
1.021017432212829590e+00,1.020963907241821289e+00,1.020910382270812988e+00,1.020856857299804688e+00,1.020803332328796387e+00,1.020749807357788086e+00,1.020696401596069336e+00,1.020642876625061035e+00,1.020589351654052734e+00,1.020535945892333984e+00,1.020482540130615234e+00,1.020429015159606934e+00,1.020375609397888184e+00,1.020322084426879883e+00,1.020268678665161133e+00,1.020215272903442383e+00,1.020161747932434082e+00,1.020108342170715332e+00,1.020054936408996582e+00,1.020001530647277832e+00,1.019948124885559082e+00,1.019894599914550781e+00,1.019841313362121582e+00,1.019787907600402832e+00,1.019734501838684082e+00,1.019681096076965332e+00,1.019627690315246582e+00,1.019574403762817383e+00,1.019520998001098633e+00,1.019467592239379883e+00,1.019414305686950684e+00,1.019360899925231934e+00,1.019307613372802734e+00,1.019254207611083984e+00,1.019200921058654785e+00,1.019147515296936035e+00,1.019094228744506836e+00,1.019040942192077637e+00,1.018987655639648438e+00,1.018934249877929688e+00,1.018880963325500488e+00,1.018827676773071289e+00,1.018774390220642090e+00,1.018721103668212891e+00,1.018667817115783691e+00,1.018614530563354492e+00,1.018561363220214844e+00,1.018507957458496094e+00,1.018454790115356445e+00,1.018401503562927246e+00,1.018348217010498047e+00,1.018295049667358398e+00,1.018241763114929199e+00,1.018188595771789551e+00,1.018135309219360352e+00,1.018082141876220703e+00,1.018028974533081055e+00,1.017975687980651855e+00,1.017922520637512207e+00,1.017869353294372559e+00,1.017816066741943359e+00,1.017762899398803711e+00,1.017709732055664062e+00,1.017656564712524414e+00,1.017603397369384766e+00,1.017550230026245117e+00,1.017497062683105469e+00,1.017444014549255371e+00,1.017390727996826172e+00,1.017337679862976074e+00,1.017284512519836426e+00,1.017231345176696777e+00,1.017178297042846680e+00,1.017125248908996582e+00,1.017072200775146484e+00,1.017019033432006836e+00,1.016965985298156738e+00,1.016912817955017090e+00,1.016859769821166992e+00,1.016806721687316895e+00
9.624941349029541016e-01,9.624465703964233398e-01,9.623989462852478027e-01,9.623514413833618164e-01,9.623038768768310547e-01,9.622563123703002930e-01,9.622087478637695312e-01,9.621613025665283203e-01,9.621137380599975586e-01,9.620661735534667969e-01,9.620187282562255859e-01,9.619711637496948242e-01,9.619236588478088379e-01,9.618762135505676270e-01,9.618287086486816406e-01,9.617811441421508789e-01,9.617337584495544434e-01,9.616861939430236816e-01,9.616386890411376953e-01,9.615911841392517090e-01,9.615437984466552734e-01,9.614962935447692871e-01,9.614487886428833008e-01,9.614014029502868652e-01,9.613539576530456543e-01,9.613064527511596680e-01,9.612590670585632324e-01,9.612116217613220215e-01,9.611641168594360352e-01,9.611167907714843750e-01,9.610693454742431641e-01,9.610219001770019531e-01,9.609745740890502930e-01,9.609271287918090820e-01,9.608796834945678711e-01,9.608322381973266602e-01,9.607849121093750000e-01,9.607374668121337891e-01,9.606900811195373535e-01,9.606427550315856934e-01,9.605953693389892578e-01,9.605479240417480469e-01,9.605006575584411621e-01,9.604532122611999512e-01,9.604058265686035156e-01,9.603585600852966309e-01,9.603111743927001953e-01,9.602637887001037598e-01,9.602164030075073242e-01,9.601691961288452148e-01,9.601218104362487793e-01,9.600744247436523438e-01,9.600272178649902344e-01,9.599798321723937988e-01,9.599325060844421387e-01,9.598852396011352539e-01,9.598379135131835938e-01,9.597905874252319336e-01,9.597433805465698242e-01,9.596960544586181641e-01,9.596487283706665039e-01,9.596014022827148438e-01,9.595541954040527344e-01,9.595069289207458496e-01,9.594596028327941895e-01,9.594123959541320801e-01,9.593651294708251953e-01,9.593178629875183105e-01,9.592706561088562012e-01,9.592233896255493164e-01,9.591761231422424316e-01,9.591289758682250977e-01,9.590817093849182129e-01,9.590344429016113281e-01,9.589871764183044434e-01,9.589400291442871094e-01,9.588928222656250000e-01,9.588455557823181152e-01,9.587984681129455566e-01,9.587513208389282227e-01
9.103159904479980469e-01,9.102734923362731934e-01,9.102309346199035645e-01,9.101883769035339355e-01,9.101458787918090820e-01,9.101033210754394531e-01,9.100607633590698242e-01,9.100182056427001953e-01,9.099757671356201172e-01,9.099332094192504883e-01,9.098907113075256348e-01,9.098482728004455566e-01,9.098057150840759277e-01,9.097632169723510742e-01,9.097207784652709961e-01,9.096782207489013672e-01,9.096357226371765137e-01,9.095933437347412109e-01,9.095507860183715820e-01,9.095082879066467285e-01,9.094657897949218750e-01,9.094234108924865723e-01,9.093809127807617188e-01,9.093384146690368652e-01,9.092960357666015625e-01,9.092535972595214844e-01,9.092110991477966309e-01,9.091687202453613281e-01,9.091262817382812500e-01,9.090837836265563965e-01,9.090414047241210938e-01,9.089989662170410156e-01,9.089565277099609375e-01,9.089141488075256348e-01,9.088717103004455566e-01,9.088292717933654785e-01,9.087868332862854004e-01,9.087445139884948730e-01,9.087020754814147949e-01,9.086596965789794922e-01,9.086173772811889648e-01,9.085749387741088867e-01,9.085325002670288086e-01,9.084902405738830566e-01,9.084478020668029785e-01,9.084054231643676758e-01,9.083631038665771484e-01,9.083207249641418457e-01,9.082783460617065430e-01,9.082359671592712402e-01,9.081936478614807129e-01,9.081513285636901855e-01,9.081089496612548828e-01,9.080666303634643555e-01,9.080243110656738281e-01,9.079819321632385254e-01,9.079396724700927734e-01,9.078973531723022461e-01,9.078549742698669434e-01,9.078127145767211914e-01,9.077703952789306641e-01,9.077280163764953613e-01,9.076856970787048340e-01,9.076434969902038574e-01,9.076011776924133301e-01,9.075588583946228027e-01,9.075165987014770508e-01,9.074742794036865234e-01,9.074320197105407715e-01,9.073898196220397949e-01,9.073475003242492676e-01,9.073051810264587402e-01,9.072629809379577637e-01,9.072207212448120117e-01,9.071784019470214844e-01,9.071361422538757324e-01,9.070939421653747559e-01,9.070516824722290039e-01,9.070094227790832520e-01,9.069672822952270508e-01
8.635042309761047363e-01,8.634659647941589355e-01,8.634277582168579102e-01,8.633894324302673340e-01,8.633511066436767578e-01,8.633129596710205078e-01,8.632746338844299316e-01,8.632363677024841309e-01,8.631980419158935547e-01,8.631598949432373047e-01,8.631215691566467285e-01,8.630833029747009277e-01,8.630451560020446777e-01,8.630068898200988770e-01,8.629686236381530762e-01,8.629304170608520508e-01,8.628921508789062500e-01,8.628539443016052246e-01,8.628157377243041992e-01,8.627775311470031738e-01,8.627392649650573730e-01,8.627009987831115723e-01,8.626628518104553223e-01,8.626246452331542969e-01,8.625864386558532715e-01,8.625482916831970215e-01,8.625100255012512207e-01,8.624718189239501953e-01,8.624336719512939453e-01,8.623954653739929199e-01,8.623572587966918945e-01,8.623191714286804199e-01,8.622809648513793945e-01,8.622427582740783691e-01,8.622045516967773438e-01,8.621664643287658691e-01,8.621282577514648438e-01,8.620900511741638184e-01,8.620519638061523438e-01,8.620138168334960938e-01,8.619756102561950684e-01,8.619375228881835938e-01,8.618993759155273438e-01,8.618612289428710938e-01,8.618231415748596191e-01,8.617849349975585938e-01,8.617467880249023438e-01,8.617087602615356445e-01,8.616706132888793945e-01,8.616324663162231445e-01,8.615943193435668945e-01,8.615562319755554199e-01,8.615181446075439453e-01,8.614799976348876953e-01,8.614419698715209961e-01,8.614038228988647461e-01,8.613656759262084961e-01,8.613276481628417969e-01,8.612895607948303223e-01,8.612514138221740723e-01,8.612134456634521484e-01,8.611752986907958984e-01,8.611372113227844238e-01,8.610991239547729492e-01,8.610610961914062500e-01,8.610230088233947754e-01,8.609849214553833008e-01,8.609468936920166016e-01,8.609088659286499023e-01,8.608707785606384277e-01,8.608327507972717285e-01,8.607947230339050293e-01,8.607566356658935547e-01,8.607186675071716309e-01,8.606805801391601562e-01,8.606425523757934570e-01,8.606044650077819824e-01,8.605664968490600586e-01,8.605284690856933594e-01,8.604904413223266602e-01
8.212715387344360352e-01,8.212369084358215332e-01,8.212022185325622559e-01,8.211676478385925293e-01,8.211330175399780273e-01,8.210983872413635254e-01,8.210638165473937988e-01,8.210291862487792969e-01,8.209945559501647949e-01,8.209599256515502930e-01,8.209253549575805664e-01,8.208907842636108398e-01,8.208561539649963379e-01,8.208215832710266113e-01,8.207870125770568848e-01,8.207523822784423828e-01,8.207178711891174316e-01,8.206832408905029297e-01,8.206486701965332031e-01,8.206140995025634766e-01,8.205795288085937500e-01,8.205449581146240234e-01,8.205103278160095215e-01,8.204758167266845703e-01,8.204412460327148438e-01,8.204066753387451172e-01,8.203721642494201660e-01,8.203375935554504395e-01,8.203030228614807129e-01,8.202685117721557617e-01,8.202339410781860352e-01,8.201993703842163086e-01,8.201649188995361328e-01,8.201303482055664062e-01,8.200957775115966797e-01,8.200612664222717285e-01,8.200267553329467773e-01,8.199922442436218262e-01,8.199576735496520996e-01,8.199232220649719238e-01,8.198886513710021973e-01,8.198541402816772461e-01,8.198196887969970703e-01,8.197851777076721191e-01,8.197506070137023926e-01,8.197161555290222168e-01,8.196816444396972656e-01,8.196471333503723145e-01,8.196126818656921387e-01,8.195781707763671875e-01,8.195436596870422363e-01,8.195091485977172852e-01,8.194747567176818848e-01,8.194402456283569336e-01,8.194057345390319824e-01,8.193713426589965820e-01,8.193368315696716309e-01,8.193023204803466797e-01,8.192679286003112793e-01,8.192334771156311035e-01,8.191989660263061523e-01,8.191645741462707520e-01,8.191301226615905762e-01,8.190956115722656250e-01,8.190611600875854492e-01,8.190267682075500488e-01,8.189923167228698730e-01,8.189578652381896973e-01,8.189234733581542969e-01,8.188890218734741211e-01,8.188545703887939453e-01,8.188201785087585449e-01,8.187857270240783691e-01,8.187512755393981934e-01,8.187169432640075684e-01,8.186824917793273926e-01,8.186480402946472168e-01,8.186136484146118164e-01,8.185792565345764160e-01,8.185448646545410156e-01
7.829772233963012695e-01,7.829458117485046387e-01,7.829142808914184570e-01,7.828828096389770508e-01,7.828513979911804199e-01,7.828199267387390137e-01,7.827884554862976074e-01,7.827570438385009766e-01,7.827255129814147949e-01,7.826940417289733887e-01,7.826625704765319824e-01,7.826311588287353516e-01,7.825996875762939453e-01,7.825682759284973145e-01,7.825368642807006836e-01,7.825053930282592773e-01,7.824739217758178711e-01,7.824425697326660156e-01,7.824110984802246094e-01,7.823796272277832031e-01,7.823482751846313477e-01,7.823168039321899414e-01,7.822853922843933105e-01,7.822539210319519043e-01,7.822225689888000488e-01,7.821911573410034180e-01,7.821596860885620117e-01,7.821283340454101562e-01,7.820969223976135254e-01,7.820655107498168945e-01,7.820341587066650391e-01,7.820026874542236328e-01,7.819712758064270020e-01,7.819399237632751465e-01,7.819085121154785156e-01,7.818771004676818848e-01,7.818456888198852539e-01,7.818143963813781738e-01,7.817829847335815430e-01,7.817515730857849121e-01,7.817202210426330566e-01,7.816888689994812012e-01,7.816574573516845703e-01,7.816261649131774902e-01,7.815947532653808594e-01,7.815633416175842285e-01,7.815320491790771484e-01,7.815006971359252930e-01,7.814692854881286621e-01,7.814379930496215820e-01,7.814066410064697266e-01,7.813752293586730957e-01,7.813438773155212402e-01,7.813125848770141602e-01,7.812812328338623047e-01,7.812498807907104492e-01,7.812185883522033691e-01,7.811872363090515137e-01,7.811558842658996582e-01,7.811245918273925781e-01,7.810932397842407227e-01,7.810618877410888672e-01,7.810306549072265625e-01,7.809993028640747070e-01,7.809679508209228516e-01,7.809365987777709961e-01,7.809053659439086914e-01,7.808740139007568359e-01,7.808426618576049805e-01,7.808114290237426758e-01,7.807801365852355957e-01,7.807487845420837402e-01,7.807175517082214355e-01,7.806862592697143555e-01,7.806549072265625000e-01,7.806236743927001953e-01,7.805923819541931152e-01,7.805610895156860352e-01,7.805297374725341797e-01,7.804985642433166504e-01
7.480950355529785156e-01,7.480663061141967773e-01,7.480375766754150391e-01,7.480088472366333008e-01,7.479801177978515625e-01,7.479514479637145996e-01,7.479227185249328613e-01,7.478939294815063477e-01,7.478652596473693848e-01,7.478365302085876465e-01,7.478078007698059082e-01,7.477790713310241699e-01,7.477504014968872070e-01,7.477216720581054688e-01,7.476929426193237305e-01,7.476643323898315430e-01,7.476356029510498047e-01,7.476068735122680664e-01,7.475782036781311035e-01,7.475495338439941406e-01,7.475208044052124023e-01,7.474921345710754395e-01,7.474634647369384766e-01,7.474347352981567383e-01,7.474060654640197754e-01,7.473773956298828125e-01,7.473487257957458496e-01,7.473199963569641113e-01,7.472913861274719238e-01,7.472627162933349609e-01,7.472339868545532227e-01,7.472053766250610352e-01,7.471767067909240723e-01,7.471480369567871094e-01,7.471194267272949219e-01,7.470906972885131836e-01,7.470620274543762207e-01,7.470333576202392578e-01,7.470047473907470703e-01,7.469760775566101074e-01,7.469474077224731445e-01,7.469188570976257324e-01,7.468901872634887695e-01,7.468615174293518066e-01,7.468329071998596191e-01,7.468042373657226562e-01,7.467756271362304688e-01,7.467470169067382812e-01,7.467183470726013184e-01,7.466897368431091309e-01,7.466610670089721680e-01,7.466325163841247559e-01,7.466038465499877930e-01,7.465752363204956055e-01,7.465466260910034180e-01,7.465180158615112305e-01,7.464894056320190430e-01,7.464607954025268555e-01,7.464321851730346680e-01,7.464035749435424805e-01,7.463750243186950684e-01,7.463464140892028809e-01,7.463177442550659180e-01,7.462891936302185059e-01,7.462605834007263184e-01,7.462319731712341309e-01,7.462033629417419434e-01,7.461748123168945312e-01,7.461462616920471191e-01,7.461176514625549316e-01,7.460891008377075195e-01,7.460604906082153320e-01,7.460318803787231445e-01,7.460033893585205078e-01,7.459747791290283203e-01,7.459461688995361328e-01,7.459176778793334961e-01,7.458890676498413086e-01,7.458605170249938965e-01,7.458319067955017090e-01
