3.099670410156250000e+00,3.178059577941894531e+00,3.260516166687011719e+00,3.347365617752075195e+00,3.438968420028686523e+00,3.535722255706787109e+00,3.638073921203613281e+00,3.746527910232543945e+00,3.861646413803100586e+00,3.984063863754272461e+00,4.114497184753417969e+00,4.253759860992431641e+00,4.402780055999755859e+00,4.562620162963867188e+00,4.734503269195556641e+00,4.919844150543212891e+00,5.000000000000000000e+00,5.000000000000000000e+00,5.000000000000000000e+00,5.000000000000000000e+00,5.000000000000000000e+00,5.000000000000000000e+00,5.000000000000000000e+00,5.000000000000000000e+00,5.000000000000000000e+00,5.000000000000000000e+00,5.000000000000000000e+00,5.000000000000000000e+00,5.000000000000000000e+00,5.000000000000000000e+00,5.000000000000000000e+00,5.000000000000000000e+00,5.000000000000000000e+00,5.000000000000000000e+00,5.000000000000000000e+00,5.000000000000000000e+00,5.000000000000000000e+00,5.000000000000000000e+00,5.000000000000000000e+00,5.000000000000000000e+00,5.000000000000000000e+00,5.000000000000000000e+00,5.000000000000000000e+00,5.000000000000000000e+00,5.000000000000000000e+00,2.800822973251342773e+00,2.738456249237060547e+00,2.689139127731323242e+00,2.645282983779907227e+00,2.608198404312133789e+00,2.598057508468627930e+00,2.599219083786010742e+00,2.607500791549682617e+00,2.611251354217529297e+00,2.603577136993408203e+00,5.000000000000000000e+00,5.000000000000000000e+00,5.000000000000000000e+00,5.000000000000000000e+00,5.000000000000000000e+00,5.000000000000000000e+00,5.000000000000000000e+00,5.000000000000000000e+00,5.000000000000000000e+00,5.000000000000000000e+00,5.000000000000000000e+00,5.000000000000000000e+00,5.000000000000000000e+00,5.000000000000000000e+00,5.000000000000000000e+00,4.850265979766845703e+00,4.691012859344482422e+00,4.541885375976562500e+00,4.401947021484375000e+00,4.270373821258544922e+00,4.146438121795654297e+00,4.029493331909179688e+00,3.918964385986328125e+00,3.814337015151977539e+00,3.715150833129882812e+00
3.099604129791259766e+00,3.177989959716796875e+00,3.260442972183227539e+00,3.347288608551025391e+00,3.438887119293212891e+00,3.535639762878417969e+00,3.637990236282348633e+00,3.746439218521118164e+00,3.861552476882934570e+00,3.983963966369628906e+00,4.114390850067138672e+00,4.253645896911621094e+00,4.402657985687255859e+00,4.562489032745361328e+00,4.734362602233886719e+00,4.919692039489746094e+00,5.000000000000000000e+00,5.000000000000000000e+00,5.000000000000000000e+00,5.000000000000000000e+00,5.000000000000000000e+00,5.000000000000000000e+00,5.000000000000000000e+00,5.000000000000000000e+00,5.000000000000000000e+00,5.000000000000000000e+00,5.000000000000000000e+00,5.000000000000000000e+00,5.000000000000000000e+00,5.000000000000000000e+00,5.000000000000000000e+00,5.000000000000000000e+00,5.000000000000000000e+00,5.000000000000000000e+00,5.000000000000000000e+00,5.000000000000000000e+00,5.000000000000000000e+00,5.000000000000000000e+00,5.000000000000000000e+00,5.000000000000000000e+00,5.000000000000000000e+00,5.000000000000000000e+00,5.000000000000000000e+00,5.000000000000000000e+00,5.000000000000000000e+00,2.812662839889526367e+00,2.712801933288574219e+00,2.662603378295898438e+00,2.634189367294311523e+00,2.608669281005859375e+00,2.599833250045776367e+00,2.600376844406127930e+00,2.627985000610351562e+00,2.618758440017700195e+00,2.607740402221679688e+00,5.000000000000000000e+00,5.000000000000000000e+00,5.000000000000000000e+00,5.000000000000000000e+00,5.000000000000000000e+00,5.000000000000000000e+00,5.000000000000000000e+00,5.000000000000000000e+00,5.000000000000000000e+00,5.000000000000000000e+00,5.000000000000000000e+00,5.000000000000000000e+00,5.000000000000000000e+00,5.000000000000000000e+00,5.000000000000000000e+00,4.850409030914306641e+00,4.691146373748779297e+00,4.542010784149169922e+00,4.402064800262451172e+00,4.270484924316406250e+00,4.146542549133300781e+00,4.029592037200927734e+00,3.919057846069335938e+00,3.814425468444824219e+00,3.715234756469726562e+00
3.099537849426269531e+00,3.177920103073120117e+00,3.260369777679443359e+00,3.347211360931396484e+00,3.438805818557739258e+00,3.535553693771362305e+00,3.637903451919555664e+00,3.746351003646850586e+00,3.861458778381347656e+00,3.983864307403564453e+00,4.114284038543701172e+00,4.253531932830810547e+00,4.402535915374755859e+00,4.562358379364013672e+00,4.734221458435058594e+00,4.919539451599121094e+00,5.000000000000000000e+00,5.000000000000000000e+00,5.000000000000000000e+00,5.000000000000000000e+00,5.000000000000000000e+00,5.000000000000000000e+00,5.000000000000000000e+00,5.000000000000000000e+00,5.000000000000000000e+00,5.000000000000000000e+00,5.000000000000000000e+00,5.000000000000000000e+00,5.000000000000000000e+00,5.000000000000000000e+00,5.000000000000000000e+00,5.000000000000000000e+00,5.000000000000000000e+00,5.000000000000000000e+00,5.000000000000000000e+00,5.000000000000000000e+00,5.000000000000000000e+00,5.000000000000000000e+00,5.000000000000000000e+00,5.000000000000000000e+00,5.000000000000000000e+00,5.000000000000000000e+00,5.000000000000000000e+00,5.000000000000000000e+00,5.000000000000000000e+00,2.816071987152099609e+00,2.716406106948852539e+00,2.662474155426025391e+00,2.632375001907348633e+00,2.609210491180419922e+00,2.607539176940917969e+00,2.608926773071289062e+00,2.642000436782836914e+00,2.621254920959472656e+00,2.611287593841552734e+00,5.000000000000000000e+00,5.000000000000000000e+00,5.000000000000000000e+00,5.000000000000000000e+00,5.000000000000000000e+00,5.000000000000000000e+00,5.000000000000000000e+00,5.000000000000000000e+00,5.000000000000000000e+00,5.000000000000000000e+00,5.000000000000000000e+00,5.000000000000000000e+00,5.000000000000000000e+00,5.000000000000000000e+00,5.000000000000000000e+00,4.850552082061767578e+00,4.691280364990234375e+00,4.542136192321777344e+00,4.402182579040527344e+00,4.270596027374267578e+00,4.146647453308105469e+00,4.029691219329833984e+00,3.919150590896606445e+00,3.814510345458984375e+00,3.715312480926513672e+00
3.099471807479858398e+00,3.177850723266601562e+00,3.260296344757080078e+00,3.347133874893188477e+00,3.438724279403686523e+00,3.535467624664306641e+00,3.637812376022338867e+00,3.746258974075317383e+00,3.861365079879760742e+00,3.983764410018920898e+00,4.114177703857421875e+00,4.253418445587158203e+00,4.402413845062255859e+00,4.562227249145507812e+00,4.734080314636230469e+00,4.919387340545654297e+00,5.000000000000000000e+00,5.000000000000000000e+00,5.000000000000000000e+00,5.000000000000000000e+00,5.000000000000000000e+00,5.000000000000000000e+00,5.000000000000000000e+00,5.000000000000000000e+00,5.000000000000000000e+00,5.000000000000000000e+00,5.000000000000000000e+00,5.000000000000000000e+00,5.000000000000000000e+00,5.000000000000000000e+00,5.000000000000000000e+00,5.000000000000000000e+00,5.000000000000000000e+00,5.000000000000000000e+00,5.000000000000000000e+00,5.000000000000000000e+00,5.000000000000000000e+00,5.000000000000000000e+00,5.000000000000000000e+00,5.000000000000000000e+00,5.000000000000000000e+00,5.000000000000000000e+00,5.000000000000000000e+00,5.000000000000000000e+00,5.000000000000000000e+00,2.821811437606811523e+00,2.741049766540527344e+00,2.668520927429199219e+00,2.630366325378417969e+00,2.609881877899169922e+00,2.602477312088012695e+00,2.611042261123657227e+00,2.653077602386474609e+00,2.622031450271606445e+00,2.616146326065063477e+00,5.000000000000000000e+00,5.000000000000000000e+00,5.000000000000000000e+00,5.000000000000000000e+00,5.000000000000000000e+00,5.000000000000000000e+00,5.000000000000000000e+00,5.000000000000000000e+00,5.000000000000000000e+00,5.000000000000000000e+00,5.000000000000000000e+00,5.000000000000000000e+00,5.000000000000000000e+00,5.000000000000000000e+00,5.000000000000000000e+00,4.850695133209228516e+00,4.691414356231689453e+00,4.542261600494384766e+00,4.402300357818603516e+00,4.270707130432128906e+00,4.146748542785644531e+00,4.029783248901367188e+00,3.919235467910766602e+00,3.814590692520141602e+00,3.715388536453247070e+00
3.099405765533447266e+00,3.177781105041503906e+00,3.260223150253295898e+00,3.347056865692138672e+00,3.438642501831054688e+00,3.535381555557250977e+00,3.637721300125122070e+00,3.746162176132202148e+00,3.861267328262329102e+00,3.983664751052856445e+00,4.114070892333984375e+00,4.253304481506347656e+00,4.402291774749755859e+00,4.562096118927001953e+00,4.733939170837402344e+00,4.919234752655029297e+00,5.000000000000000000e+00,5.000000000000000000e+00,5.000000000000000000e+00,5.000000000000000000e+00,5.000000000000000000e+00,5.000000000000000000e+00,5.000000000000000000e+00,5.000000000000000000e+00,5.000000000000000000e+00,5.000000000000000000e+00,5.000000000000000000e+00,5.000000000000000000e+00,5.000000000000000000e+00,5.000000000000000000e+00,5.000000000000000000e+00,5.000000000000000000e+00,5.000000000000000000e+00,5.000000000000000000e+00,5.000000000000000000e+00,5.000000000000000000e+00,5.000000000000000000e+00,5.000000000000000000e+00,5.000000000000000000e+00,5.000000000000000000e+00,5.000000000000000000e+00,5.000000000000000000e+00,5.000000000000000000e+00,5.000000000000000000e+00,5.000000000000000000e+00,2.823945999145507812e+00,2.796556234359741211e+00,2.668777227401733398e+00,2.632909536361694336e+00,2.613147974014282227e+00,2.606835365295410156e+00,2.620697736740112305e+00,2.663264751434326172e+00,2.635178565979003906e+00,2.622542858123779297e+00,5.000000000000000000e+00,5.000000000000000000e+00,5.000000000000000000e+00,5.000000000000000000e+00,5.000000000000000000e+00,5.000000000000000000e+00,5.000000000000000000e+00,5.000000000000000000e+00,5.000000000000000000e+00,5.000000000000000000e+00,5.000000000000000000e+00,5.000000000000000000e+00,5.000000000000000000e+00,5.000000000000000000e+00,5.000000000000000000e+00,4.850838184356689453e+00,4.691548347473144531e+00,4.542384624481201172e+00,4.402411937713623047e+00,4.270807743072509766e+00,4.146843433380126953e+00,4.029872894287109375e+00,3.919320106506347656e+00,3.814670801162719727e+00,3.715464591979980469e+00
3.099339485168457031e+00,3.177711486816406250e+00,3.260149955749511719e+00,3.346979618072509766e+00,3.438561201095581055e+00,3.535295248031616211e+00,3.637629747390747070e+00,3.746065616607666016e+00,3.861164569854736328e+00,3.983560562133789062e+00,4.113964557647705078e+00,4.253190517425537109e+00,4.402170181274414062e+00,4.561964988708496094e+00,4.733798027038574219e+00,4.919082641601562500e+00,5.000000000000000000e+00,5.000000000000000000e+00,5.000000000000000000e+00,5.000000000000000000e+00,5.000000000000000000e+00,5.000000000000000000e+00,5.000000000000000000e+00,5.000000000000000000e+00,5.000000000000000000e+00,5.000000000000000000e+00,5.000000000000000000e+00,5.000000000000000000e+00,5.000000000000000000e+00,5.000000000000000000e+00,5.000000000000000000e+00,5.000000000000000000e+00,5.000000000000000000e+00,5.000000000000000000e+00,5.000000000000000000e+00,5.000000000000000000e+00,5.000000000000000000e+00,5.000000000000000000e+00,5.000000000000000000e+00,5.000000000000000000e+00,5.000000000000000000e+00,5.000000000000000000e+00,5.000000000000000000e+00,5.000000000000000000e+00,5.000000000000000000e+00,2.823606967926025391e+00,2.800979375839233398e+00,2.665482997894287109e+00,2.639570236206054688e+00,2.605837821960449219e+00,2.597087144851684570e+00,2.610452413558959961e+00,2.658221960067749023e+00,2.655417203903198242e+00,2.628091096878051758e+00,5.000000000000000000e+00,5.000000000000000000e+00,5.000000000000000000e+00,5.000000000000000000e+00,5.000000000000000000e+00,5.000000000000000000e+00,5.000000000000000000e+00,5.000000000000000000e+00,5.000000000000000000e+00,5.000000000000000000e+00,5.000000000000000000e+00,5.000000000000000000e+00,5.000000000000000000e+00,5.000000000000000000e+00,5.000000000000000000e+00,4.850974559783935547e+00,4.691670894622802734e+00,4.542498111724853516e+00,4.402518749237060547e+00,4.270908355712890625e+00,4.146938323974609375e+00,4.029962062835693359e+00,3.919404745101928711e+00,3.814751148223876953e+00,3.715540647506713867e+00
3.099273443222045898e+00,3.177642107009887695e+00,3.260076761245727539e+00,3.346902608871459961e+00,3.438479661941528320e+00,3.535209178924560547e+00,3.637538671493530273e+00,3.745968580245971680e+00,3.861062049865722656e+00,3.983451366424560547e+00,4.113853931427001953e+00,4.253076553344726562e+00,4.402048110961914062e+00,4.561834335327148438e+00,4.733657360076904297e+00,4.918930530548095703e+00,5.000000000000000000e+00,5.000000000000000000e+00,5.000000000000000000e+00,5.000000000000000000e+00,5.000000000000000000e+00,5.000000000000000000e+00,5.000000000000000000e+00,5.000000000000000000e+00,5.000000000000000000e+00,5.000000000000000000e+00,5.000000000000000000e+00,5.000000000000000000e+00,5.000000000000000000e+00,5.000000000000000000e+00,5.000000000000000000e+00,5.000000000000000000e+00,5.000000000000000000e+00,5.000000000000000000e+00,5.000000000000000000e+00,5.000000000000000000e+00,5.000000000000000000e+00,5.000000000000000000e+00,5.000000000000000000e+00,5.000000000000000000e+00,5.000000000000000000e+00,5.000000000000000000e+00,5.000000000000000000e+00,5.000000000000000000e+00,5.000000000000000000e+00,2.828493595123291016e+00,2.810950517654418945e+00,2.656680822372436523e+00,2.625144958496093750e+00,2.601770401000976562e+00,2.593720197677612305e+00,2.610423088073730469e+00,2.644825696945190430e+00,2.647953748703002930e+00,2.610270977020263672e+00,5.000000000000000000e+00,5.000000000000000000e+00,5.000000000000000000e+00,5.000000000000000000e+00,5.000000000000000000e+00,5.000000000000000000e+00,5.000000000000000000e+00,5.000000000000000000e+00,5.000000000000000000e+00,5.000000000000000000e+00,5.000000000000000000e+00,5.000000000000000000e+00,5.000000000000000000e+00,5.000000000000000000e+00,5.000000000000000000e+00,4.851104259490966797e+00,4.691792488098144531e+00,4.542611598968505859e+00,4.402625083923339844e+00,4.271008491516113281e+00,4.147032737731933594e+00,4.030051708221435547e+00,3.919489383697509766e+00,3.814831495285034180e+00,3.715616941452026367e+00
3.099206924438476562e+00,3.177572488784790039e+00,3.260003805160522461e+00,3.346825361251831055e+00,3.438398361206054688e+00,3.535123109817504883e+00,3.637447595596313477e+00,3.745872020721435547e+00,3.860958814620971680e+00,3.983342170715332031e+00,4.113737106323242188e+00,4.252958297729492188e+00,4.401926040649414062e+00,4.561703205108642578e+00,4.733516216278076172e+00,4.918777942657470703e+00,5.000000000000000000e+00,5.000000000000000000e+00,5.000000000000000000e+00,5.000000000000000000e+00,5.000000000000000000e+00,5.000000000000000000e+00,5.000000000000000000e+00,5.000000000000000000e+00,5.000000000000000000e+00,5.000000000000000000e+00,5.000000000000000000e+00,5.000000000000000000e+00,5.000000000000000000e+00,5.000000000000000000e+00,5.000000000000000000e+00,5.000000000000000000e+00,5.000000000000000000e+00,5.000000000000000000e+00,5.000000000000000000e+00,5.000000000000000000e+00,5.000000000000000000e+00,5.000000000000000000e+00,5.000000000000000000e+00,5.000000000000000000e+00,5.000000000000000000e+00,5.000000000000000000e+00,5.000000000000000000e+00,5.000000000000000000e+00,5.000000000000000000e+00,2.828211545944213867e+00,2.747168064117431641e+00,2.670451641082763672e+00,2.633950471878051758e+00,2.619358301162719727e+00,2.613545894622802734e+00,2.617436647415161133e+00,2.656116485595703125e+00,2.633293628692626953e+00,2.602204322814941406e+00,5.000000000000000000e+00,5.000000000000000000e+00,5.000000000000000000e+00,5.000000000000000000e+00,5.000000000000000000e+00,5.000000000000000000e+00,5.000000000000000000e+00,5.000000000000000000e+00,5.000000000000000000e+00,5.000000000000000000e+00,5.000000000000000000e+00,5.000000000000000000e+00,5.000000000000000000e+00,5.000000000000000000e+00,5.000000000000000000e+00,4.851233959197998047e+00,4.691913604736328125e+00,4.542725563049316406e+00,4.402731895446777344e+00,4.271109104156494141e+00,4.147127628326416016e+00,4.030141353607177734e+00,3.919573783874511719e+00,3.814911127090454102e+00,3.715692520141601562e+00
3.099140882492065430e+00,3.177502870559692383e+00,3.259930133819580078e+00,3.346748352050781250e+00,3.438317060470581055e+00,3.535037040710449219e+00,3.637356519699096680e+00,3.745775461196899414e+00,3.860856294631958008e+00,3.983232498168945312e+00,4.113620281219482422e+00,4.252833843231201172e+00,4.401799678802490234e+00,4.561572074890136719e+00,4.733375072479248047e+00,4.918625831604003906e+00,5.000000000000000000e+00,5.000000000000000000e+00,5.000000000000000000e+00,5.000000000000000000e+00,5.000000000000000000e+00,5.000000000000000000e+00,5.000000000000000000e+00,5.000000000000000000e+00,5.000000000000000000e+00,5.000000000000000000e+00,5.000000000000000000e+00,5.000000000000000000e+00,5.000000000000000000e+00,5.000000000000000000e+00,5.000000000000000000e+00,5.000000000000000000e+00,5.000000000000000000e+00,5.000000000000000000e+00,5.000000000000000000e+00,5.000000000000000000e+00,5.000000000000000000e+00,5.000000000000000000e+00,5.000000000000000000e+00,5.000000000000000000e+00,5.000000000000000000e+00,5.000000000000000000e+00,5.000000000000000000e+00,5.000000000000000000e+00,5.000000000000000000e+00,2.792713880538940430e+00,2.737506628036499023e+00,2.679210901260375977e+00,2.647463321685791016e+00,2.635879755020141602e+00,2.601418495178222656e+00,2.589448690414428711e+00,2.651314973831176758e+00,2.627835750579833984e+00,2.590106487274169922e+00,5.000000000000000000e+00,5.000000000000000000e+00,5.000000000000000000e+00,5.000000000000000000e+00,5.000000000000000000e+00,5.000000000000000000e+00,5.000000000000000000e+00,5.000000000000000000e+00,5.000000000000000000e+00,5.000000000000000000e+00,5.000000000000000000e+00,5.000000000000000000e+00,5.000000000000000000e+00,5.000000000000000000e+00,5.000000000000000000e+00,4.851363658905029297e+00,4.692035198211669922e+00,4.542839050292968750e+00,4.402839183807373047e+00,4.271209716796875000e+00,4.147222518920898438e+00,4.030230522155761719e+00,3.919658422470092773e+00,3.814991474151611328e+00,3.715768575668334961e+00
3.099074840545654297e+00,3.177433252334594727e+00,3.259856939315795898e+00,3.346670866012573242e+00,3.438235521316528320e+00,3.534951210021972656e+00,3.637265443801879883e+00,3.745678901672363281e+00,3.860753774642944336e+00,3.983123302459716797e+00,4.113503932952880859e+00,4.252708911895751953e+00,4.401666164398193359e+00,4.561436653137207031e+00,4.733234405517578125e+00,4.918473243713378906e+00,5.000000000000000000e+00,5.000000000000000000e+00,5.000000000000000000e+00,5.000000000000000000e+00,5.000000000000000000e+00,5.000000000000000000e+00,5.000000000000000000e+00,5.000000000000000000e+00,5.000000000000000000e+00,5.000000000000000000e+00,5.000000000000000000e+00,5.000000000000000000e+00,5.000000000000000000e+00,5.000000000000000000e+00,5.000000000000000000e+00,5.000000000000000000e+00,5.000000000000000000e+00,5.000000000000000000e+00,5.000000000000000000e+00,5.000000000000000000e+00,5.000000000000000000e+00,5.000000000000000000e+00,5.000000000000000000e+00,5.000000000000000000e+00,5.000000000000000000e+00,5.000000000000000000e+00,5.000000000000000000e+00,5.000000000000000000e+00,5.000000000000000000e+00,2.773178815841674805e+00,2.732066631317138672e+00,2.696919441223144531e+00,2.678592920303344727e+00,2.556528091430664062e+00,2.545726299285888672e+00,2.545889854431152344e+00,2.635785102844238281e+00,2.617590904235839844e+00,2.579843521118164062e+00,5.000000000000000000e+00,5.000000000000000000e+00,5.000000000000000000e+00,5.000000000000000000e+00,5.000000000000000000e+00,5.000000000000000000e+00,5.000000000000000000e+00,5.000000000000000000e+00,5.000000000000000000e+00,5.000000000000000000e+00,5.000000000000000000e+00,5.000000000000000000e+00,5.000000000000000000e+00,5.000000000000000000e+00,5.000000000000000000e+00,4.851493358612060547e+00,4.692156314849853516e+00,4.542952537536621094e+00,4.402945995330810547e+00,4.271310329437255859e+00,4.147317409515380859e+00,4.030320167541503906e+00,3.919743061065673828e+00,3.815071582794189453e+00,3.715844869613647461e+00
3.098980903625488281e+00,3.177350521087646484e+00,3.259783983230590820e+00,3.346593856811523438e+00,3.438153982162475586e+00,3.534864664077758789e+00,3.637174367904663086e+00,3.745582342147827148e+00,3.860651016235351562e+00,3.983013868331909180e+00,4.113387584686279297e+00,4.252584457397460938e+00,4.401532649993896484e+00,4.561293125152587891e+00,4.733088493347167969e+00,4.918321132659912109e+00,5.000000000000000000e+00,5.000000000000000000e+00,5.000000000000000000e+00,5.000000000000000000e+00,5.000000000000000000e+00,5.000000000000000000e+00,5.000000000000000000e+00,5.000000000000000000e+00,5.000000000000000000e+00,5.000000000000000000e+00,5.000000000000000000e+00,5.000000000000000000e+00,5.000000000000000000e+00,5.000000000000000000e+00,5.000000000000000000e+00,5.000000000000000000e+00,5.000000000000000000e+00,5.000000000000000000e+00,5.000000000000000000e+00,5.000000000000000000e+00,5.000000000000000000e+00,5.000000000000000000e+00,5.000000000000000000e+00,5.000000000000000000e+00,5.000000000000000000e+00,5.000000000000000000e+00,5.000000000000000000e+00,5.000000000000000000e+00,2.762989997863769531e+00,2.761986732482910156e+00,2.719484806060791016e+00,2.685818910598754883e+00,2.682985782623291016e+00,2.523259162902832031e+00,2.523333549499511719e+00,2.524548053741455078e+00,2.631243467330932617e+00,5.000000000000000000e+00,2.577203273773193359e+00,5.000000000000000000e+00,5.000000000000000000e+00,5.000000000000000000e+00,5.000000000000000000e+00,5.000000000000000000e+00,5.000000000000000000e+00,5.000000000000000000e+00,5.000000000000000000e+00,5.000000000000000000e+00,5.000000000000000000e+00,5.000000000000000000e+00,5.000000000000000000e+00,5.000000000000000000e+00,5.000000000000000000e+00,5.000000000000000000e+00,4.851623058319091797e+00,4.692277431488037109e+00,4.543066501617431641e+00,4.403052330017089844e+00,4.271410942077636719e+00,4.147411823272705078e+00,4.030409336090087891e+00,3.919827938079833984e+00,3.815151929855346680e+00,3.715920925140380859e+00
3.098881959915161133e+00,3.177246332168579102e+00,3.259677171707153320e+00,3.346498966217041016e+00,3.438072443008422852e+00,3.534778594970703125e+00,3.637082815170288086e+00,3.745485782623291016e+00,3.860548496246337891e+00,3.982904672622680664e+00,4.113270759582519531e+00,4.252460002899169922e+00,4.401399135589599609e+00,4.561150074005126953e+00,4.732933998107910156e+00,4.918163776397705078e+00,5.000000000000000000e+00,5.000000000000000000e+00,5.000000000000000000e+00,5.000000000000000000e+00,5.000000000000000000e+00,5.000000000000000000e+00,5.000000000000000000e+00,5.000000000000000000e+00,5.000000000000000000e+00,5.000000000000000000e+00,5.000000000000000000e+00,5.000000000000000000e+00,5.000000000000000000e+00,5.000000000000000000e+00,5.000000000000000000e+00,5.000000000000000000e+00,5.000000000000000000e+00,5.000000000000000000e+00,5.000000000000000000e+00,5.000000000000000000e+00,5.000000000000000000e+00,5.000000000000000000e+00,5.000000000000000000e+00,5.000000000000000000e+00,5.000000000000000000e+00,5.000000000000000000e+00,5.000000000000000000e+00,5.000000000000000000e+00,2.749750375747680664e+00,5.000000000000000000e+00,2.716685771942138672e+00,2.678094148635864258e+00,2.563295841217041016e+00,2.502879142761230469e+00,2.504156827926635742e+00,2.524725198745727539e+00,2.635536670684814453e+00,2.571406126022338867e+00,2.560263156890869141e+00,5.000000000000000000e+00,5.000000000000000000e+00,5.000000000000000000e+00,5.000000000000000000e+00,5.000000000000000000e+00,5.000000000000000000e+00,5.000000000000000000e+00,5.000000000000000000e+00,5.000000000000000000e+00,5.000000000000000000e+00,5.000000000000000000e+00,5.000000000000000000e+00,5.000000000000000000e+00,5.000000000000000000e+00,5.000000000000000000e+00,4.851752758026123047e+00,4.692399024963378906e+00,4.543180465698242188e+00,4.403159141540527344e+00,4.271511554718017578e+00,4.147506713867187500e+00,4.030498981475830078e+00,3.919912576675415039e+00,3.815232276916503906e+00,3.715996980667114258e+00
3.098782777786254883e+00,3.177142381668090820e+00,3.259567499160766602e+00,3.346383571624755859e+00,3.437950611114501953e+00,3.534669876098632812e+00,3.636988639831542969e+00,3.745388746261596680e+00,3.860445976257324219e+00,3.982795476913452148e+00,4.113154411315917969e+00,4.252335548400878906e+00,4.401265621185302734e+00,4.561006546020507812e+00,4.732779502868652344e+00,4.917997360229492188e+00,5.000000000000000000e+00,5.000000000000000000e+00,5.000000000000000000e+00,5.000000000000000000e+00,5.000000000000000000e+00,5.000000000000000000e+00,5.000000000000000000e+00,5.000000000000000000e+00,5.000000000000000000e+00,5.000000000000000000e+00,5.000000000000000000e+00,5.000000000000000000e+00,5.000000000000000000e+00,5.000000000000000000e+00,5.000000000000000000e+00,5.000000000000000000e+00,5.000000000000000000e+00,5.000000000000000000e+00,5.000000000000000000e+00,5.000000000000000000e+00,5.000000000000000000e+00,5.000000000000000000e+00,5.000000000000000000e+00,5.000000000000000000e+00,5.000000000000000000e+00,5.000000000000000000e+00,5.000000000000000000e+00,5.000000000000000000e+00,2.693259000778198242e+00,5.000000000000000000e+00,2.724088430404663086e+00,2.679690599441528320e+00,2.531702518463134766e+00,2.482427358627319336e+00,2.485930204391479492e+00,2.528061151504516602e+00,5.000000000000000000e+00,5.000000000000000000e+00,2.547667980194091797e+00,5.000000000000000000e+00,5.000000000000000000e+00,5.000000000000000000e+00,5.000000000000000000e+00,5.000000000000000000e+00,5.000000000000000000e+00,5.000000000000000000e+00,5.000000000000000000e+00,5.000000000000000000e+00,5.000000000000000000e+00,5.000000000000000000e+00,5.000000000000000000e+00,5.000000000000000000e+00,5.000000000000000000e+00,5.000000000000000000e+00,4.851882457733154297e+00,4.692520141601562500e+00,4.543293952941894531e+00,4.403266429901123047e+00,4.271612167358398438e+00,4.147601604461669922e+00,4.030588626861572266e+00,3.919997215270996094e+00,3.815312385559082031e+00,3.716073274612426758e+00
3.098712921142578125e+00,3.177052974700927734e+00,3.259458065032958984e+00,3.346268177032470703e+00,3.437828779220581055e+00,3.534540653228759766e+00,3.636852264404296875e+00,3.745262861251831055e+00,3.860335350036621094e+00,3.982685804367065430e+00,4.113037586212158203e+00,4.252211093902587891e+00,4.401132106781005859e+00,4.560863018035888672e+00,4.732625484466552734e+00,4.917830467224121094e+00,5.000000000000000000e+00,5.000000000000000000e+00,5.000000000000000000e+00,5.000000000000000000e+00,5.000000000000000000e+00,5.000000000000000000e+00,5.000000000000000000e+00,5.000000000000000000e+00,5.000000000000000000e+00,5.000000000000000000e+00,5.000000000000000000e+00,5.000000000000000000e+00,5.000000000000000000e+00,5.000000000000000000e+00,5.000000000000000000e+00,5.000000000000000000e+00,5.000000000000000000e+00,5.000000000000000000e+00,5.000000000000000000e+00,5.000000000000000000e+00,5.000000000000000000e+00,5.000000000000000000e+00,5.000000000000000000e+00,5.000000000000000000e+00,5.000000000000000000e+00,5.000000000000000000e+00,5.000000000000000000e+00,2.693256616592407227e+00,5.000000000000000000e+00,5.000000000000000000e+00,2.735702037811279297e+00,2.683791160583496094e+00,2.503462314605712891e+00,2.459821701049804688e+00,2.467103719711303711e+00,2.538551568984985352e+00,5.000000000000000000e+00,2.530920267105102539e+00,2.536168336868286133e+00,5.000000000000000000e+00,5.000000000000000000e+00,5.000000000000000000e+00,5.000000000000000000e+00,5.000000000000000000e+00,5.000000000000000000e+00,5.000000000000000000e+00,5.000000000000000000e+00,5.000000000000000000e+00,5.000000000000000000e+00,5.000000000000000000e+00,5.000000000000000000e+00,5.000000000000000000e+00,5.000000000000000000e+00,5.000000000000000000e+00,4.852011680603027344e+00,4.692641258239746094e+00,4.543407440185546875e+00,4.403372764587402344e+00,4.271712303161621094e+00,4.147696495056152344e+00,4.030678272247314453e+00,3.920082092285156250e+00,3.815392732620239258e+00,3.716149330139160156e+00
3.098646879196166992e+00,3.176983594894409180e+00,3.259383678436279297e+00,3.346172094345092773e+00,3.437708377838134766e+00,3.534411907196044922e+00,3.636715412139892578e+00,3.745117902755737305e+00,3.860181570053100586e+00,3.982539415359497070e+00,4.112907886505126953e+00,4.252086639404296875e+00,4.400998592376708984e+00,4.560719966888427734e+00,4.732470989227294922e+00,4.917664051055908203e+00,5.000000000000000000e+00,5.000000000000000000e+00,5.000000000000000000e+00,5.000000000000000000e+00,5.000000000000000000e+00,5.000000000000000000e+00,5.000000000000000000e+00,5.000000000000000000e+00,5.000000000000000000e+00,5.000000000000000000e+00,5.000000000000000000e+00,5.000000000000000000e+00,5.000000000000000000e+00,5.000000000000000000e+00,5.000000000000000000e+00,5.000000000000000000e+00,5.000000000000000000e+00,5.000000000000000000e+00,5.000000000000000000e+00,5.000000000000000000e+00,5.000000000000000000e+00,5.000000000000000000e+00,5.000000000000000000e+00,5.000000000000000000e+00,5.000000000000000000e+00,5.000000000000000000e+00,5.000000000000000000e+00,2.741410017013549805e+00,5.000000000000000000e+00,5.000000000000000000e+00,2.749481201171875000e+00,2.687590360641479492e+00,2.472224950790405273e+00,2.437908649444580078e+00,2.464857339859008789e+00,2.553864479064941406e+00,5.000000000000000000e+00,5.000000000000000000e+00,5.000000000000000000e+00,5.000000000000000000e+00,5.000000000000000000e+00,5.000000000000000000e+00,5.000000000000000000e+00,5.000000000000000000e+00,5.000000000000000000e+00,5.000000000000000000e+00,5.000000000000000000e+00,5.000000000000000000e+00,5.000000000000000000e+00,5.000000000000000000e+00,5.000000000000000000e+00,5.000000000000000000e+00,5.000000000000000000e+00,5.000000000000000000e+00,4.852141857147216797e+00,4.692762851715087891e+00,4.543521404266357422e+00,4.403479576110839844e+00,4.271812915802001953e+00,4.147790908813476562e+00,4.030767440795898438e+00,3.920166254043579102e+00,3.815472602844238281e+00,3.716225385665893555e+00
3.098580837249755859e+00,3.176913976669311523e+00,3.259310483932495117e+00,3.346094846725463867e+00,3.437626838684082031e+00,3.534307718276977539e+00,3.636584281921386719e+00,3.744973182678222656e+00,3.860027551651000977e+00,3.982375860214233398e+00,4.112733364105224609e+00,4.251914024353027344e+00,4.400845050811767578e+00,4.560576915740966797e+00,4.732316493988037109e+00,4.917497158050537109e+00,5.000000000000000000e+00,5.000000000000000000e+00,5.000000000000000000e+00,5.000000000000000000e+00,5.000000000000000000e+00,5.000000000000000000e+00,5.000000000000000000e+00,5.000000000000000000e+00,5.000000000000000000e+00,5.000000000000000000e+00,5.000000000000000000e+00,5.000000000000000000e+00,5.000000000000000000e+00,5.000000000000000000e+00,5.000000000000000000e+00,5.000000000000000000e+00,5.000000000000000000e+00,5.000000000000000000e+00,5.000000000000000000e+00,5.000000000000000000e+00,5.000000000000000000e+00,5.000000000000000000e+00,5.000000000000000000e+00,5.000000000000000000e+00,5.000000000000000000e+00,5.000000000000000000e+00,5.000000000000000000e+00,5.000000000000000000e+00,5.000000000000000000e+00,5.000000000000000000e+00,5.000000000000000000e+00,2.690155506134033203e+00,2.449916839599609375e+00,2.426461458206176758e+00,2.472881317138671875e+00,5.000000000000000000e+00,5.000000000000000000e+00,5.000000000000000000e+00,5.000000000000000000e+00,5.000000000000000000e+00,5.000000000000000000e+00,5.000000000000000000e+00,5.000000000000000000e+00,5.000000000000000000e+00,5.000000000000000000e+00,5.000000000000000000e+00,5.000000000000000000e+00,5.000000000000000000e+00,5.000000000000000000e+00,5.000000000000000000e+00,5.000000000000000000e+00,5.000000000000000000e+00,5.000000000000000000e+00,5.000000000000000000e+00,4.852271556854248047e+00,4.692884445190429688e+00,4.543635368347167969e+00,4.403586864471435547e+00,4.271913528442382812e+00,4.147885799407958984e+00,4.030857086181640625e+00,3.920250892639160156e+00,3.815552711486816406e+00,3.716301202774047852e+00
3.098514795303344727e+00,3.176844596862792969e+00,3.259237289428710938e+00,3.346017599105834961e+00,3.437545537948608398e+00,3.534221649169921875e+00,3.636493206024169922e+00,3.744859933853149414e+00,3.859883546829223633e+00,3.982211828231811523e+00,4.112558841705322266e+00,4.251727581024169922e+00,4.400644779205322266e+00,4.560373306274414062e+00,4.732132911682128906e+00,4.917330741882324219e+00,5.000000000000000000e+00,5.000000000000000000e+00,5.000000000000000000e+00,5.000000000000000000e+00,5.000000000000000000e+00,5.000000000000000000e+00,5.000000000000000000e+00,5.000000000000000000e+00,5.000000000000000000e+00,5.000000000000000000e+00,5.000000000000000000e+00,5.000000000000000000e+00,5.000000000000000000e+00,5.000000000000000000e+00,5.000000000000000000e+00,5.000000000000000000e+00,5.000000000000000000e+00,5.000000000000000000e+00,5.000000000000000000e+00,5.000000000000000000e+00,5.000000000000000000e+00,5.000000000000000000e+00,5.000000000000000000e+00,5.000000000000000000e+00,5.000000000000000000e+00,5.000000000000000000e+00,5.000000000000000000e+00,5.000000000000000000e+00,5.000000000000000000e+00,5.000000000000000000e+00,5.000000000000000000e+00,2.692761421203613281e+00,2.447490930557250977e+00,2.427333593368530273e+00,2.478086471557617188e+00,5.000000000000000000e+00,5.000000000000000000e+00,5.000000000000000000e+00,5.000000000000000000e+00,5.000000000000000000e+00,5.000000000000000000e+00,5.000000000000000000e+00,5.000000000000000000e+00,5.000000000000000000e+00,5.000000000000000000e+00,5.000000000000000000e+00,5.000000000000000000e+00,5.000000000000000000e+00,5.000000000000000000e+00,5.000000000000000000e+00,5.000000000000000000e+00,5.000000000000000000e+00,5.000000000000000000e+00,5.000000000000000000e+00,4.852400779724121094e+00,4.693005561828613281e+00,4.543748855590820312e+00,4.403693675994873047e+00,4.272014141082763672e+00,4.147980690002441406e+00,4.030946731567382812e+00,3.920335769653320312e+00,3.815633058547973633e+00,3.716378211975097656e+00
3.098448514938354492e+00,3.176774978637695312e+00,3.259164333343505859e+00,3.345940351486206055e+00,3.437464237213134766e+00,3.534135818481445312e+00,3.636402130126953125e+00,3.744763374328613281e+00,3.859780550003051758e+00,3.982087612152099609e+00,4.112399578094482422e+00,4.251541137695312500e+00,4.400445461273193359e+00,4.560158252716064453e+00,4.731902122497558594e+00,4.917087554931640625e+00,5.000000000000000000e+00,5.000000000000000000e+00,5.000000000000000000e+00,5.000000000000000000e+00,5.000000000000000000e+00,5.000000000000000000e+00,5.000000000000000000e+00,5.000000000000000000e+00,5.000000000000000000e+00,5.000000000000000000e+00,5.000000000000000000e+00,5.000000000000000000e+00,5.000000000000000000e+00,5.000000000000000000e+00,5.000000000000000000e+00,5.000000000000000000e+00,5.000000000000000000e+00,5.000000000000000000e+00,5.000000000000000000e+00,5.000000000000000000e+00,5.000000000000000000e+00,5.000000000000000000e+00,5.000000000000000000e+00,5.000000000000000000e+00,5.000000000000000000e+00,5.000000000000000000e+00,5.000000000000000000e+00,5.000000000000000000e+00,5.000000000000000000e+00,5.000000000000000000e+00,5.000000000000000000e+00,2.695930719375610352e+00,2.470807552337646484e+00,2.443512916564941406e+00,2.465784788131713867e+00,5.000000000000000000e+00,5.000000000000000000e+00,5.000000000000000000e+00,5.000000000000000000e+00,5.000000000000000000e+00,5.000000000000000000e+00,5.000000000000000000e+00,5.000000000000000000e+00,5.000000000000000000e+00,5.000000000000000000e+00,5.000000000000000000e+00,5.000000000000000000e+00,5.000000000000000000e+00,5.000000000000000000e+00,5.000000000000000000e+00,5.000000000000000000e+00,5.000000000000000000e+00,5.000000000000000000e+00,5.000000000000000000e+00,4.852530956268310547e+00,4.693126678466796875e+00,4.543862819671630859e+00,4.403800010681152344e+00,4.272114276885986328e+00,4.148075580596923828e+00,4.031035900115966797e+00,3.920423746109008789e+00,3.815719366073608398e+00,3.716462135314941406e+00
3.098382472991943359e+00,3.176705598831176758e+00,3.259091138839721680e+00,3.345863342285156250e+00,3.437382936477661133e+00,3.534049749374389648e+00,3.636311054229736328e+00,3.744666814804077148e+00,3.859678030014038086e+00,3.981978416442871094e+00,4.112283229827880859e+00,4.251403808593750000e+00,4.400267601013183594e+00,4.559944152832031250e+00,4.731670856475830078e+00,4.916838169097900391e+00,5.000000000000000000e+00,5.000000000000000000e+00,5.000000000000000000e+00,5.000000000000000000e+00,5.000000000000000000e+00,5.000000000000000000e+00,5.000000000000000000e+00,5.000000000000000000e+00,5.000000000000000000e+00,5.000000000000000000e+00,5.000000000000000000e+00,5.000000000000000000e+00,5.000000000000000000e+00,5.000000000000000000e+00,5.000000000000000000e+00,5.000000000000000000e+00,5.000000000000000000e+00,5.000000000000000000e+00,5.000000000000000000e+00,5.000000000000000000e+00,5.000000000000000000e+00,5.000000000000000000e+00,5.000000000000000000e+00,5.000000000000000000e+00,5.000000000000000000e+00,5.000000000000000000e+00,5.000000000000000000e+00,5.000000000000000000e+00,5.000000000000000000e+00,5.000000000000000000e+00,5.000000000000000000e+00,5.000000000000000000e+00,2.702201843261718750e+00,2.464778184890747070e+00,2.475165367126464844e+00,5.000000000000000000e+00,5.000000000000000000e+00,5.000000000000000000e+00,5.000000000000000000e+00,5.000000000000000000e+00,5.000000000000000000e+00,5.000000000000000000e+00,5.000000000000000000e+00,5.000000000000000000e+00,5.000000000000000000e+00,5.000000000000000000e+00,5.000000000000000000e+00,5.000000000000000000e+00,5.000000000000000000e+00,5.000000000000000000e+00,5.000000000000000000e+00,5.000000000000000000e+00,5.000000000000000000e+00,5.000000000000000000e+00,4.852660655975341797e+00,4.693248271942138672e+00,4.543976306915283203e+00,4.403907299041748047e+00,4.272217750549316406e+00,4.148176193237304688e+00,4.031135082244873047e+00,3.920517206192016602e+00,3.815807819366455078e+00,3.716546535491943359e+00
3.098316431045532227e+00,3.176636219024658203e+00,3.259017705917358398e+00,3.345786333084106445e+00,3.437301635742187500e+00,3.533963680267333984e+00,3.636220216751098633e+00,3.744570255279541016e+00,3.859575510025024414e+00,3.981869220733642578e+00,4.112166404724121094e+00,4.251279354095458984e+00,4.400134086608886719e+00,4.559791088104248047e+00,4.731471061706542969e+00,4.916588783264160156e+00,5.000000000000000000e+00,5.000000000000000000e+00,5.000000000000000000e+00,5.000000000000000000e+00,5.000000000000000000e+00,5.000000000000000000e+00,5.000000000000000000e+00,5.000000000000000000e+00,5.000000000000000000e+00,5.000000000000000000e+00,5.000000000000000000e+00,5.000000000000000000e+00,5.000000000000000000e+00,5.000000000000000000e+00,5.000000000000000000e+00,5.000000000000000000e+00,5.000000000000000000e+00,5.000000000000000000e+00,5.000000000000000000e+00,5.000000000000000000e+00,5.000000000000000000e+00,5.000000000000000000e+00,5.000000000000000000e+00,5.000000000000000000e+00,5.000000000000000000e+00,5.000000000000000000e+00,5.000000000000000000e+00,5.000000000000000000e+00,5.000000000000000000e+00,5.000000000000000000e+00,5.000000000000000000e+00,5.000000000000000000e+00,2.732531309127807617e+00,2.495619297027587891e+00,2.488915443420410156e+00,2.522130012512207031e+00,5.000000000000000000e+00,5.000000000000000000e+00,5.000000000000000000e+00,5.000000000000000000e+00,5.000000000000000000e+00,5.000000000000000000e+00,5.000000000000000000e+00,5.000000000000000000e+00,5.000000000000000000e+00,5.000000000000000000e+00,5.000000000000000000e+00,5.000000000000000000e+00,5.000000000000000000e+00,5.000000000000000000e+00,5.000000000000000000e+00,5.000000000000000000e+00,5.000000000000000000e+00,5.000000000000000000e+00,4.852790355682373047e+00,4.693370819091796875e+00,4.544095993041992188e+00,4.404023647308349609e+00,4.272328376770019531e+00,4.148281097412109375e+00,4.031233787536621094e+00,3.920610666275024414e+00,3.815896987915039062e+00,3.716630458831787109e+00
3.098250389099121094e+00,3.176566600799560547e+00,3.258944511413574219e+00,3.345709323883056641e+00,3.437220335006713867e+00,3.533877849578857422e+00,3.636129140853881836e+00,3.744473218917846680e+00,3.859472990036010742e+00,3.981760025024414062e+00,4.112050056457519531e+00,4.251154899597167969e+00,4.400001049041748047e+00,4.559648036956787109e+00,4.731316566467285156e+00,4.916417121887207031e+00,5.000000000000000000e+00,5.000000000000000000e+00,5.000000000000000000e+00,5.000000000000000000e+00,5.000000000000000000e+00,5.000000000000000000e+00,5.000000000000000000e+00,5.000000000000000000e+00,5.000000000000000000e+00,5.000000000000000000e+00,5.000000000000000000e+00,5.000000000000000000e+00,5.000000000000000000e+00,5.000000000000000000e+00,5.000000000000000000e+00,5.000000000000000000e+00,5.000000000000000000e+00,5.000000000000000000e+00,5.000000000000000000e+00,5.000000000000000000e+00,5.000000000000000000e+00,5.000000000000000000e+00,5.000000000000000000e+00,5.000000000000000000e+00,5.000000000000000000e+00,5.000000000000000000e+00,5.000000000000000000e+00,5.000000000000000000e+00,5.000000000000000000e+00,5.000000000000000000e+00,5.000000000000000000e+00,5.000000000000000000e+00,2.775345563888549805e+00,2.514008998870849609e+00,2.497214078903198242e+00,2.531091690063476562e+00,5.000000000000000000e+00,5.000000000000000000e+00,5.000000000000000000e+00,5.000000000000000000e+00,5.000000000000000000e+00,5.000000000000000000e+00,5.000000000000000000e+00,5.000000000000000000e+00,5.000000000000000000e+00,5.000000000000000000e+00,5.000000000000000000e+00,5.000000000000000000e+00,5.000000000000000000e+00,5.000000000000000000e+00,5.000000000000000000e+00,5.000000000000000000e+00,5.000000000000000000e+00,5.000000000000000000e+00,4.852930068969726562e+00,4.693504810333251953e+00,4.544221878051757812e+00,4.404141426086425781e+00,4.272439956665039062e+00,4.148386001586914062e+00,4.031332492828369141e+00,3.920704603195190430e+00,3.815985441207885742e+00,3.716714382171630859e+00
3.098184347152709961e+00,3.176496982574462891e+00,3.258871555328369141e+00,3.345632076263427734e+00,3.437138795852661133e+00,3.533791780471801758e+00,3.636038064956665039e+00,3.744376897811889648e+00,3.859370470046997070e+00,3.981650829315185547e+00,4.111933708190917969e+00,4.251030445098876953e+00,4.399867534637451172e+00,4.559504985809326172e+00,4.731162548065185547e+00,4.916250705718994141e+00,5.000000000000000000e+00,5.000000000000000000e+00,5.000000000000000000e+00,5.000000000000000000e+00,5.000000000000000000e+00,5.000000000000000000e+00,5.000000000000000000e+00,5.000000000000000000e+00,5.000000000000000000e+00,5.000000000000000000e+00,5.000000000000000000e+00,5.000000000000000000e+00,5.000000000000000000e+00,5.000000000000000000e+00,5.000000000000000000e+00,5.000000000000000000e+00,5.000000000000000000e+00,5.000000000000000000e+00,5.000000000000000000e+00,5.000000000000000000e+00,5.000000000000000000e+00,5.000000000000000000e+00,5.000000000000000000e+00,5.000000000000000000e+00,5.000000000000000000e+00,5.000000000000000000e+00,5.000000000000000000e+00,5.000000000000000000e+00,5.000000000000000000e+00,5.000000000000000000e+00,5.000000000000000000e+00,5.000000000000000000e+00,2.807542562484741211e+00,2.530549526214599609e+00,2.506655931472778320e+00,2.540117263793945312e+00,5.000000000000000000e+00,5.000000000000000000e+00,5.000000000000000000e+00,5.000000000000000000e+00,5.000000000000000000e+00,5.000000000000000000e+00,5.000000000000000000e+00,5.000000000000000000e+00,5.000000000000000000e+00,5.000000000000000000e+00,5.000000000000000000e+00,5.000000000000000000e+00,5.000000000000000000e+00,5.000000000000000000e+00,5.000000000000000000e+00,5.000000000000000000e+00,5.000000000000000000e+00,5.000000000000000000e+00,4.853073120117187500e+00,4.693639278411865234e+00,4.544347763061523438e+00,4.404259681701660156e+00,4.272551059722900391e+00,4.148490428924560547e+00,4.031431674957275391e+00,3.920797824859619141e+00,3.816073894500732422e+00,3.716798782348632812e+00
3.098118305206298828e+00,3.176427364349365234e+00,3.258798360824584961e+00,3.345555067062377930e+00,3.437057495117187500e+00,3.533705949783325195e+00,3.635946750640869141e+00,3.744280338287353516e+00,3.859267950057983398e+00,3.981541872024536133e+00,4.111817359924316406e+00,4.250905990600585938e+00,4.399734020233154297e+00,4.559361934661865234e+00,4.731008052825927734e+00,4.916084289550781250e+00,5.000000000000000000e+00,5.000000000000000000e+00,5.000000000000000000e+00,5.000000000000000000e+00,5.000000000000000000e+00,5.000000000000000000e+00,5.000000000000000000e+00,5.000000000000000000e+00,5.000000000000000000e+00,5.000000000000000000e+00,5.000000000000000000e+00,5.000000000000000000e+00,5.000000000000000000e+00,5.000000000000000000e+00,5.000000000000000000e+00,5.000000000000000000e+00,5.000000000000000000e+00,5.000000000000000000e+00,5.000000000000000000e+00,5.000000000000000000e+00,5.000000000000000000e+00,5.000000000000000000e+00,5.000000000000000000e+00,5.000000000000000000e+00,5.000000000000000000e+00,5.000000000000000000e+00,5.000000000000000000e+00,5.000000000000000000e+00,5.000000000000000000e+00,5.000000000000000000e+00,5.000000000000000000e+00,5.000000000000000000e+00,5.000000000000000000e+00,2.547413110733032227e+00,2.519087314605712891e+00,2.550397157669067383e+00,5.000000000000000000e+00,5.000000000000000000e+00,5.000000000000000000e+00,5.000000000000000000e+00,5.000000000000000000e+00,5.000000000000000000e+00,5.000000000000000000e+00,5.000000000000000000e+00,5.000000000000000000e+00,5.000000000000000000e+00,5.000000000000000000e+00,5.000000000000000000e+00,5.000000000000000000e+00,5.000000000000000000e+00,5.000000000000000000e+00,5.000000000000000000e+00,5.000000000000000000e+00,5.000000000000000000e+00,4.853216648101806641e+00,4.693773269653320312e+00,4.544473171234130859e+00,4.404377937316894531e+00,4.272662162780761719e+00,4.148595333099365234e+00,4.031530857086181641e+00,3.920891523361206055e+00,3.816162824630737305e+00,3.716882944107055664e+00
3.098052024841308594e+00,3.176357984542846680e+00,3.258725166320800781e+00,3.345478057861328125e+00,3.436976194381713867e+00,3.533619880676269531e+00,3.635855674743652344e+00,3.744183778762817383e+00,3.859165430068969727e+00,3.981432676315307617e+00,4.111701011657714844e+00,4.250781536102294922e+00,4.399600982666015625e+00,4.559218883514404297e+00,4.730854034423828125e+00,4.915917873382568359e+00,5.000000000000000000e+00,5.000000000000000000e+00,5.000000000000000000e+00,5.000000000000000000e+00,5.000000000000000000e+00,5.000000000000000000e+00,5.000000000000000000e+00,5.000000000000000000e+00,5.000000000000000000e+00,5.000000000000000000e+00,5.000000000000000000e+00,5.000000000000000000e+00,5.000000000000000000e+00,5.000000000000000000e+00,5.000000000000000000e+00,5.000000000000000000e+00,5.000000000000000000e+00,5.000000000000000000e+00,5.000000000000000000e+00,5.000000000000000000e+00,5.000000000000000000e+00,5.000000000000000000e+00,5.000000000000000000e+00,5.000000000000000000e+00,5.000000000000000000e+00,5.000000000000000000e+00,5.000000000000000000e+00,5.000000000000000000e+00,5.000000000000000000e+00,5.000000000000000000e+00,5.000000000000000000e+00,5.000000000000000000e+00,5.000000000000000000e+00,2.569062948226928711e+00,2.534913063049316406e+00,2.561733245849609375e+00,5.000000000000000000e+00,5.000000000000000000e+00,5.000000000000000000e+00,5.000000000000000000e+00,5.000000000000000000e+00,5.000000000000000000e+00,5.000000000000000000e+00,5.000000000000000000e+00,5.000000000000000000e+00,5.000000000000000000e+00,5.000000000000000000e+00,5.000000000000000000e+00,5.000000000000000000e+00,5.000000000000000000e+00,5.000000000000000000e+00,5.000000000000000000e+00,5.000000000000000000e+00,5.000000000000000000e+00,4.853360176086425781e+00,4.693907260894775391e+00,4.544599056243896484e+00,4.404496192932128906e+00,4.272773265838623047e+00,4.148700237274169922e+00,4.031629562377929688e+00,3.920985460281372070e+00,3.816251516342163086e+00,3.716966867446899414e+00
3.097985744476318359e+00,3.176288604736328125e+00,3.258652210235595703e+00,3.345401048660278320e+00,3.436894893646240234e+00,3.533533811569213867e+00,3.635764598846435547e+00,3.744087219238281250e+00,3.859062910079956055e+00,3.981323480606079102e+00,4.111584663391113281e+00,4.250657081604003906e+00,4.399467468261718750e+00,4.559075832366943359e+00,4.730700016021728516e+00,4.915751934051513672e+00,5.000000000000000000e+00,5.000000000000000000e+00,5.000000000000000000e+00,5.000000000000000000e+00,5.000000000000000000e+00,5.000000000000000000e+00,5.000000000000000000e+00,5.000000000000000000e+00,5.000000000000000000e+00,5.000000000000000000e+00,5.000000000000000000e+00,5.000000000000000000e+00,5.000000000000000000e+00,5.000000000000000000e+00,5.000000000000000000e+00,5.000000000000000000e+00,5.000000000000000000e+00,5.000000000000000000e+00,5.000000000000000000e+00,5.000000000000000000e+00,5.000000000000000000e+00,5.000000000000000000e+00,5.000000000000000000e+00,5.000000000000000000e+00,5.000000000000000000e+00,5.000000000000000000e+00,5.000000000000000000e+00,5.000000000000000000e+00,5.000000000000000000e+00,5.000000000000000000e+00,5.000000000000000000e+00,5.000000000000000000e+00,5.000000000000000000e+00,2.830075740814208984e+00,2.547811031341552734e+00,2.573238372802734375e+00,5.000000000000000000e+00,5.000000000000000000e+00,5.000000000000000000e+00,5.000000000000000000e+00,5.000000000000000000e+00,5.000000000000000000e+00,5.000000000000000000e+00,5.000000000000000000e+00,5.000000000000000000e+00,5.000000000000000000e+00,5.000000000000000000e+00,5.000000000000000000e+00,5.000000000000000000e+00,5.000000000000000000e+00,5.000000000000000000e+00,5.000000000000000000e+00,5.000000000000000000e+00,5.000000000000000000e+00,4.853503704071044922e+00,4.694041728973388672e+00,4.544724941253662109e+00,4.404613971710205078e+00,4.272884368896484375e+00,4.148805141448974609e+00,4.031728744506835938e+00,3.921078920364379883e+00,3.816339969635009766e+00,3.717051267623901367e+00
3.097919702529907227e+00,3.176218986511230469e+00,3.258579015731811523e+00,3.345324039459228516e+00,3.436813592910766602e+00,3.533447504043579102e+00,3.635673761367797852e+00,3.743990659713745117e+00,3.858960390090942383e+00,3.981214284896850586e+00,4.111467838287353516e+00,4.250532627105712891e+00,4.399334430694580078e+00,4.558932304382324219e+00,4.730545997619628906e+00,4.854094982147216797e+00,4.852887153625488281e+00,4.851680278778076172e+00,4.850473880767822266e+00,4.849268436431884766e+00,4.848063468933105469e+00,4.846858978271484375e+00,4.845654964447021484e+00,4.844451427459716797e+00,4.843248844146728516e+00,4.842046737670898438e+00,4.840845108032226562e+00,4.839644432067871094e+00,4.838444232940673828e+00,4.837244510650634766e+00,4.836045265197753906e+00,4.834846496582031250e+00,4.833648681640625000e+00,4.832451343536376953e+00,4.831254482269287109e+00,4.830058097839355469e+00,4.828862667083740234e+00,4.827667713165283203e+00,4.826473236083984375e+00,4.825279712677001953e+00,4.824086666107177734e+00,4.822893619537353516e+00,4.821702003479003906e+00,4.820510387420654297e+00,4.819319725036621094e+00,4.818129062652587891e+00,4.816939353942871094e+00,4.815750598907470703e+00,4.814561843872070312e+00,4.813374042510986328e+00,2.570759057998657227e+00,4.810999870300292969e+00,4.809813976287841797e+00,4.808628082275390625e+00,4.807443141937255859e+00,4.806258678436279297e+00,4.805075168609619141e+00,4.803891658782958984e+00,4.802709102630615234e+00,4.801527023315429688e+00,4.800345420837402344e+00,4.799164772033691406e+00,4.797984123229980469e+00,4.796804428100585938e+00,4.795625209808349609e+00,4.794446945190429688e+00,4.793268680572509766e+00,4.792091369628906250e+00,4.790914535522460938e+00,4.789738178253173828e+00,4.788562774658203125e+00,4.694175720214843750e+00,4.544850349426269531e+00,4.404732227325439453e+00,4.272995948791503906e+00,4.148910045623779297e+00,4.031827926635742188e+00,3.921172380447387695e+00,3.816428899765014648e+00,3.717135190963745117e+00
3.097853660583496094e+00,3.176149606704711914e+00,3.258506059646606445e+00,3.345247030258178711e+00,3.436732292175292969e+00,3.533361673355102539e+00,3.635582685470581055e+00,3.743894338607788086e+00,3.770673036575317383e+00,3.769944429397583008e+00,3.769216060638427734e+00,3.768487930297851562e+00,3.767760038375854492e+00,3.767032623291015625e+00,3.766305208206176758e+00,3.765578269958496094e+00,3.764851570129394531e+00,3.764125108718872070e+00,3.763398885726928711e+00,3.762673139572143555e+00,3.761947631835937500e+00,3.761222362518310547e+00,3.760497331619262695e+00,3.759772539138793945e+00,3.759047985076904297e+00,3.758323907852172852e+00,3.757599830627441406e+00,3.756876230239868164e+00,3.756152868270874023e+00,3.755429983139038086e+00,3.754707098007202148e+00,3.753984451293945312e+00,3.753262281417846680e+00,3.752540349960327148e+00,3.751818656921386719e+00,3.751097202301025391e+00,3.750376224517822266e+00,3.749655246734619141e+00,3.748934745788574219e+00,3.748214483261108398e+00,3.747494459152221680e+00,3.746774673461914062e+00,3.746055126190185547e+00,3.745336055755615234e+00,3.744616985321044922e+00,3.743898391723632812e+00,3.743180036544799805e+00,3.742461919784545898e+00,3.741744279861450195e+00,3.741026639938354492e+00,2.539322137832641602e+00,2.600401163101196289e+00,3.738875865936279297e+00,3.738159418106079102e+00,3.737443208694458008e+00,3.736727237701416016e+00,3.736011743545532227e+00,3.735296249389648438e+00,3.734581232070922852e+00,3.733866453170776367e+00,3.733151912689208984e+00,3.732437610626220703e+00,3.731723785400390625e+00,3.731009960174560547e+00,3.730296611785888672e+00,3.729583501815795898e+00,3.728870630264282227e+00,3.728157997131347656e+00,3.727445602416992188e+00,3.726733446121215820e+00,3.726021766662597656e+00,3.725310325622558594e+00,3.724598884582519531e+00,3.723887920379638672e+00,3.723177194595336914e+00,3.722466945648193359e+00,3.721756696701049805e+00,3.721046686172485352e+00,3.720337152481079102e+00,3.717219352722167969e+00
3.083122730255126953e+00,3.082635641098022461e+00,3.082148551940917969e+00,3.081661939620971680e+00,3.081175327301025391e+00,3.080688714981079102e+00,3.080202579498291016e+00,3.079716205596923828e+00,3.079230070114135742e+00,3.078744173049926758e+00,3.078258752822875977e+00,3.077773094177246094e+00,3.077287435531616211e+00,3.076802492141723633e+00,3.076317310333251953e+00,3.075832128524780273e+00,3.075347423553466797e+00,3.074862718582153320e+00,3.074378013610839844e+00,3.073893547058105469e+00,3.073409318923950195e+00,3.072925329208374023e+00,3.072441339492797852e+00,3.071957349777221680e+00,3.071473836898803711e+00,3.070990324020385742e+00,3.070506811141967773e+00,3.070023775100708008e+00,3.069540739059448242e+00,3.069057703018188477e+00,3.068574905395507812e+00,3.068092346191406250e+00,3.067610025405883789e+00,3.067127704620361328e+00,3.066645622253417969e+00,3.066163539886474609e+00,3.065681695938110352e+00,3.065200090408325195e+00,3.064718484878540039e+00,3.064237117767333984e+00,3.063755989074707031e+00,3.063274860382080078e+00,3.062793970108032227e+00,3.062313079833984375e+00,3.061832427978515625e+00,3.061352014541625977e+00,3.060871839523315430e+00,3.060391664505004883e+00,3.059911489486694336e+00,2.482085704803466797e+00,2.486460447311401367e+00,2.506705999374389648e+00,3.057992935180664062e+00,3.057513713836669922e+00,3.057034492492675781e+00,3.056555509567260742e+00,3.056076765060424805e+00,3.055598020553588867e+00,3.055119514465332031e+00,3.054641008377075195e+00,3.054162979125976562e+00,3.053684711456298828e+00,3.053206920623779297e+00,3.052729129791259766e+00,3.052251338958740234e+00,3.051774024963378906e+00,3.051296710968017578e+00,3.050819396972656250e+00,3.050342321395874023e+00,3.049865484237670898e+00,3.049388885498046875e+00,3.048912286758422852e+00,3.048435926437377930e+00,3.047959566116333008e+00,3.047483444213867188e+00,3.047007560729980469e+00,3.046531677246093750e+00,3.046056032180786133e+00,3.045580387115478516e+00,3.045104980468750000e+00
2.604856252670288086e+00,2.604508399963378906e+00,2.604161024093627930e+00,2.603813409805297852e+00,2.603466033935546875e+00,2.603118419647216797e+00,2.602771520614624023e+00,2.602424144744873047e+00,2.602077007293701172e+00,2.601730346679687500e+00,2.601383447647094727e+00,2.601036548614501953e+00,2.600689649581909180e+00,2.600343227386474609e+00,2.599996805191040039e+00,2.599650382995605469e+00,2.599304199218750000e+00,2.598957777023315430e+00,2.598611593246459961e+00,2.598265647888183594e+00,2.597919464111328125e+00,2.597573518753051758e+00,2.597227811813354492e+00,2.596882104873657227e+00,2.596536397933959961e+00,2.596190690994262695e+00,2.595845222473144531e+00,2.595499992370605469e+00,2.595154762268066406e+00,2.594809532165527344e+00,2.594464540481567383e+00,2.594119548797607422e+00,2.593774557113647461e+00,2.593429803848266602e+00,2.593085050582885742e+00,2.592740297317504883e+00,2.592395782470703125e+00,2.592051267623901367e+00,2.591706991195678711e+00,2.591362714767456055e+00,2.591018676757812500e+00,2.590674400329589844e+00,2.590330600738525391e+00,2.589986801147460938e+00,2.589642763137817383e+00,2.589299201965332031e+00,2.588955402374267578e+00,2.588612079620361328e+00,2.588268518447875977e+00,2.587925434112548828e+00,2.587582111358642578e+00,2.587239027023315430e+00,2.586895942687988281e+00,2.586552858352661133e+00,2.586210012435913086e+00,2.585867166519165039e+00,2.585524559020996094e+00,2.585181951522827148e+00,2.584839344024658203e+00,2.584496974945068359e+00,2.584154605865478516e+00,2.583812236785888672e+00,2.583470106124877930e+00,2.583127975463867188e+00,2.582786083221435547e+00,2.582444190979003906e+00,2.582102298736572266e+00,2.581760644912719727e+00,2.581418991088867188e+00,2.581077337265014648e+00,2.580735921859741211e+00,2.580394744873046875e+00,2.580053329467773438e+00,2.579712152481079102e+00,2.579370975494384766e+00,2.579030036926269531e+00,2.578689098358154297e+00,2.578348398208618164e+00,2.578007698059082031e+00,2.577666997909545898e+00
2.255044460296630859e+00,2.254783868789672852e+00,2.254523515701293945e+00,2.254262924194335938e+00,2.254002571105957031e+00,2.253742218017578125e+00,2.253482103347778320e+00,2.253221750259399414e+00,2.252961397171020508e+00,2.252701520919799805e+00,2.252441406250000000e+00,2.252181291580200195e+00,2.251921653747558594e+00,2.251661539077758789e+00,2.251401662826538086e+00,2.251142024993896484e+00,2.250882387161254883e+00,2.250622749328613281e+00,2.250363111495971680e+00,2.250103712081909180e+00,2.249844312667846680e+00,2.249584674835205078e+00,2.249325513839721680e+00,2.249066114425659180e+00,2.248806953430175781e+00,2.248547792434692383e+00,2.248288631439208984e+00,2.248029470443725586e+00,2.247770547866821289e+00,2.247511625289916992e+00,2.247252702713012695e+00,2.246993780136108398e+00,2.246735095977783203e+00,2.246476411819458008e+00,2.246217727661132812e+00,2.245959043502807617e+00,2.245700597763061523e+00,2.245441913604736328e+00,2.245183467864990234e+00,2.244925260543823242e+00,2.244666814804077148e+00,2.244408607482910156e+00,2.244150400161743164e+00,2.243892431259155273e+00,2.243634223937988281e+00,2.243376255035400391e+00,2.243118286132812500e+00,2.242860555648803711e+00,2.242602586746215820e+00,2.242344856262207031e+00,2.242087125778198242e+00,2.241829395294189453e+00,2.241571903228759766e+00,2.241314411163330078e+00,2.241056919097900391e+00,2.240799427032470703e+00,2.240542173385620117e+00,2.240284919738769531e+00,2.240027666091918945e+00,2.239770412445068359e+00,2.239513158798217773e+00,2.239256143569946289e+00,2.238999128341674805e+00,2.238742351531982422e+00,2.238485336303710938e+00,2.238228559494018555e+00,2.237971782684326172e+00,2.237715005874633789e+00,2.237458467483520508e+00,2.237201929092407227e+00,2.236945390701293945e+00,2.236688852310180664e+00,2.236432552337646484e+00,2.236176013946533203e+00,2.235919713973999023e+00,2.235663414001464844e+00,2.235407352447509766e+00,2.235151290893554688e+00,2.234895229339599609e+00,2.234639167785644531e+00
1.988063454627990723e+00,1.987860918045043945e+00,1.987658381462097168e+00,1.987455844879150391e+00,1.987253427505493164e+00,1.987051248550415039e+00,1.986848831176757812e+00,1.986646533012390137e+00,1.986444234848022461e+00,1.986241936683654785e+00,1.986039757728576660e+00,1.985837578773498535e+00,1.985635757446289062e+00,1.985433697700500488e+00,1.985231637954711914e+00,1.985029578208923340e+00,1.984827637672424316e+00,1.984625697135925293e+00,1.984423875808715820e+00,1.984222173690795898e+00,1.984020471572875977e+00,1.983818650245666504e+00,1.983616948127746582e+00,1.983415246009826660e+00,1.983213663101196289e+00,1.983012318611145020e+00,1.982810735702514648e+00,1.982609272003173828e+00,1.982407808303833008e+00,1.982206344604492188e+00,1.982005000114440918e+00,1.981803655624389648e+00,1.981602311134338379e+00,1.981401085853576660e+00,1.981199860572814941e+00,1.980998635292053223e+00,1.980797529220581055e+00,1.980596423149108887e+00,1.980395317077636719e+00,1.980194330215454102e+00,1.979993343353271484e+00,1.979792356491088867e+00,1.979591488838195801e+00,1.979390621185302734e+00,1.979189872741699219e+00,1.978989005088806152e+00,1.978788375854492188e+00,1.978587627410888672e+00,1.978386998176574707e+00,1.978186368942260742e+00,1.977985739707946777e+00,1.977785229682922363e+00,1.977584719657897949e+00,1.977384328842163086e+00,1.977183938026428223e+00,1.976983547210693359e+00,1.976783156394958496e+00,1.976582884788513184e+00,1.976382613182067871e+00,1.976182460784912109e+00,1.975982308387756348e+00,1.975782155990600586e+00,1.975582122802734375e+00,1.975381970405578613e+00,1.975182056427001953e+00,1.974982023239135742e+00,1.974782109260559082e+00,1.974582195281982422e+00,1.974382400512695312e+00,1.974182605743408203e+00,1.973982810974121094e+00,1.973783135414123535e+00,1.973583459854125977e+00,1.973383784294128418e+00,1.973184227943420410e+00,1.972984671592712402e+00,1.972785115242004395e+00,1.972585678100585938e+00,1.972386240959167480e+00,1.972186803817749023e+00
1.777607321739196777e+00,1.777445554733276367e+00,1.777283549308776855e+00,1.777121663093566895e+00,1.776959896087646484e+00,1.776798009872436523e+00,1.776636242866516113e+00,1.776474356651306152e+00,1.776312828063964844e+00,1.776151061058044434e+00,1.775989413261413574e+00,1.775827765464782715e+00,1.775666117668151855e+00,1.775504469871520996e+00,1.775342941284179688e+00,1.775181531906127930e+00,1.775020003318786621e+00,1.774858593940734863e+00,1.774697065353393555e+00,1.774535655975341797e+00,1.774374246597290039e+00,1.774213075637817383e+00,1.774051785469055176e+00,1.773890376091003418e+00,1.773729205131530762e+00,1.773567914962768555e+00,1.773406624794006348e+00,1.773245453834533691e+00,1.773084521293640137e+00,1.772923350334167480e+00,1.772762179374694824e+00,1.772601127624511719e+00,1.772440075874328613e+00,1.772279024124145508e+00,1.772118091583251953e+00,1.771957278251647949e+00,1.771796226501464844e+00,1.771635293960571289e+00,1.771474361419677734e+00,1.771313548088073730e+00,1.771152734756469727e+00,1.770991921424865723e+00,1.770831227302551270e+00,1.770670413970947266e+00,1.770509719848632812e+00,1.770349025726318359e+00,1.770188450813293457e+00,1.770027875900268555e+00,1.769867181777954102e+00,1.769706726074218750e+00,1.769546151161193848e+00,1.769385695457458496e+00,1.769225239753723145e+00,1.769064784049987793e+00,1.768904328346252441e+00,1.768743991851806641e+00,1.768583655357360840e+00,1.768423318862915039e+00,1.768262982368469238e+00,1.768102765083312988e+00,1.767942547798156738e+00,1.767782330513000488e+00,1.767622113227844238e+00,1.767462015151977539e+00,1.767301797866821289e+00,1.767141699790954590e+00,1.766981720924377441e+00,1.766821622848510742e+00,1.766661643981933594e+00,1.766501665115356445e+00,1.766341805458068848e+00,1.766181826591491699e+00,1.766021966934204102e+00,1.765862107276916504e+00,1.765702247619628906e+00,1.765542626380920410e+00,1.765382766723632812e+00,1.765223145484924316e+00,1.765063285827636719e+00,1.764903783798217773e+00
1.607443690299987793e+00,1.607311248779296875e+00,1.607178807258605957e+00,1.607046484947204590e+00,1.606914281845092773e+00,1.606781840324401855e+00,1.606649518013000488e+00,1.606517195701599121e+00,1.606384992599487305e+00,1.606252670288085938e+00,1.606120467185974121e+00,1.605988383293151855e+00,1.605856180191040039e+00,1.605723977088928223e+00,1.605591893196105957e+00,1.605459690093994141e+00,1.605327606201171875e+00,1.605195522308349609e+00,1.605063557624816895e+00,1.604931592941284180e+00,1.604799509048461914e+00,1.604667544364929199e+00,1.604535579681396484e+00,1.604403614997863770e+00,1.604271769523620605e+00,1.604139924049377441e+00,1.604007959365844727e+00,1.603876113891601562e+00,1.603744268417358398e+00,1.603612422943115234e+00,1.603480577468872070e+00,1.603348970413208008e+00,1.603217244148254395e+00,1.603085517883300781e+00,1.602953791618347168e+00,1.602822065353393555e+00,1.602690339088439941e+00,1.602558732032775879e+00,1.602427244186401367e+00,1.602295637130737305e+00,1.602164030075073242e+00,1.602032542228698730e+00,1.601900935173034668e+00,1.601769447326660156e+00,1.601637959480285645e+00,1.601506471633911133e+00,1.601374983787536621e+00,1.601243495941162109e+00,1.601112127304077148e+00,1.600980758666992188e+00,1.600849390029907227e+00,1.600718021392822266e+00,1.600586652755737305e+00,1.600455403327941895e+00,1.600324034690856934e+00,1.600192785263061523e+00,1.600061535835266113e+00,1.599930286407470703e+00,1.599799036979675293e+00,1.599667906761169434e+00,1.599536776542663574e+00,1.599405646324157715e+00,1.599274516105651855e+00,1.599143385887145996e+00,1.599012255668640137e+00,1.598881244659423828e+00,1.598750233650207520e+00,1.598619222640991211e+00,1.598488211631774902e+00,1.598357319831848145e+00,1.598226308822631836e+00,1.598095417022705078e+00,1.597964525222778320e+00,1.597833633422851562e+00,1.597702741622924805e+00,1.597571969032287598e+00,1.597441077232360840e+00,1.597310304641723633e+00,1.597179532051086426e+00,1.597048759460449219e+00
1.467012166976928711e+00,1.466901898384094238e+00,1.466791629791259766e+00,1.466681241989135742e+00,1.466571092605590820e+00,1.466460824012756348e+00,1.466350555419921875e+00,1.466240525245666504e+00,1.466130256652832031e+00,1.466020107269287109e+00,1.465909957885742188e+00,1.465799808502197266e+00,1.465689659118652344e+00,1.465579509735107422e+00,1.465469598770141602e+00,1.465359449386596680e+00,1.465249419212341309e+00,1.465139389038085938e+00,1.465029358863830566e+00,1.464919328689575195e+00,1.464809417724609375e+00,1.464699506759643555e+00,1.464589595794677734e+00,1.464479565620422363e+00,1.464369654655456543e+00,1.464259743690490723e+00,1.464149832725524902e+00,1.464040160179138184e+00,1.463930249214172363e+00,1.463820457458496094e+00,1.463710546493530273e+00,1.463600754737854004e+00,1.463490962982177734e+00,1.463381171226501465e+00,1.463271498680114746e+00,1.463161826133728027e+00,1.463052034378051758e+00,1.462942361831665039e+00,1.462832689285278320e+00,1.462723016738891602e+00,1.462613344192504883e+00,1.462503790855407715e+00,1.462394118309020996e+00,1.462284564971923828e+00,1.462174892425537109e+00,1.462065339088439941e+00,1.461955785751342773e+00,1.461846232414245605e+00,1.461736679077148438e+00,1.461627244949340820e+00,1.461517691612243652e+00,1.461408257484436035e+00,1.461298704147338867e+00,1.461189270019531250e+00,1.461079835891723633e+00,1.460970401763916016e+00,1.460861086845397949e+00,1.460751652717590332e+00,1.460642337799072266e+00,1.460532903671264648e+00,1.460423588752746582e+00,1.460314273834228516e+00,1.460204958915710449e+00,1.460095643997192383e+00,1.459986448287963867e+00,1.459877133369445801e+00,1.459767937660217285e+00,1.459658741950988770e+00,1.459549427032470703e+00,1.459440350532531738e+00,1.459331154823303223e+00,1.459221959114074707e+00,1.459112763404846191e+00,1.459003686904907227e+00,1.458894610404968262e+00,1.458785533905029297e+00,1.458676457405090332e+00,1.458567380905151367e+00,1.458458304405212402e+00,1.458349347114562988e+00
1.349146246910095215e+00,1.349052906036376953e+00,1.348959565162658691e+00,1.348866462707519531e+00,1.348773241043090820e+00,1.348679900169372559e+00,1.348586678504943848e+00,1.348493456840515137e+00,1.348400354385375977e+00,1.348307132720947266e+00,1.348214030265808105e+00,1.348120927810668945e+00,1.348027706146240234e+00,1.347934603691101074e+00,1.347841501235961914e+00,1.347748279571533203e+00,1.347655177116394043e+00,1.347562193870544434e+00,1.347469210624694824e+00,1.347376108169555664e+00,1.347283124923706055e+00,1.347190022468566895e+00,1.347097039222717285e+00,1.347004055976867676e+00,1.346911072731018066e+00,1.346818089485168457e+00,1.346725106239318848e+00,1.346632242202758789e+00,1.346539258956909180e+00,1.346446275711059570e+00,1.346353530883789062e+00,1.346260547637939453e+00,1.346167683601379395e+00,1.346074819564819336e+00,1.345981955528259277e+00,1.345889091491699219e+00,1.345796227455139160e+00,1.345703482627868652e+00,1.345610618591308594e+00,1.345517873764038086e+00,1.345425128936767578e+00,1.345332264900207520e+00,1.345239520072937012e+00,1.345146775245666504e+00,1.345054149627685547e+00,1.344961404800415039e+00,1.344868659973144531e+00,1.344775915145874023e+00,1.344683289527893066e+00,1.344590544700622559e+00,1.344497919082641602e+00,1.344405412673950195e+00,1.344312667846679688e+00,1.344220042228698730e+00,1.344127416610717773e+00,1.344034790992736816e+00,1.343942165374755859e+00,1.343849539756774902e+00,1.343757033348083496e+00,1.343664526939392090e+00,1.343571901321411133e+00,1.343479394912719727e+00,1.343386888504028320e+00,1.343294382095336914e+00,1.343201875686645508e+00,1.343109369277954102e+00,1.343016982078552246e+00,1.342924475669860840e+00,1.342832088470458984e+00,1.342739582061767578e+00,1.342647194862365723e+00,1.342554807662963867e+00,1.342462420463562012e+00,1.342370033264160156e+00,1.342277646064758301e+00,1.342185378074645996e+00,1.342092990875244141e+00,1.342000722885131836e+00,1.341908335685729980e+00,1.341816067695617676e+00
1.248811483383178711e+00,1.248731613159179688e+00,1.248651623725891113e+00,1.248571753501892090e+00,1.248491883277893066e+00,1.248412013053894043e+00,1.248332142829895020e+00,1.248252272605895996e+00,1.248172402381896973e+00,1.248092532157897949e+00,1.248012781143188477e+00,1.247932910919189453e+00,1.247853040695190430e+00,1.247773408889770508e+00,1.247693538665771484e+00,1.247613787651062012e+00,1.247533917427062988e+00,1.247454166412353516e+00,1.247374415397644043e+00,1.247294664382934570e+00,1.247215032577514648e+00,1.247135281562805176e+00,1.247055530548095703e+00,1.246975898742675781e+00,1.246896147727966309e+00,1.246816515922546387e+00,1.246736764907836914e+00,1.246657252311706543e+00,1.246577501296997070e+00,1.246497869491577148e+00,1.246418237686157227e+00,1.246338605880737305e+00,1.246258974075317383e+00,1.246179461479187012e+00,1.246099829673767090e+00,1.246020317077636719e+00,1.245940685272216797e+00,1.245861172676086426e+00,1.245781540870666504e+00,1.245702028274536133e+00,1.245622634887695312e+00,1.245543122291564941e+00,1.245463490486145020e+00,1.245383977890014648e+00,1.245304584503173828e+00,1.245225071907043457e+00,1.245145559310913086e+00,1.245066165924072266e+00,1.244986772537231445e+00,1.244907259941101074e+00,1.244827866554260254e+00,1.244748473167419434e+00,1.244668960571289062e+00,1.244589567184448242e+00,1.244510293006896973e+00,1.244430899620056152e+00,1.244351506233215332e+00,1.244272112846374512e+00,1.244192838668823242e+00,1.244113445281982422e+00,1.244034171104431152e+00,1.243954777717590332e+00,1.243875503540039062e+00,1.243796229362487793e+00,1.243716835975646973e+00,1.243637561798095703e+00,1.243558287620544434e+00,1.243479013442993164e+00,1.243399858474731445e+00,1.243320584297180176e+00,1.243241310119628906e+00,1.243162155151367188e+00,1.243082880973815918e+00,1.243003726005554199e+00,1.242924451828002930e+00,1.242845296859741211e+00,1.242766141891479492e+00,1.242686986923217773e+00,1.242607831954956055e+00,1.242528676986694336e+00
1.162367343902587891e+00,1.162298083305358887e+00,1.162228941917419434e+00,1.162159681320190430e+00,1.162090420722961426e+00,1.162021279335021973e+00,1.161952018737792969e+00,1.161882877349853516e+00,1.161813616752624512e+00,1.161744594573974609e+00,1.161675333976745605e+00,1.161606192588806152e+00,1.161537051200866699e+00,1.161467909812927246e+00,1.161398768424987793e+00,1.161329627037048340e+00,1.161260485649108887e+00,1.161191463470458984e+00,1.161122322082519531e+00,1.161053180694580078e+00,1.160984039306640625e+00,1.160915017127990723e+00,1.160845875740051270e+00,1.160776972770690918e+00,1.160707831382751465e+00,1.160638809204101562e+00,1.160569787025451660e+00,1.160500764846801758e+00,1.160431742668151855e+00,1.160362720489501953e+00,1.160293698310852051e+00,1.160224676132202148e+00,1.160155773162841797e+00,1.160086750984191895e+00,1.160017728805541992e+00,1.159948825836181641e+00,1.159879922866821289e+00,1.159810900688171387e+00,1.159741997718811035e+00,1.159673094749450684e+00,1.159604072570800781e+00,1.159535169601440430e+00,1.159466266632080078e+00,1.159397482872009277e+00,1.159328579902648926e+00,1.159259676933288574e+00,1.159190773963928223e+00,1.159121870994567871e+00,1.159052968025207520e+00,1.158984184265136719e+00,1.158915400505065918e+00,1.158846497535705566e+00,1.158777713775634766e+00,1.158708810806274414e+00,1.158640027046203613e+00,1.158571243286132812e+00,1.158502459526062012e+00,1.158433675765991211e+00,1.158365011215209961e+00,1.158296227455139160e+00,1.158227443695068359e+00,1.158158659934997559e+00,1.158089876174926758e+00,1.158021211624145508e+00,1.157952427864074707e+00,1.157883644104003906e+00,1.157814979553222656e+00,1.157746315002441406e+00,1.157677531242370605e+00,1.157608866691589355e+00,1.157540202140808105e+00,1.157471537590026855e+00,1.157402873039245605e+00,1.157334208488464355e+00,1.157265543937683105e+00,1.157196879386901855e+00,1.157128214836120605e+00,1.157059550285339355e+00,1.156991004943847656e+00,1.156922340393066406e+00
1.087116003036499023e+00,1.087055325508117676e+00,1.086994767189025879e+00,1.086934208869934082e+00,1.086873650550842285e+00,1.086813211441040039e+00,1.086752653121948242e+00,1.086692094802856445e+00,1.086631655693054199e+00,1.086571097373962402e+00,1.086510539054870605e+00,1.086450099945068359e+00,1.086389660835266113e+00,1.086329102516174316e+00,1.086268663406372070e+00,1.086208224296569824e+00,1.086147665977478027e+00,1.086087226867675781e+00,1.086026787757873535e+00,1.085966348648071289e+00,1.085905909538269043e+00,1.085845470428466797e+00,1.085785031318664551e+00,1.085724592208862305e+00,1.085664153099060059e+00,1.085603833198547363e+00,1.085543394088745117e+00,1.085483074188232422e+00,1.085422635078430176e+00,1.085362315177917480e+00,1.085301876068115234e+00,1.085241556167602539e+00,1.085181117057800293e+00,1.085120916366577148e+00,1.085060477256774902e+00,1.085000157356262207e+00,1.084939837455749512e+00,1.084879517555236816e+00,1.084819197654724121e+00,1.084758877754211426e+00,1.084698557853698730e+00,1.084638237953186035e+00,1.084577918052673340e+00,1.084517717361450195e+00,1.084457397460937500e+00,1.084397077560424805e+00,1.084336876869201660e+00,1.084276676177978516e+00,1.084216356277465820e+00,1.084156155586242676e+00,1.084095835685729980e+00,1.084035634994506836e+00,1.083975434303283691e+00,1.083915233612060547e+00,1.083855032920837402e+00,1.083794832229614258e+00,1.083734631538391113e+00,1.083674430847167969e+00,1.083614230155944824e+00,1.083554029464721680e+00,1.083493947982788086e+00,1.083433747291564941e+00,1.083373546600341797e+00,1.083313465118408203e+00,1.083253264427185059e+00,1.083193063735961914e+00,1.083132982254028320e+00,1.083072900772094727e+00,1.083012700080871582e+00,1.082952618598937988e+00,1.082892537117004395e+00,1.082832336425781250e+00,1.082772254943847656e+00,1.082712173461914062e+00,1.082652091979980469e+00,1.082592010498046875e+00,1.082531929016113281e+00,1.082471847534179688e+00,1.082411766052246094e+00,1.082351803779602051e+00
1.021015644073486328e+00,1.020962238311767578e+00,1.020908832550048828e+00,1.020855426788330078e+00,1.020801901817321777e+00,1.020748496055603027e+00,1.020695090293884277e+00,1.020641684532165527e+00,1.020588397979736328e+00,1.020534992218017578e+00,1.020481586456298828e+00,1.020428299903869629e+00,1.020374894142150879e+00,1.020321488380432129e+00,1.020268201828002930e+00,1.020214915275573730e+00,1.020161509513854980e+00,1.020108222961425781e+00,1.020054817199707031e+00,1.020001530647277832e+00,1.019948124885559082e+00,1.019894838333129883e+00,1.019841551780700684e+00,1.019788265228271484e+00,1.019734978675842285e+00,1.019681692123413086e+00,1.019628405570983887e+00,1.019575119018554688e+00,1.019521832466125488e+00,1.019468545913696289e+00,1.019415259361267090e+00,1.019362092018127441e+00,1.019308805465698242e+00,1.019255518913269043e+00,1.019202232360839844e+00,1.019149065017700195e+00,1.019095897674560547e+00,1.019042611122131348e+00,1.018989443778991699e+00,1.018936157226562500e+00,1.018882989883422852e+00,1.018829703330993652e+00,1.018776655197143555e+00,1.018723368644714355e+00,1.018670201301574707e+00,1.018617033958435059e+00,1.018563866615295410e+00,1.018510699272155762e+00,1.018457531929016113e+00,1.018404364585876465e+00,1.018351197242736816e+00,1.018298029899597168e+00,1.018244862556457520e+00,1.018191814422607422e+00,1.018138647079467773e+00,1.018085479736328125e+00,1.018032431602478027e+00,1.017979264259338379e+00,1.017926216125488281e+00,1.017873048782348633e+00,1.017820000648498535e+00,1.017766833305358887e+00,1.017713785171508789e+00,1.017660737037658691e+00,1.017607688903808594e+00,1.017554640769958496e+00,1.017501473426818848e+00,1.017448425292968750e+00,1.017395377159118652e+00,1.017342448234558105e+00,1.017289400100708008e+00,1.017236351966857910e+00,1.017183303833007812e+00,1.017130255699157715e+00,1.017077207565307617e+00,1.017024159431457520e+00,1.016971111297607422e+00,1.016918182373046875e+00,1.016865134239196777e+00,1.016812205314636230e+00
9.624928236007690430e-01,9.624453186988830566e-01,9.623978137969970703e-01,9.623503684997558594e-01,9.623029828071594238e-01,9.622555375099182129e-01,9.622080922126770020e-01,9.621606469154357910e-01,9.621132016181945801e-01,9.620657563209533691e-01,9.620183110237121582e-01,9.619708657264709473e-01,9.619234204292297363e-01,9.618759751319885254e-01,9.618285894393920898e-01,9.617811441421508789e-01,9.617337584495544434e-01,9.616863131523132324e-01,9.616390466690063477e-01,9.615916609764099121e-01,9.615442752838134766e-01,9.614968299865722656e-01,9.614494442939758301e-01,9.614020586013793945e-01,9.613547325134277344e-01,9.613073468208312988e-01,9.612599611282348633e-01,9.612126350402832031e-01,9.611652493476867676e-01,9.611179232597351074e-01,9.610705375671386719e-01,9.610232114791870117e-01,9.609760046005249023e-01,9.609286189079284668e-01,9.608812928199768066e-01,9.608339667320251465e-01,9.607866406440734863e-01,9.607393741607666016e-01,9.606920480728149414e-01,9.606447219848632812e-01,9.605974555015563965e-01,9.605501294136047363e-01,9.605028629302978516e-01,9.604555368423461914e-01,9.604082703590393066e-01,9.603611230850219727e-01,9.603137969970703125e-01,9.602665305137634277e-01,9.602192640304565430e-01,9.601719975471496582e-01,9.601247906684875488e-01,9.600775241851806641e-01,9.600302577018737793e-01,9.599830508232116699e-01,9.599357843399047852e-01,9.598885774612426758e-01,9.598413109779357910e-01,9.597941040992736816e-01,9.597468972206115723e-01,9.596998095512390137e-01,9.596526026725769043e-01,9.596053957939147949e-01,9.595581889152526855e-01,9.595109820365905762e-01,9.594637751579284668e-01,9.594165682792663574e-01,9.593694210052490234e-01,9.593222141265869141e-01,9.592750668525695801e-01,9.592279195785522461e-01,9.591807126998901367e-01,9.591335654258728027e-01,9.590865373611450195e-01,9.590393900871276855e-01,9.589922428131103516e-01,9.589450955390930176e-01,9.588979482650756836e-01,9.588508009910583496e-01,9.588037133216857910e-01,9.587565660476684570e-01
9.103151559829711914e-01,9.102727174758911133e-01,9.102302193641662598e-01,9.101877808570861816e-01,9.101452827453613281e-01,9.101028442382812500e-01,9.100603461265563965e-01,9.100180268287658691e-01,9.099755883216857910e-01,9.099331498146057129e-01,9.098907113075256348e-01,9.098482728004455566e-01,9.098058342933654785e-01,9.097633957862854004e-01,9.097209572792053223e-01,9.096785187721252441e-01,9.096361398696899414e-01,9.095937013626098633e-01,9.095513224601745605e-01,9.095088839530944824e-01,9.094665050506591797e-01,9.094241857528686523e-01,9.093818068504333496e-01,9.093394279479980469e-01,9.092970490455627441e-01,9.092546701431274414e-01,9.092122912406921387e-01,9.091699123382568359e-01,9.091275334358215332e-01,9.090851545333862305e-01,9.090428352355957031e-01,9.090004563331604004e-01,9.089580774307250977e-01,9.089157581329345703e-01,9.088733792304992676e-01,9.088311791419982910e-01,9.087888598442077637e-01,9.087464809417724609e-01,9.087041616439819336e-01,9.086618423461914062e-01,9.086195230484008789e-01,9.085772037506103516e-01,9.085348844528198242e-01,9.084925651550292969e-01,9.084503054618835449e-01,9.084079861640930176e-01,9.083656668663024902e-01,9.083234071731567383e-01,9.082812070846557617e-01,9.082388877868652344e-01,9.081966280937194824e-01,9.081543684005737305e-01,9.081120491027832031e-01,9.080697894096374512e-01,9.080275297164916992e-01,9.079852700233459473e-01,9.079430103302001953e-01,9.079007506370544434e-01,9.078584909439086914e-01,9.078162908554077148e-01,9.077740311622619629e-01,9.077317714691162109e-01,9.076896309852600098e-01,9.076474308967590332e-01,9.076051712036132812e-01,9.075629711151123047e-01,9.075207710266113281e-01,9.074785113334655762e-01,9.074363112449645996e-01,9.073941111564636230e-01,9.073519110679626465e-01,9.073097109794616699e-01,9.072675108909606934e-01,9.072253108024597168e-01,9.071831107139587402e-01,9.071410298347473145e-01,9.070988893508911133e-01,9.070566892623901367e-01,9.070145487785339355e-01,9.069723486900329590e-01
8.635038137435913086e-01,8.634656071662902832e-01,8.634274005889892578e-01,8.633891940116882324e-01,8.633509874343872070e-01,8.633127808570861816e-01,8.632745742797851562e-01,8.632363677024841309e-01,8.631981611251831055e-01,8.631599545478820801e-01,8.631218671798706055e-01,8.630836606025695801e-01,8.630455136299133301e-01,8.630073070526123047e-01,8.629691600799560547e-01,8.629309535026550293e-01,8.628928065299987793e-01,8.628546595573425293e-01,8.628164529800415039e-01,8.627783060073852539e-01,8.627401590347290039e-01,8.627020120620727539e-01,8.626638650894165039e-01,8.626257181167602539e-01,8.625876307487487793e-01,8.625494837760925293e-01,8.625113964080810547e-01,8.624732494354248047e-01,8.624351024627685547e-01,8.623970150947570801e-01,8.623588681221008301e-01,8.623207211494445801e-01,8.622826337814331055e-01,8.622445464134216309e-01,8.622063994407653809e-01,8.621683120727539062e-01,8.621302247047424316e-01,8.620920777320861816e-01,8.620541095733642578e-01,8.620160222053527832e-01,8.619779348373413086e-01,8.619398474693298340e-01,8.619017601013183594e-01,8.618636727333068848e-01,8.618255853652954102e-01,8.617875576019287109e-01,8.617494702339172363e-01,8.617113828659057617e-01,8.616733551025390625e-01,8.616352677345275879e-01,8.615972399711608887e-01,8.615592718124389648e-01,8.615212440490722656e-01,8.614831566810607910e-01,8.614451289176940918e-01,8.614071011543273926e-01,8.613690733909606934e-01,8.613310456275939941e-01,8.612930178642272949e-01,8.612549901008605957e-01,8.612169623374938965e-01,8.611789345741271973e-01,8.611409068107604980e-01,8.611029386520385742e-01,8.610649108886718750e-01,8.610270023345947266e-01,8.609889745712280273e-01,8.609510064125061035e-01,8.609129786491394043e-01,8.608750104904174805e-01,8.608370423316955566e-01,8.607990145683288574e-01,8.607610464096069336e-01,8.607230782508850098e-01,8.606851100921630859e-01,8.606471419334411621e-01,8.606091737747192383e-01,8.605712056159973145e-01,8.605332970619201660e-01,8.604953885078430176e-01
8.212713599205017090e-01,8.212367892265319824e-01,8.212022185325622559e-01,8.211676478385925293e-01,8.211330771446228027e-01,8.210985660552978516e-01,8.210639953613281250e-01,8.210294246673583984e-01,8.209948539733886719e-01,8.209603428840637207e-01,8.209257721900939941e-01,8.208912611007690430e-01,8.208566904067993164e-01,8.208222389221191406e-01,8.207877278327941895e-01,8.207531571388244629e-01,8.207186460494995117e-01,8.206841349601745605e-01,8.206496238708496094e-01,8.206151127815246582e-01,8.205806016921997070e-01,8.205460309982299805e-01,8.205115795135498047e-01,8.204770684242248535e-01,8.204425573348999023e-01,8.204080462455749512e-01,8.203735351562500000e-01,8.203391432762145996e-01,8.203046321868896484e-01,8.202701210975646973e-01,8.202356696128845215e-01,8.202011585235595703e-01,8.201666474342346191e-01,8.201321959495544434e-01,8.200977444648742676e-01,8.200632333755493164e-01,8.200287818908691406e-01,8.199943304061889648e-01,8.199598193168640137e-01,8.199253678321838379e-01,8.198909163475036621e-01,8.198565244674682617e-01,8.198220729827880859e-01,8.197876214981079102e-01,8.197531700134277344e-01,8.197187185287475586e-01,8.196843266487121582e-01,8.196498751640319824e-01,8.196154236793518066e-01,8.195809721946716309e-01,8.195465803146362305e-01,8.195121288299560547e-01,8.194777369499206543e-01,8.194432854652404785e-01,8.194089531898498535e-01,8.193745017051696777e-01,8.193401098251342773e-01,8.193057179450988770e-01,8.192713260650634766e-01,8.192368745803833008e-01,8.192024827003479004e-01,8.191680908203125000e-01,8.191336989402770996e-01,8.190993070602416992e-01,8.190649151802062988e-01,8.190305233001708984e-01,8.189961314201354980e-01,8.189617395401000977e-01,8.189274668693542480e-01,8.188930749893188477e-01,8.188587427139282227e-01,8.188243508338928223e-01,8.187899589538574219e-01,8.187556266784667969e-01,8.187212347984313965e-01,8.186869025230407715e-01,8.186525106430053711e-01,8.186181783676147461e-01,8.185838460922241211e-01,8.185495138168334961e-01
7.829772830009460449e-01,7.829458713531494141e-01,7.829144597053527832e-01,7.828831076622009277e-01,7.828516960144042969e-01,7.828202843666076660e-01,7.827888727188110352e-01,7.827574610710144043e-01,7.827260494232177734e-01,7.826946377754211426e-01,7.826632261276245117e-01,7.826318144798278809e-01,7.826004624366760254e-01,7.825690507888793945e-01,7.825376391410827637e-01,7.825062870979309082e-01,7.824749350547790527e-01,7.824435830116271973e-01,7.824121713638305664e-01,7.823808193206787109e-01,7.823494672775268555e-01,7.823180556297302246e-01,7.822867035865783691e-01,7.822553515434265137e-01,7.822239398956298828e-01,7.821925878524780273e-01,7.821612358093261719e-01,7.821298837661743164e-01,7.820985317230224609e-01,7.820671796798706055e-01,7.820358872413635254e-01,7.820045351982116699e-01,7.819731831550598145e-01,7.819418311119079590e-01,7.819104790687561035e-01,7.818791866302490234e-01,7.818478345870971680e-01,7.818164825439453125e-01,7.817851901054382324e-01,7.817538380622863770e-01,7.817224860191345215e-01,7.816911935806274414e-01,7.816598415374755859e-01,7.816285490989685059e-01,7.815973162651062012e-01,7.815659642219543457e-01,7.815346717834472656e-01,7.815033793449401855e-01,7.814720869064331055e-01,7.814407348632812500e-01,7.814094424247741699e-01,7.813781499862670898e-01,7.813468575477600098e-01,7.813155651092529297e-01,7.812842726707458496e-01,7.812529802322387695e-01,7.812216877937316895e-01,7.811905145645141602e-01,7.811592221260070801e-01,7.811279296875000000e-01,7.810966372489929199e-01,7.810654044151306152e-01,7.810341119766235352e-01,7.810028791427612305e-01,7.809715867042541504e-01,7.809402942657470703e-01,7.809090614318847656e-01,7.808778285980224609e-01,7.808465361595153809e-01,7.808153033256530762e-01,7.807840704917907715e-01,7.807528376579284668e-01,7.807216048240661621e-01,7.806903719902038574e-01,7.806591391563415527e-01,7.806279063224792480e-01,7.805966734886169434e-01,7.805654406547546387e-01,7.805342078208923340e-01,7.805029749870300293e-01
7.480953335762023926e-01,7.480666041374206543e-01,7.480379343032836914e-01,7.480092644691467285e-01,7.479805946350097656e-01,7.479519248008728027e-01,7.479233145713806152e-01,7.478945851325988770e-01,7.478659152984619141e-01,7.478373050689697266e-01,7.478086352348327637e-01,7.477799654006958008e-01,7.477512955665588379e-01,7.477226257324218750e-01,7.476939558982849121e-01,7.476652860641479492e-01,7.476366758346557617e-01,7.476080060005187988e-01,7.475793361663818359e-01,7.475507855415344238e-01,7.475221157073974609e-01,7.474935054779052734e-01,7.474648356437683105e-01,7.474362254142761230e-01,7.474075555801391602e-01,7.473789453506469727e-01,7.473503351211547852e-01,7.473216652870178223e-01,7.472930550575256348e-01,7.472644448280334473e-01,7.472357749938964844e-01,7.472071647644042969e-01,7.471785545349121094e-01,7.471500039100646973e-01,7.471213936805725098e-01,7.470927834510803223e-01,7.470641732215881348e-01,7.470355629920959473e-01,7.470069527626037598e-01,7.469783425331115723e-01,7.469497323036193848e-01,7.469211816787719727e-01,7.468925714492797852e-01,7.468639612197875977e-01,7.468353509902954102e-01,7.468068003654479980e-01,7.467781901359558105e-01,7.467496991157531738e-01,7.467210888862609863e-01,7.466925382614135742e-01,7.466639280319213867e-01,7.466353774070739746e-01,7.466067671775817871e-01,7.465782165527343750e-01,7.465496659278869629e-01,7.465210556983947754e-01,7.464925050735473633e-01,7.464639544486999512e-01,7.464354038238525391e-01,7.464067935943603516e-01,7.463783025741577148e-01,7.463497519493103027e-01,7.463212013244628906e-01,7.462926506996154785e-01,7.462641000747680664e-01,7.462355494499206543e-01,7.462070584297180176e-01,7.461785078048706055e-01,7.461499571800231934e-01,7.461214065551757812e-01,7.460928559303283691e-01,7.460643649101257324e-01,7.460358142852783203e-01,7.460072636604309082e-01,7.459788322448730469e-01,7.459502816200256348e-01,7.459217905998229980e-01,7.458932399749755859e-01,7.458647489547729492e-01,7.458361983299255371e-01
7.161887884140014648e-01,7.161625027656555176e-01,7.161362171173095703e-01,7.161098718643188477e-01,7.160835862159729004e-01,7.160573005676269531e-01,7.160310745239257812e-01,7.160047888755798340e-01,7.159785032272338867e-01,7.159522771835327148e-01,7.159259915351867676e-01,7.158997058868408203e-01,7.158734798431396484e-01,7.158471941947937012e-01,7.158209085464477539e-01,7.157946825027465820e-01,7.157683968544006348e-01,7.157421112060546875e-01,7.157158851623535156e-01,7.156895995140075684e-01,7.156633734703063965e-01,7.156370878219604492e-01,7.156109213829040527e-01,7.155846953392028809e-01,7.155584096908569336e-01,7.155321836471557617e-01,7.155059576034545898e-01,7.154796719551086426e-01,7.154534459114074707e-01,7.154272198677062988e-01,7.154009938240051270e-01,7.153747677803039551e-01,7.153485417366027832e-01,7.153223156929016113e-01,7.152960896492004395e-01,7.152698636054992676e-01,7.152436971664428711e-01,7.152174711227416992e-01,7.151912450790405273e-01,7.151650190353393555e-01,7.151387929916381836e-01,7.151125669479370117e-01,7.150863409042358398e-01,7.150601744651794434e-01,7.150339484214782715e-01,7.150077223777770996e-01,7.149815559387207031e-01,7.149553298950195312e-01,7.149291634559631348e-01,7.149029970169067383e-01,7.148768305778503418e-01,7.148506045341491699e-01,7.148244380950927734e-01,7.147982120513916016e-01,7.147720456123352051e-01,7.147458195686340332e-01,7.147196531295776367e-01,7.146934866905212402e-01,7.146673202514648438e-01,7.146410942077636719e-01,7.146149277687072754e-01,7.145887613296508789e-01,7.145625948905944824e-01,7.145364880561828613e-01,7.145103216171264648e-01,7.144841551780700684e-01,7.144579887390136719e-01,7.144318222999572754e-01,7.144056558609008789e-01,7.143794894218444824e-01,7.143533229827880859e-01,7.143271565437316895e-01,7.143009901046752930e-01,7.142748832702636719e-01,7.142487168312072754e-01,7.142225503921508789e-01,7.141963839530944824e-01,7.141703367233276367e-01,7.141441702842712402e-01,7.141180634498596191e-01
6.868925690650939941e-01,6.868683695793151855e-01,6.868441700935363770e-01,6.868200302124023438e-01,6.867958307266235352e-01,6.867716312408447266e-01,6.867474913597106934e-01,6.867232918739318848e-01,6.866991519927978516e-01,6.866749525070190430e-01,6.866508126258850098e-01,6.866266131401062012e-01,6.866025328636169434e-01,6.865783333778381348e-01,6.865541934967041016e-01,6.865300536155700684e-01,6.865058541297912598e-01,6.864817142486572266e-01,6.864575743675231934e-01,6.864333748817443848e-01,6.864092350006103516e-01,6.863850951194763184e-01,6.863609552383422852e-01,6.863368153572082520e-01,6.863126754760742188e-01,6.862885951995849609e-01,6.862644553184509277e-01,6.862403154373168945e-01,6.862161755561828613e-01,6.861920356750488281e-01,6.861678957939147949e-01,6.861437559127807617e-01,6.861196160316467285e-01,6.860954761505126953e-01,6.860713362693786621e-01,6.860471963882446289e-01,6.860231161117553711e-01,6.859989762306213379e-01,6.859748363494873047e-01,6.859508156776428223e-01,6.859266757965087891e-01,6.859025359153747559e-01,6.858784556388854980e-01,6.858543157577514648e-01,6.858302354812622070e-01,6.858060956001281738e-01,6.857820153236389160e-01,6.857578754425048828e-01,6.857337951660156250e-01,6.857096552848815918e-01,6.856855750083923340e-01,6.856614947319030762e-01,6.856373548507690430e-01,6.856133341789245605e-01,6.855892539024353027e-01,6.855651736259460449e-01,6.855410337448120117e-01,6.855169534683227539e-01,6.854928731918334961e-01,6.854687929153442383e-01,6.854447126388549805e-01,6.854206323623657227e-01,6.853965520858764648e-01,6.853724718093872070e-01,6.853483915328979492e-01,6.853243112564086914e-01,6.853002905845642090e-01,6.852762103080749512e-01,6.852521300315856934e-01,6.852281093597412109e-01,6.852040290832519531e-01,6.851799488067626953e-01,6.851558685302734375e-01,6.851318478584289551e-01,6.851077675819396973e-01,6.850836873054504395e-01,6.850596666336059570e-01,6.850355863571166992e-01,6.850115060806274414e-01,6.849874854087829590e-01
