4.898376941680908203e+00,5.000000000000000000e+00,5.000000000000000000e+00,5.000000000000000000e+00,5.000000000000000000e+00,5.000000000000000000e+00,5.000000000000000000e+00,5.000000000000000000e+00,5.000000000000000000e+00,5.000000000000000000e+00,5.000000000000000000e+00,5.000000000000000000e+00,5.000000000000000000e+00,5.000000000000000000e+00,5.000000000000000000e+00,5.000000000000000000e+00,5.000000000000000000e+00,5.000000000000000000e+00,5.000000000000000000e+00,5.000000000000000000e+00,5.000000000000000000e+00,5.000000000000000000e+00,5.000000000000000000e+00,5.000000000000000000e+00,5.000000000000000000e+00,5.000000000000000000e+00,5.000000000000000000e+00,5.000000000000000000e+00,5.000000000000000000e+00,5.000000000000000000e+00,5.000000000000000000e+00,5.000000000000000000e+00,5.000000000000000000e+00,5.000000000000000000e+00,5.000000000000000000e+00,5.000000000000000000e+00,5.000000000000000000e+00,5.000000000000000000e+00,5.000000000000000000e+00,5.000000000000000000e+00,5.000000000000000000e+00,5.000000000000000000e+00,5.000000000000000000e+00,5.000000000000000000e+00,5.000000000000000000e+00,5.000000000000000000e+00,5.000000000000000000e+00,5.000000000000000000e+00,5.000000000000000000e+00,5.000000000000000000e+00,5.000000000000000000e+00,5.000000000000000000e+00,5.000000000000000000e+00,5.000000000000000000e+00,5.000000000000000000e+00,4.980623245239257812e+00,4.780777931213378906e+00,4.596350669860839844e+00,4.425624370574951172e+00,4.267127037048339844e+00,4.119589805603027344e+00,3.981866359710693359e+00,3.853049993515014648e+00,3.732307434082031250e+00,3.618902206420898438e+00,3.512202978134155273e+00,3.411636590957641602e+00,3.316668748855590820e+00,3.226845026016235352e+00,3.141758441925048828e+00,3.061043500900268555e+00,2.984372138977050781e+00,2.911447525024414062e+00,2.842001914978027344e+00,2.775792360305786133e+00,2.712597131729125977e+00,9.351603388786315918e-01,9.149352908134460449e-01,8.971682190895080566e-01,8.823950290679931641e-01
4.898250579833984375e+00,5.000000000000000000e+00,5.000000000000000000e+00,5.000000000000000000e+00,5.000000000000000000e+00,5.000000000000000000e+00,5.000000000000000000e+00,5.000000000000000000e+00,5.000000000000000000e+00,5.000000000000000000e+00,5.000000000000000000e+00,5.000000000000000000e+00,5.000000000000000000e+00,5.000000000000000000e+00,5.000000000000000000e+00,5.000000000000000000e+00,5.000000000000000000e+00,5.000000000000000000e+00,5.000000000000000000e+00,5.000000000000000000e+00,5.000000000000000000e+00,5.000000000000000000e+00,5.000000000000000000e+00,5.000000000000000000e+00,5.000000000000000000e+00,5.000000000000000000e+00,5.000000000000000000e+00,5.000000000000000000e+00,5.000000000000000000e+00,5.000000000000000000e+00,5.000000000000000000e+00,5.000000000000000000e+00,5.000000000000000000e+00,5.000000000000000000e+00,5.000000000000000000e+00,5.000000000000000000e+00,5.000000000000000000e+00,5.000000000000000000e+00,5.000000000000000000e+00,5.000000000000000000e+00,5.000000000000000000e+00,5.000000000000000000e+00,5.000000000000000000e+00,5.000000000000000000e+00,5.000000000000000000e+00,5.000000000000000000e+00,5.000000000000000000e+00,5.000000000000000000e+00,5.000000000000000000e+00,5.000000000000000000e+00,5.000000000000000000e+00,5.000000000000000000e+00,5.000000000000000000e+00,5.000000000000000000e+00,5.000000000000000000e+00,4.980790138244628906e+00,4.780930995941162109e+00,4.596492290496826172e+00,4.425755023956298828e+00,4.267189502716064453e+00,4.119593143463134766e+00,3.981866359710693359e+00,3.853049993515014648e+00,3.732331037521362305e+00,3.618967056274414062e+00,3.512286186218261719e+00,3.411715030670166016e+00,3.316743135452270508e+00,3.226915121078491211e+00,3.141824960708618164e+00,3.061106681823730469e+00,2.984431982040405273e+00,2.911504983901977539e+00,2.842056512832641602e+00,2.775844335556030273e+00,9.574065208435058594e-01,9.379040002822875977e-01,9.175614118576049805e-01,9.006547331809997559e-01,8.857673406600952148e-01
4.898124694824218750e+00,5.000000000000000000e+00,5.000000000000000000e+00,5.000000000000000000e+00,5.000000000000000000e+00,5.000000000000000000e+00,5.000000000000000000e+00,5.000000000000000000e+00,5.000000000000000000e+00,5.000000000000000000e+00,5.000000000000000000e+00,5.000000000000000000e+00,5.000000000000000000e+00,5.000000000000000000e+00,5.000000000000000000e+00,5.000000000000000000e+00,5.000000000000000000e+00,5.000000000000000000e+00,5.000000000000000000e+00,5.000000000000000000e+00,5.000000000000000000e+00,5.000000000000000000e+00,5.000000000000000000e+00,5.000000000000000000e+00,5.000000000000000000e+00,5.000000000000000000e+00,5.000000000000000000e+00,5.000000000000000000e+00,5.000000000000000000e+00,5.000000000000000000e+00,5.000000000000000000e+00,5.000000000000000000e+00,5.000000000000000000e+00,5.000000000000000000e+00,5.000000000000000000e+00,5.000000000000000000e+00,5.000000000000000000e+00,5.000000000000000000e+00,5.000000000000000000e+00,5.000000000000000000e+00,5.000000000000000000e+00,5.000000000000000000e+00,5.000000000000000000e+00,5.000000000000000000e+00,5.000000000000000000e+00,5.000000000000000000e+00,5.000000000000000000e+00,5.000000000000000000e+00,5.000000000000000000e+00,5.000000000000000000e+00,5.000000000000000000e+00,5.000000000000000000e+00,5.000000000000000000e+00,5.000000000000000000e+00,5.000000000000000000e+00,4.980956554412841797e+00,4.781077384948730469e+00,4.596559524536132812e+00,4.425755023956298828e+00,4.267189502716064453e+00,4.119593143463134766e+00,3.981897115707397461e+00,3.853127479553222656e+00,3.732424736022949219e+00,3.619055271148681641e+00,3.512369632720947266e+00,3.411793231964111328e+00,3.316817283630371094e+00,3.226985216140747070e+00,3.141891479492187500e+00,3.061169862747192383e+00,2.984492063522338867e+00,2.911561965942382812e+00,2.842110872268676758e+00,2.775896072387695312e+00,9.601817727088928223e-01,9.406638741493225098e-01,9.202026724815368652e-01,9.041683673858642578e-01,8.891218900680541992e-01
4.897998809814453125e+00,5.000000000000000000e+00,5.000000000000000000e+00,5.000000000000000000e+00,5.000000000000000000e+00,5.000000000000000000e+00,5.000000000000000000e+00,5.000000000000000000e+00,5.000000000000000000e+00,5.000000000000000000e+00,5.000000000000000000e+00,5.000000000000000000e+00,5.000000000000000000e+00,5.000000000000000000e+00,5.000000000000000000e+00,5.000000000000000000e+00,5.000000000000000000e+00,5.000000000000000000e+00,5.000000000000000000e+00,5.000000000000000000e+00,5.000000000000000000e+00,5.000000000000000000e+00,5.000000000000000000e+00,5.000000000000000000e+00,5.000000000000000000e+00,5.000000000000000000e+00,5.000000000000000000e+00,5.000000000000000000e+00,5.000000000000000000e+00,5.000000000000000000e+00,5.000000000000000000e+00,5.000000000000000000e+00,5.000000000000000000e+00,5.000000000000000000e+00,5.000000000000000000e+00,5.000000000000000000e+00,5.000000000000000000e+00,5.000000000000000000e+00,5.000000000000000000e+00,5.000000000000000000e+00,5.000000000000000000e+00,5.000000000000000000e+00,5.000000000000000000e+00,5.000000000000000000e+00,5.000000000000000000e+00,5.000000000000000000e+00,5.000000000000000000e+00,5.000000000000000000e+00,5.000000000000000000e+00,5.000000000000000000e+00,5.000000000000000000e+00,5.000000000000000000e+00,5.000000000000000000e+00,5.000000000000000000e+00,5.000000000000000000e+00,4.981028079986572266e+00,4.781077384948730469e+00,4.596559524536132812e+00,4.425755023956298828e+00,4.267230033874511719e+00,4.119686126708984375e+00,3.982003927230834961e+00,3.853227376937866211e+00,3.732519149780273438e+00,3.619143486022949219e+00,3.512452602386474609e+00,3.411871671676635742e+00,3.316891431808471680e+00,3.227055788040161133e+00,3.141957759857177734e+00,3.061233043670654297e+00,2.984551906585693359e+00,2.911618947982788086e+00,2.842165470123291016e+00,2.775948047637939453e+00,9.629731774330139160e-01,9.434398412704467773e-01,9.233500957489013672e-01,9.077095985412597656e-01,8.903888463973999023e-01
4.897882938385009766e+00,5.000000000000000000e+00,5.000000000000000000e+00,5.000000000000000000e+00,5.000000000000000000e+00,5.000000000000000000e+00,5.000000000000000000e+00,5.000000000000000000e+00,5.000000000000000000e+00,5.000000000000000000e+00,5.000000000000000000e+00,5.000000000000000000e+00,5.000000000000000000e+00,5.000000000000000000e+00,5.000000000000000000e+00,5.000000000000000000e+00,5.000000000000000000e+00,5.000000000000000000e+00,5.000000000000000000e+00,5.000000000000000000e+00,5.000000000000000000e+00,5.000000000000000000e+00,5.000000000000000000e+00,5.000000000000000000e+00,5.000000000000000000e+00,5.000000000000000000e+00,5.000000000000000000e+00,5.000000000000000000e+00,5.000000000000000000e+00,5.000000000000000000e+00,5.000000000000000000e+00,5.000000000000000000e+00,5.000000000000000000e+00,5.000000000000000000e+00,5.000000000000000000e+00,5.000000000000000000e+00,5.000000000000000000e+00,5.000000000000000000e+00,5.000000000000000000e+00,5.000000000000000000e+00,5.000000000000000000e+00,5.000000000000000000e+00,5.000000000000000000e+00,5.000000000000000000e+00,5.000000000000000000e+00,5.000000000000000000e+00,5.000000000000000000e+00,5.000000000000000000e+00,5.000000000000000000e+00,5.000000000000000000e+00,5.000000000000000000e+00,5.000000000000000000e+00,5.000000000000000000e+00,5.000000000000000000e+00,5.000000000000000000e+00,4.981028079986572266e+00,4.781077384948730469e+00,4.596611499786376953e+00,4.425866603851318359e+00,4.267352581024169922e+00,4.119800567626953125e+00,3.982111215591430664e+00,3.853327274322509766e+00,3.732612848281860352e+00,3.619231700897216797e+00,3.512535810470581055e+00,3.411950588226318359e+00,3.316965341567993164e+00,3.227125883102416992e+00,3.142024278640747070e+00,3.061296224594116211e+00,2.984612226486206055e+00,2.911676168441772461e+00,2.842219829559326172e+00,2.776000022888183594e+00,9.657807350158691406e-01,9.462324380874633789e-01,9.270434975624084473e-01,9.103395938873291016e-01,8.916592597961425781e-01
4.897768974304199219e+00,5.000000000000000000e+00,5.000000000000000000e+00,5.000000000000000000e+00,5.000000000000000000e+00,5.000000000000000000e+00,5.000000000000000000e+00,5.000000000000000000e+00,5.000000000000000000e+00,5.000000000000000000e+00,5.000000000000000000e+00,5.000000000000000000e+00,5.000000000000000000e+00,5.000000000000000000e+00,5.000000000000000000e+00,5.000000000000000000e+00,5.000000000000000000e+00,5.000000000000000000e+00,5.000000000000000000e+00,5.000000000000000000e+00,5.000000000000000000e+00,5.000000000000000000e+00,5.000000000000000000e+00,5.000000000000000000e+00,5.000000000000000000e+00,5.000000000000000000e+00,5.000000000000000000e+00,5.000000000000000000e+00,5.000000000000000000e+00,5.000000000000000000e+00,5.000000000000000000e+00,5.000000000000000000e+00,5.000000000000000000e+00,5.000000000000000000e+00,5.000000000000000000e+00,5.000000000000000000e+00,5.000000000000000000e+00,5.000000000000000000e+00,5.000000000000000000e+00,5.000000000000000000e+00,5.000000000000000000e+00,5.000000000000000000e+00,5.000000000000000000e+00,5.000000000000000000e+00,5.000000000000000000e+00,5.000000000000000000e+00,5.000000000000000000e+00,5.000000000000000000e+00,5.000000000000000000e+00,5.000000000000000000e+00,5.000000000000000000e+00,5.000000000000000000e+00,5.000000000000000000e+00,5.000000000000000000e+00,5.000000000000000000e+00,4.981095314025878906e+00,4.781213283538818359e+00,4.596753597259521484e+00,4.425999164581298828e+00,4.267475605010986328e+00,4.119915008544921875e+00,3.982218027114868164e+00,3.853427410125732422e+00,3.732706785202026367e+00,3.619320392608642578e+00,3.512618780136108398e+00,3.412028789520263672e+00,3.317039489746093750e+00,3.227195978164672852e+00,3.142091035842895508e+00,3.061359405517578125e+00,2.984672307968139648e+00,2.911733150482177734e+00,2.842274188995361328e+00,2.776051998138427734e+00,9.686048626899719238e-01,9.490415453910827637e-01,9.307665228843688965e-01,9.116677045822143555e-01,8.929332494735717773e-01
4.897655963897705078e+00,5.000000000000000000e+00,5.000000000000000000e+00,5.000000000000000000e+00,5.000000000000000000e+00,5.000000000000000000e+00,5.000000000000000000e+00,5.000000000000000000e+00,5.000000000000000000e+00,5.000000000000000000e+00,5.000000000000000000e+00,5.000000000000000000e+00,5.000000000000000000e+00,5.000000000000000000e+00,5.000000000000000000e+00,5.000000000000000000e+00,5.000000000000000000e+00,5.000000000000000000e+00,5.000000000000000000e+00,5.000000000000000000e+00,5.000000000000000000e+00,5.000000000000000000e+00,5.000000000000000000e+00,5.000000000000000000e+00,5.000000000000000000e+00,5.000000000000000000e+00,5.000000000000000000e+00,5.000000000000000000e+00,5.000000000000000000e+00,5.000000000000000000e+00,5.000000000000000000e+00,5.000000000000000000e+00,5.000000000000000000e+00,5.000000000000000000e+00,5.000000000000000000e+00,5.000000000000000000e+00,5.000000000000000000e+00,5.000000000000000000e+00,5.000000000000000000e+00,5.000000000000000000e+00,5.000000000000000000e+00,5.000000000000000000e+00,5.000000000000000000e+00,5.000000000000000000e+00,5.000000000000000000e+00,5.000000000000000000e+00,5.000000000000000000e+00,5.000000000000000000e+00,5.000000000000000000e+00,5.000000000000000000e+00,5.000000000000000000e+00,5.000000000000000000e+00,5.000000000000000000e+00,5.000000000000000000e+00,5.000000000000000000e+00,4.981262683868408203e+00,4.781367301940917969e+00,4.596896648406982422e+00,4.426130771636962891e+00,4.267598152160644531e+00,4.120028972625732422e+00,3.982324838638305664e+00,3.853527784347534180e+00,3.732800722122192383e+00,3.619408607482910156e+00,3.512701988220214844e+00,3.412107229232788086e+00,3.317113876342773438e+00,3.227266073226928711e+00,3.142157554626464844e+00,3.061422348022460938e+00,2.984732389450073242e+00,2.911790609359741211e+00,2.842328786849975586e+00,1.017967104911804199e+00,9.714454412460327148e-01,9.518674612045288086e-01,9.325946569442749023e-01,9.129995703697204590e-01,8.966882824897766113e-01
4.897541999816894531e+00,5.000000000000000000e+00,5.000000000000000000e+00,5.000000000000000000e+00,5.000000000000000000e+00,5.000000000000000000e+00,5.000000000000000000e+00,5.000000000000000000e+00,5.000000000000000000e+00,5.000000000000000000e+00,5.000000000000000000e+00,5.000000000000000000e+00,5.000000000000000000e+00,5.000000000000000000e+00,5.000000000000000000e+00,5.000000000000000000e+00,5.000000000000000000e+00,5.000000000000000000e+00,5.000000000000000000e+00,5.000000000000000000e+00,5.000000000000000000e+00,5.000000000000000000e+00,5.000000000000000000e+00,5.000000000000000000e+00,5.000000000000000000e+00,5.000000000000000000e+00,5.000000000000000000e+00,5.000000000000000000e+00,5.000000000000000000e+00,5.000000000000000000e+00,5.000000000000000000e+00,5.000000000000000000e+00,5.000000000000000000e+00,5.000000000000000000e+00,5.000000000000000000e+00,5.000000000000000000e+00,5.000000000000000000e+00,5.000000000000000000e+00,5.000000000000000000e+00,5.000000000000000000e+00,5.000000000000000000e+00,5.000000000000000000e+00,5.000000000000000000e+00,5.000000000000000000e+00,5.000000000000000000e+00,5.000000000000000000e+00,5.000000000000000000e+00,5.000000000000000000e+00,5.000000000000000000e+00,5.000000000000000000e+00,5.000000000000000000e+00,5.000000000000000000e+00,5.000000000000000000e+00,5.000000000000000000e+00,5.000000000000000000e+00,4.981430053710937500e+00,4.781521320343017578e+00,4.597038745880126953e+00,4.426262855529785156e+00,4.267721176147460938e+00,4.120143890380859375e+00,3.982431650161743164e+00,3.853627920150756836e+00,3.732894420623779297e+00,3.619496822357177734e+00,3.512785434722900391e+00,3.412185668945312500e+00,3.317188024520874023e+00,3.227336406707763672e+00,3.142224073410034180e+00,3.061485767364501953e+00,2.984792232513427734e+00,2.911847829818725586e+00,2.842383146286010742e+00,9.995097517967224121e-01,9.746509194374084473e-01,9.547904729843139648e-01,9.344524145126342773e-01,9.149644374847412109e-01,9.020521044731140137e-01
4.897428512573242188e+00,5.000000000000000000e+00,5.000000000000000000e+00,5.000000000000000000e+00,5.000000000000000000e+00,5.000000000000000000e+00,5.000000000000000000e+00,5.000000000000000000e+00,5.000000000000000000e+00,5.000000000000000000e+00,5.000000000000000000e+00,5.000000000000000000e+00,5.000000000000000000e+00,5.000000000000000000e+00,5.000000000000000000e+00,5.000000000000000000e+00,5.000000000000000000e+00,5.000000000000000000e+00,5.000000000000000000e+00,5.000000000000000000e+00,5.000000000000000000e+00,5.000000000000000000e+00,4.987697124481201172e+00,5.000000000000000000e+00,5.000000000000000000e+00,5.000000000000000000e+00,5.000000000000000000e+00,5.000000000000000000e+00,5.000000000000000000e+00,5.000000000000000000e+00,5.000000000000000000e+00,5.000000000000000000e+00,5.000000000000000000e+00,5.000000000000000000e+00,5.000000000000000000e+00,5.000000000000000000e+00,5.000000000000000000e+00,5.000000000000000000e+00,5.000000000000000000e+00,5.000000000000000000e+00,5.000000000000000000e+00,5.000000000000000000e+00,5.000000000000000000e+00,5.000000000000000000e+00,5.000000000000000000e+00,5.000000000000000000e+00,5.000000000000000000e+00,5.000000000000000000e+00,5.000000000000000000e+00,5.000000000000000000e+00,5.000000000000000000e+00,5.000000000000000000e+00,5.000000000000000000e+00,5.000000000000000000e+00,5.000000000000000000e+00,4.981596946716308594e+00,4.781675338745117188e+00,4.597181320190429688e+00,4.426394939422607422e+00,4.267843723297119141e+00,4.120257854461669922e+00,3.982538461685180664e+00,3.853727817535400391e+00,3.732988834381103516e+00,3.619585037231445312e+00,3.512868404388427734e+00,3.412264108657836914e+00,3.317262172698974609e+00,3.227406740188598633e+00,3.142290592193603516e+00,3.061548948287963867e+00,2.984852313995361328e+00,2.911904811859130859e+00,2.842437744140625000e+00,1.001833677291870117e+00,9.781631231307983398e-01,9.580047130584716797e-01,9.384309649467468262e-01,9.210503101348876953e-01,9.072393774986267090e-01
4.897315025329589844e+00,5.000000000000000000e+00,5.000000000000000000e+00,5.000000000000000000e+00,5.000000000000000000e+00,5.000000000000000000e+00,5.000000000000000000e+00,5.000000000000000000e+00,5.000000000000000000e+00,5.000000000000000000e+00,5.000000000000000000e+00,5.000000000000000000e+00,5.000000000000000000e+00,5.000000000000000000e+00,5.000000000000000000e+00,5.000000000000000000e+00,5.000000000000000000e+00,5.000000000000000000e+00,5.000000000000000000e+00,5.000000000000000000e+00,5.000000000000000000e+00,5.000000000000000000e+00,4.979496955871582031e+00,5.000000000000000000e+00,5.000000000000000000e+00,5.000000000000000000e+00,5.000000000000000000e+00,5.000000000000000000e+00,5.000000000000000000e+00,5.000000000000000000e+00,5.000000000000000000e+00,5.000000000000000000e+00,5.000000000000000000e+00,5.000000000000000000e+00,5.000000000000000000e+00,5.000000000000000000e+00,5.000000000000000000e+00,5.000000000000000000e+00,5.000000000000000000e+00,5.000000000000000000e+00,5.000000000000000000e+00,5.000000000000000000e+00,5.000000000000000000e+00,5.000000000000000000e+00,5.000000000000000000e+00,5.000000000000000000e+00,5.000000000000000000e+00,5.000000000000000000e+00,5.000000000000000000e+00,5.000000000000000000e+00,5.000000000000000000e+00,5.000000000000000000e+00,5.000000000000000000e+00,5.000000000000000000e+00,5.000000000000000000e+00,4.981764793395996094e+00,4.781829833984375000e+00,4.597323894500732422e+00,4.426527023315429688e+00,4.267966270446777344e+00,4.120372772216796875e+00,3.982645750045776367e+00,3.853827953338623047e+00,3.733082532882690430e+00,3.619673252105712891e+00,3.512951612472534180e+00,3.412343025207519531e+00,3.317336320877075195e+00,3.227477073669433594e+00,3.142357110977172852e+00,3.061612129211425781e+00,2.984912633895874023e+00,2.911962032318115234e+00,2.842492103576660156e+00,1.008645892143249512e+00,9.777921438217163086e-01,9.580039978027343750e-01,9.382138848304748535e-01,9.206106066703796387e-01,9.041418433189392090e-01
4.897201538085937500e+00,5.000000000000000000e+00,5.000000000000000000e+00,5.000000000000000000e+00,5.000000000000000000e+00,5.000000000000000000e+00,5.000000000000000000e+00,5.000000000000000000e+00,5.000000000000000000e+00,5.000000000000000000e+00,5.000000000000000000e+00,5.000000000000000000e+00,5.000000000000000000e+00,5.000000000000000000e+00,5.000000000000000000e+00,5.000000000000000000e+00,5.000000000000000000e+00,5.000000000000000000e+00,5.000000000000000000e+00,5.000000000000000000e+00,5.000000000000000000e+00,4.973393917083740234e+00,4.965732097625732422e+00,4.968787670135498047e+00,5.000000000000000000e+00,5.000000000000000000e+00,5.000000000000000000e+00,5.000000000000000000e+00,5.000000000000000000e+00,5.000000000000000000e+00,5.000000000000000000e+00,5.000000000000000000e+00,5.000000000000000000e+00,5.000000000000000000e+00,5.000000000000000000e+00,5.000000000000000000e+00,5.000000000000000000e+00,5.000000000000000000e+00,5.000000000000000000e+00,5.000000000000000000e+00,5.000000000000000000e+00,5.000000000000000000e+00,5.000000000000000000e+00,5.000000000000000000e+00,5.000000000000000000e+00,5.000000000000000000e+00,5.000000000000000000e+00,5.000000000000000000e+00,5.000000000000000000e+00,5.000000000000000000e+00,5.000000000000000000e+00,5.000000000000000000e+00,5.000000000000000000e+00,5.000000000000000000e+00,5.000000000000000000e+00,4.981931686401367188e+00,4.781983852386474609e+00,4.597465991973876953e+00,4.426659584045410156e+00,4.268089294433593750e+00,4.120487213134765625e+00,3.982752561569213867e+00,3.853927850723266602e+00,3.733176469802856445e+00,3.619761943817138672e+00,3.513034820556640625e+00,3.412421464920043945e+00,3.317410469055175781e+00,3.227547168731689453e+00,3.142423868179321289e+00,3.061675310134887695e+00,2.984972476959228516e+00,2.912019014358520508e+00,2.842546701431274414e+00,1.019613742828369141e+00,9.796876907348632812e-01,9.546005725860595703e-01,9.364409446716308594e-01,9.189595580101013184e-01,9.021188616752624512e-01
4.897088050842285156e+00,5.000000000000000000e+00,5.000000000000000000e+00,5.000000000000000000e+00,5.000000000000000000e+00,5.000000000000000000e+00,5.000000000000000000e+00,5.000000000000000000e+00,5.000000000000000000e+00,5.000000000000000000e+00,5.000000000000000000e+00,5.000000000000000000e+00,5.000000000000000000e+00,5.000000000000000000e+00,5.000000000000000000e+00,5.000000000000000000e+00,5.000000000000000000e+00,5.000000000000000000e+00,5.000000000000000000e+00,5.000000000000000000e+00,4.984624385833740234e+00,4.940185070037841797e+00,4.923719406127929688e+00,4.919634819030761719e+00,4.925784587860107422e+00,5.000000000000000000e+00,5.000000000000000000e+00,5.000000000000000000e+00,5.000000000000000000e+00,5.000000000000000000e+00,5.000000000000000000e+00,5.000000000000000000e+00,5.000000000000000000e+00,5.000000000000000000e+00,5.000000000000000000e+00,5.000000000000000000e+00,5.000000000000000000e+00,5.000000000000000000e+00,5.000000000000000000e+00,5.000000000000000000e+00,5.000000000000000000e+00,5.000000000000000000e+00,5.000000000000000000e+00,5.000000000000000000e+00,5.000000000000000000e+00,5.000000000000000000e+00,5.000000000000000000e+00,5.000000000000000000e+00,5.000000000000000000e+00,5.000000000000000000e+00,5.000000000000000000e+00,5.000000000000000000e+00,5.000000000000000000e+00,5.000000000000000000e+00,5.000000000000000000e+00,4.982091426849365234e+00,4.782132625579833984e+00,4.597604751586914062e+00,4.426788806915283203e+00,4.268211364746093750e+00,4.120601177215576172e+00,3.982859373092651367e+00,3.854028463363647461e+00,3.733270406723022461e+00,3.619850158691406250e+00,3.513117790222167969e+00,3.412499666213989258e+00,3.317484855651855469e+00,3.227617263793945312e+00,3.142490386962890625e+00,3.061738491058349609e+00,2.985032558441162109e+00,2.912076473236083984e+00,2.842601060867309570e+00,2.776363849639892578e+00,9.788138270378112793e-01,9.532442688941955566e-01,9.336804747581481934e-01,9.163010120391845703e-01,9.005571603775024414e-01
4.896974086761474609e+00,5.000000000000000000e+00,5.000000000000000000e+00,5.000000000000000000e+00,5.000000000000000000e+00,5.000000000000000000e+00,5.000000000000000000e+00,5.000000000000000000e+00,5.000000000000000000e+00,5.000000000000000000e+00,5.000000000000000000e+00,5.000000000000000000e+00,5.000000000000000000e+00,5.000000000000000000e+00,5.000000000000000000e+00,5.000000000000000000e+00,5.000000000000000000e+00,5.000000000000000000e+00,5.000000000000000000e+00,5.000000000000000000e+00,5.000000000000000000e+00,4.946780204772949219e+00,4.932665348052978516e+00,4.931284904479980469e+00,4.935752868652343750e+00,5.000000000000000000e+00,5.000000000000000000e+00,5.000000000000000000e+00,5.000000000000000000e+00,5.000000000000000000e+00,5.000000000000000000e+00,5.000000000000000000e+00,5.000000000000000000e+00,5.000000000000000000e+00,5.000000000000000000e+00,5.000000000000000000e+00,5.000000000000000000e+00,5.000000000000000000e+00,5.000000000000000000e+00,5.000000000000000000e+00,5.000000000000000000e+00,5.000000000000000000e+00,5.000000000000000000e+00,5.000000000000000000e+00,5.000000000000000000e+00,5.000000000000000000e+00,5.000000000000000000e+00,5.000000000000000000e+00,5.000000000000000000e+00,5.000000000000000000e+00,5.000000000000000000e+00,5.000000000000000000e+00,5.000000000000000000e+00,5.000000000000000000e+00,5.000000000000000000e+00,4.982246875762939453e+00,4.782275676727294922e+00,4.597737789154052734e+00,4.426912307739257812e+00,4.268325805664062500e+00,4.120708465576171875e+00,3.982960462570190430e+00,3.854124069213867188e+00,3.733361244201660156e+00,3.619936466217041016e+00,3.513200283050537109e+00,3.412578105926513672e+00,3.317559003829956055e+00,3.227687358856201172e+00,3.142556905746459961e+00,3.061801910400390625e+00,2.985092639923095703e+00,2.912133455276489258e+00,2.842655420303344727e+00,2.776415586471557617e+00,1.003736495971679688e+00,9.522188901901245117e-01,9.309362173080444336e-01,9.136577844619750977e-01,8.991274833679199219e-01
4.896861076354980469e+00,5.000000000000000000e+00,5.000000000000000000e+00,5.000000000000000000e+00,5.000000000000000000e+00,5.000000000000000000e+00,5.000000000000000000e+00,5.000000000000000000e+00,5.000000000000000000e+00,5.000000000000000000e+00,5.000000000000000000e+00,5.000000000000000000e+00,5.000000000000000000e+00,5.000000000000000000e+00,5.000000000000000000e+00,5.000000000000000000e+00,5.000000000000000000e+00,5.000000000000000000e+00,5.000000000000000000e+00,5.000000000000000000e+00,5.000000000000000000e+00,4.978268146514892578e+00,4.967967033386230469e+00,4.962834835052490234e+00,4.933661937713623047e+00,5.000000000000000000e+00,5.000000000000000000e+00,5.000000000000000000e+00,5.000000000000000000e+00,5.000000000000000000e+00,5.000000000000000000e+00,5.000000000000000000e+00,5.000000000000000000e+00,5.000000000000000000e+00,5.000000000000000000e+00,5.000000000000000000e+00,5.000000000000000000e+00,5.000000000000000000e+00,5.000000000000000000e+00,5.000000000000000000e+00,5.000000000000000000e+00,5.000000000000000000e+00,5.000000000000000000e+00,5.000000000000000000e+00,5.000000000000000000e+00,5.000000000000000000e+00,5.000000000000000000e+00,5.000000000000000000e+00,5.000000000000000000e+00,5.000000000000000000e+00,5.000000000000000000e+00,5.000000000000000000e+00,5.000000000000000000e+00,5.000000000000000000e+00,5.000000000000000000e+00,4.982403278350830078e+00,4.782419681549072266e+00,4.597870349884033203e+00,4.427035331726074219e+00,4.268440246582031250e+00,4.120815277099609375e+00,3.983060359954833984e+00,3.854217529296875000e+00,3.733448982238769531e+00,3.620018720626831055e+00,3.513278007507324219e+00,3.412651538848876953e+00,3.317628860473632812e+00,3.227754592895507812e+00,3.142621040344238281e+00,3.061862945556640625e+00,2.985151529312133789e+00,2.912190198898315430e+00,2.842710018157958984e+00,2.776467561721801758e+00,2.713242053985595703e+00,9.525858759880065918e-01,9.282079935073852539e-01,9.110298156738281250e-01,8.977022767066955566e-01
4.896747589111328125e+00,5.000000000000000000e+00,5.000000000000000000e+00,5.000000000000000000e+00,5.000000000000000000e+00,5.000000000000000000e+00,5.000000000000000000e+00,5.000000000000000000e+00,5.000000000000000000e+00,5.000000000000000000e+00,5.000000000000000000e+00,5.000000000000000000e+00,5.000000000000000000e+00,5.000000000000000000e+00,5.000000000000000000e+00,5.000000000000000000e+00,5.000000000000000000e+00,5.000000000000000000e+00,5.000000000000000000e+00,5.000000000000000000e+00,5.000000000000000000e+00,4.992250919342041016e+00,4.973592758178710938e+00,4.976728439331054688e+00,4.937910556793212891e+00,5.000000000000000000e+00,5.000000000000000000e+00,5.000000000000000000e+00,5.000000000000000000e+00,5.000000000000000000e+00,5.000000000000000000e+00,5.000000000000000000e+00,5.000000000000000000e+00,5.000000000000000000e+00,5.000000000000000000e+00,5.000000000000000000e+00,5.000000000000000000e+00,5.000000000000000000e+00,5.000000000000000000e+00,5.000000000000000000e+00,5.000000000000000000e+00,5.000000000000000000e+00,5.000000000000000000e+00,5.000000000000000000e+00,5.000000000000000000e+00,5.000000000000000000e+00,5.000000000000000000e+00,5.000000000000000000e+00,5.000000000000000000e+00,5.000000000000000000e+00,5.000000000000000000e+00,5.000000000000000000e+00,5.000000000000000000e+00,5.000000000000000000e+00,5.000000000000000000e+00,4.982559204101562500e+00,4.782563686370849609e+00,4.598003387451171875e+00,4.427158832550048828e+00,4.268555164337158203e+00,4.120922088623046875e+00,3.983160018920898438e+00,3.854310989379882812e+00,3.733536720275878906e+00,3.620101213455200195e+00,3.513355493545532227e+00,3.412724733352661133e+00,3.317698001861572266e+00,3.227819919586181641e+00,3.142683029174804688e+00,3.061921834945678711e+00,2.985207557678222656e+00,2.912243604660034180e+00,2.842761039733886719e+00,2.776516675949096680e+00,2.713289499282836914e+00,9.574204683303833008e-01,9.262484908103942871e-01,9.084168672561645508e-01,8.962816596031188965e-01
4.896633625030517578e+00,5.000000000000000000e+00,5.000000000000000000e+00,5.000000000000000000e+00,5.000000000000000000e+00,5.000000000000000000e+00,5.000000000000000000e+00,5.000000000000000000e+00,5.000000000000000000e+00,5.000000000000000000e+00,5.000000000000000000e+00,5.000000000000000000e+00,5.000000000000000000e+00,5.000000000000000000e+00,5.000000000000000000e+00,5.000000000000000000e+00,5.000000000000000000e+00,5.000000000000000000e+00,5.000000000000000000e+00,5.000000000000000000e+00,5.000000000000000000e+00,4.942786216735839844e+00,4.947093009948730469e+00,4.959730148315429688e+00,4.940446376800537109e+00,5.000000000000000000e+00,5.000000000000000000e+00,5.000000000000000000e+00,5.000000000000000000e+00,5.000000000000000000e+00,5.000000000000000000e+00,5.000000000000000000e+00,5.000000000000000000e+00,5.000000000000000000e+00,5.000000000000000000e+00,5.000000000000000000e+00,5.000000000000000000e+00,5.000000000000000000e+00,5.000000000000000000e+00,5.000000000000000000e+00,5.000000000000000000e+00,5.000000000000000000e+00,5.000000000000000000e+00,5.000000000000000000e+00,5.000000000000000000e+00,5.000000000000000000e+00,5.000000000000000000e+00,5.000000000000000000e+00,5.000000000000000000e+00,5.000000000000000000e+00,5.000000000000000000e+00,5.000000000000000000e+00,5.000000000000000000e+00,5.000000000000000000e+00,5.000000000000000000e+00,4.982715129852294922e+00,4.782707214355468750e+00,4.598136425018310547e+00,4.427281856536865234e+00,4.268669605255126953e+00,4.121028900146484375e+00,3.983259916305541992e+00,3.854404211044311523e+00,3.733624219894409180e+00,3.620183706283569336e+00,3.513433218002319336e+00,3.412797927856445312e+00,3.317767381668090820e+00,3.227885246276855469e+00,3.142745018005371094e+00,3.061980962753295898e+00,2.985263586044311523e+00,2.912296772003173828e+00,2.842811822891235352e+00,2.776565313339233398e+00,2.713335752487182617e+00,9.623044133186340332e-01,9.277267456054687500e-01,9.067970514297485352e-01,8.948655128479003906e-01
4.896520614624023438e+00,5.000000000000000000e+00,5.000000000000000000e+00,5.000000000000000000e+00,5.000000000000000000e+00,5.000000000000000000e+00,5.000000000000000000e+00,5.000000000000000000e+00,5.000000000000000000e+00,5.000000000000000000e+00,5.000000000000000000e+00,5.000000000000000000e+00,5.000000000000000000e+00,5.000000000000000000e+00,5.000000000000000000e+00,5.000000000000000000e+00,5.000000000000000000e+00,5.000000000000000000e+00,5.000000000000000000e+00,5.000000000000000000e+00,5.000000000000000000e+00,4.931351184844970703e+00,4.946731567382812500e+00,4.954156398773193359e+00,4.950944900512695312e+00,5.000000000000000000e+00,5.000000000000000000e+00,5.000000000000000000e+00,5.000000000000000000e+00,5.000000000000000000e+00,5.000000000000000000e+00,5.000000000000000000e+00,5.000000000000000000e+00,5.000000000000000000e+00,5.000000000000000000e+00,5.000000000000000000e+00,5.000000000000000000e+00,5.000000000000000000e+00,5.000000000000000000e+00,5.000000000000000000e+00,5.000000000000000000e+00,5.000000000000000000e+00,5.000000000000000000e+00,5.000000000000000000e+00,5.000000000000000000e+00,5.000000000000000000e+00,5.000000000000000000e+00,5.000000000000000000e+00,5.000000000000000000e+00,5.000000000000000000e+00,5.000000000000000000e+00,5.000000000000000000e+00,5.000000000000000000e+00,5.000000000000000000e+00,5.000000000000000000e+00,4.982871532440185547e+00,4.782851219177246094e+00,4.598269462585449219e+00,4.427404880523681641e+00,4.268784046173095703e+00,4.121135711669921875e+00,3.983359575271606445e+00,3.854497671127319336e+00,3.733711957931518555e+00,3.620265960693359375e+00,3.513510704040527344e+00,3.412870883941650391e+00,3.317836284637451172e+00,3.227950811386108398e+00,3.142807245254516602e+00,3.062039852142333984e+00,2.985319614410400391e+00,2.912350177764892578e+00,2.842862606048583984e+00,2.776613712310791016e+00,2.713382005691528320e+00,2.652966499328613281e+00,9.320948123931884766e-01,9.065061807632446289e-01,8.952739834785461426e-01
4.896407127380371094e+00,5.000000000000000000e+00,5.000000000000000000e+00,5.000000000000000000e+00,5.000000000000000000e+00,5.000000000000000000e+00,5.000000000000000000e+00,5.000000000000000000e+00,5.000000000000000000e+00,5.000000000000000000e+00,5.000000000000000000e+00,5.000000000000000000e+00,5.000000000000000000e+00,5.000000000000000000e+00,5.000000000000000000e+00,5.000000000000000000e+00,5.000000000000000000e+00,5.000000000000000000e+00,5.000000000000000000e+00,5.000000000000000000e+00,5.000000000000000000e+00,4.952883720397949219e+00,4.999596595764160156e+00,4.987782955169677734e+00,4.961001873016357422e+00,5.000000000000000000e+00,5.000000000000000000e+00,5.000000000000000000e+00,5.000000000000000000e+00,5.000000000000000000e+00,5.000000000000000000e+00,5.000000000000000000e+00,5.000000000000000000e+00,5.000000000000000000e+00,5.000000000000000000e+00,5.000000000000000000e+00,5.000000000000000000e+00,5.000000000000000000e+00,5.000000000000000000e+00,5.000000000000000000e+00,5.000000000000000000e+00,5.000000000000000000e+00,5.000000000000000000e+00,5.000000000000000000e+00,5.000000000000000000e+00,5.000000000000000000e+00,5.000000000000000000e+00,5.000000000000000000e+00,5.000000000000000000e+00,5.000000000000000000e+00,5.000000000000000000e+00,5.000000000000000000e+00,5.000000000000000000e+00,5.000000000000000000e+00,5.000000000000000000e+00,4.983027458190917969e+00,4.782995223999023438e+00,4.598402023315429688e+00,4.427528381347656250e+00,4.268898487091064453e+00,4.121242523193359375e+00,3.983459472656250000e+00,3.854591131210327148e+00,3.733799695968627930e+00,3.620348453521728516e+00,3.513587951660156250e+00,3.412944078445434570e+00,3.317905426025390625e+00,3.228016376495361328e+00,3.142869234085083008e+00,3.062098741531372070e+00,2.985375642776489258e+00,2.912403583526611328e+00,2.842913389205932617e+00,2.776662111282348633e+00,2.713428497314453125e+00,2.653010606765747070e+00,9.359702467918395996e-01,9.077733159065246582e-01,8.965098261833190918e-01
4.896293163299560547e+00,5.000000000000000000e+00,5.000000000000000000e+00,5.000000000000000000e+00,5.000000000000000000e+00,5.000000000000000000e+00,5.000000000000000000e+00,5.000000000000000000e+00,5.000000000000000000e+00,5.000000000000000000e+00,5.000000000000000000e+00,5.000000000000000000e+00,5.000000000000000000e+00,5.000000000000000000e+00,5.000000000000000000e+00,5.000000000000000000e+00,5.000000000000000000e+00,5.000000000000000000e+00,5.000000000000000000e+00,5.000000000000000000e+00,5.000000000000000000e+00,4.940221309661865234e+00,4.994089126586914062e+00,5.000000000000000000e+00,5.000000000000000000e+00,5.000000000000000000e+00,5.000000000000000000e+00,5.000000000000000000e+00,5.000000000000000000e+00,5.000000000000000000e+00,5.000000000000000000e+00,5.000000000000000000e+00,5.000000000000000000e+00,5.000000000000000000e+00,5.000000000000000000e+00,5.000000000000000000e+00,5.000000000000000000e+00,5.000000000000000000e+00,5.000000000000000000e+00,5.000000000000000000e+00,5.000000000000000000e+00,5.000000000000000000e+00,5.000000000000000000e+00,5.000000000000000000e+00,5.000000000000000000e+00,5.000000000000000000e+00,5.000000000000000000e+00,5.000000000000000000e+00,5.000000000000000000e+00,5.000000000000000000e+00,5.000000000000000000e+00,5.000000000000000000e+00,5.000000000000000000e+00,5.000000000000000000e+00,5.000000000000000000e+00,4.983183860778808594e+00,4.783138751983642578e+00,4.598535060882568359e+00,4.427651405334472656e+00,4.269012928009033203e+00,4.121349334716796875e+00,3.983559131622314453e+00,3.854684591293334961e+00,3.733887195587158203e+00,3.620430469512939453e+00,3.513665676116943359e+00,3.413017272949218750e+00,3.317974567413330078e+00,3.228081703186035156e+00,3.142931461334228516e+00,3.062157869338989258e+00,2.985431671142578125e+00,2.912456750869750977e+00,2.842964172363281250e+00,2.776710748672485352e+00,2.713474750518798828e+00,2.653054952621459961e+00,9.398779869079589844e-01,9.090439677238464355e-01,8.977491855621337891e-01
4.896179676055908203e+00,5.000000000000000000e+00,5.000000000000000000e+00,5.000000000000000000e+00,5.000000000000000000e+00,5.000000000000000000e+00,5.000000000000000000e+00,5.000000000000000000e+00,5.000000000000000000e+00,5.000000000000000000e+00,5.000000000000000000e+00,5.000000000000000000e+00,5.000000000000000000e+00,5.000000000000000000e+00,5.000000000000000000e+00,5.000000000000000000e+00,5.000000000000000000e+00,5.000000000000000000e+00,5.000000000000000000e+00,5.000000000000000000e+00,5.000000000000000000e+00,4.922354221343994141e+00,4.988512039184570312e+00,5.000000000000000000e+00,5.000000000000000000e+00,5.000000000000000000e+00,5.000000000000000000e+00,5.000000000000000000e+00,5.000000000000000000e+00,5.000000000000000000e+00,5.000000000000000000e+00,5.000000000000000000e+00,5.000000000000000000e+00,5.000000000000000000e+00,5.000000000000000000e+00,5.000000000000000000e+00,5.000000000000000000e+00,5.000000000000000000e+00,5.000000000000000000e+00,5.000000000000000000e+00,5.000000000000000000e+00,5.000000000000000000e+00,5.000000000000000000e+00,5.000000000000000000e+00,5.000000000000000000e+00,5.000000000000000000e+00,5.000000000000000000e+00,5.000000000000000000e+00,5.000000000000000000e+00,5.000000000000000000e+00,5.000000000000000000e+00,5.000000000000000000e+00,5.000000000000000000e+00,5.000000000000000000e+00,5.000000000000000000e+00,4.983339309692382812e+00,4.783282279968261719e+00,4.598668098449707031e+00,4.427774906158447266e+00,4.269127845764160156e+00,4.121456146240234375e+00,3.983659029006958008e+00,3.854778051376342773e+00,3.733974456787109375e+00,3.620512962341308594e+00,3.513743400573730469e+00,3.413090467453002930e+00,3.318043947219848633e+00,3.228147268295288086e+00,3.142993450164794922e+00,3.062216758728027344e+00,2.985487699508666992e+00,2.912510156631469727e+00,2.843014955520629883e+00,2.776759147644042969e+00,2.713521003723144531e+00,2.653099298477172852e+00,9.439100027084350586e-01,9.104910492897033691e-01,8.989919424057006836e-01
4.896056652069091797e+00,5.000000000000000000e+00,5.000000000000000000e+00,5.000000000000000000e+00,5.000000000000000000e+00,5.000000000000000000e+00,5.000000000000000000e+00,5.000000000000000000e+00,5.000000000000000000e+00,5.000000000000000000e+00,5.000000000000000000e+00,5.000000000000000000e+00,5.000000000000000000e+00,5.000000000000000000e+00,5.000000000000000000e+00,5.000000000000000000e+00,5.000000000000000000e+00,5.000000000000000000e+00,5.000000000000000000e+00,5.000000000000000000e+00,5.000000000000000000e+00,4.905761241912841797e+00,4.980750083923339844e+00,5.000000000000000000e+00,5.000000000000000000e+00,5.000000000000000000e+00,5.000000000000000000e+00,5.000000000000000000e+00,5.000000000000000000e+00,5.000000000000000000e+00,5.000000000000000000e+00,5.000000000000000000e+00,5.000000000000000000e+00,5.000000000000000000e+00,5.000000000000000000e+00,5.000000000000000000e+00,5.000000000000000000e+00,5.000000000000000000e+00,5.000000000000000000e+00,5.000000000000000000e+00,5.000000000000000000e+00,5.000000000000000000e+00,5.000000000000000000e+00,5.000000000000000000e+00,5.000000000000000000e+00,5.000000000000000000e+00,5.000000000000000000e+00,5.000000000000000000e+00,5.000000000000000000e+00,5.000000000000000000e+00,5.000000000000000000e+00,5.000000000000000000e+00,5.000000000000000000e+00,5.000000000000000000e+00,5.000000000000000000e+00,4.983495712280273438e+00,4.783426284790039062e+00,4.598801136016845703e+00,4.427897930145263672e+00,4.269242286682128906e+00,4.121562957763671875e+00,3.983758211135864258e+00,3.854871034622192383e+00,3.734062194824218750e+00,3.620595455169677734e+00,3.513820886611938477e+00,3.413163900375366211e+00,3.318113088607788086e+00,3.228212833404541016e+00,3.143055677413940430e+00,3.062275648117065430e+00,2.985543966293334961e+00,2.912563562393188477e+00,2.843065977096557617e+00,2.776807785034179688e+00,2.713567256927490234e+00,2.653143405914306641e+00,9.483171105384826660e-01,9.141885638236999512e-01,9.002381563186645508e-01
4.895929813385009766e+00,5.000000000000000000e+00,5.000000000000000000e+00,5.000000000000000000e+00,5.000000000000000000e+00,5.000000000000000000e+00,5.000000000000000000e+00,5.000000000000000000e+00,5.000000000000000000e+00,5.000000000000000000e+00,5.000000000000000000e+00,5.000000000000000000e+00,5.000000000000000000e+00,5.000000000000000000e+00,5.000000000000000000e+00,5.000000000000000000e+00,5.000000000000000000e+00,5.000000000000000000e+00,5.000000000000000000e+00,5.000000000000000000e+00,5.000000000000000000e+00,4.826465606689453125e+00,5.000000000000000000e+00,5.000000000000000000e+00,5.000000000000000000e+00,5.000000000000000000e+00,5.000000000000000000e+00,5.000000000000000000e+00,5.000000000000000000e+00,5.000000000000000000e+00,5.000000000000000000e+00,5.000000000000000000e+00,5.000000000000000000e+00,5.000000000000000000e+00,5.000000000000000000e+00,5.000000000000000000e+00,5.000000000000000000e+00,5.000000000000000000e+00,5.000000000000000000e+00,5.000000000000000000e+00,5.000000000000000000e+00,5.000000000000000000e+00,5.000000000000000000e+00,5.000000000000000000e+00,5.000000000000000000e+00,5.000000000000000000e+00,5.000000000000000000e+00,5.000000000000000000e+00,5.000000000000000000e+00,5.000000000000000000e+00,5.000000000000000000e+00,5.000000000000000000e+00,5.000000000000000000e+00,5.000000000000000000e+00,5.000000000000000000e+00,4.983651638031005859e+00,4.783570289611816406e+00,4.598934173583984375e+00,4.428021430969238281e+00,4.269356727600097656e+00,4.121669292449951172e+00,3.983858108520507812e+00,3.854964494705200195e+00,3.734149932861328125e+00,3.620677709579467773e+00,3.513898611068725586e+00,3.413237094879150391e+00,3.318182468414306641e+00,3.228278398513793945e+00,3.143117666244506836e+00,3.062334775924682617e+00,2.985599994659423828e+00,2.912616968154907227e+00,2.843116760253906250e+00,2.776856184005737305e+00,2.713613510131835938e+00,2.653187513351440430e+00,9.527656435966491699e-01,9.179162383079528809e-01,9.014877676963806152e-01
4.895803451538085938e+00,5.000000000000000000e+00,5.000000000000000000e+00,5.000000000000000000e+00,5.000000000000000000e+00,5.000000000000000000e+00,5.000000000000000000e+00,5.000000000000000000e+00,5.000000000000000000e+00,5.000000000000000000e+00,5.000000000000000000e+00,5.000000000000000000e+00,5.000000000000000000e+00,5.000000000000000000e+00,5.000000000000000000e+00,5.000000000000000000e+00,5.000000000000000000e+00,5.000000000000000000e+00,5.000000000000000000e+00,5.000000000000000000e+00,4.783807754516601562e+00,4.802472114562988281e+00,5.000000000000000000e+00,5.000000000000000000e+00,5.000000000000000000e+00,5.000000000000000000e+00,5.000000000000000000e+00,5.000000000000000000e+00,5.000000000000000000e+00,5.000000000000000000e+00,5.000000000000000000e+00,5.000000000000000000e+00,5.000000000000000000e+00,5.000000000000000000e+00,5.000000000000000000e+00,5.000000000000000000e+00,5.000000000000000000e+00,5.000000000000000000e+00,5.000000000000000000e+00,5.000000000000000000e+00,5.000000000000000000e+00,5.000000000000000000e+00,5.000000000000000000e+00,5.000000000000000000e+00,5.000000000000000000e+00,5.000000000000000000e+00,5.000000000000000000e+00,5.000000000000000000e+00,5.000000000000000000e+00,5.000000000000000000e+00,5.000000000000000000e+00,5.000000000000000000e+00,5.000000000000000000e+00,5.000000000000000000e+00,5.000000000000000000e+00,4.983808040618896484e+00,4.783714294433593750e+00,4.599067211151123047e+00,4.428144454956054688e+00,4.269471168518066406e+00,4.121776103973388672e+00,3.983958005905151367e+00,3.855057954788208008e+00,3.734237670898437500e+00,3.620760202407836914e+00,3.513976335525512695e+00,3.413310289382934570e+00,3.318251609802246094e+00,3.228343963623046875e+00,3.143179893493652344e+00,3.062393665313720703e+00,2.985656023025512695e+00,2.912670135498046875e+00,2.843167543411254883e+00,2.776904582977294922e+00,2.713659763336181641e+00,2.653231859207153320e+00,9.572561383247375488e-01,9.216744899749755859e-01,9.027408957481384277e-01
4.895677089691162109e+00,5.000000000000000000e+00,5.000000000000000000e+00,5.000000000000000000e+00,5.000000000000000000e+00,5.000000000000000000e+00,5.000000000000000000e+00,5.000000000000000000e+00,5.000000000000000000e+00,5.000000000000000000e+00,5.000000000000000000e+00,5.000000000000000000e+00,5.000000000000000000e+00,5.000000000000000000e+00,5.000000000000000000e+00,5.000000000000000000e+00,5.000000000000000000e+00,5.000000000000000000e+00,5.000000000000000000e+00,5.000000000000000000e+00,4.721942901611328125e+00,4.779650688171386719e+00,5.000000000000000000e+00,5.000000000000000000e+00,5.000000000000000000e+00,5.000000000000000000e+00,5.000000000000000000e+00,5.000000000000000000e+00,5.000000000000000000e+00,5.000000000000000000e+00,5.000000000000000000e+00,5.000000000000000000e+00,5.000000000000000000e+00,5.000000000000000000e+00,5.000000000000000000e+00,5.000000000000000000e+00,5.000000000000000000e+00,5.000000000000000000e+00,5.000000000000000000e+00,5.000000000000000000e+00,5.000000000000000000e+00,5.000000000000000000e+00,5.000000000000000000e+00,5.000000000000000000e+00,5.000000000000000000e+00,5.000000000000000000e+00,5.000000000000000000e+00,5.000000000000000000e+00,5.000000000000000000e+00,5.000000000000000000e+00,5.000000000000000000e+00,5.000000000000000000e+00,5.000000000000000000e+00,5.000000000000000000e+00,5.000000000000000000e+00,4.983964443206787109e+00,4.783857822418212891e+00,4.599199771881103516e+00,4.428267478942871094e+00,4.269586086273193359e+00,4.121882915496826172e+00,3.984057664871215820e+00,3.855151414871215820e+00,3.734325170516967773e+00,3.620842695236206055e+00,3.514053821563720703e+00,3.413383722305297852e+00,3.318320751190185547e+00,3.228409528732299805e+00,3.143241882324218750e+00,3.062452554702758789e+00,2.985712051391601562e+00,2.912723541259765625e+00,2.843218088150024414e+00,2.776952981948852539e+00,2.713706016540527344e+00,2.653275966644287109e+00,9.617890715599060059e-01,9.257816076278686523e-01,9.039974212646484375e-01
4.895550727844238281e+00,5.000000000000000000e+00,5.000000000000000000e+00,5.000000000000000000e+00,5.000000000000000000e+00,5.000000000000000000e+00,5.000000000000000000e+00,5.000000000000000000e+00,5.000000000000000000e+00,5.000000000000000000e+00,5.000000000000000000e+00,5.000000000000000000e+00,5.000000000000000000e+00,5.000000000000000000e+00,5.000000000000000000e+00,5.000000000000000000e+00,5.000000000000000000e+00,5.000000000000000000e+00,5.000000000000000000e+00,5.000000000000000000e+00,4.713627338409423828e+00,5.000000000000000000e+00,5.000000000000000000e+00,5.000000000000000000e+00,5.000000000000000000e+00,5.000000000000000000e+00,5.000000000000000000e+00,5.000000000000000000e+00,5.000000000000000000e+00,5.000000000000000000e+00,5.000000000000000000e+00,5.000000000000000000e+00,5.000000000000000000e+00,5.000000000000000000e+00,5.000000000000000000e+00,5.000000000000000000e+00,5.000000000000000000e+00,5.000000000000000000e+00,5.000000000000000000e+00,5.000000000000000000e+00,5.000000000000000000e+00,5.000000000000000000e+00,5.000000000000000000e+00,5.000000000000000000e+00,5.000000000000000000e+00,5.000000000000000000e+00,5.000000000000000000e+00,5.000000000000000000e+00,5.000000000000000000e+00,5.000000000000000000e+00,5.000000000000000000e+00,5.000000000000000000e+00,5.000000000000000000e+00,5.000000000000000000e+00,5.000000000000000000e+00,4.984120368957519531e+00,4.784001350402832031e+00,4.599332809448242188e+00,4.428390979766845703e+00,4.269700527191162109e+00,4.121989727020263672e+00,3.984157562255859375e+00,3.855244874954223633e+00,3.734412908554077148e+00,3.620925188064575195e+00,3.514131546020507812e+00,3.413456916809082031e+00,3.318390130996704102e+00,3.228475093841552734e+00,3.143304109573364258e+00,3.062511682510375977e+00,2.985768079757690430e+00,2.912776708602905273e+00,2.843268871307373047e+00,2.777001380920410156e+00,2.713752269744873047e+00,2.653320312500000000e+00,9.666911363601684570e-01,9.300206303596496582e-01,9.049211144447326660e-01
4.895504474639892578e+00,5.000000000000000000e+00,5.000000000000000000e+00,5.000000000000000000e+00,5.000000000000000000e+00,5.000000000000000000e+00,5.000000000000000000e+00,5.000000000000000000e+00,5.000000000000000000e+00,5.000000000000000000e+00,5.000000000000000000e+00,5.000000000000000000e+00,5.000000000000000000e+00,5.000000000000000000e+00,5.000000000000000000e+00,5.000000000000000000e+00,5.000000000000000000e+00,5.000000000000000000e+00,5.000000000000000000e+00,5.000000000000000000e+00,4.641616821289062500e+00,5.000000000000000000e+00,5.000000000000000000e+00,5.000000000000000000e+00,5.000000000000000000e+00,5.000000000000000000e+00,5.000000000000000000e+00,5.000000000000000000e+00,5.000000000000000000e+00,5.000000000000000000e+00,5.000000000000000000e+00,5.000000000000000000e+00,5.000000000000000000e+00,5.000000000000000000e+00,5.000000000000000000e+00,5.000000000000000000e+00,5.000000000000000000e+00,5.000000000000000000e+00,5.000000000000000000e+00,5.000000000000000000e+00,5.000000000000000000e+00,5.000000000000000000e+00,5.000000000000000000e+00,5.000000000000000000e+00,5.000000000000000000e+00,5.000000000000000000e+00,5.000000000000000000e+00,5.000000000000000000e+00,5.000000000000000000e+00,5.000000000000000000e+00,5.000000000000000000e+00,5.000000000000000000e+00,5.000000000000000000e+00,5.000000000000000000e+00,5.000000000000000000e+00,4.984276294708251953e+00,4.784145355224609375e+00,4.599465847015380859e+00,4.428514480590820312e+00,4.269814968109130859e+00,4.122096538543701172e+00,3.984257459640502930e+00,3.855338335037231445e+00,3.734500646591186523e+00,3.621007680892944336e+00,3.514209270477294922e+00,3.413530349731445312e+00,3.318459272384643555e+00,3.228540658950805664e+00,3.143366336822509766e+00,3.062570571899414062e+00,2.985823869705200195e+00,2.912830114364624023e+00,2.843319892883300781e+00,2.777049779891967773e+00,2.713798522949218750e+00,2.653364658355712891e+00,2.595563411712646484e+00,9.350861907005310059e-01,9.064795374870300293e-01
4.873217582702636719e+00,4.872010231018066406e+00,4.870803356170654297e+00,4.869597434997558594e+00,4.868391990661621094e+00,4.867187023162841797e+00,4.865982532501220703e+00,4.864778995513916016e+00,4.863575935363769531e+00,4.862373352050781250e+00,4.861171722412109375e+00,4.859970569610595703e+00,4.858769416809082031e+00,4.857569694519042969e+00,4.856369972229003906e+00,4.855171203613281250e+00,4.853972911834716797e+00,4.852775096893310547e+00,4.851578235626220703e+00,4.850381374359130859e+00,4.849185466766357422e+00,4.847990036010742188e+00,4.846795082092285156e+00,4.845601081848144531e+00,4.844407081604003906e+00,4.843214511871337891e+00,4.842021942138671875e+00,4.840829849243164062e+00,4.839638710021972656e+00,4.838448047637939453e+00,4.837257862091064453e+00,4.836068630218505859e+00,4.834879398345947266e+00,4.833691120147705078e+00,4.832503318786621094e+00,4.831315994262695312e+00,4.830129623413085938e+00,4.828943252563476562e+00,4.827758312225341797e+00,4.826573371887207031e+00,4.825388908386230469e+00,4.824205398559570312e+00,4.823021888732910156e+00,4.821839809417724609e+00,4.820657730102539062e+00,4.819476127624511719e+00,4.818295478820800781e+00,4.817115306854248047e+00,4.815935611724853516e+00,4.814756870269775391e+00,4.813578128814697266e+00,4.812400341033935547e+00,4.811223030090332031e+00,4.810046195983886719e+00,4.808869838714599609e+00,4.807694435119628906e+00,4.784289360046386719e+00,4.599598884582519531e+00,4.428637504577636719e+00,4.269929885864257812e+00,4.122203350067138672e+00,3.984357118606567383e+00,3.855431795120239258e+00,3.734588384628295898e+00,3.621089935302734375e+00,3.514286756515502930e+00,3.413603544235229492e+00,3.318528652191162109e+00,3.228606224060058594e+00,3.143428325653076172e+00,3.062629222869873047e+00,2.985879898071289062e+00,2.912883281707763672e+00,2.843370676040649414e+00,2.777098417282104492e+00,2.713845014572143555e+00,2.653408765792846680e+00,2.595605850219726562e+00,9.403342008590698242e-01,9.083994030952453613e-01
3.777066946029663086e+00,3.776341676712036133e+00,3.775616884231567383e+00,3.774892091751098633e+00,3.774167299270629883e+00,3.773443222045898438e+00,3.772719621658325195e+00,3.771996021270751953e+00,3.771272659301757812e+00,3.770549297332763672e+00,3.769826650619506836e+00,3.769104242324829102e+00,3.768382072448730469e+00,3.767660140991210938e+00,3.766938209533691406e+00,3.766216993331909180e+00,3.765496015548706055e+00,3.764775037765502930e+00,3.764054536819458008e+00,3.763334035873413086e+00,3.762614011764526367e+00,3.761894464492797852e+00,3.761175155639648438e+00,3.760455846786499023e+00,3.759736776351928711e+00,3.759018182754516602e+00,3.758299827575683594e+00,3.757581949234008789e+00,3.756864070892333984e+00,3.756146669387817383e+00,3.755429029464721680e+00,3.754712104797363281e+00,3.753995418548583984e+00,3.753279209136962891e+00,3.752562999725341797e+00,3.751846790313720703e+00,3.751131296157836914e+00,3.750416040420532227e+00,3.749701023101806641e+00,3.748986244201660156e+00,3.748271465301513672e+00,3.747557163238525391e+00,3.746843338012695312e+00,3.746129512786865234e+00,3.745416164398193359e+00,3.744702816009521484e+00,3.743989944458007812e+00,3.743277311325073242e+00,3.742565155029296875e+00,3.741853237152099609e+00,3.741141080856323242e+00,3.740429401397705078e+00,3.739718437194824219e+00,3.739007472991943359e+00,3.738296747207641602e+00,3.737586021423339844e+00,3.736875772476196289e+00,3.736166000366210938e+00,3.735456466674804688e+00,3.734747171401977539e+00,3.734038114547729492e+00,3.733328819274902344e+00,3.732620477676391602e+00,3.731912136077880859e+00,3.621172428131103516e+00,3.514364480972290039e+00,3.413676738739013672e+00,3.318597793579101562e+00,3.228671312332153320e+00,3.143490314483642578e+00,3.062688350677490234e+00,2.985935926437377930e+00,2.912936687469482422e+00,2.843421459197998047e+00,2.777146816253662109e+00,2.713891267776489258e+00,2.653453111648559570e+00,2.595648050308227539e+00,9.456413388252258301e-01,9.104104638099670410e-01
3.083487033843994141e+00,3.083003759384155273e+00,3.082520484924316406e+00,3.082037448883056641e+00,3.081554412841796875e+00,3.081071615219116211e+00,3.080589056015014648e+00,3.080106735229492188e+00,3.079624414443969727e+00,3.079142093658447266e+00,3.078660011291503906e+00,3.078178167343139648e+00,3.077696561813354492e+00,3.077214956283569336e+00,3.076733350753784180e+00,3.076252222061157227e+00,3.075771093368530273e+00,3.075290203094482422e+00,3.074809312820434570e+00,3.074328422546386719e+00,3.073848009109497070e+00,3.073367595672607422e+00,3.072887420654296875e+00,3.072407484054565430e+00,3.071927309036254883e+00,3.071447610855102539e+00,3.070968151092529297e+00,3.070488691329956055e+00,3.070009469985961914e+00,3.069530248641967773e+00,3.069051027297973633e+00,3.068572282791137695e+00,3.068093538284301758e+00,3.067615032196044922e+00,3.067136526107788086e+00,3.066658020019531250e+00,3.066179990768432617e+00,3.065702199935913086e+00,3.065224409103393555e+00,3.064746856689453125e+00,3.064269065856933594e+00,3.063791751861572266e+00,3.063314676284790039e+00,3.062837600708007812e+00,3.062360763549804688e+00,3.061883687973022461e+00,3.061407089233398438e+00,3.060930728912353516e+00,3.060454368591308594e+00,3.059978246688842773e+00,3.059501886367797852e+00,3.059026002883911133e+00,3.058550357818603516e+00,3.058074712753295898e+00,3.057599306106567383e+00,3.057123899459838867e+00,3.056648731231689453e+00,3.056173801422119141e+00,3.055699110031127930e+00,3.055224418640136719e+00,3.054749727249145508e+00,3.054275274276733398e+00,3.053801059722900391e+00,3.053326845169067383e+00,3.052852869033813477e+00,3.052379131317138672e+00,3.051905155181884766e+00,3.051431894302368164e+00,3.050958395004272461e+00,3.050485134124755859e+00,3.050012111663818359e+00,2.985992193222045898e+00,2.912990093231201172e+00,2.843472242355346680e+00,2.777195453643798828e+00,2.713937520980834961e+00,2.653497457504272461e+00,2.595690488815307617e+00,9.514392018318176270e-01,9.153842926025390625e-01
2.605112314224243164e+00,2.604767322540283203e+00,2.604422330856323242e+00,2.604077577590942383e+00,2.603732585906982422e+00,2.603388071060180664e+00,2.603043317794799805e+00,2.602699041366577148e+00,2.602354526519775391e+00,2.602010011672973633e+00,2.601665973663330078e+00,2.601321935653686523e+00,2.600977897644042969e+00,2.600633859634399414e+00,2.600289821624755859e+00,2.599946260452270508e+00,2.599602460861206055e+00,2.599258899688720703e+00,2.598915576934814453e+00,2.598572015762329102e+00,2.598228693008422852e+00,2.597885370254516602e+00,2.597542285919189453e+00,2.597199440002441406e+00,2.596856355667114258e+00,2.596513509750366211e+00,2.596170663833618164e+00,2.595828056335449219e+00,2.595485448837280273e+00,2.595143079757690430e+00,2.594800472259521484e+00,2.594458103179931641e+00,2.594115972518920898e+00,2.593773841857910156e+00,2.593431949615478516e+00,2.593089818954467773e+00,2.592747926712036133e+00,2.592406272888183594e+00,2.592064619064331055e+00,2.591722965240478516e+00,2.591381311416625977e+00,2.591039896011352539e+00,2.590698719024658203e+00,2.590357542037963867e+00,2.590016365051269531e+00,2.589675188064575195e+00,2.589334249496459961e+00,2.588993310928344727e+00,2.588652610778808594e+00,2.588311910629272461e+00,2.587971210479736328e+00,2.587630748748779297e+00,2.587290287017822266e+00,2.586950063705444336e+00,2.586609840393066406e+00,2.586269617080688477e+00,2.585929632186889648e+00,2.585589647293090820e+00,2.585249662399291992e+00,2.584909915924072266e+00,2.584570407867431641e+00,2.584230422973632812e+00,2.583891153335571289e+00,2.583551645278930664e+00,2.583212375640869141e+00,2.582873106002807617e+00,2.582533836364746094e+00,2.582194805145263672e+00,2.581855773925781250e+00,2.581516981124877930e+00,2.581178188323974609e+00,2.580839157104492188e+00,2.580500602722167969e+00,2.580162048339843750e+00,2.579823732376098633e+00,2.579485416412353516e+00,2.579146862030029297e+00,2.578808784484863281e+00,9.573326706886291504e-01,9.204128384590148926e-01
2.255233526229858398e+00,2.254974842071533203e+00,2.254716396331787109e+00,2.254457950592041016e+00,2.254199504852294922e+00,2.253941059112548828e+00,2.253682851791381836e+00,2.253424644470214844e+00,2.253166437149047852e+00,2.252908229827880859e+00,2.252650260925292969e+00,2.252392292022705078e+00,2.252134323120117188e+00,2.251876592636108398e+00,2.251618623733520508e+00,2.251360893249511719e+00,2.251103162765502930e+00,2.250845670700073242e+00,2.250587940216064453e+00,2.250330448150634766e+00,2.250072956085205078e+00,2.249815464019775391e+00,2.249558210372924805e+00,2.249300956726074219e+00,2.249043703079223633e+00,2.248786449432373047e+00,2.248529434204101562e+00,2.248272418975830078e+00,2.248015403747558594e+00,2.247758388519287109e+00,2.247501373291015625e+00,2.247244596481323242e+00,2.246988058090209961e+00,2.246731281280517578e+00,2.246474742889404297e+00,2.246217966079711914e+00,2.245961427688598633e+00,2.245705127716064453e+00,2.245448589324951172e+00,2.245192289352416992e+00,2.244935989379882812e+00,2.244679689407348633e+00,2.244423627853393555e+00,2.244167327880859375e+00,2.243911504745483398e+00,2.243655204772949219e+00,2.243399381637573242e+00,2.243143558502197266e+00,2.242887735366821289e+00,2.242631912231445312e+00,2.242376089096069336e+00,2.242120504379272461e+00,2.241864919662475586e+00,2.241609573364257812e+00,2.241353988647460938e+00,2.241098403930664062e+00,2.240843057632446289e+00,2.240587949752807617e+00,2.240332603454589844e+00,2.240077495574951172e+00,2.239822387695312500e+00,2.239567279815673828e+00,2.239312171936035156e+00,2.239057302474975586e+00,2.238802433013916016e+00,2.238547563552856445e+00,2.238292694091796875e+00,2.238038063049316406e+00,2.237783432006835938e+00,2.237528800964355469e+00,2.237274408340454102e+00,2.237019777297973633e+00,2.236765384674072266e+00,2.236510992050170898e+00,2.236256599426269531e+00,2.236002445220947266e+00,2.235748052597045898e+00,2.235493898391723633e+00,9.632995724678039551e-01,9.254969954490661621e-01
1.988207817077636719e+00,1.988006949424743652e+00,1.987805962562561035e+00,1.987605094909667969e+00,1.987403988838195801e+00,1.987203240394592285e+00,1.987002491950988770e+00,1.986801743507385254e+00,1.986601114273071289e+00,1.986400485038757324e+00,1.986199855804443359e+00,1.985999345779418945e+00,1.985798835754394531e+00,1.985598325729370117e+00,1.985397696495056152e+00,1.985197305679321289e+00,1.984996914863586426e+00,1.984796643257141113e+00,1.984596371650695801e+00,1.984396100044250488e+00,1.984195947647094727e+00,1.983995795249938965e+00,1.983795642852783203e+00,1.983595609664916992e+00,1.983395338058471680e+00,1.983195424079895020e+00,1.982995390892028809e+00,1.982795596122741699e+00,1.982595682144165039e+00,1.982395887374877930e+00,1.982196092605590820e+00,1.981996297836303711e+00,1.981796622276306152e+00,1.981596946716308594e+00,1.981397271156311035e+00,1.981197476387023926e+00,1.980997920036315918e+00,1.980798482894897461e+00,1.980599045753479004e+00,1.980399608612060547e+00,1.980200171470642090e+00,1.980000853538513184e+00,1.979801535606384277e+00,1.979602217674255371e+00,1.979403018951416016e+00,1.979203581809997559e+00,1.979004502296447754e+00,1.978805303573608398e+00,1.978606343269348145e+00,1.978407263755798340e+00,1.978208303451538086e+00,1.978009343147277832e+00,1.977810382843017578e+00,1.977611541748046875e+00,1.977412700653076172e+00,1.977213740348815918e+00,1.977015018463134766e+00,1.976816296577453613e+00,1.976617574691772461e+00,1.976418972015380859e+00,1.976220369338989258e+00,1.976021885871887207e+00,1.975823283195495605e+00,1.975624918937683105e+00,1.975426435470581055e+00,1.975228071212768555e+00,1.975029468536376953e+00,1.974831223487854004e+00,1.974632859230041504e+00,1.974434733390808105e+00,1.974236488342285156e+00,1.974038362503051758e+00,1.973840236663818359e+00,1.973642110824584961e+00,1.973444104194641113e+00,1.973246097564697266e+00,1.973047971725463867e+00,1.972850084304809570e+00,1.972652196884155273e+00,9.310187697410583496e-01
1.777720928192138672e+00,1.777560234069824219e+00,1.777399539947509766e+00,1.777238965034484863e+00,1.777078390121459961e+00,1.776917815208435059e+00,1.776757359504699707e+00,1.776596903800964355e+00,1.776436448097229004e+00,1.776275753974914551e+00,1.776115417480468750e+00,1.775954961776733398e+00,1.775794625282287598e+00,1.775634407997131348e+00,1.775474071502685547e+00,1.775313854217529297e+00,1.775153636932373047e+00,1.774993419647216797e+00,1.774833202362060547e+00,1.774672865867614746e+00,1.774512767791748047e+00,1.774352669715881348e+00,1.774192690849304199e+00,1.774032592773437500e+00,1.773872613906860352e+00,1.773712635040283203e+00,1.773552656173706055e+00,1.773392796516418457e+00,1.773232936859130859e+00,1.773073077201843262e+00,1.772912979125976562e+00,1.772753238677978516e+00,1.772593498229980469e+00,1.772433757781982422e+00,1.772274017333984375e+00,1.772114396095275879e+00,1.771954655647277832e+00,1.771795034408569336e+00,1.771635413169860840e+00,1.771475911140441895e+00,1.771316170692443848e+00,1.771156668663024902e+00,1.770997166633605957e+00,1.770837783813476562e+00,1.770678281784057617e+00,1.770518898963928223e+00,1.770359516143798828e+00,1.770200252532958984e+00,1.770040869712829590e+00,1.769881606101989746e+00,1.769722223281860352e+00,1.769562959671020508e+00,1.769403696060180664e+00,1.769244551658630371e+00,1.769085407257080078e+00,1.768926382064819336e+00,1.768767237663269043e+00,1.768608212471008301e+00,1.768449187278747559e+00,1.768290162086486816e+00,1.768131256103515625e+00,1.767972111701965332e+00,1.767813205718994141e+00,1.767654299736022949e+00,1.767495512962341309e+00,1.767336606979370117e+00,1.767177820205688477e+00,1.767019152641296387e+00,1.766860365867614746e+00,1.766701698303222656e+00,1.766543030738830566e+00,1.766384124755859375e+00,1.766225576400756836e+00,1.766066908836364746e+00,1.765908360481262207e+00,1.765749812126159668e+00,1.765591382980346680e+00,1.765432953834533691e+00,1.765274405479431152e+00,9.366610646247863770e-01
1.607535004615783691e+00,1.607403635978698730e+00,1.607272267341613770e+00,1.607141017913818359e+00,1.607009530067443848e+00,1.606878280639648438e+00,1.606746912002563477e+00,1.606615662574768066e+00,1.606484532356262207e+00,1.606353282928466797e+00,1.606222152709960938e+00,1.606090903282165527e+00,1.605959773063659668e+00,1.605828642845153809e+00,1.605697393417358398e+00,1.605566382408142090e+00,1.605435252189636230e+00,1.605304241180419922e+00,1.605173230171203613e+00,1.605042219161987305e+00,1.604911327362060547e+00,1.604780316352844238e+00,1.604649424552917480e+00,1.604518532752990723e+00,1.604387521743774414e+00,1.604256629943847656e+00,1.604125738143920898e+00,1.603994965553283691e+00,1.603864192962646484e+00,1.603733420372009277e+00,1.603602647781372070e+00,1.603471875190734863e+00,1.603341221809387207e+00,1.603210449218750000e+00,1.603079795837402344e+00,1.602949023246765137e+00,1.602818369865417480e+00,1.602687835693359375e+00,1.602557182312011719e+00,1.602426648139953613e+00,1.602296113967895508e+00,1.602165579795837402e+00,1.602035045623779297e+00,1.601904630661010742e+00,1.601774096488952637e+00,1.601643562316894531e+00,1.601513147354125977e+00,1.601382732391357422e+00,1.601252436637878418e+00,1.601122021675109863e+00,1.600991725921630859e+00,1.600861430168151855e+00,1.600731134414672852e+00,1.600600838661193848e+00,1.600470662117004395e+00,1.600340247154235840e+00,1.600210070610046387e+00,1.600079894065856934e+00,1.599949598312377930e+00,1.599819540977478027e+00,1.599689364433288574e+00,1.599559307098388672e+00,1.599429249763488770e+00,1.599299192428588867e+00,1.599169135093688965e+00,1.599039077758789062e+00,1.598909020423889160e+00,1.598779082298278809e+00,1.598649024963378906e+00,1.598519206047058105e+00,1.598389267921447754e+00,1.598259329795837402e+00,1.598129510879516602e+00,1.597999691963195801e+00,1.597869873046875000e+00,1.597740054130554199e+00,1.597610116004943848e+00,1.597480297088623047e+00,1.597350597381591797e+00,1.597220897674560547e+00
1.467086791992187500e+00,1.466977477073669434e+00,1.466868042945861816e+00,1.466758608818054199e+00,1.466649293899536133e+00,1.466539859771728516e+00,1.466430544853210449e+00,1.466321229934692383e+00,1.466211915016174316e+00,1.466102480888366699e+00,1.465993165969848633e+00,1.465883970260620117e+00,1.465774655342102051e+00,1.465665459632873535e+00,1.465556263923645020e+00,1.465447068214416504e+00,1.465337872505187988e+00,1.465228676795959473e+00,1.465119600296020508e+00,1.465010285377502441e+00,1.464901208877563477e+00,1.464792132377624512e+00,1.464683055877685547e+00,1.464573979377746582e+00,1.464464902877807617e+00,1.464355826377868652e+00,1.464246869087219238e+00,1.464137911796569824e+00,1.464028835296630859e+00,1.463919878005981445e+00,1.463810801506042480e+00,1.463701844215393066e+00,1.463593006134033203e+00,1.463484048843383789e+00,1.463375210762023926e+00,1.463266253471374512e+00,1.463157415390014648e+00,1.463048577308654785e+00,1.462939739227294922e+00,1.462831020355224609e+00,1.462722063064575195e+00,1.462613344192504883e+00,1.462504506111145020e+00,1.462395787239074707e+00,1.462287068367004395e+00,1.462178349494934082e+00,1.462069749832153320e+00,1.461961030960083008e+00,1.461852312088012695e+00,1.461743712425231934e+00,1.461634993553161621e+00,1.461526393890380859e+00,1.461417794227600098e+00,1.461309194564819336e+00,1.461200594902038574e+00,1.461092114448547363e+00,1.460983514785766602e+00,1.460875034332275391e+00,1.460766553878784180e+00,1.460658073425292969e+00,1.460549592971801758e+00,1.460440993309020996e+00,1.460332632064819336e+00,1.460224151611328125e+00,1.460115790367126465e+00,1.460007429122924805e+00,1.459898948669433594e+00,1.459790706634521484e+00,1.459682345390319824e+00,1.459573984146118164e+00,1.459465742111206055e+00,1.459357261657714844e+00,1.459249019622802734e+00,1.459140777587890625e+00,1.459032535552978516e+00,1.458924293518066406e+00,1.458816051483154297e+00,1.458707928657531738e+00,1.458599686622619629e+00,1.458491563796997070e+00
1.349208354949951172e+00,1.349115848541259766e+00,1.349023342132568359e+00,1.348930716514587402e+00,1.348838210105895996e+00,1.348745703697204590e+00,1.348653197288513184e+00,1.348560690879821777e+00,1.348468303680419922e+00,1.348375797271728516e+00,1.348283410072326660e+00,1.348190903663635254e+00,1.348098516464233398e+00,1.348006129264831543e+00,1.347913622856140137e+00,1.347821354866027832e+00,1.347728967666625977e+00,1.347636580467224121e+00,1.347544312477111816e+00,1.347451925277709961e+00,1.347359657287597656e+00,1.347267389297485352e+00,1.347175121307373047e+00,1.347082853317260742e+00,1.346990466117858887e+00,1.346898198127746582e+00,1.346806049346923828e+00,1.346713781356811523e+00,1.346621632575988770e+00,1.346529364585876465e+00,1.346437215805053711e+00,1.346345067024230957e+00,1.346252918243408203e+00,1.346160769462585449e+00,1.346068620681762695e+00,1.345976471900939941e+00,1.345884323120117188e+00,1.345792174339294434e+00,1.345700144767761230e+00,1.345608115196228027e+00,1.345516085624694824e+00,1.345423936843872070e+00,1.345331907272338867e+00,1.345239996910095215e+00,1.345147967338562012e+00,1.345055818557739258e+00,1.344963908195495605e+00,1.344871878623962402e+00,1.344779968261718750e+00,1.344688057899475098e+00,1.344596028327941895e+00,1.344504117965698242e+00,1.344412326812744141e+00,1.344320416450500488e+00,1.344228506088256836e+00,1.344136476516723633e+00,1.344044685363769531e+00,1.343952775001525879e+00,1.343860983848571777e+00,1.343769192695617676e+00,1.343677401542663574e+00,1.343585610389709473e+00,1.343493819236755371e+00,1.343402028083801270e+00,1.343310356140136719e+00,1.343218564987182617e+00,1.343126773834228516e+00,1.343034982681274414e+00,1.342943310737609863e+00,1.342851638793945312e+00,1.342759966850280762e+00,1.342668294906616211e+00,1.342576622962951660e+00,1.342484951019287109e+00,1.342393398284912109e+00,1.342301726341247559e+00,1.342210054397583008e+00,1.342118501663208008e+00,9.839920401573181152e-01,9.532940387725830078e-01
1.248863697052001953e+00,1.248784422874450684e+00,1.248705267906188965e+00,1.248625993728637695e+00,1.248546719551086426e+00,1.248467445373535156e+00,1.248388171195983887e+00,1.248308897018432617e+00,1.248229742050170898e+00,1.248150467872619629e+00,1.248071193695068359e+00,1.247992038726806641e+00,1.247912883758544922e+00,1.247833728790283203e+00,1.247754454612731934e+00,1.247675299644470215e+00,1.247596263885498047e+00,1.247517108917236328e+00,1.247437953948974609e+00,1.247358798980712891e+00,1.247279644012451172e+00,1.247200608253479004e+00,1.247121453285217285e+00,1.247042417526245117e+00,1.246963381767272949e+00,1.246884346008300781e+00,1.246805310249328613e+00,1.246726274490356445e+00,1.246647238731384277e+00,1.246568202972412109e+00,1.246489048004150391e+00,1.246410131454467773e+00,1.246331095695495605e+00,1.246252179145812988e+00,1.246173143386840820e+00,1.246094226837158203e+00,1.246015310287475586e+00,1.245936393737792969e+00,1.245857477188110352e+00,1.245778560638427734e+00,1.245699524879455566e+00,1.245620608329772949e+00,1.245541810989379883e+00,1.245462894439697266e+00,1.245383977890014648e+00,1.245305180549621582e+00,1.245226383209228516e+00,1.245147466659545898e+00,1.245068669319152832e+00,1.244989871978759766e+00,1.244910955429077148e+00,1.244832158088684082e+00,1.244753360748291016e+00,1.244674682617187500e+00,1.244595885276794434e+00,1.244517087936401367e+00,1.244438409805297852e+00,1.244359612464904785e+00,1.244280934333801270e+00,1.244202256202697754e+00,1.244123578071594238e+00,1.244044780731201172e+00,1.243966102600097656e+00,1.243887424468994141e+00,1.243808746337890625e+00,1.243730068206787109e+00,1.243651390075683594e+00,1.243572831153869629e+00,1.243494153022766113e+00,1.243415594100952148e+00,1.243336915969848633e+00,1.243258237838745117e+00,1.243179678916931152e+00,1.243101119995117188e+00,1.243022561073303223e+00,1.075192451477050781e+00,1.031171917915344238e+00,9.939172267913818359e-01,9.683406352996826172e-01,9.447286725044250488e-01
1.162411928176879883e+00,1.162343144416809082e+00,1.162274479866027832e+00,1.162205815315246582e+00,1.162137031555175781e+00,1.162068367004394531e+00,1.161999821662902832e+00,1.161931157112121582e+00,1.161862492561340332e+00,1.161793828010559082e+00,1.161725282669067383e+00,1.161656618118286133e+00,1.161587953567504883e+00,1.161519408226013184e+00,1.161450743675231934e+00,1.161382198333740234e+00,1.161313533782958984e+00,1.161244988441467285e+00,1.161176443099975586e+00,1.161107897758483887e+00,1.161039352416992188e+00,1.160970807075500488e+00,1.160902261734008789e+00,1.160833835601806641e+00,1.160765171051025391e+00,1.160696744918823242e+00,1.160628199577331543e+00,1.160559773445129395e+00,1.160491228103637695e+00,1.160422801971435547e+00,1.160354375839233398e+00,1.160285830497741699e+00,1.160217404365539551e+00,1.160148978233337402e+00,1.160080552101135254e+00,1.160012006759643555e+00,1.159943699836730957e+00,1.159875273704528809e+00,1.159806847572326660e+00,1.159738421440124512e+00,1.159670114517211914e+00,1.159601688385009766e+00,1.159533381462097168e+00,1.159464955329895020e+00,1.159396648406982422e+00,1.159328222274780273e+00,1.159259915351867676e+00,1.159191608428955078e+00,1.159123182296752930e+00,1.159054875373840332e+00,1.158986568450927734e+00,1.158918380737304688e+00,1.158850073814392090e+00,1.158781766891479492e+00,1.158713459968566895e+00,1.158645153045654297e+00,1.158576965332031250e+00,1.158508658409118652e+00,1.158440470695495605e+00,1.158372163772583008e+00,1.158303976058959961e+00,1.158235788345336914e+00,1.158167600631713867e+00,1.158099412918090820e+00,1.158031225204467773e+00,1.157963037490844727e+00,1.157894849777221680e+00,1.157826662063598633e+00,1.157758474349975586e+00,1.157690405845642090e+00,1.157622218132019043e+00,1.157554030418395996e+00,1.157485961914062500e+00,1.157417893409729004e+00,1.042297959327697754e+00,1.016203403472900391e+00,9.961532950401306152e-01,9.765714406967163086e-01,9.580357670783996582e-01,9.420216679573059082e-01
1.087154150009155273e+00,1.087094068527221680e+00,1.087033987045288086e+00,1.086973905563354492e+00,1.086913824081420898e+00,1.086853742599487305e+00,1.086793661117553711e+00,1.086733698844909668e+00,1.086673617362976074e+00,1.086613535881042480e+00,1.086553454399108887e+00,1.086493492126464844e+00,1.086433410644531250e+00,1.086373448371887207e+00,1.086313486099243164e+00,1.086253404617309570e+00,1.086193442344665527e+00,1.086133480072021484e+00,1.086073517799377441e+00,1.086013436317443848e+00,1.085953474044799805e+00,1.085893511772155762e+00,1.085833668708801270e+00,1.085773706436157227e+00,1.085713744163513184e+00,1.085653781890869141e+00,1.085593938827514648e+00,1.085533976554870605e+00,1.085474014282226562e+00,1.085414171218872070e+00,1.085354208946228027e+00,1.085294365882873535e+00,1.085234403610229492e+00,1.085174560546875000e+00,1.085114717483520508e+00,1.085054874420166016e+00,1.084995031356811523e+00,1.084935069084167480e+00,1.084875226020812988e+00,1.084815502166748047e+00,1.084755539894104004e+00,1.084695696830749512e+00,1.084635853767395020e+00,1.084576129913330078e+00,1.084516286849975586e+00,1.084456443786621094e+00,1.084396719932556152e+00,1.084336876869201660e+00,1.084277153015136719e+00,1.084217309951782227e+00,1.084157586097717285e+00,1.084097743034362793e+00,1.084038019180297852e+00,1.083978295326232910e+00,1.083918571472167969e+00,1.083858847618103027e+00,1.083799123764038086e+00,1.083739399909973145e+00,1.083679676055908203e+00,1.083619952201843262e+00,1.083560228347778320e+00,1.083500504493713379e+00,1.083440780639648438e+00,1.083381175994873047e+00,1.083321452140808105e+00,1.083261847496032715e+00,1.083202123641967773e+00,1.083142518997192383e+00,1.083082795143127441e+00,1.083023190498352051e+00,1.082963585853576660e+00,1.082903861999511719e+00,1.082844257354736328e+00,1.082784652709960938e+00,1.082725048065185547e+00,1.012562036514282227e+00,9.910603165626525879e-01,9.752409458160400391e-01,9.578128457069396973e-01,9.406094551086425781e-01
1.021048665046691895e+00,1.020995736122131348e+00,1.020942687988281250e+00,1.020889759063720703e+00,1.020836710929870605e+00,1.020783662796020508e+00,1.020730733871459961e+00,1.020677804946899414e+00,1.020624756813049316e+00,1.020571827888488770e+00,1.020518898963928223e+00,1.020465970039367676e+00,1.020413041114807129e+00,1.020359992980957031e+00,1.020307064056396484e+00,1.020254135131835938e+00,1.020201206207275391e+00,1.020148277282714844e+00,1.020095348358154297e+00,1.020042538642883301e+00,1.019989609718322754e+00,1.019936680793762207e+00,1.019883751869201660e+00,1.019830942153930664e+00,1.019778013229370117e+00,1.019725084304809570e+00,1.019672274589538574e+00,1.019619345664978027e+00,1.019566535949707031e+00,1.019513726234436035e+00,1.019460797309875488e+00,1.019407987594604492e+00,1.019355177879333496e+00,1.019302368164062500e+00,1.019249558448791504e+00,1.019196629524230957e+00,1.019143819808959961e+00,1.019091010093688965e+00,1.019038200378417969e+00,1.018985390663146973e+00,1.018932700157165527e+00,1.018879890441894531e+00,1.018827080726623535e+00,1.018774271011352539e+00,1.018721580505371094e+00,1.018668770790100098e+00,1.018615961074829102e+00,1.018563270568847656e+00,1.018510460853576660e+00,1.018457770347595215e+00,1.018404960632324219e+00,1.018352270126342773e+00,1.018299579620361328e+00,1.018246889114379883e+00,1.018194079399108887e+00,1.018141388893127441e+00,1.018088698387145996e+00,1.018036007881164551e+00,1.017983317375183105e+00,1.017930626869201660e+00,1.017877936363220215e+00,1.017825245857238770e+00,1.017772555351257324e+00,1.017719864845275879e+00,1.017667293548583984e+00,1.017614603042602539e+00,1.017561912536621094e+00,1.017509222030639648e+00,1.017456650733947754e+00,1.017403960227966309e+00,1.017351388931274414e+00,1.017298698425292969e+00,1.017246127128601074e+00,1.017193555831909180e+00,1.017140865325927734e+00,1.017088294029235840e+00,1.017035603523254395e+00,1.016983032226562500e+00,1.016930460929870605e+00,1.016877889633178711e+00
9.625216722488403320e-01,9.624745845794677734e-01,9.624274373054504395e-01,9.623804092407226562e-01,9.623332619667053223e-01,9.622862339019775391e-01,9.622390866279602051e-01,9.621920585632324219e-01,9.621449708938598633e-01,9.620978236198425293e-01,9.620508551597595215e-01,9.620037078857421875e-01,9.619567394256591797e-01,9.619096517562866211e-01,9.618626236915588379e-01,9.618155360221862793e-01,9.617685675621032715e-01,9.617214798927307129e-01,9.616745114326477051e-01,9.616274833679199219e-01,9.615803956985473633e-01,9.615334272384643555e-01,9.614863991737365723e-01,9.614394307136535645e-01,9.613924026489257812e-01,9.613454341888427734e-01,9.612984061241149902e-01,9.612514972686767578e-01,9.612044692039489746e-01,9.611575603485107422e-01,9.611105322837829590e-01,9.610635042190551758e-01,9.610165953636169434e-01,9.609695672988891602e-01,9.609227180480957031e-01,9.608756899833679199e-01,9.608288407325744629e-01,9.607818126678466797e-01,9.607349634170532227e-01,9.606879949569702148e-01,9.606409668922424316e-01,9.605941176414489746e-01,9.605471491813659668e-01,9.605002999305725098e-01,9.604533314704895020e-01,9.604064822196960449e-01,9.603595733642578125e-01,9.603127241134643555e-01,9.602657556533813477e-01,9.602189660072326660e-01,9.601719975471496582e-01,9.601250886917114258e-01,9.600782990455627441e-01,9.600313901901245117e-01,9.599845409393310547e-01,9.599376320838928223e-01,9.598908424377441406e-01,9.598439931869506836e-01,9.597972035408020020e-01,9.597502946853637695e-01,9.597035050392150879e-01,9.596566557884216309e-01,9.596097469329833984e-01,9.595630168914794922e-01,9.595161080360412598e-01,9.594693779945373535e-01,9.594225287437438965e-01,9.593757987022399902e-01,9.593289494514465332e-01,9.592822194099426270e-01,9.592353701591491699e-01,9.591885209083557129e-01,9.591417908668518066e-01,9.590949416160583496e-01,9.590482711791992188e-01,9.590014219284057617e-01,9.589547514915466309e-01,9.589079022407531738e-01,9.588612318038940430e-01,9.588144421577453613e-01
9.103404879570007324e-01,9.102983474731445312e-01,9.102562069892883301e-01,9.102141261100769043e-01,9.101719260215759277e-01,9.101297855377197266e-01,9.100877046585083008e-01,9.100455641746520996e-01,9.100034832954406738e-01,9.099613428115844727e-01,9.099193215370178223e-01,9.098771810531616211e-01,9.098351001739501953e-01,9.097930192947387695e-01,9.097508788108825684e-01,9.097088575363159180e-01,9.096667170524597168e-01,9.096246957778930664e-01,9.095825552940368652e-01,9.095405340194702148e-01,9.094984531402587891e-01,9.094564318656921387e-01,9.094143509864807129e-01,9.093723297119140625e-01,9.093302488327026367e-01,9.092881679534912109e-01,9.092462062835693359e-01,9.092041254043579102e-01,9.091621041297912598e-01,9.091200232505798340e-01,9.090780615806579590e-01,9.090360403060913086e-01,9.089940786361694336e-01,9.089519977569580078e-01,9.089100360870361328e-01,9.088680148124694824e-01,9.088259339332580566e-01,9.087840318679809570e-01,9.087419509887695312e-01,9.087000489234924316e-01,9.086580276489257812e-01,9.086160659790039062e-01,9.085740447044372559e-01,9.085321426391601562e-01,9.084901213645935059e-01,9.084481000900268555e-01,9.084061980247497559e-01,9.083641767501831055e-01,9.083222746849060059e-01,9.082803130149841309e-01,9.082384109497070312e-01,9.081964492797851562e-01,9.081545472145080566e-01,9.081125855445861816e-01,9.080706834793090820e-01,9.080287218093872070e-01,9.079867601394653320e-01,9.079448580741882324e-01,9.079028964042663574e-01,9.078610539436340332e-01,9.078190922737121582e-01,9.077772498130798340e-01,9.077352881431579590e-01,9.076934456825256348e-01,9.076515436172485352e-01,9.076097011566162109e-01,9.075677990913391113e-01,9.075258374214172363e-01,9.074840545654296875e-01,9.074420928955078125e-01,9.074003100395202637e-01,9.073584079742431641e-01,9.073165655136108398e-01,9.072746634483337402e-01,9.072328805923461914e-01,9.071909785270690918e-01,9.071490764617919922e-01,9.071072936058044434e-01,9.070654511451721191e-01,9.070236682891845703e-01
8.635261058807373047e-01,8.634881973266601562e-01,8.634502887725830078e-01,8.634123802185058594e-01,8.633745312690734863e-01,8.633365631103515625e-01,8.632987141609191895e-01,8.632608056068420410e-01,8.632229566574096680e-01,8.631849884986877441e-01,8.631470799446105957e-01,8.631092309951782227e-01,8.630713224411010742e-01,8.630335330963134766e-01,8.629955649375915527e-01,8.629577755928039551e-01,8.629198670387268066e-01,8.628820776939392090e-01,8.628441691398620605e-01,8.628062605857849121e-01,8.627684712409973145e-01,8.627305626869201660e-01,8.626927733421325684e-01,8.626548647880554199e-01,8.626170754432678223e-01,8.625792264938354492e-01,8.625414371490478516e-01,8.625035881996154785e-01,8.624657988548278809e-01,8.624279499053955078e-01,8.623901009559631348e-01,8.623523116111755371e-01,8.623144626617431641e-01,8.622766733169555664e-01,8.622388243675231934e-01,8.622010946273803711e-01,8.621632456779479980e-01,8.621255159378051758e-01,8.620876669883728027e-01,8.620499372482299805e-01,8.620120882987976074e-01,8.619742989540100098e-01,8.619365692138671875e-01,8.618987202644348145e-01,8.618610501289367676e-01,8.618232011795043945e-01,8.617854714393615723e-01,8.617476820945739746e-01,8.617100119590759277e-01,8.616721630096435547e-01,8.616343736648559570e-01,8.615967035293579102e-01,8.615589141845703125e-01,8.615212440490722656e-01,8.614834547042846680e-01,8.614457249641418457e-01,8.614079952239990234e-01,8.613702654838562012e-01,8.613325357437133789e-01,8.612948656082153320e-01,8.612570762634277344e-01,8.612193465232849121e-01,8.611816763877868652e-01,8.611439466476440430e-01,8.611062765121459961e-01,8.610685467720031738e-01,8.610308766365051270e-01,8.609931468963623047e-01,8.609554767608642578e-01,8.609177470207214355e-01,8.608801364898681641e-01,8.608424067497253418e-01,8.608046770095825195e-01,8.607670664787292480e-01,8.607293367385864258e-01,8.606917262077331543e-01,8.606539964675903320e-01,8.606163859367370605e-01,8.605787158012390137e-01,8.605411052703857422e-01
8.212911486625671387e-01,8.212568163871765137e-01,8.212226033210754395e-01,8.211882710456848145e-01,8.211539387702941895e-01,8.211196660995483398e-01,8.210853934288024902e-01,8.210511207580566406e-01,8.210167884826660156e-01,8.209825754165649414e-01,8.209483027458190918e-01,8.209140300750732422e-01,8.208797574043273926e-01,8.208455443382263184e-01,8.208112716674804688e-01,8.207769393920898438e-01,8.207427263259887695e-01,8.207084536552429199e-01,8.206742405891418457e-01,8.206399679183959961e-01,8.206057548522949219e-01,8.205714821815490723e-01,8.205373287200927734e-01,8.205030560493469238e-01,8.204687833786010742e-01,8.204345703125000000e-01,8.204003572463989258e-01,8.203661441802978516e-01,8.203318715095520020e-01,8.202977180480957031e-01,8.202634453773498535e-01,8.202292919158935547e-01,8.201950788497924805e-01,8.201609253883361816e-01,8.201266527175903320e-01,8.200924396514892578e-01,8.200582861900329590e-01,8.200240135192871094e-01,8.199899196624755859e-01,8.199556469917297363e-01,8.199215531349182129e-01,8.198873400688171387e-01,8.198531866073608398e-01,8.198189735412597656e-01,8.197848200798034668e-01,8.197506070137023926e-01,8.197163939476013184e-01,8.196823000907897949e-01,8.196480870246887207e-01,8.196139931678771973e-01,8.195797801017761230e-01,8.195456862449645996e-01,8.195114731788635254e-01,8.194773793220520020e-01,8.194432258605957031e-01,8.194090127944946289e-01,8.193749189376831055e-01,8.193407654762268066e-01,8.193066716194152832e-01,8.192725181579589844e-01,8.192384243011474609e-01,8.192042708396911621e-01,8.191701769828796387e-01,8.191360235214233398e-01,8.191019296646118164e-01,8.190677762031555176e-01,8.190336227416992188e-01,8.189995884895324707e-01,8.189654350280761719e-01,8.189314007759094238e-01,8.188972473144531250e-01,8.188632130622863770e-01,8.188290596008300781e-01,8.187950253486633301e-01,8.187608718872070312e-01,8.187268376350402832e-01,8.186927437782287598e-01,8.186585903167724609e-01,8.186245560646057129e-01,8.185904622077941895e-01
7.829949259757995605e-01,7.829637527465820312e-01,7.829325795173645020e-01,7.829014658927917480e-01,7.828702330589294434e-01,7.828391194343566895e-01,7.828079462051391602e-01,7.827768325805664062e-01,7.827455997467041016e-01,7.827144265174865723e-01,7.826833128929138184e-01,7.826521396636962891e-01,7.826210260391235352e-01,7.825898528099060059e-01,7.825587391853332520e-01,7.825275659561157227e-01,7.824965119361877441e-01,7.824653387069702148e-01,7.824342250823974609e-01,7.824030518531799316e-01,7.823719382286071777e-01,7.823408246040344238e-01,7.823096513748168945e-01,7.822785973548889160e-01,7.822474241256713867e-01,7.822163701057434082e-01,7.821852564811706543e-01,7.821541428565979004e-01,7.821230292320251465e-01,7.820919752120971680e-01,7.820608019828796387e-01,7.820296883583068848e-01,7.819986343383789062e-01,7.819675207138061523e-01,7.819364666938781738e-01,7.819053530693054199e-01,7.818742990493774414e-01,7.818431854248046875e-01,7.818121314048767090e-01,7.817810177803039551e-01,7.817499041557312012e-01,7.817188501358032227e-01,7.816877365112304688e-01,7.816567420959472656e-01,7.816256284713745117e-01,7.815946340560913086e-01,7.815635204315185547e-01,7.815324664115905762e-01,7.815014123916625977e-01,7.814704179763793945e-01,7.814393043518066406e-01,7.814082503318786621e-01,7.813771963119506836e-01,7.813461422920227051e-01,7.813151478767395020e-01,7.812840342521667480e-01,7.812530398368835449e-01,7.812219858169555664e-01,7.811909914016723633e-01,7.811599373817443848e-01,7.811289429664611816e-01,7.810978889465332031e-01,7.810668349266052246e-01,7.810358405113220215e-01,7.810047864913940430e-01,7.809738516807556152e-01,7.809427976608276367e-01,7.809118032455444336e-01,7.808807492256164551e-01,7.808498144149780273e-01,7.808187603950500488e-01,7.807877659797668457e-01,7.807567715644836426e-01,7.807257771492004395e-01,7.806947827339172363e-01,7.806637883186340332e-01,7.806328535079956055e-01,7.806017994880676270e-01,7.805708646774291992e-01,7.805398702621459961e-01
7.481110692024230957e-01,7.480826377868652344e-01,7.480541467666625977e-01,7.480257153511047363e-01,7.479972243309020996e-01,7.479687929153442383e-01,7.479403614997863770e-01,7.479118704795837402e-01,7.478834986686706543e-01,7.478550076484680176e-01,7.478266358375549316e-01,7.477981448173522949e-01,7.477697730064392090e-01,7.477412819862365723e-01,7.477128505706787109e-01,7.476844191551208496e-01,7.476559877395629883e-01,7.476276159286499023e-01,7.475991249084472656e-01,7.475707530975341797e-01,7.475423216819763184e-01,7.475139498710632324e-01,7.474855184555053711e-01,7.474571466445922852e-01,7.474286556243896484e-01,7.474002242088317871e-01,7.473718523979187012e-01,7.473434209823608398e-01,7.473151087760925293e-01,7.472866773605346680e-01,7.472583055496215820e-01,7.472298741340637207e-01,7.472015023231506348e-01,7.471731305122375488e-01,7.471447587013244629e-01,7.471163272857666016e-01,7.470879554748535156e-01,7.470595836639404297e-01,7.470311522483825684e-01,7.470028400421142578e-01,7.469744086265563965e-01,7.469460964202880859e-01,7.469177246093750000e-01,7.468893527984619141e-01,7.468609809875488281e-01,7.468326091766357422e-01,7.468042373657226562e-01,7.467758655548095703e-01,7.467475533485412598e-01,7.467191815376281738e-01,7.466908693313598633e-01,7.466624975204467773e-01,7.466341853141784668e-01,7.466058135032653809e-01,7.465775012969970703e-01,7.465491294860839844e-01,7.465207576751708984e-01,7.464924454689025879e-01,7.464640736579895020e-01,7.464357614517211914e-01,7.464073896408081055e-01,7.463791370391845703e-01,7.463507652282714844e-01,7.463225126266479492e-01,7.462941408157348633e-01,7.462658286094665527e-01,7.462375164031982422e-01,7.462091445922851562e-01,7.461808919906616211e-01,7.461525201797485352e-01,7.461242675781250000e-01,7.460959553718566895e-01,7.460676431655883789e-01,7.460393309593200684e-01,7.460110783576965332e-01,7.459827065467834473e-01,7.459543943405151367e-01,7.459261417388916016e-01,7.458978295326232910e-01,7.458695769309997559e-01
7.162029147148132324e-01,7.161768078804016113e-01,7.161507606506347656e-01,7.161246538162231445e-01,7.160986065864562988e-01,7.160724997520446777e-01,7.160464525222778320e-01,7.160203456878662109e-01,7.159942984580993652e-01,7.159682512283325195e-01,7.159421443939208984e-01,7.159160971641540527e-01,7.158899903297424316e-01,7.158640027046203613e-01,7.158378958702087402e-01,7.158119082450866699e-01,7.157858014106750488e-01,7.157598137855529785e-01,7.157337069511413574e-01,7.157076597213745117e-01,7.156816124916076660e-01,7.156555652618408203e-01,7.156295180320739746e-01,7.156034708023071289e-01,7.155774831771850586e-01,7.155514359474182129e-01,7.155253887176513672e-01,7.154993414878845215e-01,7.154733538627624512e-01,7.154473066329956055e-01,7.154212594032287598e-01,7.153952717781066895e-01,7.153692245483398438e-01,7.153432369232177734e-01,7.153171896934509277e-01,7.152912020683288574e-01,7.152651548385620117e-01,7.152391672134399414e-01,7.152131199836730957e-01,7.151871323585510254e-01,7.151610851287841797e-01,7.151350975036621094e-01,7.151091098785400391e-01,7.150830626487731934e-01,7.150571346282958984e-01,7.150310873985290527e-01,7.150050997734069824e-01,7.149791121482849121e-01,7.149531245231628418e-01,7.149271368980407715e-01,7.149010896682739258e-01,7.148751616477966309e-01,7.148491740226745605e-01,7.148231863975524902e-01,7.147971987724304199e-01,7.147712707519531250e-01,7.147452235221862793e-01,7.147192955017089844e-01,7.146933078765869141e-01,7.146673798561096191e-01,7.146413326263427734e-01,7.146153450012207031e-01,7.145894169807434082e-01,7.145634293556213379e-01,7.145375013351440430e-01,7.145115137100219727e-01,7.144855856895446777e-01,7.144595980644226074e-01,7.144336700439453125e-01,7.144076824188232422e-01,7.143818140029907227e-01,7.143558263778686523e-01,7.143298387527465820e-01,7.143039107322692871e-01,7.142779827117919922e-01,7.142520546913146973e-01,7.142260670661926270e-01,7.142001986503601074e-01,7.141742110252380371e-01,7.141483426094055176e-01
