7.560868859291076660e-01,7.368078231811523438e-01,7.255634069442749023e-01,7.322223186492919922e-01,8.617675900459289551e-01,8.711174130439758301e-01,8.806723952293395996e-01,8.884451389312744141e-01,8.944782614707946777e-01,9.108850359916687012e-01,9.286667108535766602e-01,9.445897936820983887e-01,9.611887931823730469e-01,9.900348782539367676e-01,9.944012165069580078e-01,9.988063573837280273e-01,1.002460956573486328e+00,1.005775928497314453e+00,1.030962944030761719e+00,1.057443976402282715e+00,1.084970951080322266e+00,2.029430389404296875e+00,2.029430866241455078e+00,2.029431581497192383e+00,2.029432058334350586e+00,2.029432773590087891e+00,2.029433250427246094e+00,2.029433965682983398e+00,2.029434442520141602e+00,2.029435157775878906e+00,2.029435634613037109e+00,2.029436111450195312e+00,2.029436826705932617e+00,2.029437541961669922e+00,2.029438018798828125e+00,2.029438495635986328e+00,2.029439210891723633e+00,2.029439687728881836e+00,2.029440164566040039e+00,2.029440879821777344e+00,2.029441595077514648e+00,2.029442071914672852e+00,2.029442548751831055e+00,2.029443264007568359e+00,2.029443740844726562e+00,2.029444456100463867e+00,2.029444932937622070e+00,2.029445648193359375e+00,2.029446125030517578e+00,2.029446840286254883e+00,2.029447317123413086e+00,2.029447793960571289e+00,2.029448509216308594e+00,2.029448986053466797e+00,2.029449701309204102e+00,2.029450178146362305e+00,2.029450893402099609e+00,2.029451370239257812e+00,2.029451847076416016e+00,2.029452562332153320e+00,2.029453039169311523e+00,2.029453754425048828e+00,2.029454231262207031e+00,2.029454946517944336e+00,2.029455423355102539e+00,2.029456138610839844e+00,2.029456615447998047e+00,2.029457092285156250e+00,2.029457807540893555e+00,2.029458522796630859e+00,2.029458999633789062e+00,2.029459476470947266e+00,2.029460191726684570e+00,2.029460668563842773e+00,2.029461145401000977e+00,2.029461860656738281e+00,2.029462575912475586e+00,2.029463052749633789e+00,2.029463529586791992e+00,2.029464244842529297e+00
7.346475124359130859e-01,7.380238771438598633e-01,7.255930304527282715e-01,8.587469458580017090e-01,8.680309653282165527e-01,8.775179982185363770e-01,8.872146010398864746e-01,9.018428325653076172e-01,9.194009304046630859e-01,9.376453161239624023e-01,9.563975930213928223e-01,9.746667742729187012e-01,9.858474731445312500e-01,9.901770949363708496e-01,9.939680099487304688e-01,9.971129894256591797e-01,1.000277876853942871e+00,1.012006282806396484e+00,1.037291646003723145e+00,1.063466072082519531e+00,2.029417037963867188e+00,2.029417514801025391e+00,2.029418230056762695e+00,2.029418706893920898e+00,2.029419183731079102e+00,2.029419898986816406e+00,2.029420614242553711e+00,2.029421091079711914e+00,2.029421567916870117e+00,2.029422283172607422e+00,2.029422760009765625e+00,2.029423475265502930e+00,2.029423952102661133e+00,2.029424428939819336e+00,2.029425144195556641e+00,2.029425859451293945e+00,2.029426336288452148e+00,2.029426813125610352e+00,2.029427528381347656e+00,2.029428005218505859e+00,2.029428482055664062e+00,2.029429197311401367e+00,2.029429912567138672e+00,2.029430389404296875e+00,2.029430866241455078e+00,2.029431581497192383e+00,2.029432058334350586e+00,2.029432773590087891e+00,2.029433250427246094e+00,2.029433965682983398e+00,2.029434442520141602e+00,2.029435157775878906e+00,2.029435634613037109e+00,2.029436111450195312e+00,2.029436826705932617e+00,2.029437541961669922e+00,2.029438018798828125e+00,2.029438495635986328e+00,2.029439210891723633e+00,2.029439687728881836e+00,2.029440164566040039e+00,2.029440879821777344e+00,2.029441595077514648e+00,2.029442071914672852e+00,2.029442548751831055e+00,2.029443264007568359e+00,2.029443740844726562e+00,2.029444456100463867e+00,2.029444932937622070e+00,2.029445648193359375e+00,2.029446125030517578e+00,2.029446840286254883e+00,2.029447317123413086e+00,2.029447793960571289e+00,2.029448509216308594e+00,2.029448986053466797e+00,2.029449701309204102e+00,2.029450178146362305e+00,2.029450893402099609e+00,2.029451370239257812e+00
7.347678542137145996e-01,7.412157058715820312e-01,8.564180731773376465e-01,8.649672865867614746e-01,8.743861317634582520e-01,8.840132355690002441e-01,8.938548564910888672e-01,9.224652051925659180e-01,9.466825127601623535e-01,9.659231901168823242e-01,9.941896796226501465e-01,9.907078742980957031e-01,9.872016906738281250e-01,9.889513254165649414e-01,9.921262860298156738e-01,9.953216314315795898e-01,9.985376000404357910e-01,1.014133334159851074e+00,1.042227149009704590e+00,1.068654417991638184e+00,2.029404163360595703e+00,2.029404878616333008e+00,2.029405355453491211e+00,2.029405832290649414e+00,2.029406547546386719e+00,2.029407024383544922e+00,2.029407739639282227e+00,2.029408216476440430e+00,2.029408931732177734e+00,2.029409408569335938e+00,2.029410123825073242e+00,2.029410600662231445e+00,2.029411077499389648e+00,2.029411792755126953e+00,2.029412508010864258e+00,2.029412984848022461e+00,2.029413461685180664e+00,2.029414176940917969e+00,2.029414653778076172e+00,2.029415130615234375e+00,2.029415845870971680e+00,2.029416561126708984e+00,2.029417037963867188e+00,2.029417514801025391e+00,2.029418230056762695e+00,2.029418706893920898e+00,2.029419422149658203e+00,2.029419898986816406e+00,2.029420614242553711e+00,2.029421091079711914e+00,2.029421806335449219e+00,2.029422283172607422e+00,2.029422760009765625e+00,2.029423475265502930e+00,2.029423952102661133e+00,2.029424428939819336e+00,2.029425144195556641e+00,2.029425859451293945e+00,2.029426336288452148e+00,2.029426813125610352e+00,2.029427528381347656e+00,2.029428005218505859e+00,2.029428720474243164e+00,2.029429197311401367e+00,2.029429912567138672e+00,2.029430389404296875e+00,2.029431104660034180e+00,2.029431581497192383e+00,2.029432058334350586e+00,2.029432773590087891e+00,2.029433250427246094e+00,2.029433965682983398e+00,2.029434442520141602e+00,2.029435157775878906e+00,2.029435634613037109e+00,2.029436111450195312e+00,2.029436826705932617e+00,2.029437541961669922e+00,2.029438018798828125e+00,2.029438495635986328e+00
8.457733988761901855e-01,8.541104197502136230e-01,8.626133799552917480e-01,8.712872862815856934e-01,8.808349967002868652e-01,8.906055092811584473e-01,9.133552312850952148e-01,9.433355927467346191e-01,9.752315282821655273e-01,9.989597201347351074e-01,9.953480362892150879e-01,9.917624592781066895e-01,9.882025718688964844e-01,9.876266717910766602e-01,9.907931685447692871e-01,9.939798116683959961e-01,9.974424839019775391e-01,1.008064270019531250e+00,1.038511753082275391e+00,1.070855736732482910e+00,2.029391288757324219e+00,2.029392004013061523e+00,2.029392480850219727e+00,2.029393196105957031e+00,2.029393672943115234e+00,2.029394149780273438e+00,2.029394865036010742e+00,2.029395341873168945e+00,2.029396057128906250e+00,2.029396533966064453e+00,2.029397249221801758e+00,2.029397726058959961e+00,2.029398441314697266e+00,2.029398918151855469e+00,2.029399394989013672e+00,2.029400110244750977e+00,2.029400825500488281e+00,2.029401302337646484e+00,2.029401779174804688e+00,2.029402494430541992e+00,2.029402971267700195e+00,2.029403448104858398e+00,2.029404163360595703e+00,2.029404878616333008e+00,2.029405355453491211e+00,2.029405832290649414e+00,2.029406547546386719e+00,2.029407024383544922e+00,2.029407739639282227e+00,2.029408216476440430e+00,2.029408931732177734e+00,2.029409408569335938e+00,2.029410123825073242e+00,2.029410600662231445e+00,2.029411077499389648e+00,2.029411792755126953e+00,2.029412508010864258e+00,2.029412984848022461e+00,2.029413461685180664e+00,2.029414176940917969e+00,2.029414653778076172e+00,2.029415130615234375e+00,2.029415845870971680e+00,2.029416561126708984e+00,2.029417037963867188e+00,2.029417514801025391e+00,2.029418230056762695e+00,2.029418706893920898e+00,2.029419422149658203e+00,2.029419898986816406e+00,2.029420614242553711e+00,2.029421091079711914e+00,2.029421806335449219e+00,2.029422283172607422e+00,2.029422760009765625e+00,2.029423475265502930e+00,2.029423952102661133e+00,2.029424428939819336e+00,2.029425144195556641e+00,2.029425859451293945e+00
8.518152236938476562e-01,8.602722883224487305e-01,8.688989877700805664e-01,8.777004480361938477e-01,8.873796463012695312e-01,8.992759585380554199e-01,9.339202642440795898e-01,9.651722311973571777e-01,1.189428091049194336e+00,1.012837290763854980e+00,9.963562488555908203e-01,9.927725791931152344e-01,9.892054200172424316e-01,9.863054752349853516e-01,9.894635081291198730e-01,9.926416277885437012e-01,9.967601895332336426e-01,1.002067565917968750e+00,1.032148361206054688e+00,1.064081668853759766e+00,2.029378414154052734e+00,2.029379129409790039e+00,2.029379844665527344e+00,2.029380321502685547e+00,2.029380798339843750e+00,2.029381513595581055e+00,2.029381990432739258e+00,2.029382705688476562e+00,2.029383182525634766e+00,2.029383897781372070e+00,2.029384374618530273e+00,2.029385089874267578e+00,2.029385566711425781e+00,2.029386043548583984e+00,2.029386758804321289e+00,2.029387474060058594e+00,2.029387950897216797e+00,2.029388427734375000e+00,2.029389142990112305e+00,2.029389619827270508e+00,2.029390096664428711e+00,2.029390811920166016e+00,2.029391288757324219e+00,2.029392004013061523e+00,2.029392480850219727e+00,2.029393196105957031e+00,2.029393672943115234e+00,2.029394388198852539e+00,2.029394865036010742e+00,2.029395341873168945e+00,2.029396057128906250e+00,2.029396772384643555e+00,2.029397249221801758e+00,2.029397726058959961e+00,2.029398441314697266e+00,2.029398918151855469e+00,2.029399394989013672e+00,2.029400110244750977e+00,2.029400825500488281e+00,2.029401302337646484e+00,2.029401779174804688e+00,2.029402494430541992e+00,2.029402971267700195e+00,2.029403686523437500e+00,2.029404163360595703e+00,2.029404878616333008e+00,2.029405355453491211e+00,2.029405832290649414e+00,2.029406547546386719e+00,2.029407024383544922e+00,2.029407739639282227e+00,2.029408216476440430e+00,2.029408931732177734e+00,2.029409408569335938e+00,2.029410123825073242e+00,2.029410600662231445e+00,2.029411077499389648e+00,2.029411792755126953e+00,2.029412508010864258e+00,2.029412984848022461e+00
8.577244877815246582e-01,8.665236830711364746e-01,8.752768635749816895e-01,8.842087388038635254e-01,8.940223455429077148e-01,9.223951101303100586e-01,9.553182125091552734e-01,1.184560537338256836e+00,1.197431087493896484e+00,1.034743547439575195e+00,9.970907568931579590e-01,9.937422275543212891e-01,9.902103543281555176e-01,9.866615533828735352e-01,9.881374239921569824e-01,9.913070797920227051e-01,9.960786700248718262e-01,1.001138687133789062e+00,1.025862574577331543e+00,1.056694626808166504e+00,2.029365777969360352e+00,2.029366254806518555e+00,2.029366970062255859e+00,2.029367446899414062e+00,2.029368162155151367e+00,2.029368638992309570e+00,2.029369115829467773e+00,2.029369831085205078e+00,2.029370307922363281e+00,2.029371023178100586e+00,2.029371500015258789e+00,2.029372215270996094e+00,2.029372692108154297e+00,2.029373407363891602e+00,2.029373884201049805e+00,2.029374361038208008e+00,2.029375076293945312e+00,2.029375791549682617e+00,2.029376268386840820e+00,2.029376745223999023e+00,2.029377460479736328e+00,2.029377937316894531e+00,2.029378414154052734e+00,2.029379129409790039e+00,2.029379844665527344e+00,2.029380321502685547e+00,2.029380798339843750e+00,2.029381513595581055e+00,2.029381990432739258e+00,2.029382705688476562e+00,2.029383182525634766e+00,2.029383897781372070e+00,2.029384374618530273e+00,2.029385089874267578e+00,2.029385566711425781e+00,2.029386043548583984e+00,2.029386758804321289e+00,2.029387474060058594e+00,2.029387950897216797e+00,2.029388427734375000e+00,2.029389142990112305e+00,2.029389619827270508e+00,2.029390096664428711e+00,2.029390811920166016e+00,2.029391288757324219e+00,2.029392004013061523e+00,2.029392480850219727e+00,2.029393196105957031e+00,2.029393672943115234e+00,2.029394388198852539e+00,2.029394865036010742e+00,2.029395341873168945e+00,2.029396057128906250e+00,2.029396772384643555e+00,2.029397249221801758e+00,2.029397726058959961e+00,2.029398441314697266e+00,2.029398918151855469e+00,2.029399394989013672e+00,2.029400110244750977e+00
8.635027408599853516e-01,8.725709319114685059e-01,8.817490935325622559e-01,8.908142447471618652e-01,9.080379605293273926e-01,9.456634521484375000e-01,1.196886301040649414e+00,1.208034276962280273e+00,1.211354732513427734e+00,1.211461901664733887e+00,9.978263378143310547e-01,9.944728612899780273e-01,9.911418557167053223e-01,9.876614212989807129e-01,9.868149161338806152e-01,9.903958439826965332e-01,9.953981041908264160e-01,1.000451207160949707e+00,1.019652724266052246e+00,1.049409508705139160e+00,2.029352903366088867e+00,2.029353380203247070e+00,2.029354095458984375e+00,2.029354810714721680e+00,2.029355287551879883e+00,2.029355764389038086e+00,2.029356479644775391e+00,2.029356956481933594e+00,2.029357671737670898e+00,2.029358148574829102e+00,2.029358863830566406e+00,2.029359340667724609e+00,2.029360055923461914e+00,2.029360532760620117e+00,2.029361009597778320e+00,2.029361724853515625e+00,2.029362201690673828e+00,2.029362916946411133e+00,2.029363393783569336e+00,2.029364109039306641e+00,2.029364585876464844e+00,2.029365062713623047e+00,2.029365777969360352e+00,2.029366254806518555e+00,2.029366970062255859e+00,2.029367446899414062e+00,2.029368162155151367e+00,2.029368638992309570e+00,2.029369354248046875e+00,2.029369831085205078e+00,2.029370307922363281e+00,2.029371023178100586e+00,2.029371738433837891e+00,2.029372215270996094e+00,2.029372692108154297e+00,2.029373407363891602e+00,2.029373884201049805e+00,2.029374361038208008e+00,2.029375076293945312e+00,2.029375791549682617e+00,2.029376268386840820e+00,2.029376745223999023e+00,2.029377460479736328e+00,2.029377937316894531e+00,2.029378652572631836e+00,2.029379129409790039e+00,2.029379844665527344e+00,2.029380321502685547e+00,2.029380798339843750e+00,2.029381513595581055e+00,2.029381990432739258e+00,2.029382705688476562e+00,2.029383182525634766e+00,2.029383897781372070e+00,2.029384374618530273e+00,2.029385089874267578e+00,2.029385566711425781e+00,2.029386043548583984e+00,2.029386758804321289e+00,2.029387474060058594e+00
8.693594336509704590e-01,8.785516619682312012e-01,8.879404067993164062e-01,8.975191712379455566e-01,9.316157102584838867e-01,1.208730101585388184e+00,1.207803964614868164e+00,1.214552521705627441e+00,1.219849109649658203e+00,1.222965002059936523e+00,1.002606511116027832e+00,9.952045083045959473e-01,9.918686151504516602e-01,9.885550141334533691e-01,9.854959845542907715e-01,9.897230267524719238e-01,9.947185516357421875e-01,9.997648596763610840e-01,1.013517618179321289e+00,1.042224049568176270e+00,2.029340028762817383e+00,2.029340744018554688e+00,2.029341220855712891e+00,2.029341936111450195e+00,2.029342412948608398e+00,2.029343128204345703e+00,2.029343605041503906e+00,2.029344081878662109e+00,2.029344797134399414e+00,2.029345273971557617e+00,2.029345989227294922e+00,2.029346466064453125e+00,2.029347181320190430e+00,2.029347658157348633e+00,2.029348373413085938e+00,2.029348850250244141e+00,2.029349327087402344e+00,2.029350042343139648e+00,2.029350757598876953e+00,2.029351234436035156e+00,2.029351711273193359e+00,2.029352426528930664e+00,2.029352903366088867e+00,2.029353380203247070e+00,2.029354095458984375e+00,2.029354810714721680e+00,2.029355287551879883e+00,2.029355764389038086e+00,2.029356479644775391e+00,2.029356956481933594e+00,2.029357671737670898e+00,2.029358148574829102e+00,2.029358863830566406e+00,2.029359340667724609e+00,2.029360055923461914e+00,2.029360532760620117e+00,2.029361009597778320e+00,2.029361724853515625e+00,2.029362201690673828e+00,2.029362916946411133e+00,2.029363393783569336e+00,2.029364109039306641e+00,2.029364585876464844e+00,2.029365062713623047e+00,2.029365777969360352e+00,2.029366254806518555e+00,2.029366970062255859e+00,2.029367446899414062e+00,2.029368162155151367e+00,2.029368638992309570e+00,2.029369354248046875e+00,2.029369831085205078e+00,2.029370307922363281e+00,2.029371023178100586e+00,2.029371738433837891e+00,2.029372215270996094e+00,2.029372692108154297e+00,2.029373407363891602e+00,2.029373884201049805e+00,2.029374361038208008e+00
8.752960562705993652e-01,8.846148252487182617e-01,8.941342830657958984e-01,9.186742305755615234e-01,9.564505815505981445e-01,1.217596530914306641e+00,1.224089503288269043e+00,1.223076224327087402e+00,1.225260615348815918e+00,1.235482454299926758e+00,1.037373185157775879e+00,9.959373474121093750e-01,9.925965666770935059e-01,9.892780780792236328e-01,9.857200384140014648e-01,9.887812733650207520e-01,9.937731623649597168e-01,9.988157749176025391e-01,1.007109761238098145e+00,1.035136342048645020e+00,1.065070271492004395e+00,2.029327869415283203e+00,2.029328346252441406e+00,2.029329061508178711e+00,2.029329776763916016e+00,2.029330253601074219e+00,2.029330730438232422e+00,2.029331445693969727e+00,2.029331922531127930e+00,2.029332637786865234e+00,2.029333114624023438e+00,2.029333829879760742e+00,2.029334306716918945e+00,2.029335021972656250e+00,2.029335498809814453e+00,2.029335975646972656e+00,2.029336690902709961e+00,2.029337167739868164e+00,2.029337882995605469e+00,2.029338359832763672e+00,2.029339075088500977e+00,2.029339551925659180e+00,2.029340028762817383e+00,2.029340744018554688e+00,2.029341220855712891e+00,2.029341936111450195e+00,2.029342412948608398e+00,2.029343128204345703e+00,2.029343605041503906e+00,2.029344320297241211e+00,2.029344797134399414e+00,2.029345273971557617e+00,2.029345989227294922e+00,2.029346704483032227e+00,2.029347181320190430e+00,2.029347658157348633e+00,2.029348373413085938e+00,2.029348850250244141e+00,2.029349327087402344e+00,2.029350042343139648e+00,2.029350757598876953e+00,2.029351234436035156e+00,2.029351711273193359e+00,2.029352426528930664e+00,2.029352903366088867e+00,2.029353618621826172e+00,2.029354095458984375e+00,2.029354810714721680e+00,2.029355287551879883e+00,2.029355764389038086e+00,2.029356479644775391e+00,2.029356956481933594e+00,2.029357671737670898e+00,2.029358148574829102e+00,2.029358863830566406e+00,2.029359340667724609e+00,2.029360055923461914e+00,2.029360532760620117e+00,2.029361009597778320e+00,2.029361724853515625e+00
8.813142776489257812e-01,8.907623887062072754e-01,9.084990024566650391e-01,9.446298480033874512e-01,2.029305219650268555e+00,1.220762133598327637e+00,1.233416795730590820e+00,1.235450267791748047e+00,1.235870242118835449e+00,2.029308080673217773e+00,2.029308795928955078e+00,9.966189861297607422e-01,9.928936362266540527e-01,9.891959428787231445e-01,9.855257272720336914e-01,9.873391985893249512e-01,9.923165440559387207e-01,9.973443746566772461e-01,1.004673242568969727e+00,1.029149532318115234e+00,1.058337450027465820e+00,2.029314994812011719e+00,2.029315710067749023e+00,2.029316186904907227e+00,2.029316902160644531e+00,2.029317378997802734e+00,2.029318094253540039e+00,2.029318571090698242e+00,2.029319047927856445e+00,2.029319763183593750e+00,2.029320240020751953e+00,2.029320955276489258e+00,2.029321432113647461e+00,2.029322147369384766e+00,2.029322624206542969e+00,2.029323339462280273e+00,2.029323816299438477e+00,2.029324293136596680e+00,2.029325008392333984e+00,2.029325723648071289e+00,2.029326200485229492e+00,2.029326677322387695e+00,2.029327392578125000e+00,2.029327869415283203e+00,2.029328346252441406e+00,2.029329061508178711e+00,2.029329776763916016e+00,2.029330253601074219e+00,2.029330730438232422e+00,2.029331445693969727e+00,2.029331922531127930e+00,2.029332637786865234e+00,2.029333114624023438e+00,2.029333829879760742e+00,2.029334306716918945e+00,2.029335021972656250e+00,2.029335498809814453e+00,2.029335975646972656e+00,2.029336690902709961e+00,2.029337167739868164e+00,2.029337882995605469e+00,2.029338359832763672e+00,2.029339075088500977e+00,2.029339551925659180e+00,2.029340028762817383e+00,2.029340744018554688e+00,2.029341220855712891e+00,2.029341936111450195e+00,2.029342412948608398e+00,2.029343128204345703e+00,2.029343605041503906e+00,2.029344320297241211e+00,2.029344797134399414e+00,2.029345273971557617e+00,2.029345989227294922e+00,2.029346704483032227e+00,2.029347181320190430e+00,2.029347658157348633e+00,2.029348373413085938e+00,2.029348850250244141e+00
8.874158859252929688e-01,9.019446372985839844e-01,9.332808256149291992e-01,2.029291868209838867e+00,1.221869468688964844e+00,2.029293060302734375e+00,1.233187317848205566e+00,2.029294013977050781e+00,1.242392659187316895e+00,2.029295206069946289e+00,2.029295921325683594e+00,9.978127479553222656e-01,9.926964044570922852e-01,9.890002608299255371e-01,9.853314757347106934e-01,9.859014153480529785e-01,9.908642768859863281e-01,9.965122342109680176e-01,1.004434347152709961e+00,1.023321747779846191e+00,1.052175521850585938e+00,2.029302358627319336e+00,2.029302835464477539e+00,2.029303312301635742e+00,2.029304027557373047e+00,2.029304742813110352e+00,2.029305219650268555e+00,2.029305696487426758e+00,2.029306411743164062e+00,2.029306888580322266e+00,2.029307603836059570e+00,2.029308080673217773e+00,2.029308795928955078e+00,2.029309272766113281e+00,2.029309988021850586e+00,2.029310464859008789e+00,2.029310941696166992e+00,2.029311656951904297e+00,2.029312133789062500e+00,2.029312849044799805e+00,2.029313325881958008e+00,2.029314041137695312e+00,2.029314517974853516e+00,2.029314994812011719e+00,2.029315710067749023e+00,2.029316186904907227e+00,2.029316902160644531e+00,2.029317378997802734e+00,2.029318094253540039e+00,2.029318571090698242e+00,2.029319286346435547e+00,2.029319763183593750e+00,2.029320240020751953e+00,2.029320955276489258e+00,2.029321670532226562e+00,2.029322147369384766e+00,2.029322624206542969e+00,2.029323339462280273e+00,2.029323816299438477e+00,2.029324293136596680e+00,2.029325008392333984e+00,2.029325723648071289e+00,2.029326200485229492e+00,2.029326677322387695e+00,2.029327392578125000e+00,2.029327869415283203e+00,2.029328346252441406e+00,2.029329061508178711e+00,2.029329776763916016e+00,2.029330253601074219e+00,2.029330730438232422e+00,2.029331445693969727e+00,2.029331922531127930e+00,2.029332637786865234e+00,2.029333114624023438e+00,2.029333829879760742e+00,2.029334306716918945e+00,2.029335021972656250e+00,2.029335498809814453e+00,2.029335975646972656e+00
8.954840302467346191e-01,9.222929477691650391e-01,2.029278278350830078e+00,2.029278993606567383e+00,2.029279708862304688e+00,2.029280185699462891e+00,2.029280662536621094e+00,2.029281377792358398e+00,2.029281854629516602e+00,2.029282569885253906e+00,2.029283046722412109e+00,1.023837804794311523e+00,9.936549663543701172e-01,9.888046383857727051e-01,9.851372241973876953e-01,9.844677448272705078e-01,9.894161820411682129e-01,9.962770342826843262e-01,1.004195451736450195e+00,1.017559885978698730e+00,1.046292304992675781e+00,2.029289484024047852e+00,2.029289960861206055e+00,2.029290676116943359e+00,2.029291152954101562e+00,2.029291868209838867e+00,2.029292345046997070e+00,2.029293060302734375e+00,2.029293537139892578e+00,2.029294013977050781e+00,2.029294729232788086e+00,2.029295206069946289e+00,2.029295921325683594e+00,2.029296398162841797e+00,2.029297113418579102e+00,2.029297590255737305e+00,2.029298305511474609e+00,2.029298782348632812e+00,2.029299259185791016e+00,2.029299974441528320e+00,2.029300689697265625e+00,2.029301166534423828e+00,2.029301643371582031e+00,2.029302358627319336e+00,2.029302835464477539e+00,2.029303312301635742e+00,2.029304027557373047e+00,2.029304742813110352e+00,2.029305219650268555e+00,2.029305696487426758e+00,2.029306411743164062e+00,2.029306888580322266e+00,2.029307603836059570e+00,2.029308080673217773e+00,2.029308795928955078e+00,2.029309272766113281e+00,2.029309988021850586e+00,2.029310464859008789e+00,2.029310941696166992e+00,2.029311656951904297e+00,2.029312133789062500e+00,2.029312849044799805e+00,2.029313325881958008e+00,2.029314041137695312e+00,2.029314517974853516e+00,2.029314994812011719e+00,2.029315710067749023e+00,2.029316186904907227e+00,2.029316902160644531e+00,2.029317378997802734e+00,2.029318094253540039e+00,2.029318571090698242e+00,2.029319286346435547e+00,2.029319763183593750e+00,2.029320240020751953e+00,2.029320955276489258e+00,2.029321670532226562e+00,2.029322147369384766e+00,2.029322624206542969e+00,2.029323339462280273e+00
9.155387282371520996e-01,2.029264926910400391e+00,2.029265642166137695e+00,2.029266119003295898e+00,2.029266595840454102e+00,2.029267311096191406e+00,2.029268026351928711e+00,2.029268503189086914e+00,2.029268980026245117e+00,2.029269695281982422e+00,2.029270172119140625e+00,2.029270887374877930e+00,9.961012005805969238e-01,9.895315766334533691e-01,9.849431514739990234e-01,9.830382466316223145e-01,9.882511496543884277e-01,9.960420131683349609e-01,1.003956675529479980e+00,1.011998057365417480e+00,1.040944457054138184e+00,2.029276609420776367e+00,2.029277324676513672e+00,2.029277801513671875e+00,2.029278278350830078e+00,2.029278993606567383e+00,2.029279708862304688e+00,2.029280185699462891e+00,2.029280662536621094e+00,2.029281377792358398e+00,2.029281854629516602e+00,2.029282569885253906e+00,2.029283046722412109e+00,2.029283761978149414e+00,2.029284238815307617e+00,2.029284954071044922e+00,2.029285430908203125e+00,2.029285907745361328e+00,2.029286623001098633e+00,2.029287099838256836e+00,2.029287815093994141e+00,2.029288291931152344e+00,2.029289007186889648e+00,2.029289484024047852e+00,2.029289960861206055e+00,2.029290676116943359e+00,2.029291152954101562e+00,2.029291868209838867e+00,2.029292345046997070e+00,2.029293060302734375e+00,2.029293537139892578e+00,2.029294252395629883e+00,2.029294729232788086e+00,2.029295206069946289e+00,2.029295921325683594e+00,2.029296636581420898e+00,2.029297113418579102e+00,2.029297590255737305e+00,2.029298305511474609e+00,2.029298782348632812e+00,2.029299259185791016e+00,2.029299974441528320e+00,2.029300689697265625e+00,2.029301166534423828e+00,2.029301643371582031e+00,2.029302358627319336e+00,2.029302835464477539e+00,2.029303312301635742e+00,2.029304027557373047e+00,2.029304742813110352e+00,2.029305219650268555e+00,2.029305696487426758e+00,2.029306411743164062e+00,2.029306888580322266e+00,2.029307603836059570e+00,2.029308080673217773e+00,2.029308795928955078e+00,2.029309272766113281e+00,2.029309988021850586e+00,2.029310464859008789e+00
9.369211196899414062e-01,2.029252290725708008e+00,2.029252767562866211e+00,2.029253244400024414e+00,2.029253959655761719e+00,2.029254674911499023e+00,2.029255151748657227e+00,2.029255628585815430e+00,2.029256343841552734e+00,2.029256820678710938e+00,2.029257535934448242e+00,2.029258012771606445e+00,9.985595941543579102e-01,9.919576048851013184e-01,9.854423403739929199e-01,9.816130399703979492e-01,9.880198836326599121e-01,9.958070516586303711e-01,1.003718018531799316e+00,1.011755585670471191e+00,1.035650968551635742e+00,2.029263973236083984e+00,2.029264450073242188e+00,2.029264926910400391e+00,2.029265642166137695e+00,2.029266119003295898e+00,2.029266595840454102e+00,2.029267311096191406e+00,2.029268026351928711e+00,2.029268503189086914e+00,2.029268980026245117e+00,2.029269695281982422e+00,2.029270172119140625e+00,2.029270887374877930e+00,2.029271364212036133e+00,2.029272079467773438e+00,2.029272556304931641e+00,2.029273271560668945e+00,2.029273748397827148e+00,2.029274225234985352e+00,2.029274940490722656e+00,2.029275655746459961e+00,2.029276132583618164e+00,2.029276609420776367e+00,2.029277324676513672e+00,2.029277801513671875e+00,2.029278278350830078e+00,2.029278993606567383e+00,2.029279708862304688e+00,2.029280185699462891e+00,2.029280662536621094e+00,2.029281377792358398e+00,2.029281854629516602e+00,2.029282569885253906e+00,2.029283046722412109e+00,2.029283761978149414e+00,2.029284238815307617e+00,2.029284954071044922e+00,2.029285430908203125e+00,2.029285907745361328e+00,2.029286623001098633e+00,2.029287099838256836e+00,2.029287815093994141e+00,2.029288291931152344e+00,2.029289007186889648e+00,2.029289484024047852e+00,2.029289960861206055e+00,2.029290676116943359e+00,2.029291152954101562e+00,2.029291868209838867e+00,2.029292345046997070e+00,2.029293060302734375e+00,2.029293537139892578e+00,2.029294252395629883e+00,2.029294729232788086e+00,2.029295206069946289e+00,2.029295921325683594e+00,2.029296636581420898e+00,2.029297113418579102e+00,2.029297590255737305e+00
2.029238939285278320e+00,2.029239416122436523e+00,2.029239892959594727e+00,2.029240608215332031e+00,2.029241085052490234e+00,2.029241561889648438e+00,2.029242277145385742e+00,2.029242992401123047e+00,2.029243469238281250e+00,2.029243946075439453e+00,2.029244661331176758e+00,2.029245138168334961e+00,1.001029968261718750e+00,9.943955540657043457e-01,9.878483414649963379e-01,9.812829494476318359e-01,9.877447485923767090e-01,9.955723285675048828e-01,1.003479361534118652e+00,1.011513233184814453e+00,1.030411005020141602e+00,1.066258668899536133e+00,2.029251575469970703e+00,2.029252290725708008e+00,2.029252767562866211e+00,2.029253244400024414e+00,2.029253959655761719e+00,2.029254674911499023e+00,2.029255151748657227e+00,2.029255628585815430e+00,2.029256343841552734e+00,2.029256820678710938e+00,2.029257535934448242e+00,2.029258012771606445e+00,2.029258728027343750e+00,2.029259204864501953e+00,2.029259920120239258e+00,2.029260396957397461e+00,2.029260873794555664e+00,2.029261589050292969e+00,2.029262065887451172e+00,2.029262542724609375e+00,2.029263257980346680e+00,2.029263973236083984e+00,2.029264450073242188e+00,2.029264926910400391e+00,2.029265642166137695e+00,2.029266119003295898e+00,2.029266834259033203e+00,2.029267311096191406e+00,2.029268026351928711e+00,2.029268503189086914e+00,2.029269218444824219e+00,2.029269695281982422e+00,2.029270172119140625e+00,2.029270887374877930e+00,2.029271602630615234e+00,2.029272079467773438e+00,2.029272556304931641e+00,2.029273271560668945e+00,2.029273748397827148e+00,2.029274225234985352e+00,2.029274940490722656e+00,2.029275655746459961e+00,2.029276132583618164e+00,2.029276609420776367e+00,2.029277324676513672e+00,2.029277801513671875e+00,2.029278278350830078e+00,2.029278993606567383e+00,2.029279708862304688e+00,2.029280185699462891e+00,2.029280662536621094e+00,2.029281377792358398e+00,2.029281854629516602e+00,2.029282569885253906e+00,2.029283046722412109e+00,2.029283761978149414e+00,2.029284238815307617e+00,2.029284954071044922e+00
2.029226064682006836e+00,2.029226541519165039e+00,2.029227256774902344e+00,2.029227733612060547e+00,2.029228210449218750e+00,2.029228925704956055e+00,2.029229640960693359e+00,2.029230117797851562e+00,2.029230594635009766e+00,2.029231309890747070e+00,2.029231786727905273e+00,2.029232501983642578e+00,1.003512740135192871e+00,9.968453645706176758e-01,9.895290732383728027e-01,9.819486141204833984e-01,9.864794611930847168e-01,9.941523075103759766e-01,1.001708149909973145e+00,1.009379982948303223e+00,1.024878978729248047e+00,1.059542894363403320e+00,2.029238939285278320e+00,2.029239416122436523e+00,2.029239892959594727e+00,2.029240608215332031e+00,2.029241085052490234e+00,2.029241561889648438e+00,2.029242277145385742e+00,2.029242992401123047e+00,2.029243469238281250e+00,2.029243946075439453e+00,2.029244661331176758e+00,2.029245138168334961e+00,2.029245853424072266e+00,2.029246330261230469e+00,2.029247045516967773e+00,2.029247522354125977e+00,2.029248237609863281e+00,2.029248714447021484e+00,2.029249191284179688e+00,2.029249906539916992e+00,2.029250621795654297e+00,2.029251098632812500e+00,2.029251575469970703e+00,2.029252290725708008e+00,2.029252767562866211e+00,2.029253244400024414e+00,2.029253959655761719e+00,2.029254674911499023e+00,2.029255151748657227e+00,2.029255628585815430e+00,2.029256343841552734e+00,2.029256820678710938e+00,2.029257535934448242e+00,2.029258012771606445e+00,2.029258728027343750e+00,2.029259204864501953e+00,2.029259920120239258e+00,2.029260396957397461e+00,2.029260873794555664e+00,2.029261589050292969e+00,2.029262065887451172e+00,2.029262542724609375e+00,2.029263257980346680e+00,2.029263973236083984e+00,2.029264450073242188e+00,2.029264926910400391e+00,2.029265642166137695e+00,2.029266119003295898e+00,2.029266834259033203e+00,2.029267311096191406e+00,2.029268026351928711e+00,2.029268503189086914e+00,2.029269218444824219e+00,2.029269695281982422e+00,2.029270172119140625e+00,2.029270887374877930e+00,2.029271602630615234e+00,2.029272079467773438e+00
2.029213190078735352e+00,2.029213905334472656e+00,2.029214382171630859e+00,2.029214859008789062e+00,2.029215574264526367e+00,2.029216051101684570e+00,2.029216527938842773e+00,2.029217243194580078e+00,2.029217958450317383e+00,2.029218435287475586e+00,2.029218912124633789e+00,2.029219627380371094e+00,2.029220104217529297e+00,9.985110163688659668e-01,9.910134673118591309e-01,9.849467873573303223e-01,9.828184247016906738e-01,9.901506304740905762e-01,9.974631071090698242e-01,1.004499793052673340e+00,1.011636614799499512e+00,1.037666440010070801e+00,2.029226064682006836e+00,2.029226541519165039e+00,2.029227256774902344e+00,2.029227733612060547e+00,2.029228210449218750e+00,2.029228925704956055e+00,2.029229640960693359e+00,2.029230117797851562e+00,2.029230594635009766e+00,2.029231309890747070e+00,2.029231786727905273e+00,2.029232501983642578e+00,2.029232978820800781e+00,2.029233694076538086e+00,2.029234170913696289e+00,2.029234886169433594e+00,2.029235363006591797e+00,2.029235839843750000e+00,2.029236555099487305e+00,2.029237031936645508e+00,2.029237508773803711e+00,2.029238224029541016e+00,2.029238939285278320e+00,2.029239416122436523e+00,2.029239892959594727e+00,2.029240608215332031e+00,2.029241085052490234e+00,2.029241800308227539e+00,2.029242277145385742e+00,2.029242992401123047e+00,2.029243469238281250e+00,2.029244184494018555e+00,2.029244661331176758e+00,2.029245138168334961e+00,2.029245853424072266e+00,2.029246568679809570e+00,2.029247045516967773e+00,2.029247522354125977e+00,2.029248237609863281e+00,2.029248714447021484e+00,2.029249191284179688e+00,2.029249906539916992e+00,2.029250621795654297e+00,2.029251098632812500e+00,2.029251575469970703e+00,2.029252290725708008e+00,2.029252767562866211e+00,2.029253244400024414e+00,2.029253959655761719e+00,2.029254674911499023e+00,2.029255151748657227e+00,2.029255628585815430e+00,2.029256343841552734e+00,2.029256820678710938e+00,2.029257535934448242e+00,2.029258012771606445e+00,2.029258728027343750e+00,2.029259204864501953e+00
2.029200553894042969e+00,2.029201030731201172e+00,2.029201507568359375e+00,2.029202222824096680e+00,2.029202699661254883e+00,2.029203176498413086e+00,2.029203891754150391e+00,2.029204607009887695e+00,2.029205083847045898e+00,2.029205560684204102e+00,2.029206275939941406e+00,2.029206752777099609e+00,2.029207468032836914e+00,1.000903844833374023e+00,9.954639077186584473e-01,9.899259805679321289e-01,9.849148988723754883e-01,9.846276044845581055e-01,9.914510846138000488e-01,9.983697533607482910e-01,1.005385518074035645e+00,1.012332081794738770e+00,1.044188857078552246e+00,2.029213905334472656e+00,2.029214382171630859e+00,2.029214859008789062e+00,2.029215574264526367e+00,2.029216051101684570e+00,2.029216527938842773e+00,2.029217243194580078e+00,2.029217958450317383e+00,2.029218435287475586e+00,2.029218912124633789e+00,2.029219627380371094e+00,2.029220104217529297e+00,2.029220819473266602e+00,2.029221296310424805e+00,2.029222011566162109e+00,2.029222488403320312e+00,2.029223203659057617e+00,2.029223680496215820e+00,2.029224157333374023e+00,2.029224872589111328e+00,2.029225587844848633e+00,2.029226064682006836e+00,2.029226541519165039e+00,2.029227256774902344e+00,2.029227733612060547e+00,2.029228210449218750e+00,2.029228925704956055e+00,2.029229640960693359e+00,2.029230117797851562e+00,2.029230594635009766e+00,2.029231309890747070e+00,2.029231786727905273e+00,2.029232501983642578e+00,2.029232978820800781e+00,2.029233694076538086e+00,2.029234170913696289e+00,2.029234886169433594e+00,2.029235363006591797e+00,2.029235839843750000e+00,2.029236555099487305e+00,2.029237031936645508e+00,2.029237508773803711e+00,2.029238224029541016e+00,2.029238939285278320e+00,2.029239416122436523e+00,2.029239892959594727e+00,2.029240608215332031e+00,2.029241085052490234e+00,2.029241800308227539e+00,2.029242277145385742e+00,2.029242992401123047e+00,2.029243469238281250e+00,2.029244184494018555e+00,2.029244661331176758e+00,2.029245138168334961e+00,2.029245853424072266e+00,2.029246568679809570e+00
2.029187440872192383e+00,2.029188156127929688e+00,2.029188871383666992e+00,2.029189348220825195e+00,2.029189825057983398e+00,2.029190540313720703e+00,2.029191017150878906e+00,2.029191493988037109e+00,2.029192209243774414e+00,2.029192924499511719e+00,2.029193401336669922e+00,2.029193878173828125e+00,2.029194593429565430e+00,1.023696064949035645e+00,9.992154240608215332e-01,9.948499798774719238e-01,9.907056689262390137e-01,9.865956902503967285e-01,9.853884577751159668e-01,9.922224879264831543e-01,9.991518259048461914e-01,1.006073832511901855e+00,1.012697935104370117e+00,1.052458167076110840e+00,2.029201507568359375e+00,2.029202222824096680e+00,2.029202699661254883e+00,2.029203176498413086e+00,2.029203891754150391e+00,2.029204607009887695e+00,2.029205083847045898e+00,2.029205560684204102e+00,2.029206275939941406e+00,2.029206752777099609e+00,2.029207468032836914e+00,2.029207944869995117e+00,2.029208660125732422e+00,2.029209136962890625e+00,2.029209852218627930e+00,2.029210329055786133e+00,2.029210805892944336e+00,2.029211521148681641e+00,2.029211997985839844e+00,2.029212474822998047e+00,2.029213190078735352e+00,2.029213905334472656e+00,2.029214382171630859e+00,2.029214859008789062e+00,2.029215574264526367e+00,2.029216051101684570e+00,2.029216766357421875e+00,2.029217243194580078e+00,2.029217958450317383e+00,2.029218435287475586e+00,2.029219150543212891e+00,2.029219627380371094e+00,2.029220104217529297e+00,2.029220819473266602e+00,2.029221534729003906e+00,2.029222011566162109e+00,2.029222488403320312e+00,2.029223203659057617e+00,2.029223680496215820e+00,2.029224157333374023e+00,2.029224872589111328e+00,2.029225587844848633e+00,2.029226064682006836e+00,2.029226541519165039e+00,2.029227256774902344e+00,2.029227733612060547e+00,2.029228210449218750e+00,2.029228925704956055e+00,2.029229640960693359e+00,2.029230117797851562e+00,2.029230594635009766e+00,2.029231309890747070e+00,2.029231786727905273e+00,2.029232501983642578e+00,2.029232978820800781e+00,2.029233694076538086e+00
2.029174804687500000e+00,2.029175519943237305e+00,2.029175996780395508e+00,2.029176473617553711e+00,2.029177188873291016e+00,2.029177665710449219e+00,2.029178142547607422e+00,2.029178857803344727e+00,2.029179573059082031e+00,2.029180049896240234e+00,2.029180526733398438e+00,2.029181241989135742e+00,2.029181718826293945e+00,2.029182434082031250e+00,1.017823219299316406e+00,1.000379562377929688e+00,9.965648651123046875e-01,9.924063086509704590e-01,9.882822632789611816e-01,9.861504435539245605e-01,9.929949641227722168e-01,9.998924732208251953e-01,1.006435155868530273e+00,1.018254041671752930e+00,2.029188871383666992e+00,2.029189348220825195e+00,2.029189825057983398e+00,2.029190540313720703e+00,2.029191017150878906e+00,2.029191493988037109e+00,2.029192209243774414e+00,2.029192924499511719e+00,2.029193401336669922e+00,2.029193878173828125e+00,2.029194593429565430e+00,2.029195070266723633e+00,2.029195785522460938e+00,2.029196262359619141e+00,2.029196977615356445e+00,2.029197454452514648e+00,2.029198169708251953e+00,2.029198646545410156e+00,2.029199123382568359e+00,2.029199838638305664e+00,2.029200553894042969e+00,2.029201030731201172e+00,2.029201507568359375e+00,2.029202222824096680e+00,2.029202699661254883e+00,2.029203176498413086e+00,2.029203891754150391e+00,2.029204607009887695e+00,2.029205083847045898e+00,2.029205560684204102e+00,2.029206275939941406e+00,2.029206752777099609e+00,2.029207468032836914e+00,2.029207944869995117e+00,2.029208660125732422e+00,2.029209136962890625e+00,2.029209852218627930e+00,2.029210329055786133e+00,2.029210805892944336e+00,2.029211521148681641e+00,2.029211997985839844e+00,2.029212474822998047e+00,2.029213190078735352e+00,2.029213905334472656e+00,2.029214382171630859e+00,2.029214859008789062e+00,2.029215574264526367e+00,2.029216051101684570e+00,2.029216766357421875e+00,2.029217243194580078e+00,2.029217958450317383e+00,2.029218435287475586e+00,2.029219150543212891e+00,2.029219627380371094e+00,2.029220104217529297e+00,2.029220819473266602e+00
2.029161930084228516e+00,2.029162645339965820e+00,2.029163122177124023e+00,2.029163837432861328e+00,2.029164314270019531e+00,2.029164791107177734e+00,2.029165506362915039e+00,2.029165983200073242e+00,2.029166460037231445e+00,2.029167175292968750e+00,2.029167890548706055e+00,2.029168367385864258e+00,2.029168844223022461e+00,2.029169559478759766e+00,2.029170036315917969e+00,1.014380097389221191e+00,1.000053405761718750e+00,9.970709085464477539e-01,9.941060543060302734e-01,9.899746775627136230e-01,9.869135022163391113e-01,9.937688112258911133e-01,1.000249385833740234e+00,1.006796717643737793e+00,1.026992082595825195e+00,2.029176473617553711e+00,2.029177188873291016e+00,2.029177665710449219e+00,2.029178142547607422e+00,2.029178857803344727e+00,2.029179573059082031e+00,2.029180049896240234e+00,2.029180526733398438e+00,2.029181241989135742e+00,2.029181718826293945e+00,2.029182434082031250e+00,2.029182910919189453e+00,2.029183626174926758e+00,2.029184103012084961e+00,2.029184818267822266e+00,2.029185295104980469e+00,2.029185771942138672e+00,2.029186487197875977e+00,2.029186964035034180e+00,2.029187440872192383e+00,2.029188156127929688e+00,2.029188871383666992e+00,2.029189348220825195e+00,2.029189825057983398e+00,2.029190540313720703e+00,2.029191017150878906e+00,2.029191732406616211e+00,2.029192209243774414e+00,2.029192924499511719e+00,2.029193401336669922e+00,2.029194116592407227e+00,2.029194593429565430e+00,2.029195070266723633e+00,2.029195785522460938e+00,2.029196500778198242e+00,2.029196977615356445e+00,2.029197454452514648e+00,2.029198169708251953e+00,2.029198646545410156e+00,2.029199123382568359e+00,2.029199838638305664e+00,2.029200553894042969e+00,2.029201030731201172e+00,2.029201507568359375e+00,2.029202222824096680e+00,2.029202699661254883e+00,2.029203176498413086e+00,2.029203891754150391e+00,2.029204607009887695e+00,2.029205083847045898e+00,2.029205560684204102e+00,2.029206275939941406e+00,2.029206752777099609e+00,2.029207468032836914e+00,2.029207944869995117e+00
2.029149055480957031e+00,2.029149770736694336e+00,2.029150485992431641e+00,2.029150962829589844e+00,2.029151439666748047e+00,2.029152154922485352e+00,2.029152631759643555e+00,2.029153108596801758e+00,2.029153823852539062e+00,2.029154539108276367e+00,2.029155015945434570e+00,2.029155492782592773e+00,2.029156208038330078e+00,2.029156684875488281e+00,2.029157161712646484e+00,2.029157876968383789e+00,1.018913626670837402e+00,1.000563502311706543e+00,9.967468380928039551e-01,9.937838912010192871e-01,9.908385276794433594e-01,9.876779317855834961e-01,9.943163990974426270e-01,1.001631021499633789e+00,1.008958101272583008e+00,1.045831918716430664e+00,2.029164314270019531e+00,2.029164791107177734e+00,2.029165506362915039e+00,2.029165983200073242e+00,2.029166460037231445e+00,2.029167175292968750e+00,2.029167890548706055e+00,2.029168367385864258e+00,2.029168844223022461e+00,2.029169559478759766e+00,2.029170036315917969e+00,2.029170751571655273e+00,2.029171228408813477e+00,2.029171943664550781e+00,2.029172420501708984e+00,2.029173135757446289e+00,2.029173612594604492e+00,2.029174089431762695e+00,2.029174804687500000e+00,2.029175519943237305e+00,2.029175996780395508e+00,2.029176473617553711e+00,2.029177188873291016e+00,2.029177665710449219e+00,2.029178142547607422e+00,2.029178857803344727e+00,2.029179573059082031e+00,2.029180049896240234e+00,2.029180526733398438e+00,2.029181241989135742e+00,2.029181718826293945e+00,2.029182434082031250e+00,2.029182910919189453e+00,2.029183626174926758e+00,2.029184103012084961e+00,2.029184818267822266e+00,2.029185295104980469e+00,2.029185771942138672e+00,2.029186487197875977e+00,2.029186964035034180e+00,2.029187440872192383e+00,2.029188156127929688e+00,2.029188871383666992e+00,2.029189348220825195e+00,2.029189825057983398e+00,2.029190540313720703e+00,2.029191017150878906e+00,2.029191732406616211e+00,2.029192209243774414e+00,2.029192924499511719e+00,2.029193401336669922e+00,2.029194116592407227e+00,2.029194593429565430e+00,2.029195070266723633e+00
2.029136419296264648e+00,2.029136896133422852e+00,2.029137372970581055e+00,2.029138088226318359e+00,2.029138803482055664e+00,2.029139280319213867e+00,2.029139757156372070e+00,2.029140472412109375e+00,2.029140949249267578e+00,2.029141426086425781e+00,2.029142141342163086e+00,2.029142856597900391e+00,2.029143333435058594e+00,2.029143810272216797e+00,2.029144525527954102e+00,2.029145002365112305e+00,2.029145717620849609e+00,1.023488163948059082e+00,1.004974246025085449e+00,9.963250756263732910e-01,9.924085736274719238e-01,9.885227680206298828e-01,9.910511970520019531e-01,9.983176589012145996e-01,1.005527973175048828e+00,1.030389785766601562e+00,2.029151439666748047e+00,2.029152154922485352e+00,2.029152631759643555e+00,2.029153108596801758e+00,2.029153823852539062e+00,2.029154539108276367e+00,2.029155015945434570e+00,2.029155492782592773e+00,2.029156208038330078e+00,2.029156684875488281e+00,2.029157400131225586e+00,2.029157876968383789e+00,2.029158592224121094e+00,2.029159069061279297e+00,2.029159784317016602e+00,2.029160261154174805e+00,2.029160737991333008e+00,2.029161453247070312e+00,2.029161930084228516e+00,2.029162645339965820e+00,2.029163122177124023e+00,2.029163837432861328e+00,2.029164314270019531e+00,2.029164791107177734e+00,2.029165506362915039e+00,2.029165983200073242e+00,2.029166698455810547e+00,2.029167175292968750e+00,2.029167890548706055e+00,2.029168367385864258e+00,2.029169082641601562e+00,2.029169559478759766e+00,2.029170036315917969e+00,2.029170751571655273e+00,2.029171228408813477e+00,2.029171943664550781e+00,2.029172420501708984e+00,2.029173135757446289e+00,2.029173612594604492e+00,2.029174089431762695e+00,2.029174804687500000e+00,2.029175519943237305e+00,2.029175996780395508e+00,2.029176473617553711e+00,2.029177188873291016e+00,2.029177665710449219e+00,2.029178142547607422e+00,2.029178857803344727e+00,2.029179573059082031e+00,2.029180049896240234e+00,2.029180526733398438e+00,2.029181241989135742e+00,2.029181718826293945e+00,2.029182434082031250e+00
2.029123544692993164e+00,2.029124021530151367e+00,2.029124736785888672e+00,2.029125452041625977e+00,2.029125928878784180e+00,2.029126405715942383e+00,2.029127120971679688e+00,2.029127597808837891e+00,2.029128074645996094e+00,2.029128789901733398e+00,2.029129505157470703e+00,2.029129981994628906e+00,2.029130458831787109e+00,2.029131174087524414e+00,2.029131650924682617e+00,2.029132127761840820e+00,2.029132843017578125e+00,2.029133558273315430e+00,1.028103709220886230e+00,9.965819716453552246e-01,9.923723936080932617e-01,9.884868860244750977e-01,9.878072142601013184e-01,9.950260519981384277e-01,1.002121210098266602e+00,1.015396952629089355e+00,1.049493074417114258e+00,2.029139280319213867e+00,2.029139757156372070e+00,2.029140472412109375e+00,2.029140949249267578e+00,2.029141426086425781e+00,2.029142141342163086e+00,2.029142856597900391e+00,2.029143333435058594e+00,2.029143810272216797e+00,2.029144525527954102e+00,2.029145002365112305e+00,2.029145717620849609e+00,2.029146194458007812e+00,2.029146909713745117e+00,2.029147386550903320e+00,2.029148101806640625e+00,2.029148578643798828e+00,2.029149055480957031e+00,2.029149770736694336e+00,2.029150485992431641e+00,2.029150962829589844e+00,2.029151439666748047e+00,2.029152154922485352e+00,2.029152631759643555e+00,2.029153108596801758e+00,2.029153823852539062e+00,2.029154539108276367e+00,2.029155015945434570e+00,2.029155492782592773e+00,2.029156208038330078e+00,2.029156684875488281e+00,2.029157400131225586e+00,2.029157876968383789e+00,2.029158592224121094e+00,2.029159069061279297e+00,2.029159784317016602e+00,2.029160261154174805e+00,2.029160737991333008e+00,2.029161453247070312e+00,2.029161930084228516e+00,2.029162645339965820e+00,2.029163122177124023e+00,2.029163837432861328e+00,2.029164314270019531e+00,2.029164791107177734e+00,2.029165506362915039e+00,2.029165983200073242e+00,2.029166698455810547e+00,2.029167175292968750e+00,2.029167890548706055e+00,2.029168367385864258e+00,2.029169082641601562e+00,2.029169559478759766e+00
2.029110670089721680e+00,2.029111385345458984e+00,2.029111862182617188e+00,2.029112577438354492e+00,2.029113054275512695e+00,2.029113769531250000e+00,2.029114246368408203e+00,2.029114723205566406e+00,2.029115438461303711e+00,2.029115915298461914e+00,2.029116392135620117e+00,2.029117107391357422e+00,2.029117822647094727e+00,2.029118299484252930e+00,2.029118776321411133e+00,2.029119491577148438e+00,2.029119968414306641e+00,2.029120683670043945e+00,2.029121160507202148e+00,1.007789731025695801e+00,9.923381209373474121e-01,9.884510040283203125e-01,9.845959544181823730e-01,9.917562007904052734e-01,9.987375140190124512e-01,1.005415201187133789e+00,1.037108421325683594e+00,2.029126405715942383e+00,2.029127120971679688e+00,2.029127597808837891e+00,2.029128074645996094e+00,2.029128789901733398e+00,2.029129505157470703e+00,2.029129981994628906e+00,2.029130458831787109e+00,2.029131174087524414e+00,2.029131650924682617e+00,2.029132366180419922e+00,2.029132843017578125e+00,2.029133558273315430e+00,2.029134035110473633e+00,2.029134750366210938e+00,2.029135227203369141e+00,2.029135704040527344e+00,2.029136419296264648e+00,2.029136896133422852e+00,2.029137372970581055e+00,2.029138088226318359e+00,2.029138803482055664e+00,2.029139280319213867e+00,2.029139757156372070e+00,2.029140472412109375e+00,2.029140949249267578e+00,2.029141664505004883e+00,2.029142141342163086e+00,2.029142856597900391e+00,2.029143333435058594e+00,2.029144048690795898e+00,2.029144525527954102e+00,2.029145002365112305e+00,2.029145717620849609e+00,2.029146194458007812e+00,2.029146909713745117e+00,2.029147386550903320e+00,2.029148101806640625e+00,2.029148578643798828e+00,2.029149055480957031e+00,2.029149770736694336e+00,2.029150485992431641e+00,2.029150962829589844e+00,2.029151439666748047e+00,2.029152154922485352e+00,2.029152631759643555e+00,2.029153108596801758e+00,2.029153823852539062e+00,2.029154539108276367e+00,2.029155015945434570e+00,2.029155492782592773e+00,2.029156208038330078e+00,2.029156684875488281e+00
2.029098033905029297e+00,2.029098510742187500e+00,2.029098987579345703e+00,2.029099702835083008e+00,2.029100418090820312e+00,2.029100894927978516e+00,2.029101371765136719e+00,2.029102087020874023e+00,2.029102563858032227e+00,2.029103040695190430e+00,2.029103755950927734e+00,2.029104471206665039e+00,2.029104948043823242e+00,2.029105424880981445e+00,2.029106140136718750e+00,2.029106616973876953e+00,2.029107093811035156e+00,2.029107809066772461e+00,2.029108524322509766e+00,1.022989988327026367e+00,9.933372735977172852e-01,9.884150028228759766e-01,9.845603704452514648e-01,9.885076284408569336e-01,9.953765869140625000e-01,1.002009153366088867e+00,1.025012731552124023e+00,2.029113769531250000e+00,2.029114246368408203e+00,2.029114723205566406e+00,2.029115438461303711e+00,2.029115915298461914e+00,2.029116392135620117e+00,2.029117107391357422e+00,2.029117822647094727e+00,2.029118299484252930e+00,2.029118776321411133e+00,2.029119491577148438e+00,2.029119968414306641e+00,2.029120683670043945e+00,2.029121160507202148e+00,2.029121875762939453e+00,2.029122352600097656e+00,2.029123067855834961e+00,2.029123544692993164e+00,2.029124021530151367e+00,2.029124736785888672e+00,2.029125452041625977e+00,2.029125928878784180e+00,2.029126405715942383e+00,2.029127120971679688e+00,2.029127597808837891e+00,2.029128074645996094e+00,2.029128789901733398e+00,2.029129505157470703e+00,2.029129981994628906e+00,2.029130458831787109e+00,2.029131174087524414e+00,2.029131650924682617e+00,2.029132366180419922e+00,2.029132843017578125e+00,2.029133558273315430e+00,2.029134035110473633e+00,2.029134750366210938e+00,2.029135227203369141e+00,2.029135704040527344e+00,2.029136419296264648e+00,2.029136896133422852e+00,2.029137372970581055e+00,2.029138088226318359e+00,2.029138803482055664e+00,2.029139280319213867e+00,2.029139757156372070e+00,2.029140472412109375e+00,2.029140949249267578e+00,2.029141664505004883e+00,2.029142141342163086e+00,2.029142856597900391e+00,2.029143333435058594e+00,2.029144048690795898e+00
2.029085159301757812e+00,2.029085636138916016e+00,2.029086351394653320e+00,2.029086828231811523e+00,2.029087543487548828e+00,2.029088020324707031e+00,2.029088735580444336e+00,2.029089212417602539e+00,2.029089689254760742e+00,2.029090404510498047e+00,2.029090881347656250e+00,2.029091596603393555e+00,2.029092073440551758e+00,2.029092788696289062e+00,2.029093265533447266e+00,2.029093742370605469e+00,2.029094457626342773e+00,2.029094934463500977e+00,2.029095649719238281e+00,1.038655638694763184e+00,9.943383932113647461e-01,9.891209602355957031e-01,9.845247864723205566e-01,9.852802157402038574e-01,9.920381307601928711e-01,9.986262321472167969e-01,1.011790871620178223e+00,1.036122918128967285e+00,2.029101371765136719e+00,2.029102087020874023e+00,2.029102563858032227e+00,2.029103040695190430e+00,2.029103755950927734e+00,2.029104471206665039e+00,2.029104948043823242e+00,2.029105424880981445e+00,2.029106140136718750e+00,2.029106616973876953e+00,2.029107332229614258e+00,2.029107809066772461e+00,2.029108524322509766e+00,2.029109001159667969e+00,2.029109716415405273e+00,2.029110193252563477e+00,2.029110670089721680e+00,2.029111385345458984e+00,2.029111862182617188e+00,2.029112577438354492e+00,2.029113054275512695e+00,2.029113769531250000e+00,2.029114246368408203e+00,2.029114723205566406e+00,2.029115438461303711e+00,2.029115915298461914e+00,2.029116630554199219e+00,2.029117107391357422e+00,2.029117822647094727e+00,2.029118299484252930e+00,2.029119014739990234e+00,2.029119491577148438e+00,2.029119968414306641e+00,2.029120683670043945e+00,2.029121160507202148e+00,2.029121875762939453e+00,2.029122352600097656e+00,2.029123067855834961e+00,2.029123544692993164e+00,2.029124021530151367e+00,2.029124736785888672e+00,2.029125452041625977e+00,2.029125928878784180e+00,2.029126405715942383e+00,2.029127120971679688e+00,2.029127597808837891e+00,2.029128074645996094e+00,2.029128789901733398e+00,2.029129505157470703e+00,2.029129981994628906e+00,2.029130458831787109e+00,2.029131174087524414e+00
2.029072284698486328e+00,2.029072999954223633e+00,2.029073476791381836e+00,2.029073953628540039e+00,2.029074668884277344e+00,2.029075384140014648e+00,2.029075860977172852e+00,2.029076337814331055e+00,2.029077053070068359e+00,2.029077529907226562e+00,2.029078006744384766e+00,2.029078722000122070e+00,2.029079437255859375e+00,2.029079914093017578e+00,2.029080390930175781e+00,2.029081106185913086e+00,2.029081583023071289e+00,2.029082059860229492e+00,2.029082775115966797e+00,2.029083490371704102e+00,1.011143684387207031e+00,9.901136159896850586e-01,9.849402308464050293e-01,9.820740222930908203e-01,9.887219667434692383e-01,9.952659010887145996e-01,1.001897096633911133e+00,1.024050116539001465e+00,2.029088735580444336e+00,2.029089212417602539e+00,2.029089689254760742e+00,2.029090404510498047e+00,2.029090881347656250e+00,2.029091596603393555e+00,2.029092073440551758e+00,2.029092788696289062e+00,2.029093265533447266e+00,2.029093742370605469e+00,2.029094457626342773e+00,2.029094934463500977e+00,2.029095649719238281e+00,2.029096126556396484e+00,2.029096841812133789e+00,2.029097318649291992e+00,2.029098033905029297e+00,2.029098510742187500e+00,2.029098987579345703e+00,2.029099702835083008e+00,2.029100418090820312e+00,2.029100894927978516e+00,2.029101371765136719e+00,2.029102087020874023e+00,2.029102563858032227e+00,2.029103040695190430e+00,2.029103755950927734e+00,2.029104471206665039e+00,2.029104948043823242e+00,2.029105424880981445e+00,2.029106140136718750e+00,2.029106616973876953e+00,2.029107332229614258e+00,2.029107809066772461e+00,2.029108524322509766e+00,2.029109001159667969e+00,2.029109716415405273e+00,2.029110193252563477e+00,2.029110670089721680e+00,2.029111385345458984e+00,2.029111862182617188e+00,2.029112577438354492e+00,2.029113054275512695e+00,2.029113769531250000e+00,2.029114246368408203e+00,2.029114723205566406e+00,2.029115438461303711e+00,2.029115915298461914e+00,2.029116630554199219e+00,2.029117107391357422e+00,2.029117822647094727e+00,2.029118299484252930e+00
2.029059410095214844e+00,2.029060125350952148e+00,2.029060602188110352e+00,2.029061317443847656e+00,2.029061794281005859e+00,2.029062509536743164e+00,2.029062986373901367e+00,2.029063701629638672e+00,2.029064178466796875e+00,2.029064655303955078e+00,2.029065370559692383e+00,2.029065847396850586e+00,2.029066562652587891e+00,2.029067039489746094e+00,2.029067754745483398e+00,2.029068231582641602e+00,2.029068708419799805e+00,2.029069423675537109e+00,2.029069900512695312e+00,2.029070615768432617e+00,1.028463602066040039e+00,9.911083579063415527e-01,9.859245419502258301e-01,9.807947278022766113e-01,9.854406714439392090e-01,9.919798374176025391e-01,9.986063241958618164e-01,1.012923717498779297e+00,1.036067962646484375e+00,2.029076337814331055e+00,2.029077053070068359e+00,2.029077529907226562e+00,2.029078006744384766e+00,2.029078722000122070e+00,2.029079437255859375e+00,2.029079914093017578e+00,2.029080390930175781e+00,2.029081106185913086e+00,2.029081583023071289e+00,2.029082298278808594e+00,2.029082775115966797e+00,2.029083490371704102e+00,2.029083967208862305e+00,2.029084682464599609e+00,2.029085159301757812e+00,2.029085636138916016e+00,2.029086351394653320e+00,2.029086828231811523e+00,2.029087543487548828e+00,2.029088020324707031e+00,2.029088735580444336e+00,2.029089212417602539e+00,2.029089689254760742e+00,2.029090404510498047e+00,2.029090881347656250e+00,2.029091596603393555e+00,2.029092073440551758e+00,2.029092788696289062e+00,2.029093265533447266e+00,2.029093742370605469e+00,2.029094457626342773e+00,2.029094934463500977e+00,2.029095649719238281e+00,2.029096126556396484e+00,2.029096841812133789e+00,2.029097318649291992e+00,2.029098033905029297e+00,2.029098510742187500e+00,2.029098987579345703e+00,2.029099702835083008e+00,2.029100418090820312e+00,2.029100894927978516e+00,2.029101371765136719e+00,2.029102087020874023e+00,2.029102563858032227e+00,2.029103040695190430e+00,2.029103755950927734e+00,2.029104471206665039e+00,2.029104948043823242e+00,2.029105424880981445e+00
2.029046773910522461e+00,2.029047250747680664e+00,2.029047966003417969e+00,2.029048442840576172e+00,2.029048919677734375e+00,2.029049634933471680e+00,2.029050350189208984e+00,2.029050827026367188e+00,2.029051303863525391e+00,2.029052019119262695e+00,2.029052495956420898e+00,2.029052972793579102e+00,2.029053688049316406e+00,2.029054403305053711e+00,2.029054880142211914e+00,2.029055356979370117e+00,2.029056072235107422e+00,2.029056549072265625e+00,2.029057025909423828e+00,2.029057741165161133e+00,2.029058456420898438e+00,9.969559907913208008e-01,9.872346520423889160e-01,9.827281832695007324e-01,9.824481606483459473e-01,9.889475107192993164e-01,9.955334663391113281e-01,1.004115819931030273e+00,1.025479674339294434e+00,2.029063701629638672e+00,2.029064178466796875e+00,2.029064655303955078e+00,2.029065370559692383e+00,2.029065847396850586e+00,2.029066562652587891e+00,2.029067039489746094e+00,2.029067754745483398e+00,2.029068231582641602e+00,2.029068708419799805e+00,2.029069423675537109e+00,2.029069900512695312e+00,2.029070615768432617e+00,2.029071092605590820e+00,2.029071807861328125e+00,2.029072284698486328e+00,2.029072999954223633e+00,2.029073476791381836e+00,2.029073953628540039e+00,2.029074668884277344e+00,2.029075384140014648e+00,2.029075860977172852e+00,2.029076337814331055e+00,2.029077053070068359e+00,2.029077529907226562e+00,2.029078006744384766e+00,2.029078722000122070e+00,2.029079437255859375e+00,2.029079914093017578e+00,2.029080390930175781e+00,2.029081106185913086e+00,2.029081583023071289e+00,2.029082298278808594e+00,2.029082775115966797e+00,2.029083490371704102e+00,2.029083967208862305e+00,2.029084682464599609e+00,2.029085159301757812e+00,2.029085636138916016e+00,2.029086351394653320e+00,2.029086828231811523e+00,2.029087543487548828e+00,2.029088020324707031e+00,2.029088735580444336e+00,2.029089212417602539e+00,2.029089689254760742e+00,2.029090404510498047e+00,2.029090881347656250e+00,2.029091596603393555e+00,2.029092073440551758e+00,2.029092788696289062e+00
2.029033899307250977e+00,2.029034376144409180e+00,2.029035091400146484e+00,2.029035568237304688e+00,2.029036283493041992e+00,2.029036760330200195e+00,2.029037475585937500e+00,2.029037952423095703e+00,2.029038667678833008e+00,2.029039144515991211e+00,2.029039621353149414e+00,2.029040336608886719e+00,2.029040813446044922e+00,2.029041528701782227e+00,2.029042005538940430e+00,2.029042720794677734e+00,2.029043197631835938e+00,2.029043674468994141e+00,2.029044389724731445e+00,2.029044866561889648e+00,2.029045581817626953e+00,1.014776706695556641e+00,9.893869161605834961e-01,9.848607778549194336e-01,9.803758859634399414e-01,9.859337210655212402e-01,9.924794435501098633e-01,1.000743627548217773e+00,1.015105724334716797e+00,2.029050827026367188e+00,2.029051303863525391e+00,2.029052019119262695e+00,2.029052495956420898e+00,2.029052972793579102e+00,2.029053688049316406e+00,2.029054403305053711e+00,2.029054880142211914e+00,2.029055356979370117e+00,2.029056072235107422e+00,2.029056549072265625e+00,2.029057264328002930e+00,2.029057741165161133e+00,2.029058456420898438e+00,2.029058933258056641e+00,2.029059648513793945e+00,2.029060125350952148e+00,2.029060602188110352e+00,2.029061317443847656e+00,2.029061794281005859e+00,2.029062509536743164e+00,2.029062986373901367e+00,2.029063701629638672e+00,2.029064178466796875e+00,2.029064655303955078e+00,2.029065370559692383e+00,2.029065847396850586e+00,2.029066562652587891e+00,2.029067039489746094e+00,2.029067754745483398e+00,2.029068231582641602e+00,2.029068708419799805e+00,2.029069423675537109e+00,2.029069900512695312e+00,2.029070615768432617e+00,2.029071092605590820e+00,2.029071807861328125e+00,2.029072284698486328e+00,2.029072999954223633e+00,2.029073476791381836e+00,2.029073953628540039e+00,2.029074668884277344e+00,2.029075384140014648e+00,2.029075860977172852e+00,2.029076337814331055e+00,2.029077053070068359e+00,2.029077529907226562e+00,2.029078006744384766e+00,2.029078722000122070e+00,2.029079437255859375e+00,2.029079914093017578e+00
2.029021024703979492e+00,2.029021739959716797e+00,2.029022216796875000e+00,2.029022932052612305e+00,2.029023408889770508e+00,2.029023885726928711e+00,2.029024600982666016e+00,2.029025316238403320e+00,2.029025793075561523e+00,2.029026269912719727e+00,2.029026985168457031e+00,2.029027462005615234e+00,2.029027938842773438e+00,2.029028654098510742e+00,2.029029369354248047e+00,2.029029846191406250e+00,2.029030323028564453e+00,2.029031038284301758e+00,2.029031515121459961e+00,2.029031991958618164e+00,2.029032707214355469e+00,1.033995509147644043e+00,9.910710453987121582e-01,9.870026707649230957e-01,9.824983477592468262e-01,9.829382300376892090e-01,9.894441366195678711e-01,9.973940849304199219e-01,1.007615208625793457e+00,1.027716159820556641e+00,2.029038667678833008e+00,2.029039144515991211e+00,2.029039621353149414e+00,2.029040336608886719e+00,2.029040813446044922e+00,2.029041528701782227e+00,2.029042005538940430e+00,2.029042720794677734e+00,2.029043197631835938e+00,2.029043674468994141e+00,2.029044389724731445e+00,2.029044866561889648e+00,2.029045581817626953e+00,2.029046058654785156e+00,2.029046773910522461e+00,2.029047250747680664e+00,2.029047966003417969e+00,2.029048442840576172e+00,2.029048919677734375e+00,2.029049634933471680e+00,2.029050350189208984e+00,2.029050827026367188e+00,2.029051303863525391e+00,2.029052019119262695e+00,2.029052495956420898e+00,2.029052972793579102e+00,2.029053688049316406e+00,2.029054403305053711e+00,2.029054880142211914e+00,2.029055356979370117e+00,2.029056072235107422e+00,2.029056549072265625e+00,2.029057264328002930e+00,2.029057741165161133e+00,2.029058456420898438e+00,2.029058933258056641e+00,2.029059648513793945e+00,2.029060125350952148e+00,2.029060602188110352e+00,2.029061317443847656e+00,2.029061794281005859e+00,2.029062509536743164e+00,2.029062986373901367e+00,2.029063701629638672e+00,2.029064178466796875e+00,2.029064655303955078e+00,2.029065370559692383e+00,2.029065847396850586e+00,2.029066562652587891e+00,2.029067039489746094e+00
2.029008388519287109e+00,2.029008865356445312e+00,2.029009342193603516e+00,2.029010057449340820e+00,2.029010534286499023e+00,2.029011249542236328e+00,2.029011726379394531e+00,2.029012441635131836e+00,2.029012918472290039e+00,2.029013633728027344e+00,2.029014110565185547e+00,2.029014587402343750e+00,2.029015302658081055e+00,2.029015779495239258e+00,2.029016494750976562e+00,2.029016971588134766e+00,2.029017686843872070e+00,2.029018163681030273e+00,2.029018640518188477e+00,2.029019355773925781e+00,2.029019832611083984e+00,2.029020547866821289e+00,1.005603075027465820e+00,9.888026714324951172e-01,9.846299290657043457e-01,9.801471233367919922e-01,9.864272475242614746e-01,9.940668344497680664e-01,1.004219651222229004e+00,1.017297148704528809e+00,2.029025793075561523e+00,2.029026269912719727e+00,2.029026985168457031e+00,2.029027462005615234e+00,2.029027938842773438e+00,2.029028654098510742e+00,2.029029369354248047e+00,2.029029846191406250e+00,2.029030323028564453e+00,2.029031038284301758e+00,2.029031515121459961e+00,2.029032230377197266e+00,2.029032707214355469e+00,2.029033422470092773e+00,2.029033899307250977e+00,2.029034614562988281e+00,2.029035091400146484e+00,2.029035568237304688e+00,2.029036283493041992e+00,2.029036760330200195e+00,2.029037475585937500e+00,2.029037952423095703e+00,2.029038667678833008e+00,2.029039144515991211e+00,2.029039621353149414e+00,2.029040336608886719e+00,2.029040813446044922e+00,2.029041528701782227e+00,2.029042005538940430e+00,2.029042720794677734e+00,2.029043197631835938e+00,2.029043674468994141e+00,2.029044389724731445e+00,2.029044866561889648e+00,2.029045581817626953e+00,2.029046058654785156e+00,2.029046773910522461e+00,2.029047250747680664e+00,2.029047966003417969e+00,2.029048442840576172e+00,2.029048919677734375e+00,2.029049634933471680e+00,2.029050350189208984e+00,2.029050827026367188e+00,2.029051303863525391e+00,2.029052019119262695e+00,2.029052495956420898e+00,2.029052972793579102e+00,2.029053688049316406e+00,2.029054403305053711e+00
2.028995513916015625e+00,2.028995990753173828e+00,2.028996706008911133e+00,2.028997182846069336e+00,2.028997898101806641e+00,2.028998374938964844e+00,2.028998851776123047e+00,2.028999567031860352e+00,2.029000282287597656e+00,2.029000759124755859e+00,2.029001235961914062e+00,2.029001951217651367e+00,2.029002428054809570e+00,2.029002904891967773e+00,2.029003620147705078e+00,2.029004335403442383e+00,2.029004812240600586e+00,2.029005289077758789e+00,2.029006004333496094e+00,2.029006481170654297e+00,2.029006958007812500e+00,2.029007673263549805e+00,1.024472832679748535e+00,9.903849959373474121e-01,9.865446686744689941e-01,9.822685718536376953e-01,9.834288954734802246e-01,9.907618165016174316e-01,1.000846743583679199e+00,1.011139273643493652e+00,2.029012918472290039e+00,2.029013633728027344e+00,2.029014110565185547e+00,2.029014587402343750e+00,2.029015302658081055e+00,2.029015779495239258e+00,2.029016494750976562e+00,2.029016971588134766e+00,2.029017686843872070e+00,2.029018163681030273e+00,2.029018640518188477e+00,2.029019355773925781e+00,2.029019832611083984e+00,2.029020547866821289e+00,2.029021024703979492e+00,2.029021739959716797e+00,2.029022216796875000e+00,2.029022932052612305e+00,2.029023408889770508e+00,2.029023885726928711e+00,2.029024600982666016e+00,2.029025316238403320e+00,2.029025793075561523e+00,2.029026269912719727e+00,2.029026985168457031e+00,2.029027462005615234e+00,2.029027938842773438e+00,2.029028654098510742e+00,2.029029369354248047e+00,2.029029846191406250e+00,2.029030323028564453e+00,2.029031038284301758e+00,2.029031515121459961e+00,2.029032230377197266e+00,2.029032707214355469e+00,2.029033422470092773e+00,2.029033899307250977e+00,2.029034614562988281e+00,2.029035091400146484e+00,2.029035568237304688e+00,2.029036283493041992e+00,2.029036760330200195e+00,2.029037475585937500e+00,2.029037952423095703e+00,2.029038667678833008e+00,2.029039144515991211e+00,2.029039621353149414e+00,2.029040336608886719e+00,2.029040813446044922e+00,2.029041528701782227e+00
2.028982639312744141e+00,2.028983354568481445e+00,2.028983831405639648e+00,2.028984308242797852e+00,2.028985023498535156e+00,2.028985500335693359e+00,2.028986215591430664e+00,2.028986692428588867e+00,2.028987407684326172e+00,2.028987884521484375e+00,2.028988599777221680e+00,2.028989076614379883e+00,2.028989553451538086e+00,2.028990268707275391e+00,2.028990983963012695e+00,2.028991460800170898e+00,2.028991937637329102e+00,2.028992652893066406e+00,2.028993129730224609e+00,2.028993606567382812e+00,2.028994321823120117e+00,2.028994798660278320e+00,2.028995513916015625e+00,9.982768893241882324e-01,9.881197810173034668e-01,9.842970371246337891e-01,9.804485440254211426e-01,9.874786138534545898e-01,9.974965453147888184e-01,1.007719755172729492e+00,1.019497990608215332e+00,2.029000759124755859e+00,2.029001235961914062e+00,2.029001951217651367e+00,2.029002428054809570e+00,2.029002904891967773e+00,2.029003620147705078e+00,2.029004335403442383e+00,2.029004812240600586e+00,2.029005289077758789e+00,2.029006004333496094e+00,2.029006481170654297e+00,2.029007196426391602e+00,2.029007673263549805e+00,2.029008388519287109e+00,2.029008865356445312e+00,2.029009580612182617e+00,2.029010057449340820e+00,2.029010534286499023e+00,2.029011249542236328e+00,2.029011726379394531e+00,2.029012441635131836e+00,2.029012918472290039e+00,2.029013633728027344e+00,2.029014110565185547e+00,2.029014587402343750e+00,2.029015302658081055e+00,2.029015779495239258e+00,2.029016494750976562e+00,2.029016971588134766e+00,2.029017686843872070e+00,2.029018163681030273e+00,2.029018640518188477e+00,2.029019355773925781e+00,2.029019832611083984e+00,2.029020547866821289e+00,2.029021024703979492e+00,2.029021739959716797e+00,2.029022216796875000e+00,2.029022932052612305e+00,2.029023408889770508e+00,2.029023885726928711e+00,2.029024600982666016e+00,2.029025316238403320e+00,2.029025793075561523e+00,2.029026269912719727e+00,2.029026985168457031e+00,2.029027462005615234e+00,2.029027938842773438e+00,2.029028654098510742e+00
2.028970003128051758e+00,2.028970479965209961e+00,2.028970956802368164e+00,2.028971672058105469e+00,2.028972148895263672e+00,2.028972864151000977e+00,2.028973340988159180e+00,2.028974056243896484e+00,2.028974533081054688e+00,2.028975009918212891e+00,2.028975725173950195e+00,2.028976202011108398e+00,2.028976917266845703e+00,2.028977394104003906e+00,2.028977870941162109e+00,2.028978586196899414e+00,2.028979301452636719e+00,2.028979778289794922e+00,2.028980255126953125e+00,2.028980970382690430e+00,2.028981447219848633e+00,2.028981924057006836e+00,2.028982639312744141e+00,1.015123844146728516e+00,9.897000193595886230e-01,9.858650565147399902e-01,9.820389747619628906e-01,9.842170476913452148e-01,9.941686391830444336e-01,1.004323482513427734e+00,2.028987407684326172e+00,2.028987884521484375e+00,2.028988599777221680e+00,2.028989076614379883e+00,2.028989553451538086e+00,2.028990268707275391e+00,2.028990983963012695e+00,2.028991460800170898e+00,2.028991937637329102e+00,2.028992652893066406e+00,2.028993129730224609e+00,2.028993606567382812e+00,2.028994321823120117e+00,2.028994798660278320e+00,2.028995513916015625e+00,2.028995990753173828e+00,2.028996706008911133e+00,2.028997182846069336e+00,2.028997898101806641e+00,2.028998374938964844e+00,2.028998851776123047e+00,2.028999567031860352e+00,2.029000282287597656e+00,2.029000759124755859e+00,2.029001235961914062e+00,2.029001951217651367e+00,2.029002428054809570e+00,2.029002904891967773e+00,2.029003620147705078e+00,2.029004335403442383e+00,2.029004812240600586e+00,2.029005289077758789e+00,2.029006004333496094e+00,2.029006481170654297e+00,2.029007196426391602e+00,2.029007673263549805e+00,2.029008388519287109e+00,2.029008865356445312e+00,2.029009580612182617e+00,2.029010057449340820e+00,2.029010534286499023e+00,2.029011249542236328e+00,2.029011726379394531e+00,2.029012441635131836e+00,2.029012918472290039e+00,2.029013633728027344e+00,2.029014110565185547e+00,2.029014587402343750e+00,2.029015302658081055e+00,2.029015779495239258e+00
1.988137364387512207e+00,1.987935543060302734e+00,1.987733483314514160e+00,1.987531661987304688e+00,1.987329840660095215e+00,1.987127900123596191e+00,1.986926198005676270e+00,1.986724376678466797e+00,1.986522793769836426e+00,1.986320972442626953e+00,1.986119508743286133e+00,1.985917806625366211e+00,1.985716342926025391e+00,1.985514760017395020e+00,1.985313415527343750e+00,1.985111832618713379e+00,1.984910607337951660e+00,1.984709143638610840e+00,1.984507918357849121e+00,1.984306454658508301e+00,1.984105348587036133e+00,1.983904242515563965e+00,1.983703017234802246e+00,1.983502030372619629e+00,9.956821203231811523e-01,9.874379038810729980e-01,9.836204648017883301e-01,9.809771180152893066e-01,9.985092282295227051e-01,1.006306409835815430e+00,1.028205275535583496e+00,1.981894731521606445e+00,1.981693863868713379e+00,1.981493234634399414e+00,1.981292486190795898e+00,1.981091976165771484e+00,1.980891346931457520e+00,1.980690836906433105e+00,1.980490326881408691e+00,1.980289936065673828e+00,1.980089664459228516e+00,1.979889154434204102e+00,1.979688882827758789e+00,1.979488492012023926e+00,1.979288339614868164e+00,1.979088068008422852e+00,1.978888034820556641e+00,1.978687763214111328e+00,1.978487730026245117e+00,1.978287577629089355e+00,1.978087663650512695e+00,1.977887630462646484e+00,1.977687835693359375e+00,1.977487802505493164e+00,1.977288007736206055e+00,1.977088093757629395e+00,1.976888418197631836e+00,1.976688861846923828e+00,1.976489067077636719e+00,1.976289510726928711e+00,1.976089835166931152e+00,1.975890398025512695e+00,1.975690722465515137e+00,1.975491285324096680e+00,1.975291728973388672e+00,1.975092530250549316e+00,1.974892973899841309e+00,1.974693775177001953e+00,1.974494338035583496e+00,1.974295258522033691e+00,1.974095940589904785e+00,1.973896861076354980e+00,1.973697662353515625e+00,1.973498702049255371e+00,1.973299503326416016e+00,1.973100662231445312e+00,1.972901821136474609e+00,1.972702741622924805e+00,1.972504019737243652e+00,1.972305059432983398e+00
1.777670025825500488e+00,1.777508616447448730e+00,1.777347207069396973e+00,1.777185678482055664e+00,1.777024388313293457e+00,1.776862859725952148e+00,1.776701688766479492e+00,1.776540279388427734e+00,1.776378989219665527e+00,1.776217699050903320e+00,1.776056528091430664e+00,1.775895237922668457e+00,1.775734186172485352e+00,1.775572896003723145e+00,1.775411844253540039e+00,1.775250673294067383e+00,1.775089740753173828e+00,1.774928569793701172e+00,1.774767756462097168e+00,1.774606823921203613e+00,1.774445772171020508e+00,1.774284958839416504e+00,1.774124026298522949e+00,1.773963212966918945e+00,1.005943775177001953e+00,1.009490132331848145e+00,9.942773580551147461e-01,9.891881942749023438e-01,9.899714589118957520e-01,9.965287446975708008e-01,1.006424784660339355e+00,1.772677421569824219e+00,1.772516727447509766e+00,1.772356271743774414e+00,1.772195577621459961e+00,1.772035121917724609e+00,1.771874547004699707e+00,1.771714210510253906e+00,1.771553874015808105e+00,1.771393418312072754e+00,1.771233201026916504e+00,1.771072745323181152e+00,1.770912528038024902e+00,1.770752072334289551e+00,1.770591974258422852e+00,1.770431637763977051e+00,1.770271539688110352e+00,1.770111322402954102e+00,1.769951224327087402e+00,1.769791007041931152e+00,1.769631028175354004e+00,1.769470930099487305e+00,1.769311070442199707e+00,1.769150972366333008e+00,1.768991112709045410e+00,1.768831253051757812e+00,1.768671274185180664e+00,1.768511414527893066e+00,1.768351554870605469e+00,1.768191814422607422e+00,1.768031954765319824e+00,1.767872214317321777e+00,1.767712473869323730e+00,1.767552852630615234e+00,1.767393112182617188e+00,1.767233490943908691e+00,1.767073869705200195e+00,1.766914367675781250e+00,1.766754746437072754e+00,1.766595244407653809e+00,1.766435623168945312e+00,1.766276240348815918e+00,1.766116738319396973e+00,1.765957474708557129e+00,1.765798211097717285e+00,1.765638709068298340e+00,1.765479564666748047e+00,1.765320181846618652e+00,1.765160918235778809e+00,1.765001654624938965e+00
1.607497930526733398e+00,1.607365727424621582e+00,1.607233762741088867e+00,1.607101678848266602e+00,1.606969833374023438e+00,1.606837749481201172e+00,1.606705904006958008e+00,1.606573820114135742e+00,1.606441974639892578e+00,1.606310009956359863e+00,1.606178283691406250e+00,1.606046319007873535e+00,1.605914592742919922e+00,1.605782747268676758e+00,1.605651021003723145e+00,1.605519175529479980e+00,1.605387568473815918e+00,1.605255842208862305e+00,1.605124115943908691e+00,1.604992508888244629e+00,1.604860782623291016e+00,1.604729175567626953e+00,1.604597568511962891e+00,1.604466080665588379e+00,1.604334354400634766e+00,1.604202985763549805e+00,9.945452213287353516e-01,9.867500662803649902e-01,9.865286350250244141e-01,9.909210205078125000e-01,9.971600770950317383e-01,1.008116126060485840e+00,1.603282690048217773e+00,1.603151321411132812e+00,1.603019952774047852e+00,1.602888703346252441e+00,1.602757453918457031e+00,1.602626085281372070e+00,1.602494955062866211e+00,1.602363586425781250e+00,1.602232456207275391e+00,1.602101206779479980e+00,1.601970076560974121e+00,1.601838827133178711e+00,1.601707816123962402e+00,1.601576566696166992e+00,1.601445555686950684e+00,1.601314425468444824e+00,1.601183414459228516e+00,1.601052403450012207e+00,1.600921392440795898e+00,1.600790381431579590e+00,1.600659489631652832e+00,1.600528597831726074e+00,1.600397586822509766e+00,1.600266814231872559e+00,1.600135922431945801e+00,1.600005030632019043e+00,1.599874138832092285e+00,1.599743366241455078e+00,1.599612474441528320e+00,1.599481821060180664e+00,1.599351048469543457e+00,1.599220395088195801e+00,1.599089622497558594e+00,1.598958969116210938e+00,1.598828196525573730e+00,1.598697662353515625e+00,1.598567008972167969e+00,1.598436474800109863e+00,1.598305940628051758e+00,1.598175287246704102e+00,1.598044872283935547e+00,1.597914218902587891e+00,1.597783923149108887e+00,1.597653269767761230e+00,1.597522974014282227e+00,1.597392439842224121e+00,1.597262144088745117e+00,1.597131609916687012e+00
1.467059612274169922e+00,1.466949582099914551e+00,1.466839671134948730e+00,1.466729640960693359e+00,1.466619729995727539e+00,1.466509699821472168e+00,1.466399908065795898e+00,1.466289997100830078e+00,1.466180086135864258e+00,1.466070175170898438e+00,1.465960383415222168e+00,1.465850472450256348e+00,1.465740799903869629e+00,1.465630888938903809e+00,1.465521216392517090e+00,1.465411424636840820e+00,1.465301632881164551e+00,1.465191960334777832e+00,1.465082168579101562e+00,1.464972615242004395e+00,1.464862823486328125e+00,1.464753270149230957e+00,1.464643478393554688e+00,1.464533925056457520e+00,1.464424252510070801e+00,1.464314699172973633e+00,9.891088008880615234e-01,9.813578724861145020e-01,9.843439459800720215e-01,9.886815547943115234e-01,9.924099445343017578e-01,9.974865913391113281e-01,1.463547945022583008e+00,1.463438510894775391e+00,1.463329076766967773e+00,1.463219642639160156e+00,1.463110208511352539e+00,1.463000774383544922e+00,1.462891459465026855e+00,1.462782025337219238e+00,1.462672710418701172e+00,1.462563276290893555e+00,1.462454080581665039e+00,1.462344646453857422e+00,1.462235450744628906e+00,1.462126135826110840e+00,1.462016940116882324e+00,1.461907625198364258e+00,1.461798429489135742e+00,1.461689233779907227e+00,1.461580038070678711e+00,1.461470961570739746e+00,1.461361765861511230e+00,1.461252689361572266e+00,1.461143493652343750e+00,1.461034417152404785e+00,1.460925221443176270e+00,1.460816264152526855e+00,1.460707187652587891e+00,1.460598111152648926e+00,1.460489034652709961e+00,1.460380077362060547e+00,1.460271000862121582e+00,1.460162162780761719e+00,1.460053086280822754e+00,1.459944248199462891e+00,1.459835290908813477e+00,1.459726333618164062e+00,1.459617495536804199e+00,1.459508657455444336e+00,1.459399819374084473e+00,1.459290862083435059e+00,1.459182143211364746e+00,1.459073185920715332e+00,1.458964467048645020e+00,1.458855628967285156e+00,1.458746910095214844e+00,1.458638072013854980e+00,1.458529472351074219e+00,1.458420634269714355e+00
1.349188446998596191e+00,1.349095344543457031e+00,1.349002361297607422e+00,1.348909258842468262e+00,1.348816394805908203e+00,1.348723292350769043e+00,1.348630428314208984e+00,1.348537445068359375e+00,1.348444461822509766e+00,1.348351478576660156e+00,1.348258614540100098e+00,1.348165750503540039e+00,1.348072886466979980e+00,1.347980022430419922e+00,1.347887158393859863e+00,1.347794294357299805e+00,1.347701430320739746e+00,1.347608685493469238e+00,1.347515821456909180e+00,1.347423076629638672e+00,1.347330212593078613e+00,1.347237586975097656e+00,1.347144722938537598e+00,1.347051978111267090e+00,9.942424893379211426e-01,9.841861128807067871e-01,9.814988374710083008e-01,9.797041416168212891e-01,9.823553562164306641e-01,9.846173524856567383e-01,9.872707724571228027e-01,9.898393154144287109e-01,1.005323052406311035e+00,1.346125245094299316e+00,1.346032738685607910e+00,1.345939993858337402e+00,1.345847487449645996e+00,1.345754861831665039e+00,1.345662355422973633e+00,1.345569729804992676e+00,1.345477342605590820e+00,1.345384716987609863e+00,1.345292210578918457e+00,1.345199704170227051e+00,1.345107316970825195e+00,1.345014810562133789e+00,1.344922304153442383e+00,1.344829916954040527e+00,1.344737529754638672e+00,1.344645142555236816e+00,1.344552636146545410e+00,1.344460368156433105e+00,1.344367861747741699e+00,1.344275593757629395e+00,1.344183206558227539e+00,1.344090819358825684e+00,1.343998432159423828e+00,1.343906164169311523e+00,1.343813896179199219e+00,1.343721628189086914e+00,1.343629240989685059e+00,1.343537092208862305e+00,1.343444824218750000e+00,1.343352556228637695e+00,1.343260288238525391e+00,1.343168139457702637e+00,1.343075990676879883e+00,1.342983722686767578e+00,1.342891573905944824e+00,1.342799425125122070e+00,1.342707276344299316e+00,1.342615127563476562e+00,1.342522978782653809e+00,1.342430830001831055e+00,1.342338800430297852e+00,1.342246651649475098e+00,1.342154622077941895e+00,1.342062473297119141e+00,1.341970562934875488e+00,1.341878414154052734e+00
1.248849391937255859e+00,1.248769640922546387e+00,1.248690009117126465e+00,1.248610258102416992e+00,1.248530626296997070e+00,1.248450875282287598e+00,1.248371243476867676e+00,1.248291611671447754e+00,1.248211979866027832e+00,1.248132348060607910e+00,1.248052716255187988e+00,1.247973203659057617e+00,1.247893571853637695e+00,1.247813940048217773e+00,1.247734427452087402e+00,1.247654795646667480e+00,1.247575283050537109e+00,1.247495770454406738e+00,1.247416138648986816e+00,1.247336745262145996e+00,1.247257113456726074e+00,1.247177720069885254e+00,1.247098088264465332e+00,9.840416908264160156e-01,9.780192375183105469e-01,9.777724146842956543e-01,9.790127277374267578e-01,9.811774492263793945e-01,9.821155071258544922e-01,9.827579259872436523e-01,9.845018982887268066e-01,9.871222972869873047e-01,1.002881050109863281e+00,1.246224403381347656e+00,1.246145009994506836e+00,1.246065616607666016e+00,1.245986342430114746e+00,1.245906949043273926e+00,1.245827674865722656e+00,1.245748281478881836e+00,1.245669007301330566e+00,1.245589613914489746e+00,1.245510458946228027e+00,1.245431065559387207e+00,1.245351910591125488e+00,1.245272517204284668e+00,1.245193362236022949e+00,1.245114207267761230e+00,1.245034813880920410e+00,1.244955658912658691e+00,1.244876384735107422e+00,1.244797229766845703e+00,1.244718074798583984e+00,1.244638919830322266e+00,1.244559645652770996e+00,1.244480609893798828e+00,1.244401335716247559e+00,1.244322299957275391e+00,1.244243144989013672e+00,1.244163990020751953e+00,1.244084835052490234e+00,1.244005799293518066e+00,1.243926644325256348e+00,1.243847608566284180e+00,1.243768572807312012e+00,1.243689537048339844e+00,1.243610501289367676e+00,1.243531465530395508e+00,1.243452429771423340e+00,1.243373394012451172e+00,1.243294358253479004e+00,1.243215322494506836e+00,1.243136405944824219e+00,1.243057370185852051e+00,1.242978453636169434e+00,1.242899417877197266e+00,1.242820501327514648e+00,1.242741584777832031e+00,1.242662668228149414e+00,1.242583751678466797e+00
1.162401676177978516e+00,1.162332534790039062e+00,1.162263512611389160e+00,1.162194490432739258e+00,1.162125468254089355e+00,1.162056446075439453e+00,1.161987423896789551e+00,1.161918401718139648e+00,1.161849498748779297e+00,1.161780476570129395e+00,1.161711454391479492e+00,1.161642551422119141e+00,1.161573529243469238e+00,1.161504626274108887e+00,1.161435604095458984e+00,1.161366701126098633e+00,1.161297798156738281e+00,1.161228895187377930e+00,1.161159873008728027e+00,1.161091089248657227e+00,1.161022067070007324e+00,1.160953283309936523e+00,9.742641448974609375e-01,9.707527160644531250e-01,9.735676050186157227e-01,9.794752597808837891e-01,9.818672537803649902e-01,9.831875562667846680e-01,9.838116765022277832e-01,9.825696945190429688e-01,9.857082366943359375e-01,1.160264730453491211e+00,1.160195946693420410e+00,1.160127162933349609e+00,1.160058379173278809e+00,1.159989595413208008e+00,1.159920811653137207e+00,1.159852027893066406e+00,1.159783363342285156e+00,1.159714579582214355e+00,1.159645915031433105e+00,1.159577131271362305e+00,1.159508466720581055e+00,1.159439682960510254e+00,1.159371018409729004e+00,1.159302353858947754e+00,1.159233570098876953e+00,1.159164905548095703e+00,1.159096240997314453e+00,1.159027576446533203e+00,1.158958911895751953e+00,1.158890366554260254e+00,1.158821582794189453e+00,1.158753037452697754e+00,1.158684372901916504e+00,1.158615827560424805e+00,1.158547163009643555e+00,1.158478617668151855e+00,1.158409953117370605e+00,1.158341407775878906e+00,1.158272862434387207e+00,1.158204317092895508e+00,1.158135771751403809e+00,1.158067226409912109e+00,1.157998681068420410e+00,1.157930135726928711e+00,1.157861590385437012e+00,1.157793045043945312e+00,1.157724618911743164e+00,1.157656073570251465e+00,1.157587647438049316e+00,1.157519102096557617e+00,1.157450675964355469e+00,1.157382130622863770e+00,1.157313704490661621e+00,1.157245278358459473e+00,1.157176852226257324e+00,1.157108306884765625e+00,1.157039999961853027e+00,1.156971573829650879e+00
1.087147235870361328e+00,1.087086796760559082e+00,1.087026476860046387e+00,1.086966037750244141e+00,1.086905717849731445e+00,1.086845278739929199e+00,1.086784958839416504e+00,1.086724638938903809e+00,1.086664199829101562e+00,1.086603879928588867e+00,1.086543560028076172e+00,1.086483240127563477e+00,1.086422801017761230e+00,1.086362600326538086e+00,1.086302161216735840e+00,1.086241960525512695e+00,1.086181640625000000e+00,1.086121320724487305e+00,1.086061000823974609e+00,1.086000800132751465e+00,9.718130230903625488e-01,9.675282835960388184e-01,9.641357660293579102e-01,9.660984873771667480e-01,9.763227105140686035e-01,1.000946283340454102e+00,1.085579037666320801e+00,1.085518717765808105e+00,1.085458517074584961e+00,1.085398316383361816e+00,1.085338115692138672e+00,1.085277915000915527e+00,1.085217714309692383e+00,1.085157513618469238e+00,1.085097312927246094e+00,1.085037112236022949e+00,1.084977030754089355e+00,1.084916830062866211e+00,1.084856748580932617e+00,1.084796547889709473e+00,1.084736347198486328e+00,1.084676265716552734e+00,1.084616065025329590e+00,1.084555983543395996e+00,1.084495902061462402e+00,1.084435820579528809e+00,1.084375619888305664e+00,1.084315657615661621e+00,1.084255456924438477e+00,1.084195375442504883e+00,1.084135293960571289e+00,1.084075331687927246e+00,1.084015250205993652e+00,1.083955168724060059e+00,1.083895087242126465e+00,1.083835124969482422e+00,1.083775043487548828e+00,1.083714962005615234e+00,1.083654999732971191e+00,1.083594918251037598e+00,1.083534955978393555e+00,1.083474993705749512e+00,1.083415031433105469e+00,1.083354949951171875e+00,1.083294987678527832e+00,1.083235025405883789e+00,1.083175063133239746e+00,1.083115100860595703e+00,1.083055138587951660e+00,1.082995176315307617e+00,1.082935214042663574e+00,1.082875251770019531e+00,1.082815408706665039e+00,1.082755446434020996e+00,1.082695603370666504e+00,1.082635641098022461e+00,1.082575678825378418e+00,1.082515835762023926e+00,1.082455992698669434e+00,1.082396149635314941e+00
1.021044373512268066e+00,1.020991086959838867e+00,1.020937800407409668e+00,1.020884513854980469e+00,1.020831227302551270e+00,1.020778059959411621e+00,1.020724773406982422e+00,1.020671486854553223e+00,1.020618319511413574e+00,1.020565032958984375e+00,1.020511746406555176e+00,1.020458579063415527e+00,1.020405411720275879e+00,1.020352125167846680e+00,1.020298957824707031e+00,1.020245790481567383e+00,1.020192503929138184e+00,1.020139336585998535e+00,9.652746319770812988e-01,9.620139598846435547e-01,9.630474448204040527e-01,9.619408249855041504e-01,9.608763456344604492e-01,9.730916619300842285e-01,1.019767165184020996e+00,1.019713997840881348e+00,1.019660949707031250e+00,1.019607782363891602e+00,1.019554615020751953e+00,1.019501447677612305e+00,1.019448399543762207e+00,1.019395232200622559e+00,1.019342184066772461e+00,1.019289016723632812e+00,1.019235968589782715e+00,1.019182801246643066e+00,1.019129753112792969e+00,1.019076704978942871e+00,1.019023656845092773e+00,1.018970608711242676e+00,1.018917441368103027e+00,1.018864512443542480e+00,1.018811345100402832e+00,1.018758416175842285e+00,1.018705248832702637e+00,1.018652319908142090e+00,1.018599271774291992e+00,1.018546223640441895e+00,1.018493175506591797e+00,1.018440127372741699e+00,1.018387198448181152e+00,1.018334150314331055e+00,1.018281102180480957e+00,1.018228173255920410e+00,1.018175125122070312e+00,1.018122196197509766e+00,1.018069148063659668e+00,1.018016219139099121e+00,1.017963290214538574e+00,1.017910361289978027e+00,1.017857432365417480e+00,1.017804384231567383e+00,1.017751455307006836e+00,1.017698526382446289e+00,1.017645597457885742e+00,1.017592668533325195e+00,1.017539739608764648e+00,1.017486810684204102e+00,1.017434000968933105e+00,1.017381072044372559e+00,1.017328143119812012e+00,1.017275214195251465e+00,1.017222404479980469e+00,1.017169475555419922e+00,1.017116665840148926e+00,1.017063736915588379e+00,1.017010807991027832e+00,1.016957998275756836e+00,1.016905188560485840e+00,1.016852378845214844e+00
9.625194668769836426e-01,9.624720811843872070e-01,9.624246954917907715e-01,9.623774290084838867e-01,9.623300433158874512e-01,9.622827172279357910e-01,9.622353315353393555e-01,9.621881246566772461e-01,9.621407389640808105e-01,9.620934128761291504e-01,9.620460867881774902e-01,9.619988799095153809e-01,9.619515538215637207e-01,9.619042277336120605e-01,9.618569016456604004e-01,9.618096947669982910e-01,9.617624282836914062e-01,9.617151021957397461e-01,9.616678357124328613e-01,9.616206288337707520e-01,9.615733623504638672e-01,9.615260362625122070e-01,9.614788889884948730e-01,9.614316225051879883e-01,9.613843560218811035e-01,9.613370895385742188e-01,9.612899422645568848e-01,9.612426757812500000e-01,9.611954092979431152e-01,9.611482024192810059e-01,9.611010551452636719e-01,9.610537886619567871e-01,9.610065817832946777e-01,9.609593749046325684e-01,9.609122276306152344e-01,9.608650207519531250e-01,9.608178138732910156e-01,9.607707262039184570e-01,9.607235193252563477e-01,9.606763124465942383e-01,9.606291055679321289e-01,9.605820178985595703e-01,9.605348706245422363e-01,9.604876637458801270e-01,9.604404568672180176e-01,9.603934288024902344e-01,9.603462815284729004e-01,9.602990746498107910e-01,9.602519273757934570e-01,9.602048993110656738e-01,9.601577520370483398e-01,9.601106047630310059e-01,9.600634574890136719e-01,9.600164294242858887e-01,9.599692821502685547e-01,9.599221944808959961e-01,9.598751664161682129e-01,9.598280191421508789e-01,9.597809314727783203e-01,9.597338438034057617e-01,9.596868157386779785e-01,9.596397280693054199e-01,9.595926403999328613e-01,9.595455527305603027e-01,9.594985842704772949e-01,9.594514966011047363e-01,9.594044089317321777e-01,9.593573212623596191e-01,9.593104124069213867e-01,9.592633247375488281e-01,9.592162966728210449e-01,9.591692090034484863e-01,9.591223001480102539e-01,9.590752124786376953e-01,9.590281844139099121e-01,9.589812755584716797e-01,9.589342474937438965e-01,9.588872194290161133e-01,9.588401913642883301e-01,9.587932825088500977e-01
9.103398919105529785e-01,9.102975130081176758e-01,9.102551341056823730e-01,9.102128148078918457e-01,9.101704955101013184e-01,9.101281166076660156e-01,9.100857377052307129e-01,9.100434780120849609e-01,9.100011587142944336e-01,9.099587798118591309e-01,9.099164605140686035e-01,9.098742008209228516e-01,9.098318815231323242e-01,9.097895622253417969e-01,9.097471833229064941e-01,9.097049832344055176e-01,9.096626639366149902e-01,9.096203446388244629e-01,9.095781445503234863e-01,9.095358252525329590e-01,9.094935059547424316e-01,9.094512462615966797e-01,9.094090461730957031e-01,9.093667268753051758e-01,9.093244671821594238e-01,9.092821478843688965e-01,9.092399477958679199e-01,9.091976881027221680e-01,9.091554284095764160e-01,9.091131687164306641e-01,9.090709686279296875e-01,9.090287089347839355e-01,9.089864492416381836e-01,9.089441895484924316e-01,9.089020490646362305e-01,9.088597893714904785e-01,9.088175892829895020e-01,9.087754487991333008e-01,9.087331891059875488e-01,9.086909890174865723e-01,9.086487293243408203e-01,9.086066484451293945e-01,9.085643887519836426e-01,9.085221886634826660e-01,9.084799885749816895e-01,9.084379076957702637e-01,9.083956480026245117e-01,9.083535075187683105e-01,9.083113074302673340e-01,9.082691669464111328e-01,9.082270264625549316e-01,9.081848263740539551e-01,9.081426262855529785e-01,9.081005454063415527e-01,9.080584049224853516e-01,9.080162048339843750e-01,9.079741835594177246e-01,9.079319834709167480e-01,9.078898429870605469e-01,9.078477025032043457e-01,9.078056812286376953e-01,9.077634811401367188e-01,9.077213406562805176e-01,9.076792597770690918e-01,9.076371788978576660e-01,9.075950980186462402e-01,9.075529575347900391e-01,9.075108170509338379e-01,9.074687957763671875e-01,9.074267148971557617e-01,9.073845744132995605e-01,9.073426127433776855e-01,9.073004722595214844e-01,9.072583913803100586e-01,9.072163105010986328e-01,9.071742892265319824e-01,9.071322083473205566e-01,9.070901274681091309e-01,9.070480465888977051e-01,9.070060849189758301e-01
