3.097745895385742188e+00,3.176037549972534180e+00,3.258386135101318359e+00,3.345115184783935547e+00,3.436587333679199219e+00,3.533202886581420898e+00,3.635407686233520508e+00,3.743702173233032227e+00,3.858646154403686523e+00,3.980872392654418945e+00,4.111094951629638672e+00,4.250125408172607422e+00,4.398888587951660156e+00,4.558443546295166016e+00,4.730008602142333984e+00,4.914993286132812500e+00,5.000000000000000000e+00,5.000000000000000000e+00,5.000000000000000000e+00,5.000000000000000000e+00,5.000000000000000000e+00,5.000000000000000000e+00,5.000000000000000000e+00,5.000000000000000000e+00,5.000000000000000000e+00,5.000000000000000000e+00,5.000000000000000000e+00,5.000000000000000000e+00,5.000000000000000000e+00,5.000000000000000000e+00,5.000000000000000000e+00,5.000000000000000000e+00,5.000000000000000000e+00,5.000000000000000000e+00,5.000000000000000000e+00,5.000000000000000000e+00,5.000000000000000000e+00,5.000000000000000000e+00,5.000000000000000000e+00,5.000000000000000000e+00,5.000000000000000000e+00,5.000000000000000000e+00,5.000000000000000000e+00,5.000000000000000000e+00,5.000000000000000000e+00,5.000000000000000000e+00,5.000000000000000000e+00,5.000000000000000000e+00,5.000000000000000000e+00,5.000000000000000000e+00,5.000000000000000000e+00,5.000000000000000000e+00,5.000000000000000000e+00,5.000000000000000000e+00,5.000000000000000000e+00,5.000000000000000000e+00,5.000000000000000000e+00,5.000000000000000000e+00,5.000000000000000000e+00,5.000000000000000000e+00,5.000000000000000000e+00,5.000000000000000000e+00,5.000000000000000000e+00,5.000000000000000000e+00,5.000000000000000000e+00,5.000000000000000000e+00,5.000000000000000000e+00,5.000000000000000000e+00,5.000000000000000000e+00,5.000000000000000000e+00,4.854309082031250000e+00,4.694861412048339844e+00,4.545535087585449219e+00,4.405379295349121094e+00,4.273608207702636719e+00,4.149490833282470703e+00,4.032379627227783203e+00,3.921697616577148438e+00,3.816929101943969727e+00,3.717612504959106445e+00
3.097680091857910156e+00,3.175968408584594727e+00,3.258316516876220703e+00,3.345045089721679688e+00,3.436513423919677734e+00,3.533124685287475586e+00,3.635324954986572266e+00,3.743614435195922852e+00,3.858552932739257812e+00,3.980773210525512695e+00,4.110989093780517578e+00,4.250012397766113281e+00,4.398767471313476562e+00,4.558313369750976562e+00,4.729868888854980469e+00,4.914842128753662109e+00,5.000000000000000000e+00,5.000000000000000000e+00,5.000000000000000000e+00,5.000000000000000000e+00,5.000000000000000000e+00,5.000000000000000000e+00,5.000000000000000000e+00,5.000000000000000000e+00,5.000000000000000000e+00,5.000000000000000000e+00,5.000000000000000000e+00,5.000000000000000000e+00,5.000000000000000000e+00,5.000000000000000000e+00,5.000000000000000000e+00,5.000000000000000000e+00,5.000000000000000000e+00,5.000000000000000000e+00,5.000000000000000000e+00,5.000000000000000000e+00,5.000000000000000000e+00,5.000000000000000000e+00,5.000000000000000000e+00,5.000000000000000000e+00,5.000000000000000000e+00,5.000000000000000000e+00,5.000000000000000000e+00,5.000000000000000000e+00,5.000000000000000000e+00,5.000000000000000000e+00,5.000000000000000000e+00,5.000000000000000000e+00,5.000000000000000000e+00,5.000000000000000000e+00,5.000000000000000000e+00,5.000000000000000000e+00,5.000000000000000000e+00,5.000000000000000000e+00,5.000000000000000000e+00,5.000000000000000000e+00,5.000000000000000000e+00,5.000000000000000000e+00,5.000000000000000000e+00,5.000000000000000000e+00,5.000000000000000000e+00,5.000000000000000000e+00,5.000000000000000000e+00,5.000000000000000000e+00,5.000000000000000000e+00,5.000000000000000000e+00,5.000000000000000000e+00,5.000000000000000000e+00,5.000000000000000000e+00,5.000000000000000000e+00,4.854526996612548828e+00,4.695035457611083984e+00,4.545660495758056641e+00,4.405497074127197266e+00,4.273718833923339844e+00,4.149595260620117188e+00,4.032477855682373047e+00,3.921790599822998047e+00,3.817017555236816406e+00,3.717696666717529297e+00
3.097614288330078125e+00,3.175899267196655273e+00,3.258243560791015625e+00,3.344971895217895508e+00,3.436439514160156250e+00,3.533046483993530273e+00,3.635242223739624023e+00,3.743526697158813477e+00,3.858459711074829102e+00,3.980674028396606445e+00,4.110883712768554688e+00,4.249899387359619141e+00,4.398646354675292969e+00,4.558183670043945312e+00,4.729728698730468750e+00,4.914690971374511719e+00,5.000000000000000000e+00,5.000000000000000000e+00,5.000000000000000000e+00,5.000000000000000000e+00,5.000000000000000000e+00,5.000000000000000000e+00,5.000000000000000000e+00,5.000000000000000000e+00,5.000000000000000000e+00,5.000000000000000000e+00,5.000000000000000000e+00,5.000000000000000000e+00,5.000000000000000000e+00,5.000000000000000000e+00,5.000000000000000000e+00,5.000000000000000000e+00,5.000000000000000000e+00,5.000000000000000000e+00,5.000000000000000000e+00,5.000000000000000000e+00,5.000000000000000000e+00,5.000000000000000000e+00,5.000000000000000000e+00,5.000000000000000000e+00,5.000000000000000000e+00,5.000000000000000000e+00,5.000000000000000000e+00,5.000000000000000000e+00,5.000000000000000000e+00,5.000000000000000000e+00,5.000000000000000000e+00,5.000000000000000000e+00,5.000000000000000000e+00,5.000000000000000000e+00,5.000000000000000000e+00,5.000000000000000000e+00,5.000000000000000000e+00,5.000000000000000000e+00,5.000000000000000000e+00,5.000000000000000000e+00,5.000000000000000000e+00,5.000000000000000000e+00,5.000000000000000000e+00,5.000000000000000000e+00,5.000000000000000000e+00,5.000000000000000000e+00,5.000000000000000000e+00,5.000000000000000000e+00,5.000000000000000000e+00,5.000000000000000000e+00,5.000000000000000000e+00,5.000000000000000000e+00,5.000000000000000000e+00,5.000000000000000000e+00,4.854703903198242188e+00,4.695168972015380859e+00,4.545785427093505859e+00,4.405614852905273438e+00,4.273829460144042969e+00,4.149699687957763672e+00,4.032576560974121094e+00,3.921884059906005859e+00,3.817105770111083984e+00,3.717780113220214844e+00
3.097548246383666992e+00,3.175829648971557617e+00,3.258170604705810547e+00,3.344894886016845703e+00,3.436362028121948242e+00,3.532968044281005859e+00,3.635159730911254883e+00,3.743438482284545898e+00,3.858366489410400391e+00,3.980574369430541992e+00,4.110777378082275391e+00,4.249785900115966797e+00,4.398525238037109375e+00,4.558053016662597656e+00,4.729588508605957031e+00,4.914539813995361328e+00,5.000000000000000000e+00,5.000000000000000000e+00,5.000000000000000000e+00,5.000000000000000000e+00,5.000000000000000000e+00,5.000000000000000000e+00,5.000000000000000000e+00,5.000000000000000000e+00,5.000000000000000000e+00,5.000000000000000000e+00,5.000000000000000000e+00,5.000000000000000000e+00,5.000000000000000000e+00,5.000000000000000000e+00,5.000000000000000000e+00,5.000000000000000000e+00,5.000000000000000000e+00,5.000000000000000000e+00,5.000000000000000000e+00,5.000000000000000000e+00,5.000000000000000000e+00,5.000000000000000000e+00,5.000000000000000000e+00,5.000000000000000000e+00,5.000000000000000000e+00,5.000000000000000000e+00,5.000000000000000000e+00,5.000000000000000000e+00,5.000000000000000000e+00,5.000000000000000000e+00,5.000000000000000000e+00,5.000000000000000000e+00,5.000000000000000000e+00,5.000000000000000000e+00,5.000000000000000000e+00,5.000000000000000000e+00,5.000000000000000000e+00,5.000000000000000000e+00,5.000000000000000000e+00,5.000000000000000000e+00,5.000000000000000000e+00,5.000000000000000000e+00,5.000000000000000000e+00,5.000000000000000000e+00,5.000000000000000000e+00,5.000000000000000000e+00,5.000000000000000000e+00,5.000000000000000000e+00,5.000000000000000000e+00,5.000000000000000000e+00,5.000000000000000000e+00,5.000000000000000000e+00,5.000000000000000000e+00,5.000000000000000000e+00,4.854846954345703125e+00,4.695302486419677734e+00,4.545910835266113281e+00,4.405732154846191406e+00,4.273940086364746094e+00,4.149803638458251953e+00,4.032675266265869141e+00,3.921977043151855469e+00,3.817193984985351562e+00,3.717863798141479492e+00
3.097482442855834961e+00,3.175760507583618164e+00,3.258097887039184570e+00,3.344818115234375000e+00,3.436281204223632812e+00,3.532886505126953125e+00,3.635076999664306641e+00,3.743350982666015625e+00,3.858273506164550781e+00,3.980475187301635742e+00,4.110671520233154297e+00,4.249672889709472656e+00,4.398404121398925781e+00,4.557923316955566406e+00,4.729448318481445312e+00,4.914388656616210938e+00,5.000000000000000000e+00,5.000000000000000000e+00,5.000000000000000000e+00,5.000000000000000000e+00,5.000000000000000000e+00,5.000000000000000000e+00,5.000000000000000000e+00,5.000000000000000000e+00,5.000000000000000000e+00,5.000000000000000000e+00,5.000000000000000000e+00,5.000000000000000000e+00,5.000000000000000000e+00,5.000000000000000000e+00,5.000000000000000000e+00,5.000000000000000000e+00,5.000000000000000000e+00,5.000000000000000000e+00,5.000000000000000000e+00,5.000000000000000000e+00,5.000000000000000000e+00,5.000000000000000000e+00,5.000000000000000000e+00,5.000000000000000000e+00,5.000000000000000000e+00,5.000000000000000000e+00,5.000000000000000000e+00,5.000000000000000000e+00,5.000000000000000000e+00,5.000000000000000000e+00,5.000000000000000000e+00,5.000000000000000000e+00,5.000000000000000000e+00,5.000000000000000000e+00,5.000000000000000000e+00,5.000000000000000000e+00,5.000000000000000000e+00,5.000000000000000000e+00,5.000000000000000000e+00,5.000000000000000000e+00,5.000000000000000000e+00,5.000000000000000000e+00,5.000000000000000000e+00,5.000000000000000000e+00,5.000000000000000000e+00,5.000000000000000000e+00,5.000000000000000000e+00,5.000000000000000000e+00,5.000000000000000000e+00,5.000000000000000000e+00,5.000000000000000000e+00,5.000000000000000000e+00,5.000000000000000000e+00,5.000000000000000000e+00,4.854989528656005859e+00,4.695436000823974609e+00,4.546036243438720703e+00,4.405849933624267578e+00,4.274050712585449219e+00,4.149908065795898438e+00,4.032773494720458984e+00,3.922070264816284180e+00,3.817282199859619141e+00,3.717947483062744141e+00
3.097416400909423828e+00,3.175691127777099609e+00,3.258024692535400391e+00,3.344741106033325195e+00,3.436199665069580078e+00,3.532800674438476562e+00,3.634990215301513672e+00,3.743263244628906250e+00,3.858180284500122070e+00,3.980376005172729492e+00,4.110566139221191406e+00,4.249559879302978516e+00,4.398283004760742188e+00,4.557793140411376953e+00,4.729308605194091797e+00,4.914237499237060547e+00,5.000000000000000000e+00,5.000000000000000000e+00,5.000000000000000000e+00,5.000000000000000000e+00,5.000000000000000000e+00,5.000000000000000000e+00,5.000000000000000000e+00,5.000000000000000000e+00,5.000000000000000000e+00,5.000000000000000000e+00,5.000000000000000000e+00,5.000000000000000000e+00,5.000000000000000000e+00,5.000000000000000000e+00,5.000000000000000000e+00,5.000000000000000000e+00,5.000000000000000000e+00,5.000000000000000000e+00,5.000000000000000000e+00,5.000000000000000000e+00,5.000000000000000000e+00,5.000000000000000000e+00,5.000000000000000000e+00,5.000000000000000000e+00,5.000000000000000000e+00,5.000000000000000000e+00,5.000000000000000000e+00,5.000000000000000000e+00,5.000000000000000000e+00,5.000000000000000000e+00,5.000000000000000000e+00,5.000000000000000000e+00,5.000000000000000000e+00,5.000000000000000000e+00,5.000000000000000000e+00,5.000000000000000000e+00,5.000000000000000000e+00,5.000000000000000000e+00,5.000000000000000000e+00,5.000000000000000000e+00,5.000000000000000000e+00,5.000000000000000000e+00,5.000000000000000000e+00,5.000000000000000000e+00,5.000000000000000000e+00,5.000000000000000000e+00,5.000000000000000000e+00,5.000000000000000000e+00,5.000000000000000000e+00,5.000000000000000000e+00,5.000000000000000000e+00,5.000000000000000000e+00,5.000000000000000000e+00,5.000000000000000000e+00,4.855132579803466797e+00,4.695569515228271484e+00,4.546161174774169922e+00,4.405967235565185547e+00,4.274161338806152344e+00,4.150012493133544922e+00,4.032872200012207031e+00,3.922163248062133789e+00,3.817367315292358398e+00,3.718025684356689453e+00
3.097350597381591797e+00,3.175621986389160156e+00,3.257951974868774414e+00,3.344664335250854492e+00,3.436118841171264648e+00,3.532715082168579102e+00,3.634899854660034180e+00,3.743171691894531250e+00,3.858086585998535156e+00,3.980277061462402344e+00,4.110459804534912109e+00,4.249446868896484375e+00,4.398161411285400391e+00,4.557662963867187500e+00,4.729168415069580078e+00,4.914085865020751953e+00,5.000000000000000000e+00,5.000000000000000000e+00,5.000000000000000000e+00,5.000000000000000000e+00,5.000000000000000000e+00,5.000000000000000000e+00,5.000000000000000000e+00,5.000000000000000000e+00,5.000000000000000000e+00,5.000000000000000000e+00,5.000000000000000000e+00,5.000000000000000000e+00,5.000000000000000000e+00,5.000000000000000000e+00,5.000000000000000000e+00,5.000000000000000000e+00,5.000000000000000000e+00,5.000000000000000000e+00,5.000000000000000000e+00,5.000000000000000000e+00,5.000000000000000000e+00,5.000000000000000000e+00,5.000000000000000000e+00,5.000000000000000000e+00,5.000000000000000000e+00,5.000000000000000000e+00,5.000000000000000000e+00,5.000000000000000000e+00,5.000000000000000000e+00,5.000000000000000000e+00,5.000000000000000000e+00,5.000000000000000000e+00,5.000000000000000000e+00,5.000000000000000000e+00,5.000000000000000000e+00,5.000000000000000000e+00,5.000000000000000000e+00,5.000000000000000000e+00,5.000000000000000000e+00,5.000000000000000000e+00,5.000000000000000000e+00,5.000000000000000000e+00,5.000000000000000000e+00,5.000000000000000000e+00,5.000000000000000000e+00,5.000000000000000000e+00,5.000000000000000000e+00,5.000000000000000000e+00,5.000000000000000000e+00,5.000000000000000000e+00,5.000000000000000000e+00,5.000000000000000000e+00,5.000000000000000000e+00,5.000000000000000000e+00,4.855275630950927734e+00,4.695703029632568359e+00,4.546286582946777344e+00,4.406085014343261719e+00,4.274272441864013672e+00,4.150113582611083984e+00,4.032964706420898438e+00,3.922248125076293945e+00,3.817447662353515625e+00,3.718101978302001953e+00
3.097284793853759766e+00,3.175552845001220703e+00,3.257879257202148438e+00,3.344587802886962891e+00,3.436037778854370117e+00,3.532629489898681641e+00,3.634809255599975586e+00,3.743075609207153320e+00,3.857989549636840820e+00,3.980177879333496094e+00,4.110354423522949219e+00,4.249333858489990234e+00,4.398040294647216797e+00,4.557532787322998047e+00,4.729028224945068359e+00,4.913934707641601562e+00,5.000000000000000000e+00,5.000000000000000000e+00,5.000000000000000000e+00,5.000000000000000000e+00,5.000000000000000000e+00,5.000000000000000000e+00,5.000000000000000000e+00,5.000000000000000000e+00,5.000000000000000000e+00,5.000000000000000000e+00,5.000000000000000000e+00,5.000000000000000000e+00,5.000000000000000000e+00,5.000000000000000000e+00,5.000000000000000000e+00,5.000000000000000000e+00,5.000000000000000000e+00,5.000000000000000000e+00,5.000000000000000000e+00,5.000000000000000000e+00,5.000000000000000000e+00,5.000000000000000000e+00,5.000000000000000000e+00,5.000000000000000000e+00,5.000000000000000000e+00,5.000000000000000000e+00,5.000000000000000000e+00,5.000000000000000000e+00,5.000000000000000000e+00,5.000000000000000000e+00,5.000000000000000000e+00,5.000000000000000000e+00,5.000000000000000000e+00,5.000000000000000000e+00,5.000000000000000000e+00,5.000000000000000000e+00,5.000000000000000000e+00,5.000000000000000000e+00,5.000000000000000000e+00,5.000000000000000000e+00,5.000000000000000000e+00,5.000000000000000000e+00,5.000000000000000000e+00,5.000000000000000000e+00,5.000000000000000000e+00,5.000000000000000000e+00,5.000000000000000000e+00,5.000000000000000000e+00,5.000000000000000000e+00,5.000000000000000000e+00,5.000000000000000000e+00,5.000000000000000000e+00,5.000000000000000000e+00,5.000000000000000000e+00,4.855418205261230469e+00,4.695836544036865234e+00,4.546409130096435547e+00,4.406196117401123047e+00,4.274373054504394531e+00,4.150208950042724609e+00,4.033054351806640625e+00,3.922333002090454102e+00,3.817528009414672852e+00,3.718178272247314453e+00
3.097218751907348633e+00,3.175483465194702148e+00,3.257806062698364258e+00,3.344510793685913086e+00,3.435956478118896484e+00,3.532543659210205078e+00,3.634718179702758789e+00,3.742979288101196289e+00,3.857887506484985352e+00,3.980074405670166016e+00,4.110248565673828125e+00,4.249220848083496094e+00,4.397919178009033203e+00,4.557402610778808594e+00,4.728888034820556641e+00,4.913783550262451172e+00,5.000000000000000000e+00,5.000000000000000000e+00,5.000000000000000000e+00,5.000000000000000000e+00,5.000000000000000000e+00,5.000000000000000000e+00,5.000000000000000000e+00,5.000000000000000000e+00,5.000000000000000000e+00,5.000000000000000000e+00,5.000000000000000000e+00,5.000000000000000000e+00,5.000000000000000000e+00,5.000000000000000000e+00,5.000000000000000000e+00,5.000000000000000000e+00,5.000000000000000000e+00,5.000000000000000000e+00,5.000000000000000000e+00,5.000000000000000000e+00,5.000000000000000000e+00,5.000000000000000000e+00,5.000000000000000000e+00,5.000000000000000000e+00,5.000000000000000000e+00,5.000000000000000000e+00,5.000000000000000000e+00,5.000000000000000000e+00,5.000000000000000000e+00,5.000000000000000000e+00,5.000000000000000000e+00,5.000000000000000000e+00,5.000000000000000000e+00,5.000000000000000000e+00,5.000000000000000000e+00,5.000000000000000000e+00,5.000000000000000000e+00,5.000000000000000000e+00,5.000000000000000000e+00,5.000000000000000000e+00,5.000000000000000000e+00,5.000000000000000000e+00,5.000000000000000000e+00,5.000000000000000000e+00,5.000000000000000000e+00,5.000000000000000000e+00,5.000000000000000000e+00,5.000000000000000000e+00,5.000000000000000000e+00,5.000000000000000000e+00,5.000000000000000000e+00,5.000000000000000000e+00,5.000000000000000000e+00,5.000000000000000000e+00,4.855554580688476562e+00,4.695960044860839844e+00,4.546523094177246094e+00,4.406303405761718750e+00,4.274474143981933594e+00,4.150303840637207031e+00,4.033143997192382812e+00,3.922417640686035156e+00,3.817608356475830078e+00,3.718254327774047852e+00
3.097153186798095703e+00,3.175414323806762695e+00,3.257733345031738281e+00,3.344434022903442383e+00,3.435875654220581055e+00,3.532458066940307617e+00,3.634627580642700195e+00,3.742883205413818359e+00,3.857785463333129883e+00,3.979965925216674805e+00,4.110138416290283203e+00,4.249107360839843750e+00,4.397798061370849609e+00,4.557272434234619141e+00,4.728747844696044922e+00,4.913631916046142578e+00,5.000000000000000000e+00,5.000000000000000000e+00,5.000000000000000000e+00,5.000000000000000000e+00,5.000000000000000000e+00,5.000000000000000000e+00,5.000000000000000000e+00,5.000000000000000000e+00,5.000000000000000000e+00,5.000000000000000000e+00,5.000000000000000000e+00,5.000000000000000000e+00,5.000000000000000000e+00,5.000000000000000000e+00,5.000000000000000000e+00,5.000000000000000000e+00,5.000000000000000000e+00,5.000000000000000000e+00,5.000000000000000000e+00,5.000000000000000000e+00,5.000000000000000000e+00,5.000000000000000000e+00,5.000000000000000000e+00,5.000000000000000000e+00,5.000000000000000000e+00,5.000000000000000000e+00,5.000000000000000000e+00,5.000000000000000000e+00,5.000000000000000000e+00,5.000000000000000000e+00,5.000000000000000000e+00,5.000000000000000000e+00,4.733407974243164062e+00,4.715876102447509766e+00,5.000000000000000000e+00,5.000000000000000000e+00,5.000000000000000000e+00,5.000000000000000000e+00,5.000000000000000000e+00,5.000000000000000000e+00,5.000000000000000000e+00,5.000000000000000000e+00,5.000000000000000000e+00,5.000000000000000000e+00,5.000000000000000000e+00,5.000000000000000000e+00,5.000000000000000000e+00,5.000000000000000000e+00,5.000000000000000000e+00,5.000000000000000000e+00,5.000000000000000000e+00,5.000000000000000000e+00,5.000000000000000000e+00,5.000000000000000000e+00,4.855684280395507812e+00,4.696081638336181641e+00,4.546637058258056641e+00,4.406410217285156250e+00,4.274575233459472656e+00,4.150399208068847656e+00,4.033234119415283203e+00,3.922502517700195312e+00,3.817688703536987305e+00,3.718330621719360352e+00
3.097087383270263672e+00,3.175345182418823242e+00,3.257660627365112305e+00,3.344357013702392578e+00,3.435794353485107422e+00,3.532372236251831055e+00,3.634536743164062500e+00,3.742786884307861328e+00,3.857682943344116211e+00,3.979856729507446289e+00,4.110022544860839844e+00,4.248990058898925781e+00,4.397676944732666016e+00,4.557142734527587891e+00,4.728608131408691406e+00,4.913481235504150391e+00,5.000000000000000000e+00,5.000000000000000000e+00,5.000000000000000000e+00,5.000000000000000000e+00,5.000000000000000000e+00,5.000000000000000000e+00,5.000000000000000000e+00,5.000000000000000000e+00,5.000000000000000000e+00,5.000000000000000000e+00,5.000000000000000000e+00,5.000000000000000000e+00,5.000000000000000000e+00,5.000000000000000000e+00,5.000000000000000000e+00,5.000000000000000000e+00,5.000000000000000000e+00,5.000000000000000000e+00,5.000000000000000000e+00,5.000000000000000000e+00,5.000000000000000000e+00,5.000000000000000000e+00,5.000000000000000000e+00,5.000000000000000000e+00,5.000000000000000000e+00,5.000000000000000000e+00,5.000000000000000000e+00,5.000000000000000000e+00,5.000000000000000000e+00,5.000000000000000000e+00,5.000000000000000000e+00,5.000000000000000000e+00,4.758175849914550781e+00,4.732379913330078125e+00,5.000000000000000000e+00,5.000000000000000000e+00,5.000000000000000000e+00,5.000000000000000000e+00,5.000000000000000000e+00,5.000000000000000000e+00,5.000000000000000000e+00,5.000000000000000000e+00,5.000000000000000000e+00,5.000000000000000000e+00,5.000000000000000000e+00,5.000000000000000000e+00,5.000000000000000000e+00,5.000000000000000000e+00,5.000000000000000000e+00,5.000000000000000000e+00,5.000000000000000000e+00,5.000000000000000000e+00,5.000000000000000000e+00,5.000000000000000000e+00,4.855814456939697266e+00,4.696203231811523438e+00,4.546751022338867188e+00,4.406517505645751953e+00,4.274675846099853516e+00,4.150494098663330078e+00,4.033323764801025391e+00,3.922587394714355469e+00,3.817769527435302734e+00,3.718406915664672852e+00
3.097021341323852539e+00,3.175275802612304688e+00,3.257587671279907227e+00,3.344280481338500977e+00,3.435713529586791992e+00,3.532286643981933594e+00,3.634446144104003906e+00,3.742690801620483398e+00,3.857580900192260742e+00,3.979748249053955078e+00,4.109906196594238281e+00,4.248866081237792969e+00,4.397551536560058594e+00,4.557012557983398438e+00,4.728467941284179688e+00,4.913330078125000000e+00,5.000000000000000000e+00,5.000000000000000000e+00,5.000000000000000000e+00,5.000000000000000000e+00,5.000000000000000000e+00,5.000000000000000000e+00,5.000000000000000000e+00,5.000000000000000000e+00,5.000000000000000000e+00,5.000000000000000000e+00,5.000000000000000000e+00,5.000000000000000000e+00,5.000000000000000000e+00,5.000000000000000000e+00,5.000000000000000000e+00,5.000000000000000000e+00,5.000000000000000000e+00,5.000000000000000000e+00,5.000000000000000000e+00,5.000000000000000000e+00,5.000000000000000000e+00,5.000000000000000000e+00,5.000000000000000000e+00,5.000000000000000000e+00,5.000000000000000000e+00,5.000000000000000000e+00,5.000000000000000000e+00,5.000000000000000000e+00,5.000000000000000000e+00,5.000000000000000000e+00,5.000000000000000000e+00,5.000000000000000000e+00,4.823324680328369141e+00,4.823731422424316406e+00,5.000000000000000000e+00,5.000000000000000000e+00,5.000000000000000000e+00,5.000000000000000000e+00,5.000000000000000000e+00,5.000000000000000000e+00,5.000000000000000000e+00,5.000000000000000000e+00,5.000000000000000000e+00,5.000000000000000000e+00,5.000000000000000000e+00,5.000000000000000000e+00,5.000000000000000000e+00,5.000000000000000000e+00,5.000000000000000000e+00,5.000000000000000000e+00,5.000000000000000000e+00,5.000000000000000000e+00,5.000000000000000000e+00,5.000000000000000000e+00,4.855944633483886719e+00,4.696324825286865234e+00,4.546864986419677734e+00,4.406624317169189453e+00,4.274776458740234375e+00,4.150588989257812500e+00,4.033413410186767578e+00,3.922672271728515625e+00,3.817849874496459961e+00,3.718483209609985352e+00
3.096955537796020508e+00,3.175206661224365234e+00,3.257514953613281250e+00,3.344203710556030273e+00,3.435632467269897461e+00,3.532201051712036133e+00,3.634355545043945312e+00,3.742594718933105469e+00,3.857479095458984375e+00,3.979639530181884766e+00,4.109790802001953125e+00,4.248742103576660156e+00,4.397418498992919922e+00,4.556877613067626953e+00,4.728327751159667969e+00,4.913178443908691406e+00,5.000000000000000000e+00,5.000000000000000000e+00,5.000000000000000000e+00,5.000000000000000000e+00,5.000000000000000000e+00,5.000000000000000000e+00,5.000000000000000000e+00,5.000000000000000000e+00,5.000000000000000000e+00,5.000000000000000000e+00,5.000000000000000000e+00,5.000000000000000000e+00,5.000000000000000000e+00,5.000000000000000000e+00,5.000000000000000000e+00,5.000000000000000000e+00,5.000000000000000000e+00,5.000000000000000000e+00,5.000000000000000000e+00,5.000000000000000000e+00,5.000000000000000000e+00,5.000000000000000000e+00,5.000000000000000000e+00,5.000000000000000000e+00,5.000000000000000000e+00,5.000000000000000000e+00,5.000000000000000000e+00,5.000000000000000000e+00,5.000000000000000000e+00,5.000000000000000000e+00,4.754641056060791016e+00,4.743764877319335938e+00,4.733616352081298828e+00,4.734028339385986328e+00,4.755299568176269531e+00,4.800653457641601562e+00,5.000000000000000000e+00,5.000000000000000000e+00,5.000000000000000000e+00,5.000000000000000000e+00,5.000000000000000000e+00,5.000000000000000000e+00,5.000000000000000000e+00,5.000000000000000000e+00,5.000000000000000000e+00,5.000000000000000000e+00,5.000000000000000000e+00,5.000000000000000000e+00,5.000000000000000000e+00,5.000000000000000000e+00,5.000000000000000000e+00,5.000000000000000000e+00,5.000000000000000000e+00,5.000000000000000000e+00,4.856074810028076172e+00,4.696446418762207031e+00,4.546978950500488281e+00,4.406731605529785156e+00,4.274877071380615234e+00,4.150683879852294922e+00,4.033503055572509766e+00,3.922757148742675781e+00,3.817930221557617188e+00,3.718559265136718750e+00
3.096860885620117188e+00,3.175123453140258789e+00,3.257441759109497070e+00,3.344126701354980469e+00,3.435551404953002930e+00,3.532115221023559570e+00,3.634264707565307617e+00,3.742498397827148438e+00,3.857376575469970703e+00,3.979530572891235352e+00,4.109674453735351562e+00,4.248618125915527344e+00,4.397285938262939453e+00,4.556735515594482422e+00,4.728183269500732422e+00,4.913027286529541016e+00,5.000000000000000000e+00,5.000000000000000000e+00,5.000000000000000000e+00,5.000000000000000000e+00,5.000000000000000000e+00,5.000000000000000000e+00,5.000000000000000000e+00,5.000000000000000000e+00,5.000000000000000000e+00,5.000000000000000000e+00,5.000000000000000000e+00,5.000000000000000000e+00,5.000000000000000000e+00,5.000000000000000000e+00,5.000000000000000000e+00,5.000000000000000000e+00,5.000000000000000000e+00,5.000000000000000000e+00,5.000000000000000000e+00,5.000000000000000000e+00,5.000000000000000000e+00,5.000000000000000000e+00,5.000000000000000000e+00,5.000000000000000000e+00,5.000000000000000000e+00,5.000000000000000000e+00,5.000000000000000000e+00,5.000000000000000000e+00,5.000000000000000000e+00,5.000000000000000000e+00,4.775681972503662109e+00,4.737616539001464844e+00,4.698421478271484375e+00,4.708537101745605469e+00,4.732043266296386719e+00,4.821985721588134766e+00,5.000000000000000000e+00,5.000000000000000000e+00,5.000000000000000000e+00,5.000000000000000000e+00,5.000000000000000000e+00,5.000000000000000000e+00,5.000000000000000000e+00,5.000000000000000000e+00,5.000000000000000000e+00,5.000000000000000000e+00,5.000000000000000000e+00,5.000000000000000000e+00,5.000000000000000000e+00,5.000000000000000000e+00,5.000000000000000000e+00,5.000000000000000000e+00,5.000000000000000000e+00,5.000000000000000000e+00,4.856204509735107422e+00,4.696568012237548828e+00,4.547093391418457031e+00,4.406838893890380859e+00,4.274978160858154297e+00,4.150778770446777344e+00,4.033592700958251953e+00,3.922841787338256836e+00,3.818010568618774414e+00,3.718635559082031250e+00
3.096761703491210938e+00,3.175019264221191406e+00,3.257334232330322266e+00,3.344031333923339844e+00,3.435469627380371094e+00,3.532029867172241211e+00,3.634174108505249023e+00,3.742402315139770508e+00,3.857274532318115234e+00,3.979422092437744141e+00,4.109558582305908203e+00,4.248494148254394531e+00,4.397153377532958984e+00,4.556592464447021484e+00,4.728029727935791016e+00,4.912871360778808594e+00,5.000000000000000000e+00,5.000000000000000000e+00,5.000000000000000000e+00,5.000000000000000000e+00,5.000000000000000000e+00,5.000000000000000000e+00,5.000000000000000000e+00,5.000000000000000000e+00,5.000000000000000000e+00,5.000000000000000000e+00,5.000000000000000000e+00,5.000000000000000000e+00,5.000000000000000000e+00,5.000000000000000000e+00,5.000000000000000000e+00,5.000000000000000000e+00,5.000000000000000000e+00,5.000000000000000000e+00,5.000000000000000000e+00,5.000000000000000000e+00,5.000000000000000000e+00,5.000000000000000000e+00,5.000000000000000000e+00,5.000000000000000000e+00,5.000000000000000000e+00,5.000000000000000000e+00,5.000000000000000000e+00,5.000000000000000000e+00,5.000000000000000000e+00,5.000000000000000000e+00,4.780364990234375000e+00,4.752441406250000000e+00,4.705979824066162109e+00,4.698236465454101562e+00,4.749666690826416016e+00,4.833923339843750000e+00,5.000000000000000000e+00,5.000000000000000000e+00,5.000000000000000000e+00,5.000000000000000000e+00,5.000000000000000000e+00,5.000000000000000000e+00,5.000000000000000000e+00,5.000000000000000000e+00,5.000000000000000000e+00,5.000000000000000000e+00,5.000000000000000000e+00,5.000000000000000000e+00,5.000000000000000000e+00,5.000000000000000000e+00,5.000000000000000000e+00,5.000000000000000000e+00,5.000000000000000000e+00,5.000000000000000000e+00,4.856334686279296875e+00,4.696689605712890625e+00,4.547207355499267578e+00,4.406946182250976562e+00,4.275079250335693359e+00,4.150874137878417969e+00,4.033682823181152344e+00,3.922926664352416992e+00,3.818090915679931641e+00,3.718711853027343750e+00
3.096662521362304688e+00,3.174915075302124023e+00,3.257224798202514648e+00,3.343915700912475586e+00,3.435347557067871094e+00,3.531920194625854492e+00,3.634078979492187500e+00,3.742305994033813477e+00,3.857172250747680664e+00,3.979313135147094727e+00,4.109442710876464844e+00,4.248370170593261719e+00,4.397020339965820312e+00,4.556449890136718750e+00,4.727876186370849609e+00,4.912705421447753906e+00,5.000000000000000000e+00,5.000000000000000000e+00,5.000000000000000000e+00,5.000000000000000000e+00,5.000000000000000000e+00,5.000000000000000000e+00,5.000000000000000000e+00,5.000000000000000000e+00,5.000000000000000000e+00,5.000000000000000000e+00,5.000000000000000000e+00,5.000000000000000000e+00,5.000000000000000000e+00,5.000000000000000000e+00,5.000000000000000000e+00,5.000000000000000000e+00,5.000000000000000000e+00,5.000000000000000000e+00,5.000000000000000000e+00,5.000000000000000000e+00,5.000000000000000000e+00,5.000000000000000000e+00,5.000000000000000000e+00,5.000000000000000000e+00,5.000000000000000000e+00,5.000000000000000000e+00,5.000000000000000000e+00,5.000000000000000000e+00,5.000000000000000000e+00,5.000000000000000000e+00,4.782268524169921875e+00,4.776474475860595703e+00,4.706532001495361328e+00,4.707474231719970703e+00,4.762794017791748047e+00,4.847556114196777344e+00,5.000000000000000000e+00,5.000000000000000000e+00,5.000000000000000000e+00,5.000000000000000000e+00,5.000000000000000000e+00,5.000000000000000000e+00,5.000000000000000000e+00,5.000000000000000000e+00,5.000000000000000000e+00,5.000000000000000000e+00,5.000000000000000000e+00,5.000000000000000000e+00,5.000000000000000000e+00,5.000000000000000000e+00,5.000000000000000000e+00,5.000000000000000000e+00,5.000000000000000000e+00,5.000000000000000000e+00,4.856464862823486328e+00,4.696811199188232422e+00,4.547321319580078125e+00,4.407052993774414062e+00,4.275179862976074219e+00,4.150969028472900391e+00,4.033772468566894531e+00,3.923012018203735352e+00,3.818171262741088867e+00,3.718788146972656250e+00
3.096593141555786133e+00,3.174825906753540039e+00,3.257115125656127930e+00,3.343800067901611328e+00,3.435225725173950195e+00,3.531791210174560547e+00,3.633942842483520508e+00,3.742178916931152344e+00,3.857061386108398438e+00,3.979204416275024414e+00,4.109326362609863281e+00,4.248246192932128906e+00,4.396887779235839844e+00,4.556307315826416016e+00,4.727722644805908203e+00,4.912539958953857422e+00,5.000000000000000000e+00,5.000000000000000000e+00,5.000000000000000000e+00,5.000000000000000000e+00,5.000000000000000000e+00,5.000000000000000000e+00,5.000000000000000000e+00,5.000000000000000000e+00,5.000000000000000000e+00,5.000000000000000000e+00,5.000000000000000000e+00,5.000000000000000000e+00,5.000000000000000000e+00,5.000000000000000000e+00,5.000000000000000000e+00,5.000000000000000000e+00,5.000000000000000000e+00,5.000000000000000000e+00,5.000000000000000000e+00,5.000000000000000000e+00,5.000000000000000000e+00,5.000000000000000000e+00,5.000000000000000000e+00,5.000000000000000000e+00,5.000000000000000000e+00,5.000000000000000000e+00,5.000000000000000000e+00,5.000000000000000000e+00,5.000000000000000000e+00,5.000000000000000000e+00,4.773537635803222656e+00,4.751831531524658203e+00,4.708420276641845703e+00,4.693691253662109375e+00,4.733087062835693359e+00,4.850158691406250000e+00,5.000000000000000000e+00,5.000000000000000000e+00,5.000000000000000000e+00,5.000000000000000000e+00,5.000000000000000000e+00,5.000000000000000000e+00,5.000000000000000000e+00,5.000000000000000000e+00,5.000000000000000000e+00,5.000000000000000000e+00,5.000000000000000000e+00,5.000000000000000000e+00,5.000000000000000000e+00,5.000000000000000000e+00,5.000000000000000000e+00,5.000000000000000000e+00,5.000000000000000000e+00,5.000000000000000000e+00,4.856595039367675781e+00,4.696933269500732422e+00,4.547435283660888672e+00,4.407160282135009766e+00,4.275280475616455078e+00,4.151064395904541016e+00,4.033862113952636719e+00,3.923096895217895508e+00,3.818251609802246094e+00,3.718864679336547852e+00
3.096526861190795898e+00,3.174756050109863281e+00,3.257040977478027344e+00,3.343704223632812500e+00,3.435105323791503906e+00,3.531662225723266602e+00,3.633806228637695312e+00,3.742034196853637695e+00,3.856907367706298828e+00,3.979056835174560547e+00,4.109196186065673828e+00,4.248122692108154297e+00,4.396755218505859375e+00,4.556165218353271484e+00,4.727569103240966797e+00,4.912374019622802734e+00,5.000000000000000000e+00,5.000000000000000000e+00,5.000000000000000000e+00,5.000000000000000000e+00,5.000000000000000000e+00,5.000000000000000000e+00,5.000000000000000000e+00,5.000000000000000000e+00,5.000000000000000000e+00,5.000000000000000000e+00,5.000000000000000000e+00,5.000000000000000000e+00,5.000000000000000000e+00,5.000000000000000000e+00,5.000000000000000000e+00,5.000000000000000000e+00,5.000000000000000000e+00,5.000000000000000000e+00,5.000000000000000000e+00,5.000000000000000000e+00,5.000000000000000000e+00,5.000000000000000000e+00,5.000000000000000000e+00,5.000000000000000000e+00,5.000000000000000000e+00,5.000000000000000000e+00,5.000000000000000000e+00,5.000000000000000000e+00,5.000000000000000000e+00,5.000000000000000000e+00,4.726753234863281250e+00,4.741608142852783203e+00,4.723350524902343750e+00,4.728985309600830078e+00,4.746708393096923828e+00,4.828832626342773438e+00,5.000000000000000000e+00,5.000000000000000000e+00,5.000000000000000000e+00,5.000000000000000000e+00,5.000000000000000000e+00,5.000000000000000000e+00,5.000000000000000000e+00,5.000000000000000000e+00,5.000000000000000000e+00,5.000000000000000000e+00,5.000000000000000000e+00,5.000000000000000000e+00,5.000000000000000000e+00,5.000000000000000000e+00,5.000000000000000000e+00,5.000000000000000000e+00,5.000000000000000000e+00,5.000000000000000000e+00,4.856725215911865234e+00,4.697054862976074219e+00,4.547549247741699219e+00,4.407267093658447266e+00,4.275381565093994141e+00,4.151159286499023438e+00,4.033951759338378906e+00,3.923181772232055664e+00,3.818331956863403320e+00,3.718940973281860352e+00
3.096460580825805664e+00,3.174686431884765625e+00,3.256967544555664062e+00,3.343626976013183594e+00,3.435024023056030273e+00,3.531558036804199219e+00,3.633674860000610352e+00,3.741889476776123047e+00,3.856753587722778320e+00,3.978893041610717773e+00,4.109021663665771484e+00,4.247949123382568359e+00,4.396600246429443359e+00,4.556022644042968750e+00,4.727416038513183594e+00,4.912208557128906250e+00,5.000000000000000000e+00,5.000000000000000000e+00,5.000000000000000000e+00,5.000000000000000000e+00,5.000000000000000000e+00,5.000000000000000000e+00,5.000000000000000000e+00,5.000000000000000000e+00,5.000000000000000000e+00,5.000000000000000000e+00,5.000000000000000000e+00,5.000000000000000000e+00,5.000000000000000000e+00,5.000000000000000000e+00,5.000000000000000000e+00,5.000000000000000000e+00,5.000000000000000000e+00,5.000000000000000000e+00,5.000000000000000000e+00,5.000000000000000000e+00,5.000000000000000000e+00,5.000000000000000000e+00,5.000000000000000000e+00,5.000000000000000000e+00,5.000000000000000000e+00,5.000000000000000000e+00,5.000000000000000000e+00,5.000000000000000000e+00,5.000000000000000000e+00,5.000000000000000000e+00,4.694820404052734375e+00,4.731408596038818359e+00,4.724953651428222656e+00,4.674915313720703125e+00,4.639929294586181641e+00,4.815027236938476562e+00,5.000000000000000000e+00,5.000000000000000000e+00,5.000000000000000000e+00,5.000000000000000000e+00,5.000000000000000000e+00,5.000000000000000000e+00,5.000000000000000000e+00,5.000000000000000000e+00,5.000000000000000000e+00,5.000000000000000000e+00,5.000000000000000000e+00,5.000000000000000000e+00,5.000000000000000000e+00,5.000000000000000000e+00,5.000000000000000000e+00,5.000000000000000000e+00,5.000000000000000000e+00,5.000000000000000000e+00,4.856855392456054688e+00,4.697176456451416016e+00,4.547663688659667969e+00,4.407374858856201172e+00,4.275482177734375000e+00,4.151254177093505859e+00,4.034041404724121094e+00,3.923266649246215820e+00,3.818412303924560547e+00,3.719017267227172852e+00
3.096394300460815430e+00,3.174617052078247070e+00,3.256894111633300781e+00,3.343549489974975586e+00,3.434942483901977539e+00,3.531471729278564453e+00,3.633583784103393555e+00,3.741776227951049805e+00,3.856609582901000977e+00,3.978729486465454102e+00,4.108847141265869141e+00,4.247762680053710938e+00,4.396400451660156250e+00,4.555817604064941406e+00,4.727231025695800781e+00,4.912042617797851562e+00,5.000000000000000000e+00,5.000000000000000000e+00,5.000000000000000000e+00,5.000000000000000000e+00,5.000000000000000000e+00,5.000000000000000000e+00,5.000000000000000000e+00,5.000000000000000000e+00,5.000000000000000000e+00,5.000000000000000000e+00,5.000000000000000000e+00,5.000000000000000000e+00,5.000000000000000000e+00,5.000000000000000000e+00,5.000000000000000000e+00,5.000000000000000000e+00,5.000000000000000000e+00,5.000000000000000000e+00,5.000000000000000000e+00,5.000000000000000000e+00,5.000000000000000000e+00,5.000000000000000000e+00,5.000000000000000000e+00,5.000000000000000000e+00,5.000000000000000000e+00,5.000000000000000000e+00,5.000000000000000000e+00,5.000000000000000000e+00,5.000000000000000000e+00,5.000000000000000000e+00,4.637067317962646484e+00,4.739881515502929688e+00,4.719423770904541016e+00,4.668926239013671875e+00,4.602568626403808594e+00,4.785446643829345703e+00,5.000000000000000000e+00,5.000000000000000000e+00,5.000000000000000000e+00,5.000000000000000000e+00,5.000000000000000000e+00,5.000000000000000000e+00,5.000000000000000000e+00,5.000000000000000000e+00,5.000000000000000000e+00,5.000000000000000000e+00,5.000000000000000000e+00,5.000000000000000000e+00,5.000000000000000000e+00,5.000000000000000000e+00,5.000000000000000000e+00,5.000000000000000000e+00,5.000000000000000000e+00,5.000000000000000000e+00,4.856985092163085938e+00,4.697298049926757812e+00,4.547777652740478516e+00,4.407481670379638672e+00,4.275583267211914062e+00,4.151349544525146484e+00,4.034131050109863281e+00,3.923351526260375977e+00,3.818492889404296875e+00,3.719093799591064453e+00
3.096328258514404297e+00,3.174547433853149414e+00,3.256820917129516602e+00,3.343472719192504883e+00,3.434860944747924805e+00,3.531385660171508789e+00,3.633492708206176758e+00,3.741679430007934570e+00,3.856507301330566406e+00,3.978605270385742188e+00,4.108687877655029297e+00,4.247576236724853516e+00,4.396200656890869141e+00,4.555603027343750000e+00,4.726999759674072266e+00,4.911798000335693359e+00,5.000000000000000000e+00,5.000000000000000000e+00,5.000000000000000000e+00,5.000000000000000000e+00,5.000000000000000000e+00,5.000000000000000000e+00,5.000000000000000000e+00,5.000000000000000000e+00,5.000000000000000000e+00,5.000000000000000000e+00,5.000000000000000000e+00,5.000000000000000000e+00,5.000000000000000000e+00,5.000000000000000000e+00,5.000000000000000000e+00,5.000000000000000000e+00,5.000000000000000000e+00,5.000000000000000000e+00,5.000000000000000000e+00,5.000000000000000000e+00,5.000000000000000000e+00,5.000000000000000000e+00,5.000000000000000000e+00,5.000000000000000000e+00,5.000000000000000000e+00,5.000000000000000000e+00,5.000000000000000000e+00,5.000000000000000000e+00,5.000000000000000000e+00,5.000000000000000000e+00,4.605915546417236328e+00,4.756720066070556641e+00,4.732959270477294922e+00,4.670781135559082031e+00,4.569030284881591797e+00,5.000000000000000000e+00,5.000000000000000000e+00,5.000000000000000000e+00,5.000000000000000000e+00,5.000000000000000000e+00,5.000000000000000000e+00,5.000000000000000000e+00,5.000000000000000000e+00,5.000000000000000000e+00,5.000000000000000000e+00,5.000000000000000000e+00,5.000000000000000000e+00,5.000000000000000000e+00,5.000000000000000000e+00,5.000000000000000000e+00,5.000000000000000000e+00,5.000000000000000000e+00,5.000000000000000000e+00,5.000000000000000000e+00,4.857115268707275391e+00,4.697420120239257812e+00,4.547891616821289062e+00,4.407588958740234375e+00,4.275683879852294922e+00,4.151444435119628906e+00,4.034221172332763672e+00,3.923439025878906250e+00,3.818578958511352539e+00,3.719177484512329102e+00
3.096261978149414062e+00,3.174477577209472656e+00,3.256747484207153320e+00,3.343395233154296875e+00,3.434779405593872070e+00,3.531299829483032227e+00,3.633401393890380859e+00,3.741582632064819336e+00,3.856404304504394531e+00,3.978495836257934570e+00,4.108571052551269531e+00,4.247439384460449219e+00,4.396023273468017578e+00,4.555388450622558594e+00,4.726768970489501953e+00,4.911548614501953125e+00,5.000000000000000000e+00,5.000000000000000000e+00,5.000000000000000000e+00,5.000000000000000000e+00,5.000000000000000000e+00,5.000000000000000000e+00,5.000000000000000000e+00,5.000000000000000000e+00,5.000000000000000000e+00,5.000000000000000000e+00,5.000000000000000000e+00,5.000000000000000000e+00,5.000000000000000000e+00,5.000000000000000000e+00,5.000000000000000000e+00,5.000000000000000000e+00,5.000000000000000000e+00,5.000000000000000000e+00,5.000000000000000000e+00,5.000000000000000000e+00,5.000000000000000000e+00,5.000000000000000000e+00,5.000000000000000000e+00,5.000000000000000000e+00,5.000000000000000000e+00,5.000000000000000000e+00,5.000000000000000000e+00,5.000000000000000000e+00,5.000000000000000000e+00,5.000000000000000000e+00,5.000000000000000000e+00,4.827057361602783203e+00,4.742536067962646484e+00,5.000000000000000000e+00,4.532239913940429688e+00,5.000000000000000000e+00,5.000000000000000000e+00,5.000000000000000000e+00,5.000000000000000000e+00,5.000000000000000000e+00,5.000000000000000000e+00,5.000000000000000000e+00,5.000000000000000000e+00,5.000000000000000000e+00,5.000000000000000000e+00,5.000000000000000000e+00,5.000000000000000000e+00,5.000000000000000000e+00,5.000000000000000000e+00,5.000000000000000000e+00,5.000000000000000000e+00,5.000000000000000000e+00,5.000000000000000000e+00,5.000000000000000000e+00,4.857245445251464844e+00,4.697541713714599609e+00,4.548005580902099609e+00,4.407695770263671875e+00,4.275786876678466797e+00,4.151544570922851562e+00,4.034319400787353516e+00,3.923532247543334961e+00,3.818667173385620117e+00,3.719261169433593750e+00
3.096195697784423828e+00,3.174407958984375000e+00,3.256674528121948242e+00,3.343317985534667969e+00,3.434697866439819336e+00,3.531213521957397461e+00,3.633310079574584961e+00,3.741486310958862305e+00,3.856301546096801758e+00,3.978386402130126953e+00,4.108454704284667969e+00,4.247314929962158203e+00,4.395889759063720703e+00,4.555235862731933594e+00,4.726569652557373047e+00,4.911299228668212891e+00,5.000000000000000000e+00,5.000000000000000000e+00,5.000000000000000000e+00,5.000000000000000000e+00,5.000000000000000000e+00,5.000000000000000000e+00,5.000000000000000000e+00,5.000000000000000000e+00,5.000000000000000000e+00,5.000000000000000000e+00,5.000000000000000000e+00,5.000000000000000000e+00,5.000000000000000000e+00,5.000000000000000000e+00,5.000000000000000000e+00,5.000000000000000000e+00,5.000000000000000000e+00,5.000000000000000000e+00,5.000000000000000000e+00,5.000000000000000000e+00,5.000000000000000000e+00,5.000000000000000000e+00,5.000000000000000000e+00,5.000000000000000000e+00,5.000000000000000000e+00,5.000000000000000000e+00,5.000000000000000000e+00,5.000000000000000000e+00,5.000000000000000000e+00,5.000000000000000000e+00,5.000000000000000000e+00,5.000000000000000000e+00,4.751178741455078125e+00,5.000000000000000000e+00,4.549798965454101562e+00,5.000000000000000000e+00,5.000000000000000000e+00,5.000000000000000000e+00,5.000000000000000000e+00,5.000000000000000000e+00,5.000000000000000000e+00,5.000000000000000000e+00,5.000000000000000000e+00,5.000000000000000000e+00,5.000000000000000000e+00,5.000000000000000000e+00,5.000000000000000000e+00,5.000000000000000000e+00,5.000000000000000000e+00,5.000000000000000000e+00,5.000000000000000000e+00,5.000000000000000000e+00,5.000000000000000000e+00,5.000000000000000000e+00,4.857376098632812500e+00,4.697664260864257812e+00,4.548124790191650391e+00,4.407811641693115234e+00,4.275897502899169922e+00,4.151648998260498047e+00,4.034417629241943359e+00,3.923625469207763672e+00,3.818755388259887695e+00,3.719344854354858398e+00
3.096129417419433594e+00,3.174338340759277344e+00,3.256601095199584961e+00,3.343240737915039062e+00,3.434616565704345703e+00,3.531127214431762695e+00,3.633218765258789062e+00,3.741389513015747070e+00,3.856198787689208984e+00,3.978276968002319336e+00,4.108337879180908203e+00,4.247189998626708984e+00,4.395756244659423828e+00,4.555092811584472656e+00,4.726415157318115234e+00,4.911128520965576172e+00,5.000000000000000000e+00,5.000000000000000000e+00,5.000000000000000000e+00,5.000000000000000000e+00,5.000000000000000000e+00,5.000000000000000000e+00,5.000000000000000000e+00,5.000000000000000000e+00,5.000000000000000000e+00,5.000000000000000000e+00,5.000000000000000000e+00,5.000000000000000000e+00,5.000000000000000000e+00,5.000000000000000000e+00,5.000000000000000000e+00,5.000000000000000000e+00,5.000000000000000000e+00,5.000000000000000000e+00,5.000000000000000000e+00,5.000000000000000000e+00,5.000000000000000000e+00,5.000000000000000000e+00,5.000000000000000000e+00,5.000000000000000000e+00,5.000000000000000000e+00,5.000000000000000000e+00,5.000000000000000000e+00,5.000000000000000000e+00,5.000000000000000000e+00,5.000000000000000000e+00,5.000000000000000000e+00,5.000000000000000000e+00,4.802532196044921875e+00,5.000000000000000000e+00,4.595045089721679688e+00,5.000000000000000000e+00,5.000000000000000000e+00,5.000000000000000000e+00,5.000000000000000000e+00,5.000000000000000000e+00,5.000000000000000000e+00,5.000000000000000000e+00,5.000000000000000000e+00,5.000000000000000000e+00,5.000000000000000000e+00,5.000000000000000000e+00,5.000000000000000000e+00,5.000000000000000000e+00,5.000000000000000000e+00,5.000000000000000000e+00,5.000000000000000000e+00,5.000000000000000000e+00,5.000000000000000000e+00,5.000000000000000000e+00,4.857514858245849609e+00,4.697797775268554688e+00,4.548250198364257812e+00,4.407929420471191406e+00,4.276008129119873047e+00,4.151753425598144531e+00,4.034516334533691406e+00,3.923718452453613281e+00,3.818843603134155273e+00,3.719428777694702148e+00
3.096063137054443359e+00,3.174268960952758789e+00,3.256527900695800781e+00,3.343163490295410156e+00,3.434535026550292969e+00,3.531041145324707031e+00,3.633127927780151367e+00,3.741292715072631836e+00,3.856096029281616211e+00,3.978168010711669922e+00,4.108221530914306641e+00,4.247065067291259766e+00,4.395622730255126953e+00,4.554949283599853516e+00,4.726260662078857422e+00,4.910961627960205078e+00,5.000000000000000000e+00,5.000000000000000000e+00,5.000000000000000000e+00,5.000000000000000000e+00,5.000000000000000000e+00,5.000000000000000000e+00,5.000000000000000000e+00,5.000000000000000000e+00,5.000000000000000000e+00,5.000000000000000000e+00,5.000000000000000000e+00,5.000000000000000000e+00,5.000000000000000000e+00,5.000000000000000000e+00,5.000000000000000000e+00,5.000000000000000000e+00,5.000000000000000000e+00,5.000000000000000000e+00,5.000000000000000000e+00,5.000000000000000000e+00,5.000000000000000000e+00,5.000000000000000000e+00,5.000000000000000000e+00,5.000000000000000000e+00,5.000000000000000000e+00,5.000000000000000000e+00,5.000000000000000000e+00,5.000000000000000000e+00,5.000000000000000000e+00,5.000000000000000000e+00,5.000000000000000000e+00,5.000000000000000000e+00,4.858105182647705078e+00,5.000000000000000000e+00,4.608839988708496094e+00,5.000000000000000000e+00,5.000000000000000000e+00,5.000000000000000000e+00,5.000000000000000000e+00,5.000000000000000000e+00,5.000000000000000000e+00,5.000000000000000000e+00,5.000000000000000000e+00,5.000000000000000000e+00,5.000000000000000000e+00,5.000000000000000000e+00,5.000000000000000000e+00,5.000000000000000000e+00,5.000000000000000000e+00,5.000000000000000000e+00,5.000000000000000000e+00,5.000000000000000000e+00,5.000000000000000000e+00,5.000000000000000000e+00,4.857657432556152344e+00,4.697931289672851562e+00,4.548374652862548828e+00,4.408046722412109375e+00,4.276118755340576172e+00,4.151857376098632812e+00,4.034614562988281250e+00,3.923811674118041992e+00,3.818931818008422852e+00,3.719512462615966797e+00
3.095996856689453125e+00,3.174199342727661133e+00,3.256454467773437500e+00,3.343086481094360352e+00,3.434453487396240234e+00,3.530955076217651367e+00,3.633036613464355469e+00,3.741195917129516602e+00,3.855993032455444336e+00,3.978058576583862305e+00,4.108104705810546875e+00,4.246941089630126953e+00,4.395489215850830078e+00,4.554806232452392578e+00,4.726106643676757812e+00,4.910795211791992188e+00,5.000000000000000000e+00,5.000000000000000000e+00,5.000000000000000000e+00,5.000000000000000000e+00,5.000000000000000000e+00,5.000000000000000000e+00,5.000000000000000000e+00,5.000000000000000000e+00,5.000000000000000000e+00,5.000000000000000000e+00,5.000000000000000000e+00,5.000000000000000000e+00,5.000000000000000000e+00,5.000000000000000000e+00,5.000000000000000000e+00,5.000000000000000000e+00,5.000000000000000000e+00,5.000000000000000000e+00,5.000000000000000000e+00,5.000000000000000000e+00,5.000000000000000000e+00,5.000000000000000000e+00,5.000000000000000000e+00,5.000000000000000000e+00,5.000000000000000000e+00,5.000000000000000000e+00,5.000000000000000000e+00,5.000000000000000000e+00,5.000000000000000000e+00,5.000000000000000000e+00,5.000000000000000000e+00,5.000000000000000000e+00,4.884030342102050781e+00,5.000000000000000000e+00,4.622475147247314453e+00,5.000000000000000000e+00,5.000000000000000000e+00,5.000000000000000000e+00,5.000000000000000000e+00,5.000000000000000000e+00,5.000000000000000000e+00,5.000000000000000000e+00,5.000000000000000000e+00,5.000000000000000000e+00,5.000000000000000000e+00,5.000000000000000000e+00,5.000000000000000000e+00,5.000000000000000000e+00,5.000000000000000000e+00,5.000000000000000000e+00,5.000000000000000000e+00,5.000000000000000000e+00,5.000000000000000000e+00,5.000000000000000000e+00,4.857800483703613281e+00,4.698064804077148438e+00,4.548500537872314453e+00,4.408164501190185547e+00,4.276229381561279297e+00,4.151961803436279297e+00,4.034713268280029297e+00,3.923904895782470703e+00,3.819020032882690430e+00,3.719596147537231445e+00
3.095930814743041992e+00,3.174129724502563477e+00,3.256381273269653320e+00,3.343009233474731445e+00,3.434371948242187500e+00,3.530869245529174805e+00,3.632945299148559570e+00,3.741099357604980469e+00,3.855890750885009766e+00,3.977949142456054688e+00,4.107987880706787109e+00,4.246816158294677734e+00,4.395355701446533203e+00,4.554662704467773438e+00,4.725952148437500000e+00,4.910628318786621094e+00,5.000000000000000000e+00,5.000000000000000000e+00,5.000000000000000000e+00,5.000000000000000000e+00,5.000000000000000000e+00,5.000000000000000000e+00,5.000000000000000000e+00,5.000000000000000000e+00,5.000000000000000000e+00,5.000000000000000000e+00,5.000000000000000000e+00,5.000000000000000000e+00,5.000000000000000000e+00,5.000000000000000000e+00,5.000000000000000000e+00,5.000000000000000000e+00,5.000000000000000000e+00,5.000000000000000000e+00,5.000000000000000000e+00,5.000000000000000000e+00,5.000000000000000000e+00,5.000000000000000000e+00,5.000000000000000000e+00,5.000000000000000000e+00,5.000000000000000000e+00,5.000000000000000000e+00,5.000000000000000000e+00,5.000000000000000000e+00,5.000000000000000000e+00,5.000000000000000000e+00,5.000000000000000000e+00,5.000000000000000000e+00,4.918230533599853516e+00,5.000000000000000000e+00,4.637520313262939453e+00,5.000000000000000000e+00,5.000000000000000000e+00,5.000000000000000000e+00,5.000000000000000000e+00,5.000000000000000000e+00,5.000000000000000000e+00,5.000000000000000000e+00,5.000000000000000000e+00,5.000000000000000000e+00,5.000000000000000000e+00,5.000000000000000000e+00,5.000000000000000000e+00,5.000000000000000000e+00,5.000000000000000000e+00,5.000000000000000000e+00,5.000000000000000000e+00,5.000000000000000000e+00,5.000000000000000000e+00,5.000000000000000000e+00,4.857943058013916016e+00,4.698198318481445312e+00,4.548624992370605469e+00,4.408281803131103516e+00,4.276340007781982422e+00,4.152066230773925781e+00,4.034811496734619141e+00,3.923997879028320312e+00,3.819108247756958008e+00,3.719679832458496094e+00
3.095864534378051758e+00,3.174059867858886719e+00,3.256308317184448242e+00,3.342931985855102539e+00,3.434290409088134766e+00,3.530782938003540039e+00,3.632854223251342773e+00,3.741002559661865234e+00,3.855787992477416992e+00,3.977839708328247070e+00,4.107871532440185547e+00,4.246691226959228516e+00,4.395222187042236328e+00,4.554519653320312500e+00,4.725798130035400391e+00,4.910461902618408203e+00,5.000000000000000000e+00,5.000000000000000000e+00,5.000000000000000000e+00,5.000000000000000000e+00,5.000000000000000000e+00,5.000000000000000000e+00,5.000000000000000000e+00,5.000000000000000000e+00,5.000000000000000000e+00,5.000000000000000000e+00,5.000000000000000000e+00,5.000000000000000000e+00,5.000000000000000000e+00,5.000000000000000000e+00,5.000000000000000000e+00,5.000000000000000000e+00,5.000000000000000000e+00,5.000000000000000000e+00,5.000000000000000000e+00,5.000000000000000000e+00,5.000000000000000000e+00,5.000000000000000000e+00,5.000000000000000000e+00,5.000000000000000000e+00,5.000000000000000000e+00,5.000000000000000000e+00,5.000000000000000000e+00,5.000000000000000000e+00,5.000000000000000000e+00,5.000000000000000000e+00,5.000000000000000000e+00,5.000000000000000000e+00,4.944758415222167969e+00,5.000000000000000000e+00,4.628520011901855469e+00,5.000000000000000000e+00,5.000000000000000000e+00,5.000000000000000000e+00,5.000000000000000000e+00,5.000000000000000000e+00,5.000000000000000000e+00,5.000000000000000000e+00,5.000000000000000000e+00,5.000000000000000000e+00,5.000000000000000000e+00,5.000000000000000000e+00,5.000000000000000000e+00,5.000000000000000000e+00,5.000000000000000000e+00,5.000000000000000000e+00,5.000000000000000000e+00,5.000000000000000000e+00,5.000000000000000000e+00,5.000000000000000000e+00,4.858085632324218750e+00,4.698331832885742188e+00,4.548750877380371094e+00,4.408399581909179688e+00,4.276450634002685547e+00,4.152170181274414062e+00,4.034910202026367188e+00,3.924091100692749023e+00,3.819196462631225586e+00,3.719763517379760742e+00
3.095798254013061523e+00,3.173990249633789062e+00,3.256234884262084961e+00,3.342854738235473633e+00,3.434209108352661133e+00,3.530696868896484375e+00,3.632762908935546875e+00,3.740906238555908203e+00,3.855685234069824219e+00,3.977730512619018555e+00,4.107755184173583984e+00,4.246567249298095703e+00,4.395089149475097656e+00,4.554376125335693359e+00,4.725643634796142578e+00,4.854160785675048828e+00,4.852956295013427734e+00,4.851753234863281250e+00,4.850549697875976562e+00,4.849347114562988281e+00,4.848145484924316406e+00,4.846944332122802734e+00,4.845743656158447266e+00,4.844543457031250000e+00,4.843344211578369141e+00,4.842144966125488281e+00,4.840947151184082031e+00,4.839748859405517578e+00,4.838551998138427734e+00,4.837355613708496094e+00,4.836159229278564453e+00,4.834964275360107422e+00,4.833769321441650391e+00,4.832575321197509766e+00,4.831381320953369141e+00,4.830188751220703125e+00,4.828996181488037109e+00,4.827804565429687500e+00,4.826613426208496094e+00,4.825422763824462891e+00,4.824232578277587891e+00,4.823043346405029297e+00,4.821854114532470703e+00,4.820666313171386719e+00,4.819478511810302734e+00,4.818291187286376953e+00,4.817104816436767578e+00,4.815918922424316406e+00,4.814733028411865234e+00,4.813548564910888672e+00,4.812364578247070312e+00,4.811180591583251953e+00,4.809998035430908203e+00,4.808815479278564453e+00,4.807633399963378906e+00,4.806452274322509766e+00,4.805271625518798828e+00,4.804090976715087891e+00,4.802911758422851562e+00,4.801732540130615234e+00,4.800554275512695312e+00,4.799376487731933594e+00,4.798199176788330078e+00,4.797022342681884766e+00,4.795846939086914062e+00,4.794671058654785156e+00,4.793496131896972656e+00,4.792322158813476562e+00,4.791148185729980469e+00,4.789974689483642578e+00,4.788802623748779297e+00,4.698465347290039062e+00,4.548875331878662109e+00,4.408517360687255859e+00,4.276561260223388672e+00,4.152274608612060547e+00,4.035008430480957031e+00,3.924184322357177734e+00,3.819284677505493164e+00,3.719847202301025391e+00
3.095731973648071289e+00,3.173920869827270508e+00,3.256161689758300781e+00,3.342777490615844727e+00,3.434127569198608398e+00,3.530610561370849609e+00,3.632671594619750977e+00,3.740809440612792969e+00,3.770682811737060547e+00,3.769956588745117188e+00,3.769229888916015625e+00,3.768503904342651367e+00,3.767777919769287109e+00,3.767052412033081055e+00,3.766327142715454102e+00,3.765602350234985352e+00,3.764877319335937500e+00,3.764153003692626953e+00,3.763428926467895508e+00,3.762704849243164062e+00,3.761981248855590820e+00,3.761258125305175781e+00,3.760534763336181641e+00,3.759812116622924805e+00,3.759089708328247070e+00,3.758367300033569336e+00,3.757645368576049805e+00,3.756923913955688477e+00,3.756202220916748047e+00,3.755481243133544922e+00,3.754760503768920898e+00,3.754039525985717773e+00,3.753319501876831055e+00,3.752599477767944336e+00,3.751879453659057617e+00,3.751160144805908203e+00,3.750441074371337891e+00,3.749722003936767578e+00,3.749003410339355469e+00,3.748285293579101562e+00,3.747566699981689453e+00,3.746849060058593750e+00,3.746131658554077148e+00,3.745414257049560547e+00,3.744697332382202148e+00,3.743980646133422852e+00,3.743263959884643555e+00,3.742547988891601562e+00,3.741832256317138672e+00,3.741116285324096680e+00,3.740401268005371094e+00,3.739686250686645508e+00,3.738971233367919922e+00,3.738256931304931641e+00,3.737542629241943359e+00,3.736828327178955078e+00,3.736114740371704102e+00,3.735401630401611328e+00,3.734688043594360352e+00,3.733975410461425781e+00,3.733262777328491211e+00,3.732550144195556641e+00,3.731838226318359375e+00,3.731126546859741211e+00,3.730414867401123047e+00,3.729703664779663086e+00,3.728992938995361328e+00,3.728281736373901367e+00,3.727571487426757812e+00,3.726861476898193359e+00,3.726151227951049805e+00,3.725441694259643555e+00,3.724732637405395508e+00,3.724023103713989258e+00,3.723314523696899414e+00,3.722605943679809570e+00,3.721897363662719727e+00,3.721189498901367188e+00,3.720481872558593750e+00,3.719774246215820312e+00
3.083109617233276367e+00,3.082623958587646484e+00,3.082138061523437500e+00,3.081652402877807617e+00,3.081166982650756836e+00,3.080681562423706055e+00,3.080196619033813477e+00,3.079711437225341797e+00,3.079226732254028320e+00,3.078742027282714844e+00,3.078257560729980469e+00,3.077773094177246094e+00,3.077288627624511719e+00,3.076804637908935547e+00,3.076321125030517578e+00,3.075837373733520508e+00,3.075353860855102539e+00,3.074870586395263672e+00,3.074387073516845703e+00,3.073904037475585938e+00,3.073421239852905273e+00,3.072938203811645508e+00,3.072455644607543945e+00,3.071973085403442383e+00,3.071490526199340820e+00,3.071008443832397461e+00,3.070526599884033203e+00,3.070044517517089844e+00,3.069562911987304688e+00,3.069081306457519531e+00,3.068599700927734375e+00,3.068118572235107422e+00,3.067637443542480469e+00,3.067156314849853516e+00,3.066675424575805664e+00,3.066195011138916016e+00,3.065714359283447266e+00,3.065233945846557617e+00,3.064753770828247070e+00,3.064273595809936523e+00,3.063793659210205078e+00,3.063313961029052734e+00,3.062834262847900391e+00,3.062354803085327148e+00,3.061875581741333008e+00,3.061396121978759766e+00,3.060917139053344727e+00,3.060438394546508789e+00,3.059959411621093750e+00,3.059480905532836914e+00,3.059002637863159180e+00,3.058524131774902344e+00,3.058046102523803711e+00,3.057568311691284180e+00,3.057090282440185547e+00,3.056612491607666016e+00,3.056135177612304688e+00,3.055657625198364258e+00,3.055180311203002930e+00,3.054703474044799805e+00,3.054226160049438477e+00,3.053749561309814453e+00,3.053272962570190430e+00,3.052796363830566406e+00,3.052320003509521484e+00,3.051843881607055664e+00,3.051367759704589844e+00,3.050891876220703125e+00,3.050416231155395508e+00,3.049940347671508789e+00,3.049464941024780273e+00,3.048989772796630859e+00,3.048514366149902344e+00,3.048039674758911133e+00,3.047564744949340820e+00,3.047090291976928711e+00,3.046615362167358398e+00,3.046141147613525391e+00,3.045666933059692383e+00,3.045192718505859375e+00
2.604839801788330078e+00,2.604492902755737305e+00,2.604146242141723633e+00,2.603799581527709961e+00,2.603452920913696289e+00,2.603106498718261719e+00,2.602759838104248047e+00,2.602413654327392578e+00,2.602067470550537109e+00,2.601721286773681641e+00,2.601375341415405273e+00,2.601029396057128906e+00,2.600683450698852539e+00,2.600337743759155273e+00,2.599992036819458008e+00,2.599646329879760742e+00,2.599301099777221680e+00,2.598955631256103516e+00,2.598610401153564453e+00,2.598265171051025391e+00,2.597920179367065430e+00,2.597575426101684570e+00,2.597230434417724609e+00,2.596885681152343750e+00,2.596540927886962891e+00,2.596196413040161133e+00,2.595851659774780273e+00,2.595507383346557617e+00,2.595163106918334961e+00,2.594818830490112305e+00,2.594474554061889648e+00,2.594130754470825195e+00,2.593786478042602539e+00,2.593442678451538086e+00,2.593099117279052734e+00,2.592755079269409180e+00,2.592411518096923828e+00,2.592068195343017578e+00,2.591724634170532227e+00,2.591381311416625977e+00,2.591038227081298828e+00,2.590694904327392578e+00,2.590351819992065430e+00,2.590008974075317383e+00,2.589665889739990234e+00,2.589323282241821289e+00,2.588980674743652344e+00,2.588637828826904297e+00,2.588295459747314453e+00,2.587953090667724609e+00,2.587610721588134766e+00,2.587268352508544922e+00,2.586926460266113281e+00,2.586584329605102539e+00,2.586242198944091797e+00,2.585900545120239258e+00,2.585558652877807617e+00,2.585216999053955078e+00,2.584875345230102539e+00,2.584533929824829102e+00,2.584192276000976562e+00,2.583851099014282227e+00,2.583509922027587891e+00,2.583168506622314453e+00,2.582827568054199219e+00,2.582486629486083984e+00,2.582145690917968750e+00,2.581804990768432617e+00,2.581464290618896484e+00,2.581123590469360352e+00,2.580783128738403320e+00,2.580442667007446289e+00,2.580102205276489258e+00,2.579761981964111328e+00,2.579421758651733398e+00,2.579081535339355469e+00,2.578741788864135742e+00,2.578401803970336914e+00,2.578061819076538086e+00,2.577722311019897461e+00
2.255026817321777344e+00,2.254766941070556641e+00,2.254507064819335938e+00,2.254247188568115234e+00,2.253987312316894531e+00,2.253727674484252930e+00,2.253468036651611328e+00,2.253208398818969727e+00,2.252948999404907227e+00,2.252689361572265625e+00,2.252429962158203125e+00,2.252170562744140625e+00,2.251911401748657227e+00,2.251652002334594727e+00,2.251393079757690430e+00,2.251133918762207031e+00,2.250874757766723633e+00,2.250615835189819336e+00,2.250356674194335938e+00,2.250097990036010742e+00,2.249839067459106445e+00,2.249580383300781250e+00,2.249321699142456055e+00,2.249063014984130859e+00,2.248804330825805664e+00,2.248546123504638672e+00,2.248287677764892578e+00,2.248029470443725586e+00,2.247771024703979492e+00,2.247512817382812500e+00,2.247254610061645508e+00,2.246996641159057617e+00,2.246738433837890625e+00,2.246480464935302734e+00,2.246222257614135742e+00,2.245964527130126953e+00,2.245706796646118164e+00,2.245448827743530273e+00,2.245191097259521484e+00,2.244933366775512695e+00,2.244675874710083008e+00,2.244418382644653320e+00,2.244160890579223633e+00,2.243903398513793945e+00,2.243645906448364258e+00,2.243388652801513672e+00,2.243131637573242188e+00,2.242874145507812500e+00,2.242617130279541016e+00,2.242360115051269531e+00,2.242103099822998047e+00,2.241846084594726562e+00,2.241589307785034180e+00,2.241332292556762695e+00,2.241075515747070312e+00,2.240818977355957031e+00,2.240562200546264648e+00,2.240305662155151367e+00,2.240049123764038086e+00,2.239792585372924805e+00,2.239536046981811523e+00,2.239279747009277344e+00,2.239023447036743164e+00,2.238767147064208984e+00,2.238511085510253906e+00,2.238254785537719727e+00,2.237998723983764648e+00,2.237742900848388672e+00,2.237486839294433594e+00,2.237231016159057617e+00,2.236975193023681641e+00,2.236719369888305664e+00,2.236463546752929688e+00,2.236207962036132812e+00,2.235952377319335938e+00,2.235696792602539062e+00,2.235441207885742188e+00,2.235185861587524414e+00,2.234930515289306641e+00,2.234675168991088867e+00
1.988045573234558105e+00,1.987843394279479980e+00,1.987641334533691406e+00,1.987439393997192383e+00,1.987237572669982910e+00,1.987035632133483887e+00,1.986833810806274414e+00,1.986631870269775391e+00,1.986430287361145020e+00,1.986228585243225098e+00,1.986026883125305176e+00,1.985825181007385254e+00,1.985623478889465332e+00,1.985422134399414062e+00,1.985220551490783691e+00,1.985019087791442871e+00,1.984817504882812500e+00,1.984616160392761230e+00,1.984414935111999512e+00,1.984213590621948242e+00,1.984012246131896973e+00,1.983810901641845703e+00,1.983609914779663086e+00,1.983408689498901367e+00,1.983207583427429199e+00,1.983006477355957031e+00,1.982805371284484863e+00,1.982604622840881348e+00,1.982403635978698730e+00,1.982202649116516113e+00,1.982002139091491699e+00,1.981801271438598633e+00,1.981600403785705566e+00,1.981399893760681152e+00,1.981199145317077637e+00,1.980998396873474121e+00,1.980798006057739258e+00,1.980597376823425293e+00,1.980396747589111328e+00,1.980196475982666016e+00,1.979995965957641602e+00,1.979795455932617188e+00,1.979595303535461426e+00,1.979394912719726562e+00,1.979194521903991699e+00,1.978994369506835938e+00,1.978794097900390625e+00,1.978593945503234863e+00,1.978393912315368652e+00,1.978193759918212891e+00,1.977993726730346680e+00,1.977793812751770020e+00,1.977593898773193359e+00,1.977393865585327148e+00,1.977194190025329590e+00,1.976994276046752930e+00,1.976794362068176270e+00,1.976594805717468262e+00,1.976395010948181152e+00,1.976195216178894043e+00,1.975995779037475586e+00,1.975796103477478027e+00,1.975596547126770020e+00,1.975397109985351562e+00,1.975197553634643555e+00,1.974998116493225098e+00,1.974798917770385742e+00,1.974599480628967285e+00,1.974400043487548828e+00,1.974200963973999023e+00,1.974001646041870117e+00,1.973802328109741211e+00,1.973603367805480957e+00,1.973404169082641602e+00,1.973205089569091797e+00,1.973006248474121094e+00,1.972807168960571289e+00,1.972608089447021484e+00,1.972409367561340332e+00,1.972210407257080078e+00
1.777589797973632812e+00,1.777428269386291504e+00,1.777266621589660645e+00,1.777105093002319336e+00,1.776943683624267578e+00,1.776782393455505371e+00,1.776620984077453613e+00,1.776459574699401855e+00,1.776298165321350098e+00,1.776136994361877441e+00,1.775975704193115234e+00,1.775814414024353027e+00,1.775653123855590820e+00,1.775491952896118164e+00,1.775330901145935059e+00,1.775169730186462402e+00,1.775008559226989746e+00,1.774847507476806641e+00,1.774686574935913086e+00,1.774525523185729980e+00,1.774364471435546875e+00,1.774203538894653320e+00,1.774042606353759766e+00,1.773881793022155762e+00,1.773720860481262207e+00,1.773560047149658203e+00,1.773399114608764648e+00,1.773238301277160645e+00,1.773077726364135742e+00,1.772917032241821289e+00,1.772756218910217285e+00,1.772595524787902832e+00,1.772435069084167480e+00,1.772274374961853027e+00,1.772113800048828125e+00,1.771953225135803223e+00,1.771793007850646973e+00,1.771632432937622070e+00,1.771472215652465820e+00,1.771311640739440918e+00,1.771151185035705566e+00,1.770990967750549316e+00,1.770830631256103516e+00,1.770670294761657715e+00,1.770510077476501465e+00,1.770349860191345215e+00,1.770189523696899414e+00,1.770029544830322266e+00,1.769869327545166016e+00,1.769709110260009766e+00,1.769549131393432617e+00,1.769389033317565918e+00,1.769228935241699219e+00,1.769069075584411621e+00,1.768908977508544922e+00,1.768748998641967773e+00,1.768589138984680176e+00,1.768429279327392578e+00,1.768269300460815430e+00,1.768109560012817383e+00,1.767949700355529785e+00,1.767789959907531738e+00,1.767630338668823242e+00,1.767470479011535645e+00,1.767310738563537598e+00,1.767151236534118652e+00,1.766991615295410156e+00,1.766831874847412109e+00,1.766672492027282715e+00,1.766512870788574219e+00,1.766353249549865723e+00,1.766193866729736328e+00,1.766034364700317383e+00,1.765874862670898438e+00,1.765715599060058594e+00,1.765556216239929199e+00,1.765396833419799805e+00,1.765237689018249512e+00,1.765078306198120117e+00,1.764919042587280273e+00
1.607426404953002930e+00,1.607294440269470215e+00,1.607162356376647949e+00,1.607030272483825684e+00,1.606898188591003418e+00,1.606766223907470703e+00,1.606634378433227539e+00,1.606502294540405273e+00,1.606370329856872559e+00,1.606238365173339844e+00,1.606106638908386230e+00,1.605974674224853516e+00,1.605842828750610352e+00,1.605710983276367188e+00,1.605579137802124023e+00,1.605447411537170410e+00,1.605315685272216797e+00,1.605183839797973633e+00,1.605052113533020020e+00,1.604920506477355957e+00,1.604788780212402344e+00,1.604657053947448730e+00,1.604525446891784668e+00,1.604393720626831055e+00,1.604262351989746094e+00,1.604130744934082031e+00,1.603999137878417969e+00,1.603867530822753906e+00,1.603736162185668945e+00,1.603604674339294434e+00,1.603473067283630371e+00,1.603341698646545410e+00,1.603210210800170898e+00,1.603078961372375488e+00,1.602947473526000977e+00,1.602816104888916016e+00,1.602684736251831055e+00,1.602553367614746094e+00,1.602422237396240234e+00,1.602290868759155273e+00,1.602159619331359863e+00,1.602028608322143555e+00,1.601897358894348145e+00,1.601766347885131836e+00,1.601635098457336426e+00,1.601503968238830566e+00,1.601372957229614258e+00,1.601241827011108398e+00,1.601110696792602539e+00,1.600979804992675781e+00,1.600848674774169922e+00,1.600717663764953613e+00,1.600586771965026855e+00,1.600455760955810547e+00,1.600324869155883789e+00,1.600193977355957031e+00,1.600063085556030273e+00,1.599932074546813965e+00,1.599801301956176758e+00,1.599670529365539551e+00,1.599539637565612793e+00,1.599408984184265137e+00,1.599278092384338379e+00,1.599147319793701172e+00,1.599016785621643066e+00,1.598886013031005859e+00,1.598755240440368652e+00,1.598624706268310547e+00,1.598494052886962891e+00,1.598363399505615234e+00,1.598232865333557129e+00,1.598102211952209473e+00,1.597971677780151367e+00,1.597841262817382812e+00,1.597710728645324707e+00,1.597580194473266602e+00,1.597449779510498047e+00,1.597319245338439941e+00,1.597188830375671387e+00,1.597058534622192383e+00
1.466995477676391602e+00,1.466885447502136230e+00,1.466775536537170410e+00,1.466665506362915039e+00,1.466555476188659668e+00,1.466445565223693848e+00,1.466335654258728027e+00,1.466225743293762207e+00,1.466115832328796387e+00,1.466005921363830566e+00,1.465896010398864746e+00,1.465786218643188477e+00,1.465676307678222656e+00,1.465566515922546387e+00,1.465456604957580566e+00,1.465346813201904297e+00,1.465237140655517578e+00,1.465127348899841309e+00,1.465017557144165039e+00,1.464907884597778320e+00,1.464798212051391602e+00,1.464688539505004883e+00,1.464578866958618164e+00,1.464469075202941895e+00,1.464359402656555176e+00,1.464249968528747559e+00,1.464140295982360840e+00,1.464030623435974121e+00,1.463921070098876953e+00,1.463811635971069336e+00,1.463701963424682617e+00,1.463592410087585449e+00,1.463482856750488281e+00,1.463373422622680664e+00,1.463263988494873047e+00,1.463154554367065430e+00,1.463045001029968262e+00,1.462935566902160645e+00,1.462826251983642578e+00,1.462716817855834961e+00,1.462607383728027344e+00,1.462498068809509277e+00,1.462388634681701660e+00,1.462279438972473145e+00,1.462170124053955078e+00,1.462060809135437012e+00,1.461951494216918945e+00,1.461842417716979980e+00,1.461733222007751465e+00,1.461624026298522949e+00,1.461514711380004883e+00,1.461405634880065918e+00,1.461296439170837402e+00,1.461187243461608887e+00,1.461078166961669922e+00,1.460969090461730957e+00,1.460859894752502441e+00,1.460750937461853027e+00,1.460641741752624512e+00,1.460532665252685547e+00,1.460423707962036133e+00,1.460314631462097168e+00,1.460205554962158203e+00,1.460096716880798340e+00,1.459987640380859375e+00,1.459878683090209961e+00,1.459769845008850098e+00,1.459660887718200684e+00,1.459551930427551270e+00,1.459443092346191406e+00,1.459334135055541992e+00,1.459225296974182129e+00,1.459116458892822266e+00,1.459007620811462402e+00,1.458898782730102539e+00,1.458790063858032227e+00,1.458681225776672363e+00,1.458572387695312500e+00,1.458463788032531738e+00,1.458354949951171875e+00
1.349130272865295410e+00,1.349037170410156250e+00,1.348944067955017090e+00,1.348851203918457031e+00,1.348758101463317871e+00,1.348665118217468262e+00,1.348572134971618652e+00,1.348479151725769043e+00,1.348386168479919434e+00,1.348293185234069824e+00,1.348200321197509766e+00,1.348107337951660156e+00,1.348014473915100098e+00,1.347921609878540039e+00,1.347828626632690430e+00,1.347735762596130371e+00,1.347643017768859863e+00,1.347550153732299805e+00,1.347457289695739746e+00,1.347364425659179688e+00,1.347271561622619629e+00,1.347178936004638672e+00,1.347086071968078613e+00,1.346993327140808105e+00,1.346900582313537598e+00,1.346807718276977539e+00,1.346715092658996582e+00,1.346622347831726074e+00,1.346529603004455566e+00,1.346436858177185059e+00,1.346344351768493652e+00,1.346251606941223145e+00,1.346158981323242188e+00,1.346066236495971680e+00,1.345973610877990723e+00,1.345881104469299316e+00,1.345788478851318359e+00,1.345695853233337402e+00,1.345603227615356445e+00,1.345510721206665039e+00,1.345418214797973633e+00,1.345325589179992676e+00,1.345233082771301270e+00,1.345140457153320312e+00,1.345048069953918457e+00,1.344955563545227051e+00,1.344863057136535645e+00,1.344770550727844238e+00,1.344678163528442383e+00,1.344585776329040527e+00,1.344493269920349121e+00,1.344400882720947266e+00,1.344308614730834961e+00,1.344216346740722656e+00,1.344123959541320801e+00,1.344031572341918945e+00,1.343939304351806641e+00,1.343846917152404785e+00,1.343754529953002930e+00,1.343662381172180176e+00,1.343569993972778320e+00,1.343477725982666016e+00,1.343385457992553711e+00,1.343293190002441406e+00,1.343200922012329102e+00,1.343108773231506348e+00,1.343016505241394043e+00,1.342924237251281738e+00,1.342832207679748535e+00,1.342739939689636230e+00,1.342647790908813477e+00,1.342555642127990723e+00,1.342463493347167969e+00,1.342371344566345215e+00,1.342279314994812012e+00,1.342187166213989258e+00,1.342095017433166504e+00,1.342002987861633301e+00,1.341910958290100098e+00,1.341818809509277344e+00
1.248796224594116211e+00,1.248716473579406738e+00,1.248636722564697266e+00,1.248556971549987793e+00,1.248477339744567871e+00,1.248397707939147949e+00,1.248317956924438477e+00,1.248238325119018555e+00,1.248158693313598633e+00,1.248079061508178711e+00,1.247999310493469238e+00,1.247919678688049316e+00,1.247840046882629395e+00,1.247760534286499023e+00,1.247680902481079102e+00,1.247601270675659180e+00,1.247521758079528809e+00,1.247442245483398438e+00,1.247362613677978516e+00,1.247283101081848145e+00,1.247203588485717773e+00,1.247123956680297852e+00,1.247044563293457031e+00,1.246965050697326660e+00,1.246885538101196289e+00,1.246806025505065918e+00,1.246726632118225098e+00,1.246647119522094727e+00,1.246567606925964355e+00,1.246488213539123535e+00,1.246408700942993164e+00,1.246329307556152344e+00,1.246249914169311523e+00,1.246170520782470703e+00,1.246091127395629883e+00,1.246011734008789062e+00,1.245932340621948242e+00,1.245852947235107422e+00,1.245773673057556152e+00,1.245694279670715332e+00,1.245615005493164062e+00,1.245535612106323242e+00,1.245456337928771973e+00,1.245377063751220703e+00,1.245297670364379883e+00,1.245218515396118164e+00,1.245139241218566895e+00,1.245059967041015625e+00,1.244980692863464355e+00,1.244901418685913086e+00,1.244822263717651367e+00,1.244742989540100098e+00,1.244663715362548828e+00,1.244584560394287109e+00,1.244505405426025391e+00,1.244426250457763672e+00,1.244346976280212402e+00,1.244268059730529785e+00,1.244188904762268066e+00,1.244109749794006348e+00,1.244030594825744629e+00,1.243951559066772461e+00,1.243872404098510742e+00,1.243793368339538574e+00,1.243714332580566406e+00,1.243635177612304688e+00,1.243556141853332520e+00,1.243477106094360352e+00,1.243398070335388184e+00,1.243319034576416016e+00,1.243239998817443848e+00,1.243160963058471680e+00,1.243081927299499512e+00,1.243003010749816895e+00,1.242924094200134277e+00,1.242845177650451660e+00,1.242766141891479492e+00,1.242687225341796875e+00,1.242608308792114258e+00,1.242529392242431641e+00
1.162352681159973145e+00,1.162283658981323242e+00,1.162214517593383789e+00,1.162145495414733887e+00,1.162076473236083984e+00,1.162007451057434082e+00,1.161938309669494629e+00,1.161869287490844727e+00,1.161800265312194824e+00,1.161731362342834473e+00,1.161662340164184570e+00,1.161593317985534668e+00,1.161524295806884766e+00,1.161455273628234863e+00,1.161386370658874512e+00,1.161317467689514160e+00,1.161248445510864258e+00,1.161179542541503906e+00,1.161110639572143555e+00,1.161041736602783203e+00,1.160972714424133301e+00,1.160903811454772949e+00,1.160834908485412598e+00,1.160766124725341797e+00,1.160697221755981445e+00,1.160628318786621094e+00,1.160559415817260742e+00,1.160490632057189941e+00,1.160421729087829590e+00,1.160352826118469238e+00,1.160284042358398438e+00,1.160215139389038086e+00,1.160146474838256836e+00,1.160077571868896484e+00,1.160008788108825684e+00,1.159940004348754883e+00,1.159871220588684082e+00,1.159802436828613281e+00,1.159733653068542480e+00,1.159664869308471680e+00,1.159596085548400879e+00,1.159527420997619629e+00,1.159458637237548828e+00,1.159389853477478027e+00,1.159321188926696777e+00,1.159252405166625977e+00,1.159183740615844727e+00,1.159115076065063477e+00,1.159046411514282227e+00,1.158977627754211426e+00,1.158909082412719727e+00,1.158840417861938477e+00,1.158771634101867676e+00,1.158702969551086426e+00,1.158634424209594727e+00,1.158565759658813477e+00,1.158497095108032227e+00,1.158428549766540527e+00,1.158359885215759277e+00,1.158291339874267578e+00,1.158222794532775879e+00,1.158154129981994629e+00,1.158085584640502930e+00,1.158017277717590332e+00,1.157948613166809082e+00,1.157880187034606934e+00,1.157811641693115234e+00,1.157743096351623535e+00,1.157674670219421387e+00,1.157606124877929688e+00,1.157537579536437988e+00,1.157469153404235840e+00,1.157400608062744141e+00,1.157332062721252441e+00,1.157263636589050293e+00,1.157195210456848145e+00,1.157126665115356445e+00,1.157058358192443848e+00,1.156989812850952148e+00,1.156921386718750000e+00
1.087101817131042480e+00,1.087041497230529785e+00,1.086981058120727539e+00,1.086920619010925293e+00,1.086860179901123047e+00,1.086799860000610352e+00,1.086739420890808105e+00,1.086679100990295410e+00,1.086618661880493164e+00,1.086558222770690918e+00,1.086498022079467773e+00,1.086437582969665527e+00,1.086377263069152832e+00,1.086316943168640137e+00,1.086256623268127441e+00,1.086196303367614746e+00,1.086135983467102051e+00,1.086075663566589355e+00,1.086015343666076660e+00,1.085955023765563965e+00,1.085894703865051270e+00,1.085834503173828125e+00,1.085774183273315430e+00,1.085713863372802734e+00,1.085653662681579590e+00,1.085593342781066895e+00,1.085533142089843750e+00,1.085472822189331055e+00,1.085412740707397461e+00,1.085352420806884766e+00,1.085292220115661621e+00,1.085232019424438477e+00,1.085171699523925781e+00,1.085111618041992188e+00,1.085051417350769043e+00,1.084991216659545898e+00,1.084931015968322754e+00,1.084870815277099609e+00,1.084810733795166016e+00,1.084750533103942871e+00,1.084690332412719727e+00,1.084630131721496582e+00,1.084570050239562988e+00,1.084509849548339844e+00,1.084449768066406250e+00,1.084389567375183105e+00,1.084329605102539062e+00,1.084269404411315918e+00,1.084209322929382324e+00,1.084149241447448730e+00,1.084089040756225586e+00,1.084029078483581543e+00,1.083968997001647949e+00,1.083908915519714355e+00,1.083848834037780762e+00,1.083788752555847168e+00,1.083728790283203125e+00,1.083668708801269531e+00,1.083608627319335938e+00,1.083548545837402344e+00,1.083488583564758301e+00,1.083428621292114258e+00,1.083368539810180664e+00,1.083308577537536621e+00,1.083248496055603027e+00,1.083188533782958984e+00,1.083128571510314941e+00,1.083068609237670898e+00,1.083008766174316406e+00,1.082948803901672363e+00,1.082888960838317871e+00,1.082828998565673828e+00,1.082769036293029785e+00,1.082709074020385742e+00,1.082649111747741699e+00,1.082589268684387207e+00,1.082529306411743164e+00,1.082469463348388672e+00,1.082409501075744629e+00,1.082349658012390137e+00
1.021002054214477539e+00,1.020948767662048340e+00,1.020895481109619141e+00,1.020842194557189941e+00,1.020788908004760742e+00,1.020735621452331543e+00,1.020682454109191895e+00,1.020629167556762695e+00,1.020575881004333496e+00,1.020522594451904297e+00,1.020469307899475098e+00,1.020416140556335449e+00,1.020362854003906250e+00,1.020309686660766602e+00,1.020256400108337402e+00,1.020203232765197754e+00,1.020150065422058105e+00,1.020096778869628906e+00,1.020043611526489258e+00,1.019990444183349609e+00,1.019937276840209961e+00,1.019884109497070312e+00,1.019830822944641113e+00,1.019777655601501465e+00,1.019724607467651367e+00,1.019671440124511719e+00,1.019618272781372070e+00,1.019565105438232422e+00,1.019511938095092773e+00,1.019458770751953125e+00,1.019405603408813477e+00,1.019352555274963379e+00,1.019299387931823730e+00,1.019246220588684082e+00,1.019193172454833984e+00,1.019140124320983887e+00,1.019086956977844238e+00,1.019033789634704590e+00,1.018980860710144043e+00,1.018927693367004395e+00,1.018874645233154297e+00,1.018821477890014648e+00,1.018768429756164551e+00,1.018715381622314453e+00,1.018662333488464355e+00,1.018609285354614258e+00,1.018556237220764160e+00,1.018503189086914062e+00,1.018450140953063965e+00,1.018397212028503418e+00,1.018344163894653320e+00,1.018291115760803223e+00,1.018238067626953125e+00,1.018185138702392578e+00,1.018132090568542480e+00,1.018079042434692383e+00,1.018026113510131836e+00,1.017973184585571289e+00,1.017920136451721191e+00,1.017867207527160645e+00,1.017814159393310547e+00,1.017761230468750000e+00,1.017708301544189453e+00,1.017655372619628906e+00,1.017602324485778809e+00,1.017549395561218262e+00,1.017496585845947266e+00,1.017443537712097168e+00,1.017390608787536621e+00,1.017337679862976074e+00,1.017284870147705078e+00,1.017231941223144531e+00,1.017179012298583984e+00,1.017126321792602539e+00,1.017073392868041992e+00,1.017020583152770996e+00,1.016967654228210449e+00,1.016914725303649902e+00,1.016861915588378906e+00,1.016809105873107910e+00
9.624797701835632324e-01,9.624324440956115723e-01,9.623851180076599121e-01,9.623377919197082520e-01,9.622904062271118164e-01,9.622430801391601562e-01,9.621956944465637207e-01,9.621483683586120605e-01,9.621010422706604004e-01,9.620537161827087402e-01,9.620063900947570801e-01,9.619590640068054199e-01,9.619118571281433105e-01,9.618645310401916504e-01,9.618172049522399902e-01,9.617699384689331055e-01,9.617226123809814453e-01,9.616752862930297852e-01,9.616280198097229004e-01,9.615807533264160156e-01,9.615334272384643555e-01,9.614862799644470215e-01,9.614390134811401367e-01,9.613917469978332520e-01,9.613444805145263672e-01,9.612972140312194824e-01,9.612499475479125977e-01,9.612026810646057129e-01,9.611554741859436035e-01,9.611082077026367188e-01,9.610610604286193848e-01,9.610138535499572754e-01,9.609666466712951660e-01,9.609193801879882812e-01,9.608721733093261719e-01,9.608249664306640625e-01,9.607777595520019531e-01,9.607305526733398438e-01,9.606833457946777344e-01,9.606362581253051758e-01,9.605890512466430664e-01,9.605419039726257324e-01,9.604946970939636230e-01,9.604475498199462891e-01,9.604003429412841797e-01,9.603531956672668457e-01,9.603059887886047363e-01,9.602588415145874023e-01,9.602118134498596191e-01,9.601646661758422852e-01,9.601175189018249512e-01,9.600703716278076172e-01,9.600232243537902832e-01,9.599761366844177246e-01,9.599289894104003906e-01,9.598818421363830566e-01,9.598347544670104980e-01,9.597877264022827148e-01,9.597406387329101562e-01,9.596935510635375977e-01,9.596464037895202637e-01,9.595993161201477051e-01,9.595522284507751465e-01,9.595051407814025879e-01,9.594580531120300293e-01,9.594110250473022461e-01,9.593639373779296875e-01,9.593169689178466797e-01,9.592698812484741211e-01,9.592228531837463379e-01,9.591758251190185547e-01,9.591287374496459961e-01,9.590817093849182129e-01,9.590346813201904297e-01,9.589876532554626465e-01,9.589406251907348633e-01,9.588936567306518555e-01,9.588466882705688477e-01,9.587996602058410645e-01,9.587527513504028320e-01
9.103026390075683594e-01,9.102602601051330566e-01,9.102178812026977539e-01,9.101756215095520020e-01,9.101332426071166992e-01,9.100908637046813965e-01,9.100485444068908691e-01,9.100061655044555664e-01,9.099638462066650391e-01,9.099214673042297363e-01,9.098791480064392090e-01,9.098368287086486816e-01,9.097945690155029297e-01,9.097522497177124023e-01,9.097099304199218750e-01,9.096676111221313477e-01,9.096252918243408203e-01,9.095829725265502930e-01,9.095406532287597656e-01,9.094983339309692383e-01,9.094560742378234863e-01,9.094137549400329590e-01,9.093715548515319824e-01,9.093292951583862305e-01,9.092869758605957031e-01,9.092447161674499512e-01,9.092024564743041992e-01,9.091601371765136719e-01,9.091178774833679199e-01,9.090756177902221680e-01,9.090333580970764160e-01,9.089912176132202148e-01,9.089489579200744629e-01,9.089066982269287109e-01,9.088644385337829590e-01,9.088221788406372070e-01,9.087799787521362305e-01,9.087377190589904785e-01,9.086955189704895020e-01,9.086532592773437500e-01,9.086111783981323242e-01,9.085689187049865723e-01,9.085267186164855957e-01,9.084845185279846191e-01,9.084423184394836426e-01,9.084001183509826660e-01,9.083579182624816895e-01,9.083157181739807129e-01,9.082735180854797363e-01,9.082314372062683105e-01,9.081892371177673340e-01,9.081470966339111328e-01,9.081048965454101562e-01,9.080626964569091797e-01,9.080205559730529785e-01,9.079784154891967773e-01,9.079362154006958008e-01,9.078940749168395996e-01,9.078520536422729492e-01,9.078098535537719727e-01,9.077677130699157715e-01,9.077255725860595703e-01,9.076834321022033691e-01,9.076412916183471680e-01,9.075992107391357422e-01,9.075570702552795410e-01,9.075149297714233398e-01,9.074729084968566895e-01,9.074308276176452637e-01,9.073886871337890625e-01,9.073466062545776367e-01,9.073045253753662109e-01,9.072623848915100098e-01,9.072203040122985840e-01,9.071782231330871582e-01,9.071361422538757324e-01,9.070940613746643066e-01,9.070520997047424316e-01,9.070100188255310059e-01,9.069679379463195801e-01
8.634917140007019043e-01,8.634535670280456543e-01,8.634154796600341797e-01,8.633773326873779297e-01,8.633393049240112305e-01,8.633012175559997559e-01,8.632630705833435059e-01,8.632249832153320312e-01,8.631868958473205566e-01,8.631487488746643066e-01,8.631106615066528320e-01,8.630725741386413574e-01,8.630344867706298828e-01,8.629964590072631836e-01,8.629583716392517090e-01,8.629202842712402344e-01,8.628822565078735352e-01,8.628441691398620605e-01,8.628060817718505859e-01,8.627679944038391113e-01,8.627299666404724121e-01,8.626918792724609375e-01,8.626539111137390137e-01,8.626158833503723145e-01,8.625777959823608398e-01,8.625397682189941406e-01,8.625016808509826660e-01,8.624636530876159668e-01,8.624256253242492676e-01,8.623875975608825684e-01,8.623495697975158691e-01,8.623115420341491699e-01,8.622735738754272461e-01,8.622355461120605469e-01,8.621975779533386230e-01,8.621595501899719238e-01,8.621215224266052246e-01,8.620834946632385254e-01,8.620455265045166016e-01,8.620074987411499023e-01,8.619695305824279785e-01,8.619316220283508301e-01,8.618935942649841309e-01,8.618556261062622070e-01,8.618176579475402832e-01,8.617796301841735840e-01,8.617416620254516602e-01,8.617036938667297363e-01,8.616657257080078125e-01,8.616277575492858887e-01,8.615899085998535156e-01,8.615519404411315918e-01,8.615139722824096680e-01,8.614760041236877441e-01,8.614380359649658203e-01,8.614001274108886719e-01,8.613621592521667480e-01,8.613241910934448242e-01,8.612862825393676758e-01,8.612484335899353027e-01,8.612105250358581543e-01,8.611725568771362305e-01,8.611346483230590820e-01,8.610967397689819336e-01,8.610588312149047852e-01,8.610208630561828613e-01,8.609829545021057129e-01,8.609450459480285645e-01,8.609072566032409668e-01,8.608693480491638184e-01,8.608314394950866699e-01,8.607935309410095215e-01,8.607556819915771484e-01,8.607177734375000000e-01,8.606798648834228516e-01,8.606420159339904785e-01,8.606041073799133301e-01,8.605663180351257324e-01,8.605284690856933594e-01,8.604906201362609863e-01
8.212597370147705078e-01,8.212252259254455566e-01,8.211907148361206055e-01,8.211562633514404297e-01,8.211217522621154785e-01,8.210873603820800781e-01,8.210529088973999023e-01,8.210183978080749512e-01,8.209839463233947754e-01,8.209494948387145996e-01,8.209150433540344238e-01,8.208805322647094727e-01,8.208460807800292969e-01,8.208116292953491211e-01,8.207772970199584961e-01,8.207428455352783203e-01,8.207083940505981445e-01,8.206739425659179688e-01,8.206394910812377930e-01,8.206050395965576172e-01,8.205706477165222168e-01,8.205361962318420410e-01,8.205017447471618652e-01,8.204674124717712402e-01,8.204329609870910645e-01,8.203985691070556641e-01,8.203641176223754883e-01,8.203297257423400879e-01,8.202953338623046875e-01,8.202608823776245117e-01,8.202264904975891113e-01,8.201920986175537109e-01,8.201577663421630859e-01,8.201233744621276855e-01,8.200889825820922852e-01,8.200545907020568848e-01,8.200201988220214844e-01,8.199858069419860840e-01,8.199514150619506836e-01,8.199170231819152832e-01,8.198826909065246582e-01,8.198482990264892578e-01,8.198140263557434082e-01,8.197796344757080078e-01,8.197452425956726074e-01,8.197109103202819824e-01,8.196765184402465820e-01,8.196421861648559570e-01,8.196077942848205566e-01,8.195734620094299316e-01,8.195391297340393066e-01,8.195048570632934570e-01,8.194705247879028320e-01,8.194361925125122070e-01,8.194018006324768066e-01,8.193674683570861816e-01,8.193331360816955566e-01,8.192988038063049316e-01,8.192644715309143066e-01,8.192301988601684570e-01,8.191959261894226074e-01,8.191615939140319824e-01,8.191273212432861328e-01,8.190929889678955078e-01,8.190586566925048828e-01,8.190243840217590332e-01,8.189900517463684082e-01,8.189557790756225586e-01,8.189214468002319336e-01,8.188872337341308594e-01,8.188529610633850098e-01,8.188186883926391602e-01,8.187843561172485352e-01,8.187500834465026855e-01,8.187158107757568359e-01,8.186815381050109863e-01,8.186472654342651367e-01,8.186129927635192871e-01,8.185787796974182129e-01,8.185445070266723633e-01
7.829661369323730469e-01,7.829347848892211914e-01,7.829034328460693359e-01,7.828720808029174805e-01,7.828407287597656250e-01,7.828093767166137695e-01,7.827781438827514648e-01,7.827467918395996094e-01,7.827154397964477539e-01,7.826841473579406738e-01,7.826527953147888184e-01,7.826215028762817383e-01,7.825901508331298828e-01,7.825588583946228027e-01,7.825275063514709473e-01,7.824962735176086426e-01,7.824649810791015625e-01,7.824336290359497070e-01,7.824023365974426270e-01,7.823710441589355469e-01,7.823397517204284668e-01,7.823084592819213867e-01,7.822771072387695312e-01,7.822458148002624512e-01,7.822146415710449219e-01,7.821833491325378418e-01,7.821520566940307617e-01,7.821207642555236816e-01,7.820894718170166016e-01,7.820581793785095215e-01,7.820268869400024414e-01,7.819956541061401367e-01,7.819643616676330566e-01,7.819331884384155273e-01,7.819018959999084473e-01,7.818706631660461426e-01,7.818393707275390625e-01,7.818081378936767578e-01,7.817768454551696777e-01,7.817456126213073730e-01,7.817143797874450684e-01,7.816830873489379883e-01,7.816519141197204590e-01,7.816206812858581543e-01,7.815894484519958496e-01,7.815582156181335449e-01,7.815269827842712402e-01,7.814957499504089355e-01,7.814645171165466309e-01,7.814332842826843262e-01,7.814020514488220215e-01,7.813708186149597168e-01,7.813396453857421875e-01,7.813084125518798828e-01,7.812772393226623535e-01,7.812460064888000488e-01,7.812147736549377441e-01,7.811836004257202148e-01,7.811523675918579102e-01,7.811211943626403809e-01,7.810899615287780762e-01,7.810588479042053223e-01,7.810276150703430176e-01,7.809964418411254883e-01,7.809652686119079590e-01,7.809340953826904297e-01,7.809028625488281250e-01,7.808716893196105957e-01,7.808405160903930664e-01,7.808093428611755371e-01,7.807782292366027832e-01,7.807470560073852539e-01,7.807158827781677246e-01,7.806847095489501953e-01,7.806535363197326660e-01,7.806223630905151367e-01,7.805911898612976074e-01,7.805600762367248535e-01,7.805289030075073242e-01,7.804977893829345703e-01
