1.934031009674072266e+00,1.960753440856933594e+00,1.988224387168884277e+00,2.016475915908813477e+00,2.045542240142822266e+00,2.075458765029907227e+00,2.106263160705566406e+00,2.137995719909667969e+00,2.170699119567871094e+00,2.204418420791625977e+00,2.239202022552490234e+00,2.275100708007812500e+00,2.312169551849365234e+00,2.350466012954711914e+00,2.390052556991577148e+00,2.430995225906372070e+00,2.473365306854248047e+00,2.517238378524780273e+00,2.562696218490600586e+00,2.609825849533081055e+00,2.658721685409545898e+00,2.709484577178955078e+00,2.762223482131958008e+00,2.817056417465209961e+00,2.874110221862792969e+00,2.933522939682006836e+00,2.995443582534790039e+00,3.060035228729248047e+00,3.127471446990966797e+00,3.197947740554809570e+00,3.271673202514648438e+00,3.348878622055053711e+00,3.429815769195556641e+00,3.514762163162231445e+00,3.604022741317749023e+00,3.697935581207275391e+00,3.796873331069946289e+00,3.901251316070556641e+00,4.011529445648193359e+00,4.128224372863769531e+00,4.251911640167236328e+00,4.383239269256591797e+00,4.522938728332519531e+00,4.671835422515869141e+00,5.000000000000000000e+00,5.000000000000000000e+00,5.000000000000000000e+00,5.000000000000000000e+00,5.000000000000000000e+00,5.000000000000000000e+00,5.000000000000000000e+00,5.000000000000000000e+00,5.000000000000000000e+00,5.000000000000000000e+00,5.000000000000000000e+00,5.000000000000000000e+00,5.000000000000000000e+00,5.000000000000000000e+00,5.000000000000000000e+00,5.000000000000000000e+00,5.000000000000000000e+00,5.000000000000000000e+00,5.000000000000000000e+00,5.000000000000000000e+00,5.000000000000000000e+00,5.000000000000000000e+00,5.000000000000000000e+00,5.000000000000000000e+00,5.000000000000000000e+00,5.000000000000000000e+00,5.000000000000000000e+00,5.000000000000000000e+00,5.000000000000000000e+00,5.000000000000000000e+00,5.000000000000000000e+00,5.000000000000000000e+00,5.000000000000000000e+00,5.000000000000000000e+00,5.000000000000000000e+00,5.000000000000000000e+00
1.933995962142944336e+00,1.960720419883728027e+00,1.988193750381469727e+00,2.016445398330688477e+00,2.045510768890380859e+00,2.075426101684570312e+00,2.106229543685913086e+00,2.137961149215698242e+00,2.170663595199584961e+00,2.204381704330444336e+00,2.239164113998413086e+00,2.275061607360839844e+00,2.312129259109497070e+00,2.350424289703369141e+00,2.390009403228759766e+00,2.430950641632080078e+00,2.473319292068481445e+00,2.517190694808959961e+00,2.562646627426147461e+00,2.609774827957153320e+00,2.658668279647827148e+00,2.709429025650024414e+00,2.762166023254394531e+00,2.816996574401855469e+00,2.874047994613647461e+00,2.933458089828491211e+00,2.995375871658325195e+00,3.059964418411254883e+00,3.127399444580078125e+00,3.197872161865234375e+00,3.271594524383544922e+00,3.348795890808105469e+00,3.429729223251342773e+00,3.514670848846435547e+00,3.603927135467529297e+00,3.697834491729736328e+00,3.796767234802246094e+00,3.901138782501220703e+00,4.011410713195800781e+00,4.128098487854003906e+00,4.251778125762939453e+00,4.383097648620605469e+00,4.522787570953369141e+00,4.671674251556396484e+00,4.830697059631347656e+00,5.000000000000000000e+00,5.000000000000000000e+00,5.000000000000000000e+00,5.000000000000000000e+00,5.000000000000000000e+00,5.000000000000000000e+00,5.000000000000000000e+00,5.000000000000000000e+00,5.000000000000000000e+00,5.000000000000000000e+00,5.000000000000000000e+00,5.000000000000000000e+00,5.000000000000000000e+00,5.000000000000000000e+00,5.000000000000000000e+00,5.000000000000000000e+00,5.000000000000000000e+00,5.000000000000000000e+00,5.000000000000000000e+00,5.000000000000000000e+00,5.000000000000000000e+00,5.000000000000000000e+00,5.000000000000000000e+00,5.000000000000000000e+00,5.000000000000000000e+00,5.000000000000000000e+00,5.000000000000000000e+00,5.000000000000000000e+00,5.000000000000000000e+00,5.000000000000000000e+00,5.000000000000000000e+00,5.000000000000000000e+00,5.000000000000000000e+00,5.000000000000000000e+00,5.000000000000000000e+00
1.933961272239685059e+00,1.960684657096862793e+00,1.988156914710998535e+00,2.016409873962402344e+00,2.045477867126464844e+00,2.075393676757812500e+00,2.106196165084838867e+00,2.137926816940307617e+00,2.170628070831298828e+00,2.204345226287841797e+00,2.239126443862915039e+00,2.275022745132446289e+00,2.312088727951049805e+00,2.350382566452026367e+00,2.389966249465942383e+00,2.430906295776367188e+00,2.473273038864135742e+00,2.517143011093139648e+00,2.562597036361694336e+00,2.609723329544067383e+00,2.658615112304687500e+00,2.709373712539672852e+00,2.762108325958251953e+00,2.816936731338500977e+00,2.873985528945922852e+00,2.933393001556396484e+00,2.995308160781860352e+00,3.059893846511840820e+00,3.127325773239135742e+00,3.197796583175659180e+00,3.271515369415283203e+00,3.348713159561157227e+00,3.429642200469970703e+00,3.514579772949218750e+00,3.603831291198730469e+00,3.697733879089355469e+00,3.796660661697387695e+00,3.901026248931884766e+00,4.011291980743408203e+00,4.127972602844238281e+00,4.251644611358642578e+00,4.382955551147460938e+00,4.522636413574218750e+00,4.671513080596923828e+00,4.830524921417236328e+00,5.000000000000000000e+00,5.000000000000000000e+00,5.000000000000000000e+00,5.000000000000000000e+00,5.000000000000000000e+00,5.000000000000000000e+00,5.000000000000000000e+00,5.000000000000000000e+00,5.000000000000000000e+00,5.000000000000000000e+00,5.000000000000000000e+00,5.000000000000000000e+00,5.000000000000000000e+00,5.000000000000000000e+00,5.000000000000000000e+00,5.000000000000000000e+00,5.000000000000000000e+00,5.000000000000000000e+00,5.000000000000000000e+00,5.000000000000000000e+00,5.000000000000000000e+00,5.000000000000000000e+00,5.000000000000000000e+00,5.000000000000000000e+00,5.000000000000000000e+00,5.000000000000000000e+00,5.000000000000000000e+00,5.000000000000000000e+00,5.000000000000000000e+00,5.000000000000000000e+00,5.000000000000000000e+00,5.000000000000000000e+00,5.000000000000000000e+00,5.000000000000000000e+00,5.000000000000000000e+00
1.933927774429321289e+00,1.960648655891418457e+00,1.988119959831237793e+00,2.016371965408325195e+00,2.045438766479492188e+00,2.075355529785156250e+00,2.106160640716552734e+00,2.137892484664916992e+00,2.170592546463012695e+00,2.204308509826660156e+00,2.239088535308837891e+00,2.274983882904052734e+00,2.312048435211181641e+00,2.350341081619262695e+00,2.389923334121704102e+00,2.430861711502075195e+00,2.473227024078369141e+00,2.517095088958740234e+00,2.562547683715820312e+00,2.609672069549560547e+00,2.658561706542968750e+00,2.709318399429321289e+00,2.762051105499267578e+00,2.816876888275146484e+00,2.873923301696777344e+00,2.933328151702880859e+00,2.995240926742553711e+00,3.059823274612426758e+00,3.127252101898193359e+00,3.197719573974609375e+00,3.271436214447021484e+00,3.348630428314208984e+00,3.429555177688598633e+00,3.514488458633422852e+00,3.603735208511352539e+00,3.697632789611816406e+00,3.796554088592529297e+00,3.900914430618286133e+00,4.011173248291015625e+00,4.127847194671630859e+00,4.251511096954345703e+00,4.382813930511474609e+00,4.522485733032226562e+00,4.671351909637451172e+00,4.830352783203125000e+00,5.000000000000000000e+00,5.000000000000000000e+00,5.000000000000000000e+00,5.000000000000000000e+00,5.000000000000000000e+00,5.000000000000000000e+00,5.000000000000000000e+00,5.000000000000000000e+00,5.000000000000000000e+00,5.000000000000000000e+00,5.000000000000000000e+00,5.000000000000000000e+00,5.000000000000000000e+00,5.000000000000000000e+00,5.000000000000000000e+00,5.000000000000000000e+00,5.000000000000000000e+00,5.000000000000000000e+00,5.000000000000000000e+00,5.000000000000000000e+00,5.000000000000000000e+00,5.000000000000000000e+00,5.000000000000000000e+00,5.000000000000000000e+00,5.000000000000000000e+00,5.000000000000000000e+00,5.000000000000000000e+00,5.000000000000000000e+00,5.000000000000000000e+00,5.000000000000000000e+00,5.000000000000000000e+00,5.000000000000000000e+00,5.000000000000000000e+00,5.000000000000000000e+00,5.000000000000000000e+00
1.933899641036987305e+00,1.960618257522583008e+00,1.988085389137268066e+00,2.016334056854248047e+00,2.045399665832519531e+00,2.075315475463867188e+00,2.106119155883789062e+00,2.137851238250732422e+00,2.170554161071777344e+00,2.204271793365478516e+00,2.239050865173339844e+00,2.274944782257080078e+00,2.312008142471313477e+00,2.350299358367919922e+00,2.389880180358886719e+00,2.430817127227783203e+00,2.473181009292602539e+00,2.517047405242919922e+00,2.562498331069946289e+00,2.609620809555053711e+00,2.658508539199829102e+00,2.709263086318969727e+00,2.761993646621704102e+00,2.816817045211791992e+00,2.873861074447631836e+00,2.933263301849365234e+00,2.995173215866088867e+00,3.059752702713012695e+00,3.127178192138671875e+00,3.197642564773559570e+00,3.271355628967285156e+00,3.348547220230102539e+00,3.429468631744384766e+00,3.514397382736206055e+00,3.603639602661132812e+00,3.697531700134277344e+00,3.796447992324829102e+00,3.900801897048950195e+00,4.011054515838623047e+00,4.127721309661865234e+00,4.251378059387207031e+00,4.382672309875488281e+00,4.522334575653076172e+00,4.671191215515136719e+00,4.830180644989013672e+00,5.000000000000000000e+00,5.000000000000000000e+00,5.000000000000000000e+00,5.000000000000000000e+00,5.000000000000000000e+00,5.000000000000000000e+00,5.000000000000000000e+00,5.000000000000000000e+00,5.000000000000000000e+00,5.000000000000000000e+00,5.000000000000000000e+00,5.000000000000000000e+00,5.000000000000000000e+00,5.000000000000000000e+00,5.000000000000000000e+00,5.000000000000000000e+00,5.000000000000000000e+00,5.000000000000000000e+00,5.000000000000000000e+00,5.000000000000000000e+00,5.000000000000000000e+00,5.000000000000000000e+00,5.000000000000000000e+00,5.000000000000000000e+00,5.000000000000000000e+00,5.000000000000000000e+00,5.000000000000000000e+00,5.000000000000000000e+00,5.000000000000000000e+00,5.000000000000000000e+00,5.000000000000000000e+00,5.000000000000000000e+00,5.000000000000000000e+00,5.000000000000000000e+00,5.000000000000000000e+00
1.933871865272521973e+00,1.960589408874511719e+00,1.988055706024169922e+00,2.016302347183227539e+00,2.045363664627075195e+00,2.075275182723999023e+00,2.106077909469604492e+00,2.137808561325073242e+00,2.170510053634643555e+00,2.204227685928344727e+00,2.239009141921997070e+00,2.274905681610107422e+00,2.311967849731445312e+00,2.350257635116577148e+00,2.389837265014648438e+00,2.430772542953491211e+00,2.473134756088256836e+00,2.516999721527099609e+00,2.562448740005493164e+00,2.609569311141967773e+00,2.658455133438110352e+00,2.709207773208618164e+00,2.761935949325561523e+00,2.816757202148437500e+00,2.873798847198486328e+00,2.933198451995849609e+00,2.995105504989624023e+00,3.059682130813598633e+00,3.127104520797729492e+00,3.197565555572509766e+00,3.271275043487548828e+00,3.348462581634521484e+00,3.429381132125854492e+00,3.514306306838989258e+00,3.603543519973754883e+00,3.697431087493896484e+00,3.796341419219970703e+00,3.900689840316772461e+00,4.010935783386230469e+00,4.127595424652099609e+00,4.251244544982910156e+00,4.382530689239501953e+00,4.522183895111083984e+00,4.671030044555664062e+00,4.830008506774902344e+00,5.000000000000000000e+00,5.000000000000000000e+00,5.000000000000000000e+00,5.000000000000000000e+00,5.000000000000000000e+00,5.000000000000000000e+00,5.000000000000000000e+00,5.000000000000000000e+00,5.000000000000000000e+00,5.000000000000000000e+00,5.000000000000000000e+00,5.000000000000000000e+00,5.000000000000000000e+00,5.000000000000000000e+00,5.000000000000000000e+00,5.000000000000000000e+00,5.000000000000000000e+00,5.000000000000000000e+00,5.000000000000000000e+00,5.000000000000000000e+00,5.000000000000000000e+00,5.000000000000000000e+00,5.000000000000000000e+00,5.000000000000000000e+00,5.000000000000000000e+00,5.000000000000000000e+00,5.000000000000000000e+00,5.000000000000000000e+00,5.000000000000000000e+00,5.000000000000000000e+00,5.000000000000000000e+00,5.000000000000000000e+00,5.000000000000000000e+00,5.000000000000000000e+00,5.000000000000000000e+00
1.933843731880187988e+00,1.960560679435729980e+00,1.988026022911071777e+00,2.016272068023681641e+00,2.045332193374633789e+00,2.075242280960083008e+00,2.106040000915527344e+00,2.137765884399414062e+00,2.170466184616088867e+00,2.204182386398315430e+00,2.238962411880493164e+00,2.274857759475708008e+00,2.311922788619995117e+00,2.350215673446655273e+00,2.389794349670410156e+00,2.430728197097778320e+00,2.473088741302490234e+00,2.516951799392700195e+00,2.562399387359619141e+00,2.609518051147460938e+00,2.658401966094970703e+00,2.709152460098266602e+00,2.761878490447998047e+00,2.816697359085083008e+00,2.873736619949340820e+00,2.933133840560913086e+00,2.995038032531738281e+00,3.059611558914184570e+00,3.127030849456787109e+00,3.197488546371459961e+00,3.271194219589233398e+00,3.348378181457519531e+00,3.429292440414428711e+00,3.514214277267456055e+00,3.603447914123535156e+00,3.697330236434936523e+00,3.796235561370849609e+00,3.900577306747436523e+00,4.010817050933837891e+00,4.127470016479492188e+00,4.251111507415771484e+00,4.382389068603515625e+00,4.522033214569091797e+00,4.670869350433349609e+00,4.829836368560791016e+00,5.000000000000000000e+00,5.000000000000000000e+00,5.000000000000000000e+00,5.000000000000000000e+00,5.000000000000000000e+00,5.000000000000000000e+00,5.000000000000000000e+00,5.000000000000000000e+00,5.000000000000000000e+00,5.000000000000000000e+00,5.000000000000000000e+00,5.000000000000000000e+00,5.000000000000000000e+00,5.000000000000000000e+00,5.000000000000000000e+00,5.000000000000000000e+00,5.000000000000000000e+00,5.000000000000000000e+00,5.000000000000000000e+00,5.000000000000000000e+00,5.000000000000000000e+00,5.000000000000000000e+00,5.000000000000000000e+00,5.000000000000000000e+00,5.000000000000000000e+00,5.000000000000000000e+00,5.000000000000000000e+00,5.000000000000000000e+00,5.000000000000000000e+00,5.000000000000000000e+00,5.000000000000000000e+00,5.000000000000000000e+00,5.000000000000000000e+00,5.000000000000000000e+00,5.000000000000000000e+00
1.933815598487854004e+00,1.960531830787658691e+00,1.987996339797973633e+00,2.016241550445556641e+00,2.045300722122192383e+00,2.075209856033325195e+00,2.106006860733032227e+00,2.137731552124023438e+00,2.170426845550537109e+00,2.204137325286865234e+00,2.238915681838989258e+00,2.274809598922729492e+00,2.311872959136962891e+00,2.350164175033569336e+00,2.389745235443115234e+00,2.430682420730590820e+00,2.473042488098144531e+00,2.516904354095458984e+00,2.562349796295166016e+00,2.609466552734375000e+00,2.658348560333251953e+00,2.709097385406494141e+00,2.761821031570434570e+00,2.816637516021728516e+00,2.873674392700195312e+00,2.933068990707397461e+00,2.994970321655273438e+00,3.059540987014770508e+00,3.126957178115844727e+00,3.197411537170410156e+00,3.271113634109497070e+00,3.348293542861938477e+00,3.429203748703002930e+00,3.514121294021606445e+00,3.603350877761840820e+00,3.697229385375976562e+00,3.796128988265991211e+00,3.900465488433837891e+00,4.010698795318603516e+00,4.127344131469726562e+00,4.250977993011474609e+00,4.382247447967529297e+00,4.521882057189941406e+00,4.670708179473876953e+00,4.829664230346679688e+00,4.999820709228515625e+00,5.000000000000000000e+00,5.000000000000000000e+00,5.000000000000000000e+00,5.000000000000000000e+00,5.000000000000000000e+00,5.000000000000000000e+00,5.000000000000000000e+00,5.000000000000000000e+00,5.000000000000000000e+00,5.000000000000000000e+00,5.000000000000000000e+00,5.000000000000000000e+00,5.000000000000000000e+00,5.000000000000000000e+00,5.000000000000000000e+00,5.000000000000000000e+00,5.000000000000000000e+00,5.000000000000000000e+00,5.000000000000000000e+00,5.000000000000000000e+00,5.000000000000000000e+00,5.000000000000000000e+00,5.000000000000000000e+00,5.000000000000000000e+00,5.000000000000000000e+00,5.000000000000000000e+00,5.000000000000000000e+00,5.000000000000000000e+00,5.000000000000000000e+00,5.000000000000000000e+00,5.000000000000000000e+00,5.000000000000000000e+00,5.000000000000000000e+00,5.000000000000000000e+00
1.933787584304809570e+00,1.960502982139587402e+00,1.987966895103454590e+00,2.016210794448852539e+00,2.045269489288330078e+00,2.075177431106567383e+00,2.105973482131958008e+00,2.137697458267211914e+00,2.170391321182250977e+00,2.204101085662841797e+00,2.238874197006225586e+00,2.274762392044067383e+00,2.311823129653930664e+00,2.350112676620483398e+00,2.389692068099975586e+00,2.430627107620239258e+00,2.472989320755004883e+00,2.516854286193847656e+00,2.562300205230712891e+00,2.609415292739868164e+00,2.658295392990112305e+00,2.709041833877563477e+00,2.761763572692871094e+00,2.816577672958374023e+00,2.873611927032470703e+00,2.933004140853881836e+00,2.994902610778808594e+00,3.059470415115356445e+00,3.126883745193481445e+00,3.197334527969360352e+00,3.271032810211181641e+00,3.348208904266357422e+00,3.429115295410156250e+00,3.514028072357177734e+00,3.603253126144409180e+00,3.697126865386962891e+00,3.796022891998291016e+00,3.900352954864501953e+00,4.010579586029052734e+00,4.127218246459960938e+00,4.250844478607177734e+00,4.382105350494384766e+00,4.521731376647949219e+00,4.670547008514404297e+00,4.829492092132568359e+00,4.999636173248291016e+00,5.000000000000000000e+00,5.000000000000000000e+00,5.000000000000000000e+00,5.000000000000000000e+00,5.000000000000000000e+00,5.000000000000000000e+00,5.000000000000000000e+00,5.000000000000000000e+00,5.000000000000000000e+00,5.000000000000000000e+00,5.000000000000000000e+00,5.000000000000000000e+00,5.000000000000000000e+00,5.000000000000000000e+00,5.000000000000000000e+00,5.000000000000000000e+00,5.000000000000000000e+00,5.000000000000000000e+00,5.000000000000000000e+00,5.000000000000000000e+00,5.000000000000000000e+00,5.000000000000000000e+00,5.000000000000000000e+00,5.000000000000000000e+00,5.000000000000000000e+00,5.000000000000000000e+00,5.000000000000000000e+00,5.000000000000000000e+00,5.000000000000000000e+00,5.000000000000000000e+00,5.000000000000000000e+00,5.000000000000000000e+00,5.000000000000000000e+00,5.000000000000000000e+00
1.933759450912475586e+00,1.960474133491516113e+00,1.987937211990356445e+00,2.016180515289306641e+00,2.045238018035888672e+00,2.075145244598388672e+00,2.105940341949462891e+00,2.137663125991821289e+00,2.170356035232543945e+00,2.204064607620239258e+00,2.238836765289306641e+00,2.274723529815673828e+00,2.311779737472534180e+00,2.350063085556030273e+00,2.389638662338256836e+00,2.430572032928466797e+00,2.472932338714599609e+00,2.516795158386230469e+00,2.562242269515991211e+00,2.609360694885253906e+00,2.658241987228393555e+00,2.708986759185791016e+00,2.761706113815307617e+00,2.816518068313598633e+00,2.873549938201904297e+00,2.932939291000366211e+00,2.994835138320922852e+00,3.059399843215942383e+00,3.126809835433959961e+00,3.197257280349731445e+00,3.270952224731445312e+00,3.348124504089355469e+00,3.429026842117309570e+00,3.513935089111328125e+00,3.603155136108398438e+00,3.697023868560791016e+00,3.795914649963378906e+00,3.900240898132324219e+00,4.010460853576660156e+00,4.127092838287353516e+00,4.250711441040039062e+00,4.381963729858398438e+00,4.521580219268798828e+00,4.670386314392089844e+00,4.829319953918457031e+00,4.999452114105224609e+00,5.000000000000000000e+00,5.000000000000000000e+00,5.000000000000000000e+00,5.000000000000000000e+00,5.000000000000000000e+00,5.000000000000000000e+00,5.000000000000000000e+00,5.000000000000000000e+00,5.000000000000000000e+00,5.000000000000000000e+00,5.000000000000000000e+00,5.000000000000000000e+00,5.000000000000000000e+00,5.000000000000000000e+00,5.000000000000000000e+00,5.000000000000000000e+00,5.000000000000000000e+00,5.000000000000000000e+00,5.000000000000000000e+00,5.000000000000000000e+00,5.000000000000000000e+00,5.000000000000000000e+00,5.000000000000000000e+00,5.000000000000000000e+00,5.000000000000000000e+00,5.000000000000000000e+00,5.000000000000000000e+00,5.000000000000000000e+00,5.000000000000000000e+00,5.000000000000000000e+00,5.000000000000000000e+00,5.000000000000000000e+00,5.000000000000000000e+00,5.000000000000000000e+00
1.933731436729431152e+00,1.960445284843444824e+00,1.987907528877258301e+00,2.016149997711181641e+00,2.045206546783447266e+00,2.075113058090209961e+00,2.105907201766967773e+00,2.137628793716430664e+00,2.170320749282836914e+00,2.204028129577636719e+00,2.238799095153808594e+00,2.274684667587280273e+00,2.311739683151245117e+00,2.350021839141845703e+00,2.389593124389648438e+00,2.430520057678222656e+00,2.472875356674194336e+00,2.516736030578613281e+00,2.562180995941162109e+00,2.609297275543212891e+00,2.658178806304931641e+00,2.708926677703857422e+00,2.761648416519165039e+00,2.816458225250244141e+00,2.873487710952758789e+00,2.932874441146850586e+00,2.994767427444458008e+00,3.059329271316528320e+00,3.126736164093017578e+00,3.197180271148681641e+00,3.270871639251708984e+00,3.348039865493774414e+00,3.428938150405883789e+00,3.513841867446899414e+00,3.603057146072387695e+00,3.696921110153198242e+00,3.795805931091308594e+00,3.900126218795776367e+00,4.010342597961425781e+00,4.126966953277587891e+00,4.250577926635742188e+00,4.381822109222412109e+00,4.521429538726806641e+00,4.670225143432617188e+00,4.829147815704345703e+00,4.999267578125000000e+00,5.000000000000000000e+00,5.000000000000000000e+00,5.000000000000000000e+00,5.000000000000000000e+00,5.000000000000000000e+00,5.000000000000000000e+00,5.000000000000000000e+00,5.000000000000000000e+00,5.000000000000000000e+00,5.000000000000000000e+00,5.000000000000000000e+00,5.000000000000000000e+00,5.000000000000000000e+00,5.000000000000000000e+00,5.000000000000000000e+00,5.000000000000000000e+00,5.000000000000000000e+00,5.000000000000000000e+00,5.000000000000000000e+00,5.000000000000000000e+00,5.000000000000000000e+00,5.000000000000000000e+00,5.000000000000000000e+00,5.000000000000000000e+00,5.000000000000000000e+00,5.000000000000000000e+00,5.000000000000000000e+00,5.000000000000000000e+00,5.000000000000000000e+00,5.000000000000000000e+00,5.000000000000000000e+00,5.000000000000000000e+00,5.000000000000000000e+00,5.000000000000000000e+00
1.933703541755676270e+00,1.960416436195373535e+00,1.987877845764160156e+00,2.016119480133056641e+00,2.045175313949584961e+00,2.075080633163452148e+00,2.105873823165893555e+00,2.137594461441040039e+00,2.170285463333129883e+00,2.203991651535034180e+00,2.238761425018310547e+00,2.274646043777465820e+00,2.311699628829956055e+00,2.349980354309082031e+00,2.389550209045410156e+00,2.430475711822509766e+00,2.472827434539794922e+00,2.516680955886840820e+00,2.562119722366333008e+00,2.609233617782592773e+00,2.658112764358520508e+00,2.708858251571655273e+00,2.761579036712646484e+00,2.816392421722412109e+00,2.873425483703613281e+00,2.932809591293334961e+00,2.994699716567993164e+00,3.059258699417114258e+00,3.126662492752075195e+00,3.197103261947631836e+00,3.270790815353393555e+00,3.347955703735351562e+00,3.428849458694458008e+00,3.513748884201049805e+00,3.602959394454956055e+00,3.696818113327026367e+00,3.795697450637817383e+00,3.900011539459228516e+00,4.010221004486083984e+00,4.126841068267822266e+00,4.250444889068603516e+00,4.381680488586425781e+00,4.521278858184814453e+00,4.670064449310302734e+00,4.828976154327392578e+00,4.999083042144775391e+00,5.000000000000000000e+00,5.000000000000000000e+00,5.000000000000000000e+00,5.000000000000000000e+00,5.000000000000000000e+00,5.000000000000000000e+00,5.000000000000000000e+00,5.000000000000000000e+00,5.000000000000000000e+00,5.000000000000000000e+00,5.000000000000000000e+00,5.000000000000000000e+00,5.000000000000000000e+00,5.000000000000000000e+00,5.000000000000000000e+00,5.000000000000000000e+00,5.000000000000000000e+00,5.000000000000000000e+00,5.000000000000000000e+00,5.000000000000000000e+00,5.000000000000000000e+00,5.000000000000000000e+00,5.000000000000000000e+00,5.000000000000000000e+00,5.000000000000000000e+00,5.000000000000000000e+00,4.983489513397216797e+00,5.000000000000000000e+00,5.000000000000000000e+00,5.000000000000000000e+00,5.000000000000000000e+00,5.000000000000000000e+00,5.000000000000000000e+00,5.000000000000000000e+00
1.933675408363342285e+00,1.960387468338012695e+00,1.987848162651062012e+00,2.016088962554931641e+00,2.045143842697143555e+00,2.075048446655273438e+00,2.105840444564819336e+00,2.137560129165649414e+00,2.170249938964843750e+00,2.203955173492431641e+00,2.238723993301391602e+00,2.274607181549072266e+00,2.311659574508666992e+00,2.349938869476318359e+00,2.389507532119750977e+00,2.430431365966796875e+00,2.472781419754028320e+00,2.516633272171020508e+00,2.562068939208984375e+00,2.609175443649291992e+00,2.658046960830688477e+00,2.708789825439453125e+00,2.761507749557495117e+00,2.816318511962890625e+00,2.873348951339721680e+00,2.932737112045288086e+00,2.994631767272949219e+00,3.059188365936279297e+00,3.126588821411132812e+00,3.197026014328002930e+00,3.270710229873657227e+00,3.347871303558349609e+00,3.428760766983032227e+00,3.513655662536621094e+00,3.602861404418945312e+00,3.696715116500854492e+00,3.795588731765747070e+00,3.899896860122680664e+00,4.010099887847900391e+00,4.126712799072265625e+00,4.250310897827148438e+00,4.381538867950439453e+00,4.521128177642822266e+00,4.669903755187988281e+00,4.828804016113281250e+00,4.998898983001708984e+00,5.000000000000000000e+00,5.000000000000000000e+00,5.000000000000000000e+00,5.000000000000000000e+00,5.000000000000000000e+00,5.000000000000000000e+00,5.000000000000000000e+00,5.000000000000000000e+00,5.000000000000000000e+00,5.000000000000000000e+00,5.000000000000000000e+00,5.000000000000000000e+00,5.000000000000000000e+00,5.000000000000000000e+00,5.000000000000000000e+00,5.000000000000000000e+00,5.000000000000000000e+00,5.000000000000000000e+00,5.000000000000000000e+00,5.000000000000000000e+00,5.000000000000000000e+00,5.000000000000000000e+00,5.000000000000000000e+00,5.000000000000000000e+00,5.000000000000000000e+00,5.000000000000000000e+00,4.973287582397460938e+00,5.000000000000000000e+00,5.000000000000000000e+00,5.000000000000000000e+00,5.000000000000000000e+00,5.000000000000000000e+00,5.000000000000000000e+00,5.000000000000000000e+00
1.933647394180297852e+00,1.960358858108520508e+00,1.987818479537963867e+00,2.016058444976806641e+00,2.045112371444702148e+00,2.075016021728515625e+00,2.105807304382324219e+00,2.137525796890258789e+00,2.170214653015136719e+00,2.203918695449829102e+00,2.238686323165893555e+00,2.274568319320678711e+00,2.311619520187377930e+00,2.349897384643554688e+00,2.389464616775512695e+00,2.430387020111083984e+00,2.472735404968261719e+00,2.516586065292358398e+00,2.562019824981689453e+00,2.609124422073364258e+00,2.657993078231811523e+00,2.708728075027465820e+00,2.761436939239501953e+00,2.816244363784790039e+00,2.873271942138671875e+00,2.932656764984130859e+00,2.994548082351684570e+00,3.059108018875122070e+00,3.126513004302978516e+00,3.196949005126953125e+00,3.270629644393920898e+00,3.347786664962768555e+00,3.428672075271606445e+00,3.513562679290771484e+00,3.602763891220092773e+00,3.696612119674682617e+00,3.795480251312255859e+00,3.899782180786132812e+00,4.009978771209716797e+00,4.126584529876708984e+00,4.250174522399902344e+00,4.381396293640136719e+00,4.520977020263671875e+00,4.669742584228515625e+00,4.828631877899169922e+00,4.998713970184326172e+00,5.000000000000000000e+00,5.000000000000000000e+00,5.000000000000000000e+00,5.000000000000000000e+00,5.000000000000000000e+00,5.000000000000000000e+00,5.000000000000000000e+00,5.000000000000000000e+00,5.000000000000000000e+00,5.000000000000000000e+00,5.000000000000000000e+00,5.000000000000000000e+00,5.000000000000000000e+00,5.000000000000000000e+00,5.000000000000000000e+00,5.000000000000000000e+00,5.000000000000000000e+00,5.000000000000000000e+00,5.000000000000000000e+00,5.000000000000000000e+00,5.000000000000000000e+00,5.000000000000000000e+00,5.000000000000000000e+00,5.000000000000000000e+00,5.000000000000000000e+00,5.000000000000000000e+00,5.000000000000000000e+00,4.990723609924316406e+00,5.000000000000000000e+00,5.000000000000000000e+00,5.000000000000000000e+00,5.000000000000000000e+00,5.000000000000000000e+00,5.000000000000000000e+00
1.933619260787963867e+00,1.960330009460449219e+00,1.987789034843444824e+00,2.016027927398681641e+00,2.045081138610839844e+00,2.074983835220336914e+00,2.105773925781250000e+00,2.137491703033447266e+00,2.170179367065429688e+00,2.203882217407226562e+00,2.238648653030395508e+00,2.274529695510864258e+00,2.311579227447509766e+00,2.349856138229370117e+00,2.389421701431274414e+00,2.430342674255371094e+00,2.472689628601074219e+00,2.516538381576538086e+00,2.561970710754394531e+00,2.609073162078857422e+00,2.657940387725830078e+00,2.708672761917114258e+00,2.761379957199096680e+00,2.816178560256958008e+00,2.873196363449096680e+00,2.932576656341552734e+00,2.994464397430419922e+00,3.059020757675170898e+00,3.126421928405761719e+00,3.196860074996948242e+00,3.270545721054077148e+00,3.347702264785766602e+00,3.428583621978759766e+00,3.513469457626342773e+00,3.602666139602661133e+00,3.696508884429931641e+00,3.795371532440185547e+00,3.899667501449584961e+00,4.009857654571533203e+00,4.126456260681152344e+00,4.250038623809814453e+00,4.381251335144042969e+00,4.520824909210205078e+00,4.669581413269042969e+00,4.828459739685058594e+00,4.998529911041259766e+00,5.000000000000000000e+00,5.000000000000000000e+00,5.000000000000000000e+00,5.000000000000000000e+00,5.000000000000000000e+00,5.000000000000000000e+00,5.000000000000000000e+00,5.000000000000000000e+00,5.000000000000000000e+00,5.000000000000000000e+00,5.000000000000000000e+00,5.000000000000000000e+00,5.000000000000000000e+00,5.000000000000000000e+00,5.000000000000000000e+00,5.000000000000000000e+00,5.000000000000000000e+00,5.000000000000000000e+00,5.000000000000000000e+00,5.000000000000000000e+00,5.000000000000000000e+00,5.000000000000000000e+00,5.000000000000000000e+00,5.000000000000000000e+00,5.000000000000000000e+00,5.000000000000000000e+00,4.916141510009765625e+00,4.846488952636718750e+00,4.776363849639892578e+00,5.000000000000000000e+00,5.000000000000000000e+00,5.000000000000000000e+00,5.000000000000000000e+00,5.000000000000000000e+00
1.933591246604919434e+00,1.960301160812377930e+00,1.987759351730346680e+00,2.015997409820556641e+00,2.045049667358398438e+00,2.074951648712158203e+00,2.105740785598754883e+00,2.137457370758056641e+00,2.170144081115722656e+00,2.203845977783203125e+00,2.238611221313476562e+00,2.274490833282470703e+00,2.311539173126220703e+00,2.349814653396606445e+00,2.389379024505615234e+00,2.430298328399658203e+00,2.472643852233886719e+00,2.516490936279296875e+00,2.561921358108520508e+00,2.609022140502929688e+00,2.657887220382690430e+00,2.708617925643920898e+00,2.761322498321533203e+00,2.816119194030761719e+00,2.873134374618530273e+00,2.932506322860717773e+00,2.994383335113525391e+00,3.058933496475219727e+00,3.126330614089965820e+00,3.196764707565307617e+00,3.270445585250854492e+00,3.347603321075439453e+00,3.428489685058593750e+00,3.513376474380493164e+00,3.602568149566650391e+00,3.696405887603759766e+00,3.795262813568115234e+00,3.899552822113037109e+00,4.009736537933349609e+00,4.126327991485595703e+00,4.249902248382568359e+00,4.381106853485107422e+00,4.520670890808105469e+00,4.669419288635253906e+00,4.828287601470947266e+00,4.998345375061035156e+00,5.000000000000000000e+00,5.000000000000000000e+00,5.000000000000000000e+00,5.000000000000000000e+00,5.000000000000000000e+00,5.000000000000000000e+00,5.000000000000000000e+00,5.000000000000000000e+00,5.000000000000000000e+00,5.000000000000000000e+00,5.000000000000000000e+00,5.000000000000000000e+00,5.000000000000000000e+00,5.000000000000000000e+00,5.000000000000000000e+00,5.000000000000000000e+00,5.000000000000000000e+00,5.000000000000000000e+00,5.000000000000000000e+00,5.000000000000000000e+00,5.000000000000000000e+00,5.000000000000000000e+00,5.000000000000000000e+00,5.000000000000000000e+00,5.000000000000000000e+00,4.964908599853515625e+00,4.897653102874755859e+00,4.866654872894287109e+00,4.775804996490478516e+00,5.000000000000000000e+00,5.000000000000000000e+00,5.000000000000000000e+00,5.000000000000000000e+00,5.000000000000000000e+00
1.933563113212585449e+00,1.960272312164306641e+00,1.987729668617248535e+00,2.015967130661010742e+00,2.045018434524536133e+00,2.074919223785400391e+00,2.105707406997680664e+00,2.137423038482666016e+00,2.170108556747436523e+00,2.203809499740600586e+00,2.238573551177978516e+00,2.274451971054077148e+00,2.311499118804931641e+00,2.349773168563842773e+00,2.389336109161376953e+00,2.430253982543945312e+00,2.472597837448120117e+00,2.516443490982055664e+00,2.561872005462646484e+00,2.608971118927001953e+00,2.657834291458129883e+00,2.708562850952148438e+00,2.761265277862548828e+00,2.816059589385986328e+00,2.873072385787963867e+00,2.932441711425781250e+00,2.994316339492797852e+00,3.058858156204223633e+00,3.126243829727172852e+00,3.196669578552246094e+00,3.270345926284790039e+00,3.347498655319213867e+00,3.428380012512207031e+00,3.513266086578369141e+00,3.602462768554687500e+00,3.696302890777587891e+00,3.795154333114624023e+00,3.899438619613647461e+00,4.009615421295166016e+00,4.126199722290039062e+00,4.249766349792480469e+00,4.380962371826171875e+00,4.520516872406005859e+00,4.669254779815673828e+00,4.828113555908203125e+00,4.998161315917968750e+00,5.000000000000000000e+00,5.000000000000000000e+00,5.000000000000000000e+00,5.000000000000000000e+00,5.000000000000000000e+00,5.000000000000000000e+00,5.000000000000000000e+00,5.000000000000000000e+00,5.000000000000000000e+00,5.000000000000000000e+00,5.000000000000000000e+00,5.000000000000000000e+00,5.000000000000000000e+00,5.000000000000000000e+00,5.000000000000000000e+00,5.000000000000000000e+00,5.000000000000000000e+00,5.000000000000000000e+00,5.000000000000000000e+00,5.000000000000000000e+00,5.000000000000000000e+00,5.000000000000000000e+00,5.000000000000000000e+00,5.000000000000000000e+00,5.000000000000000000e+00,4.967847824096679688e+00,4.908824920654296875e+00,4.844865798950195312e+00,4.770176887512207031e+00,5.000000000000000000e+00,5.000000000000000000e+00,5.000000000000000000e+00,5.000000000000000000e+00,5.000000000000000000e+00
1.933535099029541016e+00,1.960243463516235352e+00,1.987699985504150391e+00,2.015936613082885742e+00,2.044987201690673828e+00,2.074886798858642578e+00,2.105674266815185547e+00,2.137388706207275391e+00,2.170073509216308594e+00,2.203773021697998047e+00,2.238536119461059570e+00,2.274413108825683594e+00,2.311459064483642578e+00,2.349731922149658203e+00,2.389293193817138672e+00,2.430209875106811523e+00,2.472552061080932617e+00,2.516396045684814453e+00,2.561822652816772461e+00,2.608920097351074219e+00,2.657781362533569336e+00,2.708507776260375977e+00,2.761208295822143555e+00,2.815999984741210938e+00,2.873010635375976562e+00,2.932377099990844727e+00,2.994249105453491211e+00,3.058787822723388672e+00,3.126170396804809570e+00,3.196588754653930664e+00,3.270252227783203125e+00,3.347393989562988281e+00,3.428270101547241211e+00,3.513150930404663086e+00,3.602341651916503906e+00,3.696178674697875977e+00,3.795035362243652344e+00,3.899324178695678711e+00,4.009493827819824219e+00,4.126070976257324219e+00,4.249629974365234375e+00,4.380817413330078125e+00,4.520362854003906250e+00,4.669090270996093750e+00,4.827937602996826172e+00,4.997973918914794922e+00,5.000000000000000000e+00,5.000000000000000000e+00,5.000000000000000000e+00,5.000000000000000000e+00,5.000000000000000000e+00,5.000000000000000000e+00,5.000000000000000000e+00,5.000000000000000000e+00,5.000000000000000000e+00,5.000000000000000000e+00,5.000000000000000000e+00,5.000000000000000000e+00,5.000000000000000000e+00,5.000000000000000000e+00,5.000000000000000000e+00,5.000000000000000000e+00,5.000000000000000000e+00,5.000000000000000000e+00,5.000000000000000000e+00,5.000000000000000000e+00,5.000000000000000000e+00,5.000000000000000000e+00,5.000000000000000000e+00,5.000000000000000000e+00,5.000000000000000000e+00,4.968454360961914062e+00,4.913220882415771484e+00,4.899822711944580078e+00,4.774656772613525391e+00,5.000000000000000000e+00,5.000000000000000000e+00,5.000000000000000000e+00,5.000000000000000000e+00,5.000000000000000000e+00
1.933507204055786133e+00,1.960214614868164062e+00,1.987670302391052246e+00,2.015906095504760742e+00,2.044955730438232422e+00,2.074854612350463867e+00,2.105640888214111328e+00,2.137354612350463867e+00,2.170037984848022461e+00,2.203736782073974609e+00,2.238498449325561523e+00,2.274374485015869141e+00,2.311419010162353516e+00,2.349690437316894531e+00,2.389250516891479492e+00,2.430165529251098633e+00,2.472506284713745117e+00,2.516348361968994141e+00,2.561773777008056641e+00,2.608869075775146484e+00,2.657728433609008789e+00,2.708452701568603516e+00,2.761151075363159180e+00,2.815940856933593750e+00,2.872948646545410156e+00,2.932312726974487305e+00,2.994181632995605469e+00,3.058717966079711914e+00,3.126096963882446289e+00,3.196511983871459961e+00,3.270171880722045898e+00,3.347306966781616211e+00,3.428168773651123047e+00,3.513035774230957031e+00,3.602220535278320312e+00,3.696051359176635742e+00,3.794901132583618164e+00,3.899183511734008789e+00,4.009358882904052734e+00,4.125942230224609375e+00,4.249494075775146484e+00,4.380672931671142578e+00,4.520208835601806641e+00,4.668926239013671875e+00,4.827762126922607422e+00,4.997785568237304688e+00,5.000000000000000000e+00,5.000000000000000000e+00,5.000000000000000000e+00,5.000000000000000000e+00,5.000000000000000000e+00,5.000000000000000000e+00,5.000000000000000000e+00,5.000000000000000000e+00,5.000000000000000000e+00,5.000000000000000000e+00,5.000000000000000000e+00,5.000000000000000000e+00,5.000000000000000000e+00,5.000000000000000000e+00,5.000000000000000000e+00,5.000000000000000000e+00,5.000000000000000000e+00,5.000000000000000000e+00,5.000000000000000000e+00,5.000000000000000000e+00,5.000000000000000000e+00,5.000000000000000000e+00,5.000000000000000000e+00,5.000000000000000000e+00,5.000000000000000000e+00,4.958748340606689453e+00,4.904823303222656250e+00,4.889962196350097656e+00,4.751480579376220703e+00,5.000000000000000000e+00,5.000000000000000000e+00,5.000000000000000000e+00,5.000000000000000000e+00,5.000000000000000000e+00
1.933479189872741699e+00,1.960185766220092773e+00,1.987640619277954102e+00,2.015875577926635742e+00,2.044924259185791016e+00,2.074822425842285156e+00,2.105607748031616211e+00,2.137320280075073242e+00,2.170002698898315430e+00,2.203700304031372070e+00,2.238460779190063477e+00,2.274335622787475586e+00,2.311378955841064453e+00,2.349648952484130859e+00,2.389207601547241211e+00,2.430121183395385742e+00,2.472460269927978516e+00,2.516300916671752930e+00,2.561724424362182617e+00,2.608818054199218750e+00,2.657675266265869141e+00,2.708397865295410156e+00,2.761093854904174805e+00,2.815881252288818359e+00,2.872886657714843750e+00,2.932248353958129883e+00,2.994114398956298828e+00,3.058647632598876953e+00,3.126024007797241211e+00,3.196435213088989258e+00,3.270091772079467773e+00,3.347222805023193359e+00,3.428080558776855469e+00,3.512940883636474609e+00,3.602109909057617188e+00,3.695923805236816406e+00,3.794766664505004883e+00,3.899041891098022461e+00,4.009209156036376953e+00,4.125783443450927734e+00,4.249339580535888672e+00,4.380524635314941406e+00,4.520054817199707031e+00,4.668761730194091797e+00,4.827586650848388672e+00,4.997597217559814453e+00,5.000000000000000000e+00,5.000000000000000000e+00,5.000000000000000000e+00,5.000000000000000000e+00,5.000000000000000000e+00,5.000000000000000000e+00,5.000000000000000000e+00,5.000000000000000000e+00,5.000000000000000000e+00,5.000000000000000000e+00,5.000000000000000000e+00,5.000000000000000000e+00,5.000000000000000000e+00,5.000000000000000000e+00,5.000000000000000000e+00,5.000000000000000000e+00,5.000000000000000000e+00,5.000000000000000000e+00,5.000000000000000000e+00,5.000000000000000000e+00,5.000000000000000000e+00,5.000000000000000000e+00,5.000000000000000000e+00,5.000000000000000000e+00,5.000000000000000000e+00,4.973758697509765625e+00,4.908013820648193359e+00,4.764048576354980469e+00,5.000000000000000000e+00,5.000000000000000000e+00,5.000000000000000000e+00,5.000000000000000000e+00,5.000000000000000000e+00,5.000000000000000000e+00
1.933451056480407715e+00,1.960157155990600586e+00,1.987610936164855957e+00,2.015845060348510742e+00,2.044892787933349609e+00,2.074790000915527344e+00,2.105574369430541992e+00,2.137285947799682617e+00,2.169967412948608398e+00,2.203663825988769531e+00,2.238423347473144531e+00,2.274296760559082031e+00,2.311338901519775391e+00,2.349607467651367188e+00,2.389164924621582031e+00,2.430076837539672852e+00,2.472414493560791016e+00,2.516253471374511719e+00,2.561675071716308594e+00,2.608767032623291016e+00,2.657622337341308594e+00,2.708342790603637695e+00,2.761036634445190430e+00,2.815821647644042969e+00,2.872824907302856445e+00,2.932183742523193359e+00,2.994047403335571289e+00,3.058577537536621094e+00,3.125950574874877930e+00,3.196358680725097656e+00,3.270011425018310547e+00,3.347138881683349609e+00,3.427992343902587891e+00,3.512848615646362305e+00,3.602012634277343750e+00,3.695820808410644531e+00,3.794645786285400391e+00,3.898901224136352539e+00,4.009058952331542969e+00,4.125624656677246094e+00,4.249171257019042969e+00,4.380345821380615234e+00,4.519877433776855469e+00,4.668590545654296875e+00,4.827410697937011719e+00,4.997409343719482422e+00,5.000000000000000000e+00,5.000000000000000000e+00,5.000000000000000000e+00,5.000000000000000000e+00,5.000000000000000000e+00,5.000000000000000000e+00,5.000000000000000000e+00,5.000000000000000000e+00,5.000000000000000000e+00,5.000000000000000000e+00,5.000000000000000000e+00,5.000000000000000000e+00,5.000000000000000000e+00,5.000000000000000000e+00,5.000000000000000000e+00,5.000000000000000000e+00,5.000000000000000000e+00,5.000000000000000000e+00,5.000000000000000000e+00,5.000000000000000000e+00,5.000000000000000000e+00,5.000000000000000000e+00,5.000000000000000000e+00,5.000000000000000000e+00,5.000000000000000000e+00,5.000000000000000000e+00,4.889760017395019531e+00,4.737519741058349609e+00,5.000000000000000000e+00,5.000000000000000000e+00,5.000000000000000000e+00,5.000000000000000000e+00,5.000000000000000000e+00,5.000000000000000000e+00
1.933423042297363281e+00,1.960128188133239746e+00,1.987581610679626465e+00,2.015814542770385742e+00,2.044861555099487305e+00,2.074757575988769531e+00,2.105541229248046875e+00,2.137251615524291992e+00,2.169932126998901367e+00,2.203627347946166992e+00,2.238385677337646484e+00,2.274258136749267578e+00,2.311298847198486328e+00,2.349566221237182617e+00,2.389122009277343750e+00,2.430032491683959961e+00,2.472368478775024414e+00,2.516206026077270508e+00,2.561625957489013672e+00,2.608715772628784180e+00,2.657569408416748047e+00,2.708287715911865234e+00,2.760979413986206055e+00,2.815762042999267578e+00,2.872762918472290039e+00,2.932119369506835938e+00,2.993979930877685547e+00,3.058507442474365234e+00,3.125877141952514648e+00,3.196282148361206055e+00,3.269931316375732422e+00,3.347054719924926758e+00,3.427903890609741211e+00,3.512755870819091797e+00,3.601915597915649414e+00,3.695718288421630859e+00,3.794538021087646484e+00,3.898787260055541992e+00,4.008926391601562500e+00,4.125469684600830078e+00,4.249002933502197266e+00,4.380167007446289062e+00,4.519686698913574219e+00,4.668387413024902344e+00,4.827205181121826172e+00,4.997209548950195312e+00,5.000000000000000000e+00,5.000000000000000000e+00,5.000000000000000000e+00,5.000000000000000000e+00,5.000000000000000000e+00,5.000000000000000000e+00,5.000000000000000000e+00,5.000000000000000000e+00,5.000000000000000000e+00,5.000000000000000000e+00,5.000000000000000000e+00,5.000000000000000000e+00,5.000000000000000000e+00,5.000000000000000000e+00,5.000000000000000000e+00,5.000000000000000000e+00,5.000000000000000000e+00,5.000000000000000000e+00,5.000000000000000000e+00,5.000000000000000000e+00,5.000000000000000000e+00,5.000000000000000000e+00,5.000000000000000000e+00,5.000000000000000000e+00,5.000000000000000000e+00,4.992513179779052734e+00,4.748720645904541016e+00,4.716181755065917969e+00,5.000000000000000000e+00,5.000000000000000000e+00,5.000000000000000000e+00,5.000000000000000000e+00,5.000000000000000000e+00,5.000000000000000000e+00
1.933394908905029297e+00,1.960099339485168457e+00,1.987551927566528320e+00,2.015784025192260742e+00,2.044830083847045898e+00,2.074725389480590820e+00,2.105507850646972656e+00,2.137217521667480469e+00,2.169896841049194336e+00,2.203590869903564453e+00,2.238348007202148438e+00,2.274219274520874023e+00,2.311258792877197266e+00,2.349524736404418945e+00,2.389079332351684570e+00,2.429988145828247070e+00,2.472322702407836914e+00,2.516158342361450195e+00,2.561576843261718750e+00,2.608664751052856445e+00,2.657516479492187500e+00,2.708232879638671875e+00,2.760922193527221680e+00,2.815702915191650391e+00,2.872700929641723633e+00,2.932054758071899414e+00,2.993912696838378906e+00,3.058437108993530273e+00,3.125804185867309570e+00,3.196205377578735352e+00,3.269851207733154297e+00,3.346970558166503906e+00,3.427816152572631836e+00,3.512663364410400391e+00,3.601818084716796875e+00,3.695615768432617188e+00,3.794430017471313477e+00,3.898673534393310547e+00,4.008805751800537109e+00,4.125341892242431641e+00,4.248856067657470703e+00,4.379994869232177734e+00,4.519496440887451172e+00,4.668183803558349609e+00,4.826987743377685547e+00,4.996976852416992188e+00,5.000000000000000000e+00,5.000000000000000000e+00,5.000000000000000000e+00,5.000000000000000000e+00,5.000000000000000000e+00,5.000000000000000000e+00,5.000000000000000000e+00,5.000000000000000000e+00,5.000000000000000000e+00,5.000000000000000000e+00,5.000000000000000000e+00,5.000000000000000000e+00,5.000000000000000000e+00,5.000000000000000000e+00,5.000000000000000000e+00,5.000000000000000000e+00,5.000000000000000000e+00,5.000000000000000000e+00,5.000000000000000000e+00,5.000000000000000000e+00,5.000000000000000000e+00,5.000000000000000000e+00,5.000000000000000000e+00,5.000000000000000000e+00,5.000000000000000000e+00,5.000000000000000000e+00,4.890620231628417969e+00,4.889280319213867188e+00,5.000000000000000000e+00,5.000000000000000000e+00,5.000000000000000000e+00,5.000000000000000000e+00,5.000000000000000000e+00,5.000000000000000000e+00
1.933366894721984863e+00,1.960070490837097168e+00,1.987522244453430176e+00,2.015753746032714844e+00,2.044798851013183594e+00,2.074693202972412109e+00,2.105474710464477539e+00,2.137183189392089844e+00,2.169861555099487305e+00,2.203554391860961914e+00,2.238310575485229492e+00,2.274180412292480469e+00,2.311218738555908203e+00,2.349483251571655273e+00,2.389036417007446289e+00,2.429943799972534180e+00,2.472276926040649414e+00,2.516111135482788086e+00,2.561527490615844727e+00,2.608613729476928711e+00,2.657463312149047852e+00,2.708177804946899414e+00,2.760864973068237305e+00,2.815643310546875000e+00,2.872639179229736328e+00,2.931990146636962891e+00,2.993845701217651367e+00,3.058367013931274414e+00,3.125730752944946289e+00,3.196128606796264648e+00,3.269770860671997070e+00,3.346886634826660156e+00,3.427727937698364258e+00,3.512571096420288086e+00,3.601720571517944336e+00,3.695513486862182617e+00,3.794321775436401367e+00,3.898559331893920898e+00,4.008685111999511719e+00,4.125214099884033203e+00,4.248720645904541016e+00,4.379850864410400391e+00,4.519333362579345703e+00,4.667991161346435547e+00,4.826770782470703125e+00,4.996743679046630859e+00,5.000000000000000000e+00,5.000000000000000000e+00,5.000000000000000000e+00,5.000000000000000000e+00,5.000000000000000000e+00,5.000000000000000000e+00,5.000000000000000000e+00,5.000000000000000000e+00,5.000000000000000000e+00,5.000000000000000000e+00,5.000000000000000000e+00,5.000000000000000000e+00,5.000000000000000000e+00,5.000000000000000000e+00,5.000000000000000000e+00,5.000000000000000000e+00,5.000000000000000000e+00,5.000000000000000000e+00,5.000000000000000000e+00,5.000000000000000000e+00,5.000000000000000000e+00,5.000000000000000000e+00,5.000000000000000000e+00,5.000000000000000000e+00,5.000000000000000000e+00,5.000000000000000000e+00,4.892691135406494141e+00,4.904453277587890625e+00,5.000000000000000000e+00,5.000000000000000000e+00,5.000000000000000000e+00,5.000000000000000000e+00,5.000000000000000000e+00,5.000000000000000000e+00
1.933338761329650879e+00,1.960041642189025879e+00,1.987492561340332031e+00,2.015723228454589844e+00,2.044767618179321289e+00,2.074660778045654297e+00,2.105441331863403320e+00,2.137148857116699219e+00,2.169826269149780273e+00,2.203517913818359375e+00,2.238272905349731445e+00,2.274141550064086914e+00,2.311178445816040039e+00,2.349442005157470703e+00,2.388993501663208008e+00,2.429899692535400391e+00,2.472230911254882812e+00,2.516063451766967773e+00,2.561478137969970703e+00,2.608562707901000977e+00,2.657410621643066406e+00,2.708122491836547852e+00,2.760807991027832031e+00,2.815583705902099609e+00,2.872577428817749023e+00,2.931925773620605469e+00,2.993778467178344727e+00,3.058296918869018555e+00,3.125657320022583008e+00,3.196052312850952148e+00,3.269690752029418945e+00,3.346802711486816406e+00,3.427639722824096680e+00,3.512478351593017578e+00,3.601623296737670898e+00,3.695410966873168945e+00,3.794214010238647461e+00,3.898445129394531250e+00,4.008564949035644531e+00,4.125086784362792969e+00,4.248585224151611328e+00,4.379706859588623047e+00,4.519179821014404297e+00,4.667828083038330078e+00,4.826587677001953125e+00,4.996526718139648438e+00,5.000000000000000000e+00,5.000000000000000000e+00,5.000000000000000000e+00,5.000000000000000000e+00,5.000000000000000000e+00,5.000000000000000000e+00,5.000000000000000000e+00,5.000000000000000000e+00,5.000000000000000000e+00,5.000000000000000000e+00,5.000000000000000000e+00,5.000000000000000000e+00,5.000000000000000000e+00,5.000000000000000000e+00,5.000000000000000000e+00,5.000000000000000000e+00,5.000000000000000000e+00,5.000000000000000000e+00,5.000000000000000000e+00,5.000000000000000000e+00,5.000000000000000000e+00,5.000000000000000000e+00,5.000000000000000000e+00,5.000000000000000000e+00,5.000000000000000000e+00,5.000000000000000000e+00,4.899373531341552734e+00,4.917064189910888672e+00,5.000000000000000000e+00,5.000000000000000000e+00,5.000000000000000000e+00,5.000000000000000000e+00,5.000000000000000000e+00,5.000000000000000000e+00
1.933310866355895996e+00,1.960012793540954590e+00,1.987462878227233887e+00,2.015692710876464844e+00,2.044736146926879883e+00,2.074628591537475586e+00,2.105408191680908203e+00,2.137114763259887695e+00,2.169790744781494141e+00,2.203481674194335938e+00,2.238235235214233398e+00,2.274102926254272461e+00,2.311138391494750977e+00,2.349400520324707031e+00,2.388950824737548828e+00,2.429855346679687500e+00,2.472185373306274414e+00,2.516016006469726562e+00,2.561429023742675781e+00,2.608511686325073242e+00,2.657357454299926758e+00,2.708067417144775391e+00,2.760750770568847656e+00,2.815524339675903320e+00,2.872515439987182617e+00,2.931861400604248047e+00,2.993710994720458984e+00,3.058226823806762695e+00,3.125583887100219727e+00,3.195975542068481445e+00,3.269610643386840820e+00,3.346718549728393555e+00,3.427551746368408203e+00,3.512385606765747070e+00,3.601526260375976562e+00,3.695308446884155273e+00,3.794106006622314453e+00,3.898330926895141602e+00,4.008444309234619141e+00,4.124958992004394531e+00,4.248449802398681641e+00,4.379563331604003906e+00,4.519026756286621094e+00,4.667664527893066406e+00,4.826412677764892578e+00,4.996338844299316406e+00,5.000000000000000000e+00,5.000000000000000000e+00,5.000000000000000000e+00,5.000000000000000000e+00,5.000000000000000000e+00,5.000000000000000000e+00,5.000000000000000000e+00,5.000000000000000000e+00,5.000000000000000000e+00,5.000000000000000000e+00,5.000000000000000000e+00,5.000000000000000000e+00,5.000000000000000000e+00,5.000000000000000000e+00,5.000000000000000000e+00,5.000000000000000000e+00,5.000000000000000000e+00,5.000000000000000000e+00,5.000000000000000000e+00,5.000000000000000000e+00,5.000000000000000000e+00,5.000000000000000000e+00,5.000000000000000000e+00,5.000000000000000000e+00,5.000000000000000000e+00,5.000000000000000000e+00,4.954845428466796875e+00,4.918759346008300781e+00,4.916654586791992188e+00,5.000000000000000000e+00,5.000000000000000000e+00,5.000000000000000000e+00,5.000000000000000000e+00,5.000000000000000000e+00
1.933282852172851562e+00,1.959983944892883301e+00,1.987433195114135742e+00,2.015662193298339844e+00,2.044704675674438477e+00,2.074596405029296875e+00,2.105374813079833984e+00,2.137080430984497070e+00,2.169755458831787109e+00,2.203445196151733398e+00,2.238197803497314453e+00,2.274064064025878906e+00,2.311098575592041016e+00,2.349359035491943359e+00,2.388907909393310547e+00,2.429811000823974609e+00,2.472139358520507812e+00,2.515968322753906250e+00,2.561379909515380859e+00,2.608460664749145508e+00,2.657304525375366211e+00,2.708012580871582031e+00,2.760693550109863281e+00,2.815464973449707031e+00,2.872453451156616211e+00,2.931796789169311523e+00,2.993643999099731445e+00,3.058156490325927734e+00,3.125510931015014648e+00,3.195898771286010742e+00,3.269530296325683594e+00,3.346634387969970703e+00,3.427463531494140625e+00,3.512293100357055664e+00,3.601428747177124023e+00,3.695206403732299805e+00,3.793997764587402344e+00,3.898217439651489258e+00,4.008323669433593750e+00,4.124831199645996094e+00,4.248314380645751953e+00,4.379418849945068359e+00,4.518873691558837891e+00,4.667500972747802734e+00,4.826238155364990234e+00,4.996151924133300781e+00,5.000000000000000000e+00,5.000000000000000000e+00,5.000000000000000000e+00,5.000000000000000000e+00,5.000000000000000000e+00,5.000000000000000000e+00,5.000000000000000000e+00,5.000000000000000000e+00,5.000000000000000000e+00,5.000000000000000000e+00,5.000000000000000000e+00,5.000000000000000000e+00,5.000000000000000000e+00,5.000000000000000000e+00,5.000000000000000000e+00,5.000000000000000000e+00,5.000000000000000000e+00,5.000000000000000000e+00,5.000000000000000000e+00,5.000000000000000000e+00,5.000000000000000000e+00,5.000000000000000000e+00,5.000000000000000000e+00,5.000000000000000000e+00,5.000000000000000000e+00,5.000000000000000000e+00,5.000000000000000000e+00,5.000000000000000000e+00,4.949274063110351562e+00,4.945329189300537109e+00,5.000000000000000000e+00,5.000000000000000000e+00,5.000000000000000000e+00,5.000000000000000000e+00
1.933254718780517578e+00,1.959955334663391113e+00,1.987403512001037598e+00,2.015631675720214844e+00,2.044673204421997070e+00,2.074563980102539062e+00,2.105341672897338867e+00,2.137046098709106445e+00,2.169720172882080078e+00,2.203408718109130859e+00,2.238160133361816406e+00,2.274025201797485352e+00,2.311058282852172852e+00,2.349317789077758789e+00,2.388865232467651367e+00,2.429766893386840820e+00,2.472093582153320312e+00,2.515921115875244141e+00,2.561330556869506836e+00,2.608409643173217773e+00,2.657251358032226562e+00,2.707957506179809570e+00,2.760636568069458008e+00,2.815405368804931641e+00,2.872391700744628906e+00,2.931732177734375000e+00,2.993576765060424805e+00,3.058086156845092773e+00,3.125437498092651367e+00,3.195822477340698242e+00,3.269450187683105469e+00,3.346550703048706055e+00,3.427375316619873047e+00,3.512200832366943359e+00,3.601331472396850586e+00,3.695103645324707031e+00,3.793889760971069336e+00,3.898103237152099609e+00,4.008203029632568359e+00,4.124703884124755859e+00,4.248178958892822266e+00,4.379275321960449219e+00,4.518720149993896484e+00,4.667337417602539062e+00,4.826063156127929688e+00,4.995965003967285156e+00,5.000000000000000000e+00,5.000000000000000000e+00,5.000000000000000000e+00,5.000000000000000000e+00,5.000000000000000000e+00,5.000000000000000000e+00,5.000000000000000000e+00,5.000000000000000000e+00,5.000000000000000000e+00,5.000000000000000000e+00,5.000000000000000000e+00,5.000000000000000000e+00,5.000000000000000000e+00,5.000000000000000000e+00,5.000000000000000000e+00,5.000000000000000000e+00,5.000000000000000000e+00,5.000000000000000000e+00,5.000000000000000000e+00,5.000000000000000000e+00,5.000000000000000000e+00,5.000000000000000000e+00,5.000000000000000000e+00,5.000000000000000000e+00,5.000000000000000000e+00,5.000000000000000000e+00,5.000000000000000000e+00,5.000000000000000000e+00,5.000000000000000000e+00,4.980865001678466797e+00,4.999274253845214844e+00,5.000000000000000000e+00,5.000000000000000000e+00,5.000000000000000000e+00
1.933226704597473145e+00,1.959926486015319824e+00,1.987374186515808105e+00,2.015601158142089844e+00,2.044641971588134766e+00,2.074531555175781250e+00,2.105308294296264648e+00,2.137011766433715820e+00,2.169684886932373047e+00,2.203372478485107422e+00,2.238122463226318359e+00,2.273986577987670898e+00,2.311018228530883789e+00,2.349276304244995117e+00,2.388822317123413086e+00,2.429722547531127930e+00,2.472047805786132812e+00,2.515873432159423828e+00,2.561281442642211914e+00,2.608358621597290039e+00,2.657198667526245117e+00,2.707902431488037109e+00,2.760579347610473633e+00,2.815345764160156250e+00,2.872329711914062500e+00,2.931668043136596680e+00,2.993509292602539062e+00,3.058016300201416016e+00,3.125364065170288086e+00,3.195745706558227539e+00,3.269369840621948242e+00,3.346466541290283203e+00,3.427287340164184570e+00,3.512108087539672852e+00,3.601234436035156250e+00,3.695001125335693359e+00,3.793781995773315430e+00,3.897989034652709961e+00,4.008082389831542969e+00,4.124576091766357422e+00,4.248044013977050781e+00,4.379131793975830078e+00,4.518567085266113281e+00,4.667174339294433594e+00,4.825888633728027344e+00,4.995777606964111328e+00,5.000000000000000000e+00,5.000000000000000000e+00,5.000000000000000000e+00,5.000000000000000000e+00,5.000000000000000000e+00,5.000000000000000000e+00,5.000000000000000000e+00,5.000000000000000000e+00,5.000000000000000000e+00,5.000000000000000000e+00,5.000000000000000000e+00,5.000000000000000000e+00,5.000000000000000000e+00,5.000000000000000000e+00,5.000000000000000000e+00,5.000000000000000000e+00,5.000000000000000000e+00,5.000000000000000000e+00,5.000000000000000000e+00,5.000000000000000000e+00,5.000000000000000000e+00,5.000000000000000000e+00,5.000000000000000000e+00,5.000000000000000000e+00,5.000000000000000000e+00,5.000000000000000000e+00,5.000000000000000000e+00,5.000000000000000000e+00,5.000000000000000000e+00,5.000000000000000000e+00,4.995709896087646484e+00,5.000000000000000000e+00,5.000000000000000000e+00,5.000000000000000000e+00
1.933198690414428711e+00,1.959897637367248535e+00,1.987344503402709961e+00,2.015570640563964844e+00,2.044610738754272461e+00,2.074499368667602539e+00,2.105275154113769531e+00,2.136977672576904297e+00,2.169649600982666016e+00,2.203336000442504883e+00,2.238085031509399414e+00,2.273947715759277344e+00,2.310978412628173828e+00,2.349234819412231445e+00,2.388779640197753906e+00,2.429678201675415039e+00,2.472001791000366211e+00,2.515825986862182617e+00,2.561232328414916992e+00,2.608307361602783203e+00,2.657145500183105469e+00,2.707847595214843750e+00,2.760522127151489258e+00,2.815286636352539062e+00,2.872267723083496094e+00,2.931603431701660156e+00,2.993442058563232422e+00,3.057945966720581055e+00,3.125291109085083008e+00,3.195669174194335938e+00,3.269289970397949219e+00,3.346382617950439453e+00,3.427199125289916992e+00,3.512015581130981445e+00,3.601136922836303711e+00,3.694898605346679688e+00,3.793673992156982422e+00,3.897875547409057617e+00,4.007962226867675781e+00,4.124448299407958984e+00,4.247908592224121094e+00,4.378987789154052734e+00,4.518414020538330078e+00,4.667010784149169922e+00,4.825714111328125000e+00,4.995590209960937500e+00,5.000000000000000000e+00,5.000000000000000000e+00,5.000000000000000000e+00,5.000000000000000000e+00,5.000000000000000000e+00,5.000000000000000000e+00,5.000000000000000000e+00,5.000000000000000000e+00,5.000000000000000000e+00,5.000000000000000000e+00,5.000000000000000000e+00,5.000000000000000000e+00,5.000000000000000000e+00,5.000000000000000000e+00,5.000000000000000000e+00,5.000000000000000000e+00,5.000000000000000000e+00,5.000000000000000000e+00,5.000000000000000000e+00,5.000000000000000000e+00,5.000000000000000000e+00,5.000000000000000000e+00,5.000000000000000000e+00,5.000000000000000000e+00,5.000000000000000000e+00,5.000000000000000000e+00,5.000000000000000000e+00,5.000000000000000000e+00,5.000000000000000000e+00,5.000000000000000000e+00,5.000000000000000000e+00,5.000000000000000000e+00,5.000000000000000000e+00,5.000000000000000000e+00
1.933170557022094727e+00,1.959868788719177246e+00,1.987314820289611816e+00,2.015540361404418945e+00,2.044579267501831055e+00,2.074467182159423828e+00,2.105241775512695312e+00,2.136943340301513672e+00,2.169614315032958984e+00,2.203299522399902344e+00,2.238047361373901367e+00,2.273908853530883789e+00,2.310938119888305664e+00,2.349193334579467773e+00,2.388736724853515625e+00,2.429634094238281250e+00,2.471956014633178711e+00,2.515778541564941406e+00,2.561182975769042969e+00,2.608256578445434570e+00,2.657092571258544922e+00,2.707792520523071289e+00,2.760464668273925781e+00,2.815227031707763672e+00,2.872205972671508789e+00,2.931538820266723633e+00,2.993375062942504883e+00,3.057875871658325195e+00,3.125217676162719727e+00,3.195592403411865234e+00,3.269209623336791992e+00,3.346298933029174805e+00,3.427110910415649414e+00,3.511923313140869141e+00,3.601039648056030273e+00,3.694796562194824219e+00,3.793565988540649414e+00,3.897761344909667969e+00,4.007841587066650391e+00,4.124320983886718750e+00,4.247773170471191406e+00,4.378843784332275391e+00,4.518260955810546875e+00,4.666847229003906250e+00,4.821104049682617188e+00,4.819918155670166016e+00,4.818732261657714844e+00,4.817547321319580078e+00,4.816362857818603516e+00,4.815178871154785156e+00,4.813995361328125000e+00,4.812812805175781250e+00,4.811630725860595703e+00,4.810449123382568359e+00,4.809267997741699219e+00,4.808087825775146484e+00,4.806908130645751953e+00,4.805728912353515625e+00,4.804550170898437500e+00,4.803371906280517578e+00,4.802194595336914062e+00,4.801017761230468750e+00,4.799841403961181641e+00,4.798665523529052734e+00,4.797490119934082031e+00,4.796316146850585938e+00,4.795141696929931641e+00,4.793968200683593750e+00,4.792795658111572266e+00,4.791623115539550781e+00,4.790451526641845703e+00,4.789280414581298828e+00,4.788109779357910156e+00,4.786939620971679688e+00,4.785770893096923828e+00,4.784601688385009766e+00,4.783432960510253906e+00,4.782265186309814453e+00,4.781098365783691406e+00,4.779931545257568359e+00
1.933142542839050293e+00,1.959839940071105957e+00,1.987285137176513672e+00,2.015509843826293945e+00,2.044548034667968750e+00,2.074434757232666016e+00,2.105208635330200195e+00,2.136909008026123047e+00,2.169579029083251953e+00,2.203263044357299805e+00,2.238009929656982422e+00,2.273870229721069336e+00,2.310898065567016602e+00,2.349152088165283203e+00,2.388693809509277344e+00,2.429589748382568359e+00,2.471910238265991211e+00,2.515731096267700195e+00,2.561133861541748047e+00,2.608205318450927734e+00,2.657039642333984375e+00,2.707737445831298828e+00,2.760407686233520508e+00,2.815167427062988281e+00,2.872143983840942383e+00,2.931474447250366211e+00,2.993307828903198242e+00,3.057806015014648438e+00,3.125144481658935547e+00,3.195515871047973633e+00,3.269129276275634766e+00,3.346214771270751953e+00,3.427022695541381836e+00,3.511830568313598633e+00,3.600942611694335938e+00,3.694694042205810547e+00,3.751426458358764648e+00,3.750708103179931641e+00,3.749990463256835938e+00,3.749272823333740234e+00,3.748555183410644531e+00,3.747838497161865234e+00,3.747121572494506836e+00,3.746404886245727539e+00,3.745688438415527344e+00,3.744972705841064453e+00,3.744256973266601562e+00,3.743541240692138672e+00,3.742825984954833984e+00,3.742110967636108398e+00,3.741396188735961914e+00,3.740681886672973633e+00,3.739968061447143555e+00,3.739253997802734375e+00,3.738540410995483398e+00,3.737827062606811523e+00,3.737113952636718750e+00,3.736401081085205078e+00,3.735688924789428711e+00,3.734976530075073242e+00,3.734264612197875977e+00,3.733552932739257812e+00,3.732841253280639648e+00,3.732130050659179688e+00,3.731419086456298828e+00,3.730708837509155273e+00,3.729998588562011719e+00,3.729288339614868164e+00,3.728578567504882812e+00,3.727868795394897461e+00,3.727159500122070312e+00,3.726450920104980469e+00,3.725742101669311523e+00,3.725033521652221680e+00,3.724325180053710938e+00,3.723617315292358398e+00,3.722909688949584961e+00,3.722202062606811523e+00,3.721495389938354492e+00,3.720788478851318359e+00
1.933114647865295410e+00,1.959811091423034668e+00,1.987255454063415527e+00,2.015479326248168945e+00,2.044516563415527344e+00,2.074402570724487305e+00,2.105175495147705078e+00,2.136874914169311523e+00,2.169543743133544922e+00,2.203226804733276367e+00,2.237972259521484375e+00,2.273831367492675781e+00,2.310858011245727539e+00,2.349110603332519531e+00,2.388651132583618164e+00,2.429545402526855469e+00,2.471864461898803711e+00,2.515683650970458984e+00,2.561084747314453125e+00,2.608154296875000000e+00,2.656986713409423828e+00,2.707682609558105469e+00,2.760350465774536133e+00,2.815108299255371094e+00,2.872082233428955078e+00,2.931410074234008789e+00,2.993240594863891602e+00,3.057735681533813477e+00,3.070223808288574219e+00,3.069742441177368164e+00,3.069261789321899414e+00,3.068780899047851562e+00,3.068300247192382812e+00,3.067819833755493164e+00,3.067339658737182617e+00,3.066859483718872070e+00,3.066379308700561523e+00,3.065899372100830078e+00,3.065419912338256836e+00,3.064940214157104492e+00,3.064460754394531250e+00,3.063981771469116211e+00,3.063502550125122070e+00,3.063023567199707031e+00,3.062544584274291992e+00,3.062066078186035156e+00,3.061587572097778320e+00,3.061109066009521484e+00,3.060631036758422852e+00,3.060153007507324219e+00,3.059674978256225586e+00,3.059196949005126953e+00,3.058719396591186523e+00,3.058241844177246094e+00,3.057764291763305664e+00,3.057287454605102539e+00,3.056810379028320312e+00,3.056333303451538086e+00,3.055856466293334961e+00,3.055379867553710938e+00,3.054903268814086914e+00,3.054427146911621094e+00,3.053951025009155273e+00,3.053474903106689453e+00,3.052999019622802734e+00,3.052523374557495117e+00,3.052047729492187500e+00,3.051572322845458984e+00,3.051097154617309570e+00,3.050621986389160156e+00,3.050147056579589844e+00,3.049672126770019531e+00,3.049197435379028320e+00,3.048722743988037109e+00,3.048248529434204102e+00,3.047774314880371094e+00,3.047300100326538086e+00,3.046826124191284180e+00,3.046352386474609375e+00,3.045878648757934570e+00
1.933086633682250977e+00,1.959782481193542480e+00,1.987225890159606934e+00,2.015448808670043945e+00,2.044485092163085938e+00,2.074370384216308594e+00,2.105142116546630859e+00,2.136840581893920898e+00,2.169508218765258789e+00,2.203190326690673828e+00,2.237934827804565430e+00,2.273792505264282227e+00,2.310817956924438477e+00,2.349069356918334961e+00,2.388608455657958984e+00,2.429501056671142578e+00,2.471818447113037109e+00,2.515636205673217773e+00,2.561035394668579102e+00,2.598738908767700195e+00,2.598394155502319336e+00,2.598049640655517578e+00,2.597705125808715820e+00,2.597360849380493164e+00,2.597016572952270508e+00,2.596672296524047852e+00,2.596328258514404297e+00,2.595984220504760742e+00,2.595640182495117188e+00,2.595296144485473633e+00,2.594952583312988281e+00,2.594608783721923828e+00,2.594265222549438477e+00,2.593921661376953125e+00,2.593578338623046875e+00,2.593235015869140625e+00,2.592891931533813477e+00,2.592548608779907227e+00,2.592205762863159180e+00,2.591862678527832031e+00,2.591519832611083984e+00,2.591177225112915039e+00,2.590834617614746094e+00,2.590491771697998047e+00,2.590149402618408203e+00,2.589807033538818359e+00,2.589464664459228516e+00,2.589122533798217773e+00,2.588780164718627930e+00,2.588438272476196289e+00,2.588096380233764648e+00,2.587754487991333008e+00,2.587412834167480469e+00,2.587071180343627930e+00,2.586729526519775391e+00,2.586387872695922852e+00,2.586046457290649414e+00,2.585705280303955078e+00,2.585364103317260742e+00,2.585022926330566406e+00,2.584681749343872070e+00,2.584340810775756836e+00,2.583999872207641602e+00,2.583659172058105469e+00,2.583318233489990234e+00,2.582977771759033203e+00,2.582637310028076172e+00,2.582296848297119141e+00,2.581956386566162109e+00,2.581616163253784180e+00,2.581275939941406250e+00,2.580936193466186523e+00,2.580595970153808594e+00,2.580256223678588867e+00,2.579916238784790039e+00,2.579576492309570312e+00,2.579236984252929688e+00,2.578897237777709961e+00,2.578557968139648438e+00,2.578218698501586914e+00
1.933058500289916992e+00,1.959753632545471191e+00,1.987196207046508789e+00,2.015418529510498047e+00,2.044453859329223633e+00,2.074337959289550781e+00,2.105108976364135742e+00,2.136806249618530273e+00,2.169472932815551758e+00,2.203153848648071289e+00,2.237897157669067383e+00,2.252526760101318359e+00,2.252267599105834961e+00,2.252008676528930664e+00,2.251749992370605469e+00,2.251491308212280273e+00,2.251232385635375977e+00,2.250973701477050781e+00,2.250715017318725586e+00,2.250456571578979492e+00,2.250198125839233398e+00,2.249939680099487305e+00,2.249681234359741211e+00,2.249423027038574219e+00,2.249164819717407227e+00,2.248906612396240234e+00,2.248648643493652344e+00,2.248390436172485352e+00,2.248132467269897461e+00,2.247874498367309570e+00,2.247616767883300781e+00,2.247358798980712891e+00,2.247101068496704102e+00,2.246843338012695312e+00,2.246585607528686523e+00,2.246328115463256836e+00,2.246070384979248047e+00,2.245812892913818359e+00,2.245555639266967773e+00,2.245298147201538086e+00,2.245040893554687500e+00,2.244783639907836914e+00,2.244526624679565430e+00,2.244269371032714844e+00,2.244012355804443359e+00,2.243755340576171875e+00,2.243498325347900391e+00,2.243241548538208008e+00,2.242984533309936523e+00,2.242727994918823242e+00,2.242471218109130859e+00,2.242214441299438477e+00,2.241957902908325195e+00,2.241701364517211914e+00,2.241444826126098633e+00,2.241188526153564453e+00,2.240932226181030273e+00,2.240675926208496094e+00,2.240419626235961914e+00,2.240163326263427734e+00,2.239907264709472656e+00,2.239651203155517578e+00,2.239395141601562500e+00,2.239139318466186523e+00,2.238883256912231445e+00,2.238627433776855469e+00,2.238371610641479492e+00,2.238115787506103516e+00,2.237860202789306641e+00,2.237604618072509766e+00,2.237349033355712891e+00,2.237093448638916016e+00,2.236838102340698242e+00,2.236582756042480469e+00,2.236327409744262695e+00,2.236072301864624023e+00,2.235816955566406250e+00,2.235561847686767578e+00,2.235306739807128906e+00,2.235051631927490234e+00
1.933030486106872559e+00,1.959724783897399902e+00,1.987166762351989746e+00,1.987716436386108398e+00,1.987514972686767578e+00,1.987313389778137207e+00,1.987111687660217285e+00,1.986910223960876465e+00,1.986708879470825195e+00,1.986507296562194824e+00,1.986305952072143555e+00,1.986104607582092285e+00,1.985903143882751465e+00,1.985702037811279297e+00,1.985500574111938477e+00,1.985299468040466309e+00,1.985098481178283691e+00,1.984897136688232422e+00,1.984696149826049805e+00,1.984495162963867188e+00,1.984294056892395020e+00,1.984093189239501953e+00,1.983892083168029785e+00,1.983691334724426270e+00,1.983490586280822754e+00,1.983289599418640137e+00,1.983088970184326172e+00,1.982888340950012207e+00,1.982687473297119141e+00,1.982486963272094727e+00,1.982286453247070312e+00,1.982085824012756348e+00,1.981885313987731934e+00,1.981684684753417969e+00,1.981484413146972656e+00,1.981284022331237793e+00,1.981083631515502930e+00,1.980883359909057617e+00,1.980683207511901855e+00,1.980482816696166992e+00,1.980282664299011230e+00,1.980082631111145020e+00,1.979882359504699707e+00,1.979682326316833496e+00,1.979482173919677734e+00,1.979282259941101074e+00,1.979082465171813965e+00,1.978882431983947754e+00,1.978682637214660645e+00,1.978482842445373535e+00,1.978282928466796875e+00,1.978083252906799316e+00,1.977883458137512207e+00,1.977683782577514648e+00,1.977484345436096191e+00,1.977284550666809082e+00,1.977085113525390625e+00,1.976885676383972168e+00,1.976686120033264160e+00,1.976486682891845703e+00,1.976287484169006348e+00,1.976087927818298340e+00,1.975888729095458984e+00,1.975689291954040527e+00,1.975490212440490723e+00,1.975291132926940918e+00,1.975091814994812012e+00,1.974892735481262207e+00,1.974693536758422852e+00,1.974494576454162598e+00,1.974295496940612793e+00,1.974096655845642090e+00,1.973897814750671387e+00,1.973698854446411133e+00,1.973500132560729980e+00,1.973301172256469727e+00,1.973102450370788574e+00,1.972903609275817871e+00,1.972705125808715820e+00,1.972506523132324219e+00
1.777812838554382324e+00,1.777651429176330566e+00,1.777490139007568359e+00,1.777328848838806152e+00,1.777167677879333496e+00,1.777006506919860840e+00,1.776845216751098633e+00,1.776684165000915527e+00,1.776523113250732422e+00,1.776361942291259766e+00,1.776201009750366211e+00,1.776039958000183105e+00,1.775878906250000000e+00,1.775717973709106445e+00,1.775556921958923340e+00,1.775396108627319336e+00,1.775235295295715332e+00,1.775074362754821777e+00,1.774913549423217773e+00,1.774752855300903320e+00,1.774592041969299316e+00,1.774431347846984863e+00,1.774270534515380859e+00,1.774109840393066406e+00,1.773949265480041504e+00,1.773788571357727051e+00,1.773628115653991699e+00,1.773467540740966797e+00,1.773306965827941895e+00,1.773146510124206543e+00,1.772986054420471191e+00,1.772825598716735840e+00,1.772665262222290039e+00,1.772504687309265137e+00,1.772344470024108887e+00,1.772184133529663086e+00,1.772023797035217285e+00,1.771863579750061035e+00,1.771703362464904785e+00,1.771543025970458984e+00,1.771382927894592285e+00,1.771222829818725586e+00,1.771062612533569336e+00,1.770902633666992188e+00,1.770742416381835938e+00,1.770582437515258789e+00,1.770422458648681641e+00,1.770262360572814941e+00,1.770102500915527344e+00,1.769942641258239746e+00,1.769782662391662598e+00,1.769622921943664551e+00,1.769462943077087402e+00,1.769303202629089355e+00,1.769143462181091309e+00,1.768983602523803711e+00,1.768823981285095215e+00,1.768664360046386719e+00,1.768504619598388672e+00,1.768344998359680176e+00,1.768185496330261230e+00,1.768025755882263184e+00,1.767866253852844238e+00,1.767706632614135742e+00,1.767547249794006348e+00,1.767387866973876953e+00,1.767228364944458008e+00,1.767068982124328613e+00,1.766909718513488770e+00,1.766750216484069824e+00,1.766590952873229980e+00,1.766431570053100586e+00,1.766272425651550293e+00,1.766113042831420898e+00,1.765953898429870605e+00,1.765794873237609863e+00,1.765635609626770020e+00,1.765476584434509277e+00,1.765317320823669434e+00,1.765158414840698242e+00
1.607610702514648438e+00,1.607478618621826172e+00,1.607346892356872559e+00,1.607214927673339844e+00,1.607083082199096680e+00,1.606951355934143066e+00,1.606819391250610352e+00,1.606687664985656738e+00,1.606556057929992676e+00,1.606424212455749512e+00,1.606292486190795898e+00,1.606160879135131836e+00,1.606029152870178223e+00,1.605897545814514160e+00,1.605765819549560547e+00,1.605634212493896484e+00,1.605502724647521973e+00,1.605371117591857910e+00,1.605239629745483398e+00,1.605108141899108887e+00,1.604976534843444824e+00,1.604845166206359863e+00,1.604713559150695801e+00,1.604582190513610840e+00,1.604450821876525879e+00,1.604319334030151367e+00,1.604188084602355957e+00,1.604056715965270996e+00,1.603925347328186035e+00,1.603794097900390625e+00,1.603662848472595215e+00,1.603531479835510254e+00,1.603400349617004395e+00,1.603268980979919434e+00,1.603137850761413574e+00,1.603006720542907715e+00,1.602875471115112305e+00,1.602744460105895996e+00,1.602613329887390137e+00,1.602482199668884277e+00,1.602351188659667969e+00,1.602220177650451660e+00,1.602089047431945801e+00,1.601958155632019043e+00,1.601827025413513184e+00,1.601696133613586426e+00,1.601565241813659668e+00,1.601434230804443359e+00,1.601303458213806152e+00,1.601172566413879395e+00,1.601041674613952637e+00,1.600910902023315430e+00,1.600780010223388672e+00,1.600649237632751465e+00,1.600518584251403809e+00,1.600387692451477051e+00,1.600257039070129395e+00,1.600126385688781738e+00,1.599995613098144531e+00,1.599864959716796875e+00,1.599734425544738770e+00,1.599603652954101562e+00,1.599473118782043457e+00,1.599342465400695801e+00,1.599211931228637695e+00,1.599081516265869141e+00,1.598950862884521484e+00,1.598820447921752930e+00,1.598690032958984375e+00,1.598559498786926270e+00,1.598429203033447266e+00,1.598298788070678711e+00,1.598168373107910156e+00,1.598038077354431152e+00,1.597907543182373047e+00,1.597777366638183594e+00,1.597646951675415039e+00,1.597516655921936035e+00,1.597386479377746582e+00,1.597256183624267578e+00
1.467150330543518066e+00,1.467040419578552246e+00,1.466930627822875977e+00,1.466820716857910156e+00,1.466710925102233887e+00,1.466601133346557617e+00,1.466491341590881348e+00,1.466381549835205078e+00,1.466271877288818359e+00,1.466162085533142090e+00,1.466052412986755371e+00,1.465942740440368652e+00,1.465832948684692383e+00,1.465723395347595215e+00,1.465613603591918945e+00,1.465504050254821777e+00,1.465394496917724609e+00,1.465284824371337891e+00,1.465175271034240723e+00,1.465065717697143555e+00,1.464956045150756836e+00,1.464846611022949219e+00,1.464736938476562500e+00,1.464627504348754883e+00,1.464518070220947266e+00,1.464408516883850098e+00,1.464299082756042480e+00,1.464189767837524414e+00,1.464080214500427246e+00,1.463970899581909180e+00,1.463861465454101562e+00,1.463752031326293945e+00,1.463642716407775879e+00,1.463533282279968262e+00,1.463424086570739746e+00,1.463314771652221680e+00,1.463205456733703613e+00,1.463096141815185547e+00,1.462986946105957031e+00,1.462877631187438965e+00,1.462768435478210449e+00,1.462659358978271484e+00,1.462550044059753418e+00,1.462440967559814453e+00,1.462331652641296387e+00,1.462222576141357422e+00,1.462113499641418457e+00,1.462004303932189941e+00,1.461895227432250977e+00,1.461786270141601562e+00,1.461677074432373047e+00,1.461568117141723633e+00,1.461459040641784668e+00,1.461350083351135254e+00,1.461241126060485840e+00,1.461132049560546875e+00,1.461023092269897461e+00,1.460914254188537598e+00,1.460805177688598633e+00,1.460696339607238770e+00,1.460587501525878906e+00,1.460478544235229492e+00,1.460369706153869629e+00,1.460260748863220215e+00,1.460152029991149902e+00,1.460043191909790039e+00,1.459934353828430176e+00,1.459825634956359863e+00,1.459716916084289551e+00,1.459608078002929688e+00,1.459499359130859375e+00,1.459390640258789062e+00,1.459281921386718750e+00,1.459173202514648438e+00,1.459064602851867676e+00,1.458955883979797363e+00,1.458847284317016602e+00,1.458738565444946289e+00,1.458629965782165527e+00,1.458521366119384766e+00
1.349262356758117676e+00,1.349169373512268066e+00,1.349076509475708008e+00,1.348983645439147949e+00,1.348890781402587891e+00,1.348797917366027832e+00,1.348705053329467773e+00,1.348612189292907715e+00,1.348519444465637207e+00,1.348426580429077148e+00,1.348333716392517090e+00,1.348240971565246582e+00,1.348148107528686523e+00,1.348055481910705566e+00,1.347962617874145508e+00,1.347869873046875000e+00,1.347777247428894043e+00,1.347684502601623535e+00,1.347591757774353027e+00,1.347499132156372070e+00,1.347406387329101562e+00,1.347313761711120605e+00,1.347221136093139648e+00,1.347128510475158691e+00,1.347035884857177734e+00,1.346943259239196777e+00,1.346850633621215820e+00,1.346758127212524414e+00,1.346665501594543457e+00,1.346572995185852051e+00,1.346480488777160645e+00,1.346387863159179688e+00,1.346295356750488281e+00,1.346202850341796875e+00,1.346110343933105469e+00,1.346017837524414062e+00,1.345925331115722656e+00,1.345832943916320801e+00,1.345740556716918945e+00,1.345648050308227539e+00,1.345555663108825684e+00,1.345463275909423828e+00,1.345370769500732422e+00,1.345278501510620117e+00,1.345185995101928711e+00,1.345093727111816406e+00,1.345001339912414551e+00,1.344908952713012695e+00,1.344816684722900391e+00,1.344724416732788086e+00,1.344632029533386230e+00,1.344539880752563477e+00,1.344447493553161621e+00,1.344355225563049316e+00,1.344263076782226562e+00,1.344170808792114258e+00,1.344078540802001953e+00,1.343986392021179199e+00,1.343894124031066895e+00,1.343801975250244141e+00,1.343709945678710938e+00,1.343617677688598633e+00,1.343525528907775879e+00,1.343433380126953125e+00,1.343341231346130371e+00,1.343249201774597168e+00,1.343157052993774414e+00,1.343065023422241211e+00,1.342972993850708008e+00,1.342880845069885254e+00,1.342788815498352051e+00,1.342696905136108398e+00,1.342604756355285645e+00,1.342512845993041992e+00,1.342420697212219238e+00,1.342328786849975586e+00,1.342236876487731934e+00,1.342144846916198730e+00,1.342052936553955078e+00,1.341961026191711426e+00
1.248910427093505859e+00,1.248830795288085938e+00,1.248751163482666016e+00,1.248671531677246094e+00,1.248592019081115723e+00,1.248512506484985352e+00,1.248432874679565430e+00,1.248353362083435059e+00,1.248273849487304688e+00,1.248194217681884766e+00,1.248114705085754395e+00,1.248035311698913574e+00,1.247955679893493652e+00,1.247876286506652832e+00,1.247796773910522461e+00,1.247717261314392090e+00,1.247637867927551270e+00,1.247558355331420898e+00,1.247478961944580078e+00,1.247399568557739258e+00,1.247320055961608887e+00,1.247240662574768066e+00,1.247161269187927246e+00,1.247081875801086426e+00,1.247002601623535156e+00,1.246923089027404785e+00,1.246843814849853516e+00,1.246764540672302246e+00,1.246685147285461426e+00,1.246605753898620605e+00,1.246526479721069336e+00,1.246447205543518066e+00,1.246367931365966797e+00,1.246288537979125977e+00,1.246209263801574707e+00,1.246130108833312988e+00,1.246050715446472168e+00,1.245971560478210449e+00,1.245892286300659180e+00,1.245813012123107910e+00,1.245733857154846191e+00,1.245654702186584473e+00,1.245575428009033203e+00,1.245496273040771484e+00,1.245416998863220215e+00,1.245337963104248047e+00,1.245258808135986328e+00,1.245179533958435059e+00,1.245100498199462891e+00,1.245021343231201172e+00,1.244942188262939453e+00,1.244863152503967285e+00,1.244783997535705566e+00,1.244704961776733398e+00,1.244625926017761230e+00,1.244546771049499512e+00,1.244467735290527344e+00,1.244388699531555176e+00,1.244309663772583008e+00,1.244230628013610840e+00,1.244151711463928223e+00,1.244072556495666504e+00,1.243993639945983887e+00,1.243914604187011719e+00,1.243835687637329102e+00,1.243756771087646484e+00,1.243677735328674316e+00,1.243598818778991699e+00,1.243519902229309082e+00,1.243440866470336914e+00,1.243362069129943848e+00,1.243283152580261230e+00,1.243204236030578613e+00,1.243125319480895996e+00,1.243046402931213379e+00,1.242967605590820312e+00,1.242888808250427246e+00,1.242809891700744629e+00,1.242731094360351562e+00,1.242652297019958496e+00
1.162452578544616699e+00,1.162383556365966797e+00,1.162314653396606445e+00,1.162245631217956543e+00,1.162176728248596191e+00,1.162107825279235840e+00,1.162038803100585938e+00,1.161969900131225586e+00,1.161900997161865234e+00,1.161832094192504883e+00,1.161763191223144531e+00,1.161694288253784180e+00,1.161625385284423828e+00,1.161556601524353027e+00,1.161487698554992676e+00,1.161418795585632324e+00,1.161350011825561523e+00,1.161281108856201172e+00,1.161212325096130371e+00,1.161143541336059570e+00,1.161074638366699219e+00,1.161005854606628418e+00,1.160937070846557617e+00,1.160868287086486816e+00,1.160799503326416016e+00,1.160730719566345215e+00,1.160661935806274414e+00,1.160593152046203613e+00,1.160524368286132812e+00,1.160455703735351562e+00,1.160387039184570312e+00,1.160318255424499512e+00,1.160249471664428711e+00,1.160180807113647461e+00,1.160112142562866211e+00,1.160043358802795410e+00,1.159974694252014160e+00,1.159906029701232910e+00,1.159837365150451660e+00,1.159768700599670410e+00,1.159700036048889160e+00,1.159631490707397461e+00,1.159562706947326660e+00,1.159494161605834961e+00,1.159425497055053711e+00,1.159356832504272461e+00,1.159288287162780762e+00,1.159219622611999512e+00,1.159151077270507812e+00,1.159082531929016113e+00,1.159013986587524414e+00,1.158945441246032715e+00,1.158876776695251465e+00,1.158808231353759766e+00,1.158739805221557617e+00,1.158671140670776367e+00,1.158602714538574219e+00,1.158534169197082520e+00,1.158465623855590820e+00,1.158397197723388672e+00,1.158328771591186523e+00,1.158260226249694824e+00,1.158191800117492676e+00,1.158123254776000977e+00,1.158054828643798828e+00,1.157986402511596680e+00,1.157917857170104980e+00,1.157849550247192383e+00,1.157781124114990234e+00,1.157712578773498535e+00,1.157644271850585938e+00,1.157575845718383789e+00,1.157507419586181641e+00,1.157439112663269043e+00,1.157370686531066895e+00,1.157302260398864746e+00,1.157233953475952148e+00,1.157165527343750000e+00,1.157097220420837402e+00,1.157028913497924805e+00
1.087190032005310059e+00,1.087129592895507812e+00,1.087069272994995117e+00,1.087008953094482422e+00,1.086948633193969727e+00,1.086888432502746582e+00,1.086828112602233887e+00,1.086767792701721191e+00,1.086707592010498047e+00,1.086647272109985352e+00,1.086586952209472656e+00,1.086526751518249512e+00,1.086466431617736816e+00,1.086406230926513672e+00,1.086345911026000977e+00,1.086285710334777832e+00,1.086225509643554688e+00,1.086165308952331543e+00,1.086105108261108398e+00,1.086044907569885254e+00,1.085984706878662109e+00,1.085924506187438965e+00,1.085864305496215820e+00,1.085804104804992676e+00,1.085743904113769531e+00,1.085683703422546387e+00,1.085623621940612793e+00,1.085563421249389648e+00,1.085503220558166504e+00,1.085443139076232910e+00,1.085383057594299316e+00,1.085322856903076172e+00,1.085262775421142578e+00,1.085202574729919434e+00,1.085142493247985840e+00,1.085082530975341797e+00,1.085022330284118652e+00,1.084962248802185059e+00,1.084902167320251465e+00,1.084842085838317871e+00,1.084782004356384277e+00,1.084722042083740234e+00,1.084661841392517090e+00,1.084601879119873047e+00,1.084541797637939453e+00,1.084481835365295410e+00,1.084421753883361816e+00,1.084361672401428223e+00,1.084301710128784180e+00,1.084241747856140137e+00,1.084181666374206543e+00,1.084121704101562500e+00,1.084061741828918457e+00,1.084001779556274414e+00,1.083941817283630371e+00,1.083881735801696777e+00,1.083821892738342285e+00,1.083761930465698242e+00,1.083701968193054199e+00,1.083642005920410156e+00,1.083582043647766113e+00,1.083522081375122070e+00,1.083462238311767578e+00,1.083402276039123535e+00,1.083342432975769043e+00,1.083282470703125000e+00,1.083222508430480957e+00,1.083162665367126465e+00,1.083102822303771973e+00,1.083042860031127930e+00,1.082983016967773438e+00,1.082923293113708496e+00,1.082863330841064453e+00,1.082803487777709961e+00,1.082743644714355469e+00,1.082683801651000977e+00,1.082623958587646484e+00,1.082564115524291992e+00,1.082504391670227051e+00,1.082444548606872559e+00
1.021080493927001953e+00,1.021027326583862305e+00,1.020974040031433105e+00,1.020920872688293457e+00,1.020867705345153809e+00,1.020814538002014160e+00,1.020761251449584961e+00,1.020708084106445312e+00,1.020654916763305664e+00,1.020601749420166016e+00,1.020548582077026367e+00,1.020495414733886719e+00,1.020442247390747070e+00,1.020389199256896973e+00,1.020335912704467773e+00,1.020282864570617676e+00,1.020229697227478027e+00,1.020176529884338379e+00,1.020123481750488281e+00,1.020070433616638184e+00,1.020017266273498535e+00,1.019964218139648438e+00,1.019911050796508789e+00,1.019858002662658691e+00,1.019804835319519043e+00,1.019751787185668945e+00,1.019698739051818848e+00,1.019645690917968750e+00,1.019592523574829102e+00,1.019539475440979004e+00,1.019486546516418457e+00,1.019433379173278809e+00,1.019380331039428711e+00,1.019327282905578613e+00,1.019274353981018066e+00,1.019221305847167969e+00,1.019168257713317871e+00,1.019115209579467773e+00,1.019062280654907227e+00,1.019009232521057129e+00,1.018956184387207031e+00,1.018903255462646484e+00,1.018850207328796387e+00,1.018797278404235840e+00,1.018744230270385742e+00,1.018691301345825195e+00,1.018638372421264648e+00,1.018585324287414551e+00,1.018532395362854004e+00,1.018479466438293457e+00,1.018426537513732910e+00,1.018373608589172363e+00,1.018320679664611816e+00,1.018267750740051270e+00,1.018214821815490723e+00,1.018161892890930176e+00,1.018108963966369629e+00,1.018056154251098633e+00,1.018003106117248535e+00,1.017950296401977539e+00,1.017897367477416992e+00,1.017844438552856445e+00,1.017791628837585449e+00,1.017738699913024902e+00,1.017685890197753906e+00,1.017633080482482910e+00,1.017580151557922363e+00,1.017527341842651367e+00,1.017474532127380371e+00,1.017421603202819824e+00,1.017368793487548828e+00,1.017315983772277832e+00,1.017263174057006836e+00,1.017210364341735840e+00,1.017157435417175293e+00,1.017104744911193848e+00,1.017051935195922852e+00,1.016999125480651855e+00,1.016946315765380859e+00,1.016893506050109863e+00
9.625501632690429688e-01,9.625028967857360840e-01,9.624556303024291992e-01,9.624082446098327637e-01,9.623609781265258789e-01,9.623137116432189941e-01,9.622664451599121094e-01,9.622192382812500000e-01,9.621719717979431152e-01,9.621246457099914551e-01,9.620774388313293457e-01,9.620302319526672363e-01,9.619829654693603516e-01,9.619357585906982422e-01,9.618884325027465820e-01,9.618412256240844727e-01,9.617940783500671387e-01,9.617468714714050293e-01,9.616996645927429199e-01,9.616525173187255859e-01,9.616051912307739258e-01,9.615580439567565918e-01,9.615108370780944824e-01,9.614636898040771484e-01,9.614165425300598145e-01,9.613692760467529297e-01,9.613221287727355957e-01,9.612749814987182617e-01,9.612278342247009277e-01,9.611806869506835938e-01,9.611335396766662598e-01,9.610862731933593750e-01,9.610391855239868164e-01,9.609920382499694824e-01,9.609449505805969238e-01,9.608978033065795898e-01,9.608505964279174805e-01,9.608035087585449219e-01,9.607564210891723633e-01,9.607093334197998047e-01,9.606622457504272461e-01,9.606151580810546875e-01,9.605679512023925781e-01,9.605208635330200195e-01,9.604737758636474609e-01,9.604267477989196777e-01,9.603796601295471191e-01,9.603325128555297852e-01,9.602854847908020020e-01,9.602383971214294434e-01,9.601913690567016602e-01,9.601443409919738770e-01,9.600971937179565430e-01,9.600501656532287598e-01,9.600031375885009766e-01,9.599561095237731934e-01,9.599090814590454102e-01,9.598621129989624023e-01,9.598149657249450684e-01,9.597679972648620605e-01,9.597209692001342773e-01,9.596740007400512695e-01,9.596269726753234863e-01,9.595798850059509277e-01,9.595329165458679199e-01,9.594859480857849121e-01,9.594389796257019043e-01,9.593920111656188965e-01,9.593450427055358887e-01,9.592980146408081055e-01,9.592510461807250977e-01,9.592040777206420898e-01,9.591571688652038574e-01,9.591102004051208496e-01,9.590631723403930664e-01,9.590162634849548340e-01,9.589692950248718262e-01,9.589223861694335938e-01,9.588754773139953613e-01,9.588285684585571289e-01
9.103661775588989258e-01,9.103237390518188477e-01,9.102814793586730957e-01,9.102392196655273438e-01,9.101969599723815918e-01,9.101547002792358398e-01,9.101123213768005371e-01,9.100700616836547852e-01,9.100278019905090332e-01,9.099855422973632812e-01,9.099432826042175293e-01,9.099010229110717773e-01,9.098587036132812500e-01,9.098165035247802734e-01,9.097742438316345215e-01,9.097320437431335449e-01,9.096897840499877930e-01,9.096474647521972656e-01,9.096052646636962891e-01,9.095630645751953125e-01,9.095208048820495605e-01,9.094786047935485840e-01,9.094363451004028320e-01,9.093941450119018555e-01,9.093519449234008789e-01,9.093097448348999023e-01,9.092675447463989258e-01,9.092254042625427246e-01,9.091830849647521973e-01,9.091409444808959961e-01,9.090987443923950195e-01,9.090566039085388184e-01,9.090144634246826172e-01,9.089722037315368652e-01,9.089300632476806641e-01,9.088878631591796875e-01,9.088457226753234863e-01,9.088035821914672852e-01,9.087614417076110840e-01,9.087192416191101074e-01,9.086771011352539062e-01,9.086349606513977051e-01,9.085928201675415039e-01,9.085507392883300781e-01,9.085085391998291016e-01,9.084663987159729004e-01,9.084243178367614746e-01,9.083821773529052734e-01,9.083400964736938477e-01,9.082980155944824219e-01,9.082558155059814453e-01,9.082137346267700195e-01,9.081716537475585938e-01,9.081295728683471680e-01,9.080874919891357422e-01,9.080453515052795410e-01,9.080032706260681152e-01,9.079611897468566895e-01,9.079191088676452637e-01,9.078770875930786133e-01,9.078350067138671875e-01,9.077928662300109863e-01,9.077508449554443359e-01,9.077087640762329102e-01,9.076667428016662598e-01,9.076247215270996094e-01,9.075825810432434082e-01,9.075405597686767578e-01,9.074985384941101074e-01,9.074565172195434570e-01,9.074144959449768066e-01,9.073725342750549316e-01,9.073303937911987305e-01,9.072884321212768555e-01,9.072464108467102051e-01,9.072044491767883301e-01,9.071624279022216797e-01,9.071203470230102539e-01,9.070783853530883789e-01,9.070363640785217285e-01
8.635493516921997070e-01,8.635112643241882324e-01,8.634732365608215332e-01,8.634350895881652832e-01,8.633970618247985840e-01,8.633590340614318848e-01,8.633210062980651855e-01,8.632829785346984863e-01,8.632449507713317871e-01,8.632068634033203125e-01,8.631688356399536133e-01,8.631308078765869141e-01,8.630928397178649902e-01,8.630548119544982910e-01,8.630167245864868164e-01,8.629786968231201172e-01,8.629407286643981934e-01,8.629027605056762695e-01,8.628647327423095703e-01,8.628267645835876465e-01,8.627886772155761719e-01,8.627507090568542480e-01,8.627127408981323242e-01,8.626747727394104004e-01,8.626368045806884766e-01,8.625987172126770020e-01,8.625607490539550781e-01,8.625228404998779297e-01,8.624848723411560059e-01,8.624469041824340820e-01,8.624089360237121582e-01,8.623709082603454590e-01,8.623329997062683105e-01,8.622950315475463867e-01,8.622571229934692383e-01,8.622191548347473145e-01,8.621811270713806152e-01,8.621432185173034668e-01,8.621053099632263184e-01,8.620674014091491699e-01,8.620294928550720215e-01,8.619915843009948730e-01,8.619535565376281738e-01,8.619156479835510254e-01,8.618777394294738770e-01,8.618398308753967285e-01,8.618019819259643555e-01,8.617639541625976562e-01,8.617261052131652832e-01,8.616881966590881348e-01,8.616503477096557617e-01,8.616124391555786133e-01,8.615744709968566895e-01,8.615366220474243164e-01,8.614987134933471680e-01,8.614608645439147949e-01,8.614230155944824219e-01,8.613851666450500488e-01,8.613471984863281250e-01,8.613093495368957520e-01,8.612715005874633789e-01,8.612336516380310059e-01,8.611958026885986328e-01,8.611578941345214844e-01,8.611200451850891113e-01,8.610822558403015137e-01,8.610444068908691406e-01,8.610065579414367676e-01,8.609687685966491699e-01,8.609308600425720215e-01,8.608930110931396484e-01,8.608552217483520508e-01,8.608174324035644531e-01,8.607795834541320801e-01,8.607417345046997070e-01,8.607038855552673340e-01,8.606660962104797363e-01,8.606283068656921387e-01,8.605905175209045410e-01,8.605527281761169434e-01
