3.100847244262695312e+00,3.179302453994750977e+00,3.261840581893920898e+00,3.348778009414672852e+00,3.440476655960083008e+00,3.537338733673095703e+00,3.639812946319580078e+00,3.748401165008544922e+00,3.863668203353881836e+00,3.986249208450317383e+00,4.116862773895263672e+00,4.256326198577880859e+00,4.405569553375244141e+00,4.565659523010253906e+00,4.737823009490966797e+00,4.923479080200195312e+00,5.000000000000000000e+00,5.000000000000000000e+00,5.000000000000000000e+00,5.000000000000000000e+00,5.000000000000000000e+00,5.000000000000000000e+00,5.000000000000000000e+00,5.000000000000000000e+00,2.730594396591186523e+00,2.651193618774414062e+00,2.654583930969238281e+00,5.000000000000000000e+00,5.000000000000000000e+00,5.000000000000000000e+00,5.000000000000000000e+00,5.000000000000000000e+00,5.000000000000000000e+00,5.000000000000000000e+00,5.000000000000000000e+00,5.000000000000000000e+00,5.000000000000000000e+00,5.000000000000000000e+00,5.000000000000000000e+00,5.000000000000000000e+00,5.000000000000000000e+00,5.000000000000000000e+00,5.000000000000000000e+00,5.000000000000000000e+00,5.000000000000000000e+00,5.000000000000000000e+00,5.000000000000000000e+00,5.000000000000000000e+00,5.000000000000000000e+00,5.000000000000000000e+00,5.000000000000000000e+00,5.000000000000000000e+00,5.000000000000000000e+00,5.000000000000000000e+00,5.000000000000000000e+00,5.000000000000000000e+00,5.000000000000000000e+00,5.000000000000000000e+00,5.000000000000000000e+00,5.000000000000000000e+00,5.000000000000000000e+00,5.000000000000000000e+00,5.000000000000000000e+00,5.000000000000000000e+00,5.000000000000000000e+00,5.000000000000000000e+00,5.000000000000000000e+00,5.000000000000000000e+00,5.000000000000000000e+00,5.000000000000000000e+00,4.847443103790283203e+00,4.688252925872802734e+00,4.539185523986816406e+00,4.399333953857421875e+00,4.267913341522216797e+00,4.144116401672363281e+00,4.027298927307128906e+00,3.916887044906616211e+00,3.812367677688598633e+00,3.713281393051147461e+00
3.100781440734863281e+00,3.179226398468017578e+00,3.261751174926757812e+00,3.348683834075927734e+00,3.440377473831176758e+00,3.537233591079711914e+00,3.639701604843139648e+00,3.748283624649047852e+00,3.863542795181274414e+00,3.986115694046020508e+00,4.116720676422119141e+00,4.256174087524414062e+00,4.405406475067138672e+00,4.565484523773193359e+00,4.737634181976318359e+00,4.923275947570800781e+00,5.000000000000000000e+00,5.000000000000000000e+00,5.000000000000000000e+00,5.000000000000000000e+00,5.000000000000000000e+00,5.000000000000000000e+00,5.000000000000000000e+00,5.000000000000000000e+00,5.000000000000000000e+00,2.710123777389526367e+00,2.723745822906494141e+00,5.000000000000000000e+00,5.000000000000000000e+00,5.000000000000000000e+00,5.000000000000000000e+00,5.000000000000000000e+00,5.000000000000000000e+00,5.000000000000000000e+00,5.000000000000000000e+00,5.000000000000000000e+00,5.000000000000000000e+00,5.000000000000000000e+00,5.000000000000000000e+00,5.000000000000000000e+00,5.000000000000000000e+00,5.000000000000000000e+00,5.000000000000000000e+00,5.000000000000000000e+00,5.000000000000000000e+00,5.000000000000000000e+00,5.000000000000000000e+00,5.000000000000000000e+00,5.000000000000000000e+00,5.000000000000000000e+00,5.000000000000000000e+00,5.000000000000000000e+00,5.000000000000000000e+00,5.000000000000000000e+00,5.000000000000000000e+00,5.000000000000000000e+00,5.000000000000000000e+00,5.000000000000000000e+00,5.000000000000000000e+00,5.000000000000000000e+00,5.000000000000000000e+00,5.000000000000000000e+00,5.000000000000000000e+00,5.000000000000000000e+00,5.000000000000000000e+00,5.000000000000000000e+00,5.000000000000000000e+00,5.000000000000000000e+00,5.000000000000000000e+00,5.000000000000000000e+00,4.847443580627441406e+00,4.688252925872802734e+00,4.539230346679687500e+00,4.399450778961181641e+00,4.268023490905761719e+00,4.144220352172851562e+00,4.027397155761718750e+00,3.916979789733886719e+00,3.812455654144287109e+00,3.713364839553833008e+00
3.100715398788452148e+00,3.179157018661499023e+00,3.261670589447021484e+00,3.348589658737182617e+00,3.440278053283691406e+00,3.537128925323486328e+00,3.639590501785278320e+00,3.748165369033813477e+00,3.863417625427246094e+00,3.985982179641723633e+00,4.116578102111816406e+00,4.256021976470947266e+00,4.405243396759033203e+00,4.565309524536132812e+00,4.737445831298828125e+00,4.923071861267089844e+00,5.000000000000000000e+00,5.000000000000000000e+00,5.000000000000000000e+00,5.000000000000000000e+00,5.000000000000000000e+00,2.617228507995605469e+00,2.640833139419555664e+00,2.659966707229614258e+00,2.633358478546142578e+00,2.717664480209350586e+00,2.739575624465942383e+00,2.720321655273437500e+00,5.000000000000000000e+00,5.000000000000000000e+00,5.000000000000000000e+00,5.000000000000000000e+00,5.000000000000000000e+00,5.000000000000000000e+00,5.000000000000000000e+00,5.000000000000000000e+00,5.000000000000000000e+00,5.000000000000000000e+00,5.000000000000000000e+00,5.000000000000000000e+00,5.000000000000000000e+00,5.000000000000000000e+00,5.000000000000000000e+00,5.000000000000000000e+00,5.000000000000000000e+00,5.000000000000000000e+00,5.000000000000000000e+00,5.000000000000000000e+00,5.000000000000000000e+00,5.000000000000000000e+00,5.000000000000000000e+00,5.000000000000000000e+00,5.000000000000000000e+00,5.000000000000000000e+00,5.000000000000000000e+00,5.000000000000000000e+00,5.000000000000000000e+00,5.000000000000000000e+00,5.000000000000000000e+00,5.000000000000000000e+00,5.000000000000000000e+00,5.000000000000000000e+00,5.000000000000000000e+00,5.000000000000000000e+00,5.000000000000000000e+00,5.000000000000000000e+00,5.000000000000000000e+00,5.000000000000000000e+00,5.000000000000000000e+00,5.000000000000000000e+00,4.847444057464599609e+00,4.688315868377685547e+00,4.539354801177978516e+00,4.399568080902099609e+00,4.268133640289306641e+00,4.144324302673339844e+00,4.027494907379150391e+00,3.917072534561157227e+00,3.812543630599975586e+00,3.713448286056518555e+00
3.100649833679199219e+00,3.179088115692138672e+00,3.261597633361816406e+00,3.348504304885864258e+00,3.440178632736206055e+00,3.537023782730102539e+00,3.639479398727416992e+00,3.748047351837158203e+00,3.863292217254638672e+00,3.985849142074584961e+00,4.116436004638671875e+00,4.255869865417480469e+00,4.405080795288085938e+00,4.565134525299072266e+00,4.737257957458496094e+00,4.922868728637695312e+00,5.000000000000000000e+00,5.000000000000000000e+00,5.000000000000000000e+00,5.000000000000000000e+00,2.599664449691772461e+00,2.605125188827514648e+00,2.605697393417358398e+00,2.612028598785400391e+00,2.625166416168212891e+00,2.639988422393798828e+00,2.663561582565307617e+00,2.695631980895996094e+00,2.750809907913208008e+00,2.775208473205566406e+00,5.000000000000000000e+00,5.000000000000000000e+00,5.000000000000000000e+00,5.000000000000000000e+00,5.000000000000000000e+00,5.000000000000000000e+00,5.000000000000000000e+00,5.000000000000000000e+00,5.000000000000000000e+00,5.000000000000000000e+00,5.000000000000000000e+00,5.000000000000000000e+00,5.000000000000000000e+00,5.000000000000000000e+00,5.000000000000000000e+00,5.000000000000000000e+00,5.000000000000000000e+00,5.000000000000000000e+00,5.000000000000000000e+00,5.000000000000000000e+00,5.000000000000000000e+00,5.000000000000000000e+00,5.000000000000000000e+00,5.000000000000000000e+00,5.000000000000000000e+00,5.000000000000000000e+00,5.000000000000000000e+00,5.000000000000000000e+00,5.000000000000000000e+00,5.000000000000000000e+00,5.000000000000000000e+00,5.000000000000000000e+00,5.000000000000000000e+00,5.000000000000000000e+00,5.000000000000000000e+00,5.000000000000000000e+00,5.000000000000000000e+00,5.000000000000000000e+00,5.000000000000000000e+00,5.000000000000000000e+00,4.847527027130126953e+00,4.688448429107666016e+00,4.539479732513427734e+00,4.399684906005859375e+00,4.268243789672851562e+00,4.144427776336669922e+00,4.027593135833740234e+00,3.917165517807006836e+00,3.812631607055664062e+00,3.713531255722045898e+00
3.100584030151367188e+00,3.179018735885620117e+00,3.261524915695190430e+00,3.348427772521972656e+00,3.440088748931884766e+00,3.536918640136718750e+00,3.639368057250976562e+00,3.747929334640502930e+00,3.863166809082031250e+00,3.985715627670288086e+00,4.116293907165527344e+00,4.255717754364013672e+00,4.404917716979980469e+00,4.564959526062011719e+00,4.737069129943847656e+00,4.922664642333984375e+00,5.000000000000000000e+00,5.000000000000000000e+00,5.000000000000000000e+00,5.000000000000000000e+00,2.617175579071044922e+00,2.616930007934570312e+00,2.610411405563354492e+00,2.597810745239257812e+00,2.597282886505126953e+00,2.608069181442260742e+00,2.635883092880249023e+00,2.649053812026977539e+00,2.697842597961425781e+00,2.772375822067260742e+00,2.795010566711425781e+00,5.000000000000000000e+00,5.000000000000000000e+00,5.000000000000000000e+00,5.000000000000000000e+00,5.000000000000000000e+00,5.000000000000000000e+00,5.000000000000000000e+00,5.000000000000000000e+00,5.000000000000000000e+00,5.000000000000000000e+00,5.000000000000000000e+00,5.000000000000000000e+00,5.000000000000000000e+00,5.000000000000000000e+00,5.000000000000000000e+00,5.000000000000000000e+00,5.000000000000000000e+00,5.000000000000000000e+00,5.000000000000000000e+00,5.000000000000000000e+00,5.000000000000000000e+00,5.000000000000000000e+00,5.000000000000000000e+00,5.000000000000000000e+00,5.000000000000000000e+00,5.000000000000000000e+00,5.000000000000000000e+00,5.000000000000000000e+00,5.000000000000000000e+00,5.000000000000000000e+00,5.000000000000000000e+00,5.000000000000000000e+00,5.000000000000000000e+00,5.000000000000000000e+00,5.000000000000000000e+00,5.000000000000000000e+00,5.000000000000000000e+00,5.000000000000000000e+00,5.000000000000000000e+00,4.847669601440429688e+00,4.688581466674804688e+00,4.539604187011718750e+00,4.399802207946777344e+00,4.268353939056396484e+00,4.144531726837158203e+00,4.027691364288330078e+00,3.917258262634277344e+00,3.812719583511352539e+00,3.713614702224731445e+00
3.100517988204956055e+00,3.178949594497680664e+00,3.261452198028564453e+00,3.348351001739501953e+00,3.440007448196411133e+00,3.536823034286499023e+00,3.639256715774536133e+00,3.747811555862426758e+00,3.863041400909423828e+00,3.985582113265991211e+00,4.116151332855224609e+00,4.255565643310546875e+00,4.404755115509033203e+00,4.564784526824951172e+00,4.736880779266357422e+00,4.922461509704589844e+00,5.000000000000000000e+00,5.000000000000000000e+00,5.000000000000000000e+00,5.000000000000000000e+00,2.639429569244384766e+00,2.628836393356323242e+00,2.630548000335693359e+00,2.598041057586669922e+00,2.599948883056640625e+00,2.606734752655029297e+00,2.630329132080078125e+00,2.651329040527343750e+00,2.692808628082275391e+00,2.774806976318359375e+00,2.812915802001953125e+00,5.000000000000000000e+00,5.000000000000000000e+00,5.000000000000000000e+00,5.000000000000000000e+00,5.000000000000000000e+00,5.000000000000000000e+00,5.000000000000000000e+00,5.000000000000000000e+00,5.000000000000000000e+00,5.000000000000000000e+00,5.000000000000000000e+00,5.000000000000000000e+00,5.000000000000000000e+00,5.000000000000000000e+00,5.000000000000000000e+00,5.000000000000000000e+00,5.000000000000000000e+00,5.000000000000000000e+00,5.000000000000000000e+00,5.000000000000000000e+00,5.000000000000000000e+00,5.000000000000000000e+00,5.000000000000000000e+00,5.000000000000000000e+00,5.000000000000000000e+00,5.000000000000000000e+00,5.000000000000000000e+00,5.000000000000000000e+00,5.000000000000000000e+00,5.000000000000000000e+00,5.000000000000000000e+00,5.000000000000000000e+00,5.000000000000000000e+00,5.000000000000000000e+00,5.000000000000000000e+00,5.000000000000000000e+00,5.000000000000000000e+00,5.000000000000000000e+00,5.000000000000000000e+00,4.847811698913574219e+00,4.688714504241943359e+00,4.539729118347167969e+00,4.399919509887695312e+00,4.268464088439941406e+00,4.144635677337646484e+00,4.027789592742919922e+00,3.917351245880126953e+00,3.812807559967041016e+00,3.713698148727416992e+00
3.100452423095703125e+00,3.178880691528320312e+00,3.261379480361938477e+00,3.348274230957031250e+00,3.439926385879516602e+00,3.536737442016601562e+00,3.639155387878417969e+00,3.747693538665771484e+00,3.862916469573974609e+00,3.985448598861694336e+00,4.116009235382080078e+00,4.255413532257080078e+00,4.404592037200927734e+00,4.564609527587890625e+00,4.736692428588867188e+00,4.922258377075195312e+00,5.000000000000000000e+00,5.000000000000000000e+00,5.000000000000000000e+00,5.000000000000000000e+00,5.000000000000000000e+00,2.634829282760620117e+00,2.649488210678100586e+00,2.612065553665161133e+00,2.604687452316284180e+00,2.604558706283569336e+00,2.623643159866333008e+00,2.651839733123779297e+00,2.704761505126953125e+00,2.801338672637939453e+00,2.817636966705322266e+00,5.000000000000000000e+00,5.000000000000000000e+00,5.000000000000000000e+00,5.000000000000000000e+00,5.000000000000000000e+00,5.000000000000000000e+00,5.000000000000000000e+00,5.000000000000000000e+00,5.000000000000000000e+00,5.000000000000000000e+00,5.000000000000000000e+00,5.000000000000000000e+00,5.000000000000000000e+00,5.000000000000000000e+00,5.000000000000000000e+00,5.000000000000000000e+00,5.000000000000000000e+00,5.000000000000000000e+00,5.000000000000000000e+00,5.000000000000000000e+00,5.000000000000000000e+00,5.000000000000000000e+00,5.000000000000000000e+00,5.000000000000000000e+00,5.000000000000000000e+00,5.000000000000000000e+00,5.000000000000000000e+00,5.000000000000000000e+00,5.000000000000000000e+00,5.000000000000000000e+00,5.000000000000000000e+00,5.000000000000000000e+00,5.000000000000000000e+00,5.000000000000000000e+00,5.000000000000000000e+00,5.000000000000000000e+00,5.000000000000000000e+00,5.000000000000000000e+00,5.000000000000000000e+00,4.847953796386718750e+00,4.688847541809082031e+00,4.539853572845458984e+00,4.400036334991455078e+00,4.268574237823486328e+00,4.144739627838134766e+00,4.027887821197509766e+00,3.917445421218872070e+00,3.812903165817260742e+00,3.713795423507690430e+00
3.100386619567871094e+00,3.178811311721801758e+00,3.261306524276733398e+00,3.348197698593139648e+00,3.439845561981201172e+00,3.536652088165283203e+00,3.639065027236938477e+00,3.747585535049438477e+00,3.862791061401367188e+00,3.985315561294555664e+00,4.115866661071777344e+00,4.255261898040771484e+00,4.404428958892822266e+00,4.564434528350830078e+00,4.736504077911376953e+00,4.922054767608642578e+00,5.000000000000000000e+00,5.000000000000000000e+00,5.000000000000000000e+00,5.000000000000000000e+00,5.000000000000000000e+00,2.639625310897827148e+00,2.643963575363159180e+00,2.614680528640747070e+00,2.600229740142822266e+00,2.604313850402832031e+00,2.621207475662231445e+00,2.650701522827148438e+00,2.708205461502075195e+00,2.799530506134033203e+00,2.821341514587402344e+00,5.000000000000000000e+00,5.000000000000000000e+00,5.000000000000000000e+00,5.000000000000000000e+00,5.000000000000000000e+00,5.000000000000000000e+00,5.000000000000000000e+00,5.000000000000000000e+00,5.000000000000000000e+00,5.000000000000000000e+00,5.000000000000000000e+00,5.000000000000000000e+00,5.000000000000000000e+00,5.000000000000000000e+00,5.000000000000000000e+00,5.000000000000000000e+00,5.000000000000000000e+00,5.000000000000000000e+00,5.000000000000000000e+00,5.000000000000000000e+00,5.000000000000000000e+00,5.000000000000000000e+00,5.000000000000000000e+00,5.000000000000000000e+00,5.000000000000000000e+00,5.000000000000000000e+00,5.000000000000000000e+00,5.000000000000000000e+00,5.000000000000000000e+00,5.000000000000000000e+00,5.000000000000000000e+00,5.000000000000000000e+00,5.000000000000000000e+00,5.000000000000000000e+00,5.000000000000000000e+00,5.000000000000000000e+00,5.000000000000000000e+00,5.000000000000000000e+00,5.000000000000000000e+00,4.848095893859863281e+00,4.688980579376220703e+00,4.539978027343750000e+00,4.400153636932373047e+00,4.268684387207031250e+00,4.144850730895996094e+00,4.027999877929687500e+00,3.917557477951049805e+00,3.813009262084960938e+00,3.713896274566650391e+00
3.100320577621459961e+00,3.178741931915283203e+00,3.261233806610107422e+00,3.348120927810668945e+00,3.439764499664306641e+00,3.536566257476806641e+00,3.638974189758300781e+00,3.747489690780639648e+00,3.862676382064819336e+00,3.985182046890258789e+00,4.115724563598632812e+00,4.255109786987304688e+00,4.404265880584716797e+00,4.564260005950927734e+00,4.736315727233886719e+00,4.921851634979248047e+00,5.000000000000000000e+00,5.000000000000000000e+00,5.000000000000000000e+00,5.000000000000000000e+00,5.000000000000000000e+00,2.645143985748291016e+00,2.648176670074462891e+00,2.620107650756835938e+00,2.598320484161376953e+00,2.605922460556030273e+00,2.622721910476684570e+00,2.652061939239501953e+00,2.703585386276245117e+00,2.804281473159790039e+00,2.821016788482666016e+00,5.000000000000000000e+00,5.000000000000000000e+00,5.000000000000000000e+00,5.000000000000000000e+00,5.000000000000000000e+00,5.000000000000000000e+00,5.000000000000000000e+00,5.000000000000000000e+00,5.000000000000000000e+00,5.000000000000000000e+00,5.000000000000000000e+00,5.000000000000000000e+00,5.000000000000000000e+00,5.000000000000000000e+00,5.000000000000000000e+00,5.000000000000000000e+00,5.000000000000000000e+00,5.000000000000000000e+00,5.000000000000000000e+00,5.000000000000000000e+00,5.000000000000000000e+00,5.000000000000000000e+00,5.000000000000000000e+00,5.000000000000000000e+00,5.000000000000000000e+00,5.000000000000000000e+00,5.000000000000000000e+00,5.000000000000000000e+00,5.000000000000000000e+00,5.000000000000000000e+00,5.000000000000000000e+00,5.000000000000000000e+00,5.000000000000000000e+00,5.000000000000000000e+00,5.000000000000000000e+00,5.000000000000000000e+00,5.000000000000000000e+00,5.000000000000000000e+00,5.000000000000000000e+00,4.848237991333007812e+00,4.689113616943359375e+00,4.540109157562255859e+00,4.400285720825195312e+00,4.268817424774169922e+00,4.144976615905761719e+00,4.028118610382080078e+00,3.917670011520385742e+00,3.813115835189819336e+00,3.713997364044189453e+00
3.100255012512207031e+00,3.178673028945922852e+00,3.261161088943481445e+00,3.348044395446777344e+00,3.439683437347412109e+00,3.536480426788330078e+00,3.638883352279663086e+00,3.747393608093261719e+00,3.862574100494384766e+00,3.985059499740600586e+00,4.115582466125488281e+00,4.254957675933837891e+00,4.404103279113769531e+00,4.564085006713867188e+00,4.736127376556396484e+00,4.921648025512695312e+00,5.000000000000000000e+00,5.000000000000000000e+00,5.000000000000000000e+00,5.000000000000000000e+00,5.000000000000000000e+00,2.654178857803344727e+00,2.660638332366943359e+00,2.604012966156005859e+00,2.587182521820068359e+00,2.595551967620849609e+00,2.621432304382324219e+00,2.641823053359985352e+00,2.694049596786499023e+00,2.818325757980346680e+00,2.826160192489624023e+00,5.000000000000000000e+00,5.000000000000000000e+00,5.000000000000000000e+00,5.000000000000000000e+00,5.000000000000000000e+00,5.000000000000000000e+00,5.000000000000000000e+00,5.000000000000000000e+00,5.000000000000000000e+00,5.000000000000000000e+00,5.000000000000000000e+00,5.000000000000000000e+00,5.000000000000000000e+00,5.000000000000000000e+00,5.000000000000000000e+00,5.000000000000000000e+00,5.000000000000000000e+00,5.000000000000000000e+00,5.000000000000000000e+00,5.000000000000000000e+00,5.000000000000000000e+00,5.000000000000000000e+00,5.000000000000000000e+00,5.000000000000000000e+00,5.000000000000000000e+00,5.000000000000000000e+00,5.000000000000000000e+00,5.000000000000000000e+00,5.000000000000000000e+00,5.000000000000000000e+00,5.000000000000000000e+00,5.000000000000000000e+00,5.000000000000000000e+00,5.000000000000000000e+00,5.000000000000000000e+00,5.000000000000000000e+00,5.000000000000000000e+00,5.000000000000000000e+00,5.000000000000000000e+00,4.848395824432373047e+00,4.689271450042724609e+00,4.540259838104248047e+00,4.400427341461181641e+00,4.268950462341308594e+00,4.145102500915527344e+00,4.028237342834472656e+00,3.917782068252563477e+00,3.813222169876098633e+00,3.714097976684570312e+00
3.100189208984375000e+00,3.178603887557983398e+00,3.261088132858276367e+00,3.347967386245727539e+00,3.439602613449096680e+00,3.536395072937011719e+00,3.638792991638183594e+00,3.747297763824462891e+00,3.862471818923950195e+00,3.984950542449951172e+00,4.115451335906982422e+00,4.254805564880371094e+00,4.403940677642822266e+00,4.563910007476806641e+00,4.735939025878906250e+00,4.921444892883300781e+00,5.000000000000000000e+00,5.000000000000000000e+00,5.000000000000000000e+00,5.000000000000000000e+00,5.000000000000000000e+00,2.657537460327148438e+00,2.651424884796142578e+00,2.602600336074829102e+00,2.601137638092041016e+00,2.604513645172119141e+00,2.615384340286254883e+00,2.651708126068115234e+00,2.685735940933227539e+00,2.831266641616821289e+00,2.838519573211669922e+00,5.000000000000000000e+00,5.000000000000000000e+00,5.000000000000000000e+00,5.000000000000000000e+00,5.000000000000000000e+00,5.000000000000000000e+00,5.000000000000000000e+00,5.000000000000000000e+00,5.000000000000000000e+00,5.000000000000000000e+00,5.000000000000000000e+00,5.000000000000000000e+00,5.000000000000000000e+00,5.000000000000000000e+00,5.000000000000000000e+00,5.000000000000000000e+00,5.000000000000000000e+00,5.000000000000000000e+00,5.000000000000000000e+00,5.000000000000000000e+00,5.000000000000000000e+00,5.000000000000000000e+00,5.000000000000000000e+00,5.000000000000000000e+00,5.000000000000000000e+00,5.000000000000000000e+00,5.000000000000000000e+00,5.000000000000000000e+00,5.000000000000000000e+00,5.000000000000000000e+00,5.000000000000000000e+00,5.000000000000000000e+00,5.000000000000000000e+00,5.000000000000000000e+00,5.000000000000000000e+00,5.000000000000000000e+00,5.000000000000000000e+00,5.000000000000000000e+00,5.000000000000000000e+00,4.848567962646484375e+00,4.689432144165039062e+00,4.540410995483398438e+00,4.400568962097167969e+00,4.269083976745605469e+00,4.145227909088134766e+00,4.028356075286865234e+00,3.917894124984741211e+00,3.813328742980957031e+00,3.714199066162109375e+00
3.100123643875122070e+00,3.178534507751464844e+00,3.261015176773071289e+00,3.347890615463256836e+00,3.439521551132202148e+00,3.536309480667114258e+00,3.638702392578125000e+00,3.747201442718505859e+00,3.862370014190673828e+00,3.984842300415039062e+00,4.115335464477539062e+00,4.254665374755859375e+00,4.403777599334716797e+00,4.563735008239746094e+00,4.735750675201416016e+00,4.921241283416748047e+00,5.000000000000000000e+00,5.000000000000000000e+00,5.000000000000000000e+00,5.000000000000000000e+00,5.000000000000000000e+00,2.627857208251953125e+00,2.644304037094116211e+00,2.610256910324096680e+00,2.598950147628784180e+00,2.606379270553588867e+00,2.614100456237792969e+00,2.647932291030883789e+00,2.692816972732543945e+00,2.822900772094726562e+00,2.820632696151733398e+00,5.000000000000000000e+00,5.000000000000000000e+00,5.000000000000000000e+00,5.000000000000000000e+00,5.000000000000000000e+00,5.000000000000000000e+00,5.000000000000000000e+00,5.000000000000000000e+00,5.000000000000000000e+00,5.000000000000000000e+00,5.000000000000000000e+00,5.000000000000000000e+00,5.000000000000000000e+00,5.000000000000000000e+00,5.000000000000000000e+00,5.000000000000000000e+00,5.000000000000000000e+00,5.000000000000000000e+00,5.000000000000000000e+00,5.000000000000000000e+00,5.000000000000000000e+00,5.000000000000000000e+00,5.000000000000000000e+00,5.000000000000000000e+00,5.000000000000000000e+00,5.000000000000000000e+00,5.000000000000000000e+00,5.000000000000000000e+00,5.000000000000000000e+00,5.000000000000000000e+00,5.000000000000000000e+00,5.000000000000000000e+00,5.000000000000000000e+00,5.000000000000000000e+00,5.000000000000000000e+00,5.000000000000000000e+00,5.000000000000000000e+00,5.000000000000000000e+00,5.000000000000000000e+00,4.848739624023437500e+00,4.689592838287353516e+00,4.540561676025390625e+00,4.400710582733154297e+00,4.269217491149902344e+00,4.145353794097900391e+00,4.028474807739257812e+00,3.918006658554077148e+00,3.813434839248657227e+00,3.714299917221069336e+00
3.100057601928710938e+00,3.178465604782104492e+00,3.260942697525024414e+00,3.347814083099365234e+00,3.439440965652465820e+00,3.536223649978637695e+00,3.638611555099487305e+00,3.747105121612548828e+00,3.862267732620239258e+00,3.984733343124389648e+00,4.115219593048095703e+00,4.254540920257568359e+00,4.403626918792724609e+00,4.563560009002685547e+00,4.735562324523925781e+00,4.921038150787353516e+00,5.000000000000000000e+00,5.000000000000000000e+00,5.000000000000000000e+00,5.000000000000000000e+00,5.000000000000000000e+00,2.614384174346923828e+00,2.627939701080322266e+00,2.573966026306152344e+00,2.577052354812622070e+00,2.622838497161865234e+00,2.621028661727905273e+00,2.663242578506469727e+00,2.683252096176147461e+00,2.835214614868164062e+00,2.806691408157348633e+00,5.000000000000000000e+00,5.000000000000000000e+00,5.000000000000000000e+00,5.000000000000000000e+00,5.000000000000000000e+00,5.000000000000000000e+00,5.000000000000000000e+00,5.000000000000000000e+00,5.000000000000000000e+00,5.000000000000000000e+00,5.000000000000000000e+00,5.000000000000000000e+00,5.000000000000000000e+00,5.000000000000000000e+00,5.000000000000000000e+00,5.000000000000000000e+00,5.000000000000000000e+00,5.000000000000000000e+00,5.000000000000000000e+00,5.000000000000000000e+00,5.000000000000000000e+00,5.000000000000000000e+00,5.000000000000000000e+00,5.000000000000000000e+00,5.000000000000000000e+00,5.000000000000000000e+00,5.000000000000000000e+00,5.000000000000000000e+00,5.000000000000000000e+00,5.000000000000000000e+00,5.000000000000000000e+00,5.000000000000000000e+00,5.000000000000000000e+00,5.000000000000000000e+00,5.000000000000000000e+00,5.000000000000000000e+00,5.000000000000000000e+00,5.000000000000000000e+00,5.000000000000000000e+00,4.848911762237548828e+00,4.689754009246826172e+00,4.540712356567382812e+00,4.400852203369140625e+00,4.269350528717041016e+00,4.145479679107666016e+00,4.028593540191650391e+00,3.918118715286254883e+00,3.813541173934936523e+00,3.714401006698608398e+00
3.099991798400878906e+00,3.178396463394165039e+00,3.260869741439819336e+00,3.347737312316894531e+00,3.439359903335571289e+00,3.536138296127319336e+00,3.638521194458007812e+00,3.747009277343750000e+00,3.862165927886962891e+00,3.984624624252319336e+00,4.115103721618652344e+00,4.254417419433593750e+00,4.403494358062744141e+00,4.563397884368896484e+00,4.735373973846435547e+00,4.920834541320800781e+00,5.000000000000000000e+00,5.000000000000000000e+00,5.000000000000000000e+00,5.000000000000000000e+00,5.000000000000000000e+00,2.594347000122070312e+00,2.588857889175415039e+00,2.535498857498168945e+00,2.524924039840698242e+00,2.571260690689086914e+00,2.672000646591186523e+00,2.659188270568847656e+00,2.661964893341064453e+00,2.720628738403320312e+00,2.801171779632568359e+00,2.830315113067626953e+00,5.000000000000000000e+00,5.000000000000000000e+00,5.000000000000000000e+00,5.000000000000000000e+00,5.000000000000000000e+00,5.000000000000000000e+00,5.000000000000000000e+00,5.000000000000000000e+00,5.000000000000000000e+00,5.000000000000000000e+00,5.000000000000000000e+00,5.000000000000000000e+00,5.000000000000000000e+00,5.000000000000000000e+00,5.000000000000000000e+00,5.000000000000000000e+00,5.000000000000000000e+00,5.000000000000000000e+00,5.000000000000000000e+00,5.000000000000000000e+00,5.000000000000000000e+00,5.000000000000000000e+00,5.000000000000000000e+00,5.000000000000000000e+00,5.000000000000000000e+00,5.000000000000000000e+00,5.000000000000000000e+00,5.000000000000000000e+00,5.000000000000000000e+00,5.000000000000000000e+00,5.000000000000000000e+00,5.000000000000000000e+00,5.000000000000000000e+00,5.000000000000000000e+00,5.000000000000000000e+00,5.000000000000000000e+00,5.000000000000000000e+00,5.000000000000000000e+00,4.849083900451660156e+00,4.689914703369140625e+00,4.540863513946533203e+00,4.400993824005126953e+00,4.269484043121337891e+00,4.145605087280273438e+00,4.028712272644042969e+00,3.918231248855590820e+00,3.813647747039794922e+00,3.714501857757568359e+00
3.099981069564819336e+00,3.178353071212768555e+00,3.260797023773193359e+00,3.347660541534423828e+00,3.439278602600097656e+00,3.536052703857421875e+00,3.638430595397949219e+00,3.746913194656372070e+00,3.862063646316528320e+00,3.984516143798828125e+00,4.114987850189208984e+00,4.254293441772460938e+00,4.403361797332763672e+00,4.563255310058593750e+00,4.735198497772216797e+00,4.920631408691406250e+00,5.000000000000000000e+00,5.000000000000000000e+00,5.000000000000000000e+00,5.000000000000000000e+00,5.000000000000000000e+00,2.586905002593994141e+00,2.549717903137207031e+00,2.516103982925415039e+00,2.504806756973266602e+00,2.544684648513793945e+00,2.662136793136596680e+00,2.636287212371826172e+00,2.639466524124145508e+00,2.699014663696289062e+00,2.809769392013549805e+00,2.818388223648071289e+00,5.000000000000000000e+00,5.000000000000000000e+00,5.000000000000000000e+00,5.000000000000000000e+00,5.000000000000000000e+00,5.000000000000000000e+00,5.000000000000000000e+00,5.000000000000000000e+00,5.000000000000000000e+00,5.000000000000000000e+00,5.000000000000000000e+00,5.000000000000000000e+00,5.000000000000000000e+00,5.000000000000000000e+00,5.000000000000000000e+00,5.000000000000000000e+00,5.000000000000000000e+00,5.000000000000000000e+00,5.000000000000000000e+00,5.000000000000000000e+00,5.000000000000000000e+00,5.000000000000000000e+00,5.000000000000000000e+00,5.000000000000000000e+00,5.000000000000000000e+00,5.000000000000000000e+00,5.000000000000000000e+00,5.000000000000000000e+00,5.000000000000000000e+00,5.000000000000000000e+00,5.000000000000000000e+00,5.000000000000000000e+00,5.000000000000000000e+00,5.000000000000000000e+00,5.000000000000000000e+00,5.000000000000000000e+00,5.000000000000000000e+00,5.000000000000000000e+00,4.849256038665771484e+00,4.690075874328613281e+00,4.541014194488525391e+00,4.401135444641113281e+00,4.269617080688476562e+00,4.145730972290039062e+00,4.028831005096435547e+00,3.918343305587768555e+00,3.813753843307495117e+00,3.714602947235107422e+00
3.099981307983398438e+00,3.178353309631347656e+00,3.260790586471557617e+00,3.347618341445922852e+00,3.439198017120361328e+00,3.535967350006103516e+00,3.638339757919311523e+00,3.746816873550415039e+00,3.861961364746093750e+00,3.984407424926757812e+00,4.114871978759765625e+00,4.254169940948486328e+00,4.403228759765625000e+00,4.563112735748291016e+00,4.735045433044433594e+00,4.920441627502441406e+00,5.000000000000000000e+00,5.000000000000000000e+00,5.000000000000000000e+00,5.000000000000000000e+00,5.000000000000000000e+00,2.556499242782592773e+00,2.556238651275634766e+00,2.499735116958618164e+00,2.488260030746459961e+00,2.526291370391845703e+00,2.656886816024780273e+00,2.629897594451904297e+00,2.631554841995239258e+00,2.691337823867797852e+00,2.783054590225219727e+00,2.792202472686767578e+00,5.000000000000000000e+00,5.000000000000000000e+00,5.000000000000000000e+00,5.000000000000000000e+00,5.000000000000000000e+00,5.000000000000000000e+00,5.000000000000000000e+00,5.000000000000000000e+00,5.000000000000000000e+00,5.000000000000000000e+00,5.000000000000000000e+00,5.000000000000000000e+00,5.000000000000000000e+00,5.000000000000000000e+00,5.000000000000000000e+00,5.000000000000000000e+00,5.000000000000000000e+00,5.000000000000000000e+00,5.000000000000000000e+00,5.000000000000000000e+00,5.000000000000000000e+00,5.000000000000000000e+00,5.000000000000000000e+00,5.000000000000000000e+00,5.000000000000000000e+00,5.000000000000000000e+00,5.000000000000000000e+00,5.000000000000000000e+00,5.000000000000000000e+00,5.000000000000000000e+00,5.000000000000000000e+00,5.000000000000000000e+00,5.000000000000000000e+00,5.000000000000000000e+00,5.000000000000000000e+00,5.000000000000000000e+00,5.000000000000000000e+00,5.000000000000000000e+00,4.849427700042724609e+00,4.690236568450927734e+00,4.541164875030517578e+00,4.401277542114257812e+00,4.269750595092773438e+00,4.145856857299804688e+00,4.028950214385986328e+00,3.918455839157104492e+00,3.813860654830932617e+00,3.714703559875488281e+00
3.099981307983398438e+00,3.178353309631347656e+00,3.260790824890136719e+00,3.347618818283081055e+00,3.439196825027465820e+00,3.535926818847656250e+00,3.638255357742309570e+00,3.746721029281616211e+00,3.861859560012817383e+00,3.984298944473266602e+00,4.114756107330322266e+00,4.254045963287353516e+00,4.403096199035644531e+00,4.562970161437988281e+00,4.734891891479492188e+00,4.920275688171386719e+00,5.000000000000000000e+00,5.000000000000000000e+00,5.000000000000000000e+00,5.000000000000000000e+00,5.000000000000000000e+00,2.542656660079956055e+00,2.535014629364013672e+00,2.484721183776855469e+00,2.471817493438720703e+00,2.506332635879516602e+00,2.655138969421386719e+00,2.626549243927001953e+00,2.628791570663452148e+00,2.688931226730346680e+00,5.000000000000000000e+00,2.768936157226562500e+00,5.000000000000000000e+00,5.000000000000000000e+00,5.000000000000000000e+00,5.000000000000000000e+00,5.000000000000000000e+00,5.000000000000000000e+00,5.000000000000000000e+00,5.000000000000000000e+00,5.000000000000000000e+00,5.000000000000000000e+00,5.000000000000000000e+00,5.000000000000000000e+00,5.000000000000000000e+00,5.000000000000000000e+00,5.000000000000000000e+00,5.000000000000000000e+00,5.000000000000000000e+00,5.000000000000000000e+00,5.000000000000000000e+00,5.000000000000000000e+00,5.000000000000000000e+00,5.000000000000000000e+00,5.000000000000000000e+00,5.000000000000000000e+00,5.000000000000000000e+00,5.000000000000000000e+00,5.000000000000000000e+00,5.000000000000000000e+00,5.000000000000000000e+00,5.000000000000000000e+00,5.000000000000000000e+00,5.000000000000000000e+00,5.000000000000000000e+00,5.000000000000000000e+00,5.000000000000000000e+00,5.000000000000000000e+00,5.000000000000000000e+00,5.000000000000000000e+00,4.849599838256835938e+00,4.690397739410400391e+00,4.541316032409667969e+00,4.401419162750244141e+00,4.269884109497070312e+00,4.145982265472412109e+00,4.029068946838378906e+00,3.918568134307861328e+00,3.813966751098632812e+00,3.714804410934448242e+00
3.099923372268676758e+00,3.178324699401855469e+00,3.260791301727294922e+00,3.347618818283081055e+00,3.439197301864624023e+00,3.535927057266235352e+00,3.638255357742309570e+00,3.746683120727539062e+00,3.861772060394287109e+00,3.984190225601196289e+00,4.114640235900878906e+00,4.253921985626220703e+00,4.402963638305664062e+00,4.562828063964843750e+00,4.734738349914550781e+00,4.920110225677490234e+00,5.000000000000000000e+00,5.000000000000000000e+00,5.000000000000000000e+00,5.000000000000000000e+00,5.000000000000000000e+00,2.525764703750610352e+00,5.000000000000000000e+00,2.466510534286499023e+00,2.455600738525390625e+00,2.488935470581054688e+00,2.652704715728759766e+00,2.621175050735473633e+00,2.626178264617919922e+00,2.688052177429199219e+00,5.000000000000000000e+00,5.000000000000000000e+00,5.000000000000000000e+00,5.000000000000000000e+00,5.000000000000000000e+00,5.000000000000000000e+00,5.000000000000000000e+00,5.000000000000000000e+00,5.000000000000000000e+00,5.000000000000000000e+00,5.000000000000000000e+00,5.000000000000000000e+00,5.000000000000000000e+00,5.000000000000000000e+00,5.000000000000000000e+00,5.000000000000000000e+00,5.000000000000000000e+00,5.000000000000000000e+00,5.000000000000000000e+00,5.000000000000000000e+00,5.000000000000000000e+00,5.000000000000000000e+00,5.000000000000000000e+00,5.000000000000000000e+00,5.000000000000000000e+00,5.000000000000000000e+00,5.000000000000000000e+00,5.000000000000000000e+00,5.000000000000000000e+00,5.000000000000000000e+00,5.000000000000000000e+00,5.000000000000000000e+00,5.000000000000000000e+00,5.000000000000000000e+00,5.000000000000000000e+00,5.000000000000000000e+00,5.000000000000000000e+00,5.000000000000000000e+00,5.000000000000000000e+00,5.000000000000000000e+00,4.849771499633789062e+00,4.690558910369873047e+00,4.541466712951660156e+00,4.401560783386230469e+00,4.270017147064208984e+00,4.146108150482177734e+00,4.029187679290771484e+00,3.918680667877197266e+00,3.814073324203491211e+00,3.714905500411987305e+00
3.099857568740844727e+00,3.178255558013916016e+00,3.260721445083618164e+00,3.347581386566162109e+00,3.439195632934570312e+00,3.535927057266235352e+00,3.638255834579467773e+00,3.746683359146118164e+00,3.861772537231445312e+00,3.984155654907226562e+00,4.114549636840820312e+00,4.253798007965087891e+00,4.402830600738525391e+00,4.562685489654541016e+00,4.734584808349609375e+00,4.919944286346435547e+00,5.000000000000000000e+00,5.000000000000000000e+00,5.000000000000000000e+00,5.000000000000000000e+00,5.000000000000000000e+00,2.514922142028808594e+00,5.000000000000000000e+00,2.454018354415893555e+00,2.439595699310302734e+00,2.468428611755371094e+00,2.647659063339233398e+00,2.616820573806762695e+00,2.622430562973022461e+00,5.000000000000000000e+00,5.000000000000000000e+00,5.000000000000000000e+00,5.000000000000000000e+00,5.000000000000000000e+00,5.000000000000000000e+00,5.000000000000000000e+00,5.000000000000000000e+00,5.000000000000000000e+00,5.000000000000000000e+00,5.000000000000000000e+00,5.000000000000000000e+00,5.000000000000000000e+00,5.000000000000000000e+00,5.000000000000000000e+00,5.000000000000000000e+00,5.000000000000000000e+00,5.000000000000000000e+00,5.000000000000000000e+00,5.000000000000000000e+00,5.000000000000000000e+00,5.000000000000000000e+00,5.000000000000000000e+00,5.000000000000000000e+00,5.000000000000000000e+00,5.000000000000000000e+00,5.000000000000000000e+00,5.000000000000000000e+00,5.000000000000000000e+00,5.000000000000000000e+00,5.000000000000000000e+00,5.000000000000000000e+00,5.000000000000000000e+00,5.000000000000000000e+00,5.000000000000000000e+00,5.000000000000000000e+00,5.000000000000000000e+00,5.000000000000000000e+00,5.000000000000000000e+00,5.000000000000000000e+00,5.000000000000000000e+00,4.849943637847900391e+00,4.690719604492187500e+00,4.541617870330810547e+00,4.401702404022216797e+00,4.270150661468505859e+00,4.146233558654785156e+00,4.029306411743164062e+00,3.918792724609375000e+00,3.814179658889770508e+00,3.715006351470947266e+00
3.099791288375854492e+00,3.178185939788818359e+00,3.260648727416992188e+00,3.347504615783691406e+00,3.439114570617675781e+00,3.535879135131835938e+00,3.638247013092041016e+00,3.746683359146118164e+00,3.861772537231445312e+00,3.984156131744384766e+00,4.114550590515136719e+00,4.253768444061279297e+00,4.402738094329833984e+00,4.562542915344238281e+00,4.734431743621826172e+00,4.919778823852539062e+00,5.000000000000000000e+00,5.000000000000000000e+00,5.000000000000000000e+00,5.000000000000000000e+00,5.000000000000000000e+00,5.000000000000000000e+00,5.000000000000000000e+00,2.462495803833007812e+00,2.424870014190673828e+00,2.448738813400268555e+00,2.639460325241088867e+00,2.608999490737915039e+00,2.618592977523803711e+00,5.000000000000000000e+00,5.000000000000000000e+00,5.000000000000000000e+00,5.000000000000000000e+00,5.000000000000000000e+00,5.000000000000000000e+00,5.000000000000000000e+00,5.000000000000000000e+00,5.000000000000000000e+00,5.000000000000000000e+00,5.000000000000000000e+00,5.000000000000000000e+00,5.000000000000000000e+00,5.000000000000000000e+00,5.000000000000000000e+00,5.000000000000000000e+00,5.000000000000000000e+00,5.000000000000000000e+00,5.000000000000000000e+00,5.000000000000000000e+00,5.000000000000000000e+00,5.000000000000000000e+00,5.000000000000000000e+00,5.000000000000000000e+00,5.000000000000000000e+00,5.000000000000000000e+00,5.000000000000000000e+00,5.000000000000000000e+00,5.000000000000000000e+00,5.000000000000000000e+00,5.000000000000000000e+00,5.000000000000000000e+00,5.000000000000000000e+00,5.000000000000000000e+00,5.000000000000000000e+00,5.000000000000000000e+00,5.000000000000000000e+00,5.000000000000000000e+00,5.000000000000000000e+00,5.000000000000000000e+00,5.000000000000000000e+00,4.850115776062011719e+00,4.690880775451660156e+00,4.541768550872802734e+00,4.401844501495361328e+00,4.270284175872802734e+00,4.146359443664550781e+00,4.029425144195556641e+00,3.918905258178710938e+00,3.814286231994628906e+00,3.715107440948486328e+00
3.099725484848022461e+00,3.178116798400878906e+00,3.260575771331787109e+00,3.347427368164062500e+00,3.439033031463623047e+00,3.535793304443359375e+00,3.638156414031982422e+00,3.746622800827026367e+00,3.861755132675170898e+00,3.984156608581542969e+00,4.114550590515136719e+00,4.253768920898437500e+00,4.402738094329833984e+00,4.562520027160644531e+00,4.734336376190185547e+00,4.919612884521484375e+00,5.000000000000000000e+00,5.000000000000000000e+00,5.000000000000000000e+00,5.000000000000000000e+00,5.000000000000000000e+00,5.000000000000000000e+00,5.000000000000000000e+00,5.000000000000000000e+00,2.423049449920654297e+00,2.444910287857055664e+00,2.634460210800170898e+00,2.601322650909423828e+00,2.612957000732421875e+00,5.000000000000000000e+00,5.000000000000000000e+00,5.000000000000000000e+00,5.000000000000000000e+00,5.000000000000000000e+00,5.000000000000000000e+00,5.000000000000000000e+00,5.000000000000000000e+00,5.000000000000000000e+00,5.000000000000000000e+00,5.000000000000000000e+00,5.000000000000000000e+00,5.000000000000000000e+00,5.000000000000000000e+00,5.000000000000000000e+00,5.000000000000000000e+00,5.000000000000000000e+00,5.000000000000000000e+00,5.000000000000000000e+00,5.000000000000000000e+00,5.000000000000000000e+00,5.000000000000000000e+00,5.000000000000000000e+00,5.000000000000000000e+00,5.000000000000000000e+00,5.000000000000000000e+00,5.000000000000000000e+00,5.000000000000000000e+00,5.000000000000000000e+00,5.000000000000000000e+00,5.000000000000000000e+00,5.000000000000000000e+00,5.000000000000000000e+00,5.000000000000000000e+00,5.000000000000000000e+00,5.000000000000000000e+00,5.000000000000000000e+00,5.000000000000000000e+00,5.000000000000000000e+00,5.000000000000000000e+00,5.000000000000000000e+00,4.850287914276123047e+00,4.691041469573974609e+00,4.541919708251953125e+00,4.401986122131347656e+00,4.270417690277099609e+00,4.146485328674316406e+00,4.029543876647949219e+00,3.919017553329467773e+00,3.814392566680908203e+00,3.715207099914550781e+00
3.099659442901611328e+00,3.178047180175781250e+00,3.260502576828002930e+00,3.347350597381591797e+00,3.438951969146728516e+00,3.535707712173461914e+00,3.638065099716186523e+00,3.746526241302490234e+00,3.861653089523315430e+00,3.984079599380493164e+00,4.114522457122802734e+00,4.253769397735595703e+00,4.402738571166992188e+00,4.562520503997802734e+00,4.734336376190185547e+00,4.919599533081054688e+00,5.000000000000000000e+00,5.000000000000000000e+00,5.000000000000000000e+00,5.000000000000000000e+00,5.000000000000000000e+00,5.000000000000000000e+00,5.000000000000000000e+00,2.488038301467895508e+00,2.437711477279663086e+00,2.463135480880737305e+00,2.638416767120361328e+00,2.604181289672851562e+00,2.615487337112426758e+00,5.000000000000000000e+00,5.000000000000000000e+00,5.000000000000000000e+00,5.000000000000000000e+00,5.000000000000000000e+00,5.000000000000000000e+00,5.000000000000000000e+00,5.000000000000000000e+00,5.000000000000000000e+00,5.000000000000000000e+00,5.000000000000000000e+00,5.000000000000000000e+00,5.000000000000000000e+00,5.000000000000000000e+00,5.000000000000000000e+00,5.000000000000000000e+00,5.000000000000000000e+00,5.000000000000000000e+00,5.000000000000000000e+00,5.000000000000000000e+00,5.000000000000000000e+00,5.000000000000000000e+00,5.000000000000000000e+00,5.000000000000000000e+00,5.000000000000000000e+00,5.000000000000000000e+00,5.000000000000000000e+00,5.000000000000000000e+00,5.000000000000000000e+00,5.000000000000000000e+00,5.000000000000000000e+00,5.000000000000000000e+00,5.000000000000000000e+00,5.000000000000000000e+00,5.000000000000000000e+00,5.000000000000000000e+00,5.000000000000000000e+00,5.000000000000000000e+00,5.000000000000000000e+00,5.000000000000000000e+00,5.000000000000000000e+00,4.850460052490234375e+00,4.691202163696289062e+00,4.542070388793945312e+00,4.402127742767333984e+00,4.270550727844238281e+00,4.146611213684082031e+00,4.029662609100341797e+00,3.919123172760009766e+00,3.814485788345336914e+00,3.715290069580078125e+00
3.099593400955200195e+00,3.177978038787841797e+00,3.260429620742797852e+00,3.347273588180541992e+00,3.438870668411254883e+00,3.535621643066406250e+00,3.637974500656127930e+00,3.746429920196533203e+00,3.861550807952880859e+00,3.983970165252685547e+00,4.114406108856201172e+00,4.253672122955322266e+00,4.402696609497070312e+00,4.562520980834960938e+00,4.734337329864501953e+00,4.919600009918212891e+00,5.000000000000000000e+00,5.000000000000000000e+00,5.000000000000000000e+00,5.000000000000000000e+00,5.000000000000000000e+00,5.000000000000000000e+00,5.000000000000000000e+00,2.523330211639404297e+00,2.487965345382690430e+00,2.534637928009033203e+00,2.659752845764160156e+00,2.627727508544921875e+00,2.646161079406738281e+00,5.000000000000000000e+00,5.000000000000000000e+00,5.000000000000000000e+00,5.000000000000000000e+00,5.000000000000000000e+00,5.000000000000000000e+00,5.000000000000000000e+00,5.000000000000000000e+00,5.000000000000000000e+00,5.000000000000000000e+00,5.000000000000000000e+00,5.000000000000000000e+00,5.000000000000000000e+00,5.000000000000000000e+00,5.000000000000000000e+00,5.000000000000000000e+00,5.000000000000000000e+00,5.000000000000000000e+00,5.000000000000000000e+00,5.000000000000000000e+00,5.000000000000000000e+00,5.000000000000000000e+00,5.000000000000000000e+00,5.000000000000000000e+00,5.000000000000000000e+00,5.000000000000000000e+00,5.000000000000000000e+00,5.000000000000000000e+00,5.000000000000000000e+00,5.000000000000000000e+00,5.000000000000000000e+00,5.000000000000000000e+00,5.000000000000000000e+00,5.000000000000000000e+00,5.000000000000000000e+00,5.000000000000000000e+00,5.000000000000000000e+00,5.000000000000000000e+00,5.000000000000000000e+00,5.000000000000000000e+00,5.000000000000000000e+00,4.850632190704345703e+00,4.691363334655761719e+00,4.542221546173095703e+00,4.402269840240478516e+00,4.270679473876953125e+00,4.146723747253417969e+00,4.029761314392089844e+00,3.919215679168701172e+00,3.814573287963867188e+00,3.715373277664184570e+00
3.099527597427368164e+00,3.177908420562744141e+00,3.260356664657592773e+00,3.347196578979492188e+00,3.438789606094360352e+00,3.535535812377929688e+00,3.637883424758911133e+00,3.746333360671997070e+00,3.861448049545288086e+00,3.983861446380615234e+00,4.114290237426757812e+00,4.253548145294189453e+00,4.402563571929931641e+00,4.562398910522460938e+00,4.734277248382568359e+00,4.919600486755371094e+00,5.000000000000000000e+00,5.000000000000000000e+00,5.000000000000000000e+00,5.000000000000000000e+00,5.000000000000000000e+00,5.000000000000000000e+00,5.000000000000000000e+00,2.563946962356567383e+00,2.540408134460449219e+00,2.587305307388305664e+00,2.675543546676635742e+00,2.657754659652709961e+00,2.700416564941406250e+00,5.000000000000000000e+00,5.000000000000000000e+00,5.000000000000000000e+00,5.000000000000000000e+00,5.000000000000000000e+00,5.000000000000000000e+00,5.000000000000000000e+00,5.000000000000000000e+00,5.000000000000000000e+00,5.000000000000000000e+00,5.000000000000000000e+00,5.000000000000000000e+00,5.000000000000000000e+00,5.000000000000000000e+00,5.000000000000000000e+00,5.000000000000000000e+00,5.000000000000000000e+00,5.000000000000000000e+00,5.000000000000000000e+00,5.000000000000000000e+00,5.000000000000000000e+00,5.000000000000000000e+00,5.000000000000000000e+00,5.000000000000000000e+00,5.000000000000000000e+00,5.000000000000000000e+00,5.000000000000000000e+00,5.000000000000000000e+00,5.000000000000000000e+00,5.000000000000000000e+00,5.000000000000000000e+00,5.000000000000000000e+00,5.000000000000000000e+00,5.000000000000000000e+00,5.000000000000000000e+00,5.000000000000000000e+00,5.000000000000000000e+00,5.000000000000000000e+00,5.000000000000000000e+00,5.000000000000000000e+00,5.000000000000000000e+00,4.850804328918457031e+00,4.691521644592285156e+00,4.542359352111816406e+00,4.402390003204345703e+00,4.270789146423339844e+00,4.146827220916748047e+00,4.029859066009521484e+00,3.919308185577392578e+00,3.814661026000976562e+00,3.715456485748291016e+00
3.099461555480957031e+00,3.177839279174804688e+00,3.260283708572387695e+00,3.347119808197021484e+00,3.438708066940307617e+00,3.535449743270874023e+00,3.637792587280273438e+00,3.746237039566040039e+00,3.861346006393432617e+00,3.983752250671386719e+00,4.114173889160156250e+00,4.253424167633056641e+00,4.402430057525634766e+00,4.562255859375000000e+00,4.734123229980468750e+00,4.919446468353271484e+00,5.000000000000000000e+00,5.000000000000000000e+00,5.000000000000000000e+00,5.000000000000000000e+00,5.000000000000000000e+00,5.000000000000000000e+00,5.000000000000000000e+00,2.606834888458251953e+00,2.579062223434448242e+00,2.643711566925048828e+00,2.680500268936157227e+00,2.678853988647460938e+00,5.000000000000000000e+00,5.000000000000000000e+00,5.000000000000000000e+00,5.000000000000000000e+00,5.000000000000000000e+00,5.000000000000000000e+00,5.000000000000000000e+00,5.000000000000000000e+00,5.000000000000000000e+00,5.000000000000000000e+00,5.000000000000000000e+00,5.000000000000000000e+00,5.000000000000000000e+00,5.000000000000000000e+00,5.000000000000000000e+00,5.000000000000000000e+00,5.000000000000000000e+00,5.000000000000000000e+00,5.000000000000000000e+00,5.000000000000000000e+00,5.000000000000000000e+00,5.000000000000000000e+00,5.000000000000000000e+00,5.000000000000000000e+00,5.000000000000000000e+00,5.000000000000000000e+00,5.000000000000000000e+00,5.000000000000000000e+00,5.000000000000000000e+00,5.000000000000000000e+00,5.000000000000000000e+00,5.000000000000000000e+00,5.000000000000000000e+00,5.000000000000000000e+00,5.000000000000000000e+00,5.000000000000000000e+00,5.000000000000000000e+00,5.000000000000000000e+00,5.000000000000000000e+00,5.000000000000000000e+00,5.000000000000000000e+00,5.000000000000000000e+00,4.850954532623291016e+00,4.691654205322265625e+00,4.542484283447265625e+00,4.402506828308105469e+00,4.270898818969726562e+00,4.146930694580078125e+00,4.029956817626953125e+00,3.919400691986083984e+00,3.814748525619506836e+00,3.715539455413818359e+00
3.099395751953125000e+00,3.177769899368286133e+00,3.260210514068603516e+00,3.347042798995971680e+00,3.438627004623413086e+00,3.535364151000976562e+00,3.637701988220214844e+00,3.746140480041503906e+00,3.861243247985839844e+00,3.983643293380737305e+00,4.114057540893554688e+00,4.253299713134765625e+00,4.402297496795654297e+00,4.562112808227539062e+00,4.733969211578369141e+00,4.919280052185058594e+00,5.000000000000000000e+00,5.000000000000000000e+00,5.000000000000000000e+00,5.000000000000000000e+00,5.000000000000000000e+00,5.000000000000000000e+00,5.000000000000000000e+00,2.653217077255249023e+00,2.617993593215942383e+00,5.000000000000000000e+00,2.689327001571655273e+00,2.688591718673706055e+00,5.000000000000000000e+00,5.000000000000000000e+00,5.000000000000000000e+00,5.000000000000000000e+00,5.000000000000000000e+00,5.000000000000000000e+00,5.000000000000000000e+00,5.000000000000000000e+00,5.000000000000000000e+00,5.000000000000000000e+00,5.000000000000000000e+00,5.000000000000000000e+00,5.000000000000000000e+00,5.000000000000000000e+00,5.000000000000000000e+00,5.000000000000000000e+00,5.000000000000000000e+00,5.000000000000000000e+00,5.000000000000000000e+00,5.000000000000000000e+00,5.000000000000000000e+00,5.000000000000000000e+00,5.000000000000000000e+00,5.000000000000000000e+00,5.000000000000000000e+00,5.000000000000000000e+00,5.000000000000000000e+00,5.000000000000000000e+00,5.000000000000000000e+00,5.000000000000000000e+00,5.000000000000000000e+00,5.000000000000000000e+00,5.000000000000000000e+00,5.000000000000000000e+00,5.000000000000000000e+00,5.000000000000000000e+00,5.000000000000000000e+00,5.000000000000000000e+00,5.000000000000000000e+00,5.000000000000000000e+00,5.000000000000000000e+00,5.000000000000000000e+00,4.851096153259277344e+00,4.691786766052246094e+00,4.542608261108398438e+00,4.402623653411865234e+00,4.271008491516113281e+00,4.147034645080566406e+00,4.030054569244384766e+00,3.919493198394775391e+00,3.814836263656616211e+00,3.715622663497924805e+00
3.099329471588134766e+00,3.177700519561767578e+00,3.260137557983398438e+00,3.346966028213500977e+00,3.438545942306518555e+00,3.535278081893920898e+00,3.637610912322998047e+00,3.746044397354125977e+00,3.861140966415405273e+00,3.983534574508666992e+00,4.113941192626953125e+00,4.253175258636474609e+00,4.402164459228515625e+00,4.561970233917236328e+00,4.733815670013427734e+00,4.919114112854003906e+00,5.000000000000000000e+00,5.000000000000000000e+00,5.000000000000000000e+00,5.000000000000000000e+00,5.000000000000000000e+00,5.000000000000000000e+00,5.000000000000000000e+00,2.705500364303588867e+00,2.660040378570556641e+00,5.000000000000000000e+00,2.698212146759033203e+00,2.698400735855102539e+00,5.000000000000000000e+00,5.000000000000000000e+00,5.000000000000000000e+00,5.000000000000000000e+00,5.000000000000000000e+00,5.000000000000000000e+00,5.000000000000000000e+00,5.000000000000000000e+00,5.000000000000000000e+00,5.000000000000000000e+00,5.000000000000000000e+00,5.000000000000000000e+00,5.000000000000000000e+00,5.000000000000000000e+00,5.000000000000000000e+00,5.000000000000000000e+00,5.000000000000000000e+00,5.000000000000000000e+00,5.000000000000000000e+00,5.000000000000000000e+00,5.000000000000000000e+00,5.000000000000000000e+00,5.000000000000000000e+00,5.000000000000000000e+00,5.000000000000000000e+00,5.000000000000000000e+00,5.000000000000000000e+00,5.000000000000000000e+00,5.000000000000000000e+00,5.000000000000000000e+00,5.000000000000000000e+00,5.000000000000000000e+00,5.000000000000000000e+00,5.000000000000000000e+00,5.000000000000000000e+00,5.000000000000000000e+00,5.000000000000000000e+00,5.000000000000000000e+00,5.000000000000000000e+00,5.000000000000000000e+00,5.000000000000000000e+00,5.000000000000000000e+00,4.851237773895263672e+00,4.691919326782226562e+00,4.542732715606689453e+00,4.402740478515625000e+00,4.271118640899658203e+00,4.147138118743896484e+00,4.030152320861816406e+00,3.919585704803466797e+00,3.814923763275146484e+00,3.715705633163452148e+00
3.099263668060302734e+00,3.177631139755249023e+00,3.260064840316772461e+00,3.346888780593872070e+00,3.438464641571044922e+00,3.535192489624023438e+00,3.637520074844360352e+00,3.745948076248168945e+00,3.861038446426391602e+00,3.983425378799438477e+00,4.113825321197509766e+00,4.253051280975341797e+00,4.402030944824218750e+00,4.561827182769775391e+00,4.733661651611328125e+00,4.918948173522949219e+00,5.000000000000000000e+00,5.000000000000000000e+00,5.000000000000000000e+00,5.000000000000000000e+00,5.000000000000000000e+00,5.000000000000000000e+00,5.000000000000000000e+00,5.000000000000000000e+00,2.708546400070190430e+00,5.000000000000000000e+00,2.708508491516113281e+00,2.732439041137695312e+00,5.000000000000000000e+00,5.000000000000000000e+00,5.000000000000000000e+00,5.000000000000000000e+00,5.000000000000000000e+00,5.000000000000000000e+00,5.000000000000000000e+00,5.000000000000000000e+00,5.000000000000000000e+00,5.000000000000000000e+00,5.000000000000000000e+00,5.000000000000000000e+00,5.000000000000000000e+00,5.000000000000000000e+00,5.000000000000000000e+00,5.000000000000000000e+00,5.000000000000000000e+00,5.000000000000000000e+00,5.000000000000000000e+00,5.000000000000000000e+00,5.000000000000000000e+00,5.000000000000000000e+00,5.000000000000000000e+00,5.000000000000000000e+00,5.000000000000000000e+00,5.000000000000000000e+00,5.000000000000000000e+00,5.000000000000000000e+00,5.000000000000000000e+00,5.000000000000000000e+00,5.000000000000000000e+00,5.000000000000000000e+00,5.000000000000000000e+00,5.000000000000000000e+00,5.000000000000000000e+00,5.000000000000000000e+00,5.000000000000000000e+00,5.000000000000000000e+00,5.000000000000000000e+00,5.000000000000000000e+00,5.000000000000000000e+00,5.000000000000000000e+00,4.851379394531250000e+00,4.692051887512207031e+00,4.542856693267822266e+00,4.402857303619384766e+00,4.271228313446044922e+00,4.147241592407226562e+00,4.030250072479248047e+00,3.919677972793579102e+00,3.815011501312255859e+00,3.715788841247558594e+00
3.099197626113891602e+00,3.177561759948730469e+00,3.259991645812988281e+00,3.346812009811401367e+00,3.438383579254150391e+00,3.535106897354125977e+00,3.637428998947143555e+00,3.745851516723632812e+00,3.860936164855957031e+00,3.983316659927368164e+00,4.113708972930908203e+00,4.252926826477050781e+00,4.401897907257080078e+00,4.561684608459472656e+00,4.733507633209228516e+00,4.918781757354736328e+00,5.000000000000000000e+00,5.000000000000000000e+00,5.000000000000000000e+00,5.000000000000000000e+00,5.000000000000000000e+00,5.000000000000000000e+00,5.000000000000000000e+00,5.000000000000000000e+00,2.737987518310546875e+00,5.000000000000000000e+00,2.718951225280761719e+00,5.000000000000000000e+00,5.000000000000000000e+00,5.000000000000000000e+00,5.000000000000000000e+00,5.000000000000000000e+00,5.000000000000000000e+00,5.000000000000000000e+00,5.000000000000000000e+00,5.000000000000000000e+00,5.000000000000000000e+00,5.000000000000000000e+00,5.000000000000000000e+00,5.000000000000000000e+00,5.000000000000000000e+00,5.000000000000000000e+00,5.000000000000000000e+00,5.000000000000000000e+00,5.000000000000000000e+00,5.000000000000000000e+00,5.000000000000000000e+00,5.000000000000000000e+00,5.000000000000000000e+00,5.000000000000000000e+00,5.000000000000000000e+00,5.000000000000000000e+00,5.000000000000000000e+00,5.000000000000000000e+00,5.000000000000000000e+00,5.000000000000000000e+00,5.000000000000000000e+00,5.000000000000000000e+00,5.000000000000000000e+00,5.000000000000000000e+00,5.000000000000000000e+00,5.000000000000000000e+00,5.000000000000000000e+00,5.000000000000000000e+00,5.000000000000000000e+00,5.000000000000000000e+00,5.000000000000000000e+00,5.000000000000000000e+00,5.000000000000000000e+00,5.000000000000000000e+00,4.851521015167236328e+00,4.692184448242187500e+00,4.542981147766113281e+00,4.402973651885986328e+00,4.271338462829589844e+00,4.147345066070556641e+00,4.030347824096679688e+00,3.919770479202270508e+00,3.815099000930786133e+00,3.715872049331665039e+00
3.099131822586059570e+00,3.177492618560791016e+00,3.259918689727783203e+00,3.346735000610351562e+00,3.438302278518676758e+00,3.535020828247070312e+00,3.637338399887084961e+00,3.745755434036254883e+00,3.860834121704101562e+00,3.983207464218139648e+00,4.113592624664306641e+00,4.252802848815917969e+00,4.401764869689941406e+00,4.561541557312011719e+00,4.733353614807128906e+00,4.854164600372314453e+00,4.852963447570800781e+00,4.851762771606445312e+00,4.850562572479248047e+00,4.849362850189208984e+00,4.848164081573486328e+00,4.846965789794921875e+00,4.845767974853515625e+00,2.732456922531127930e+00,2.722901344299316406e+00,4.842178344726562500e+00,2.729474306106567383e+00,4.839787960052490234e+00,4.838593482971191406e+00,4.837399959564208984e+00,4.836206912994384766e+00,4.835014343261718750e+00,4.833822250366210938e+00,4.832631111145019531e+00,4.831440448760986328e+00,4.830250263214111328e+00,4.829061031341552734e+00,4.827871799468994141e+00,4.826683521270751953e+00,4.825495719909667969e+00,4.824308872222900391e+00,4.823122024536132812e+00,4.821936130523681641e+00,4.820750713348388672e+00,4.819565773010253906e+00,4.818381309509277344e+00,4.817197799682617188e+00,4.816014289855957031e+00,4.814832210540771484e+00,4.813650131225585938e+00,4.812468528747558594e+00,4.811287879943847656e+00,4.810107707977294922e+00,4.808928012847900391e+00,4.807748794555664062e+00,4.806570529937744141e+00,4.805392742156982422e+00,4.804215431213378906e+00,4.803038120269775391e+00,4.801862239837646484e+00,4.800686836242675781e+00,4.799511432647705078e+00,4.798337459564208984e+00,4.797163486480712891e+00,4.795989990234375000e+00,4.794817447662353516e+00,4.793645381927490234e+00,4.792473793029785156e+00,4.791302680969238281e+00,4.790132522583007812e+00,4.788962364196777344e+00,4.692317008972167969e+00,4.543105125427246094e+00,4.403090476989746094e+00,4.271448135375976562e+00,4.147449016571044922e+00,4.030445575714111328e+00,3.919862985610961914e+00,3.815186738967895508e+00,3.715955018997192383e+00
3.099066019058227539e+00,3.177423000335693359e+00,3.259845733642578125e+00,3.346658229827880859e+00,3.438221216201782227e+00,3.534934997558593750e+00,3.637247323989868164e+00,3.745658874511718750e+00,3.770682811737060547e+00,3.769958019256591797e+00,3.769233465194702148e+00,3.768509149551391602e+00,3.767784595489501953e+00,3.767060756683349609e+00,3.766337394714355469e+00,3.765614271163940430e+00,3.764891386032104492e+00,3.764168500900268555e+00,3.763445854187011719e+00,3.762723684310913086e+00,3.762001991271972656e+00,3.761280536651611328e+00,3.760559082031250000e+00,2.702283143997192383e+00,2.696772575378417969e+00,3.758396625518798828e+00,2.730100870132446289e+00,3.756956577301025391e+00,3.756237030029296875e+00,3.755517244338989258e+00,3.754798173904418945e+00,3.754079580307006836e+00,3.753360986709594727e+00,3.752642869949340820e+00,3.751924753189086914e+00,3.751206636428833008e+00,3.750489234924316406e+00,3.749772310256958008e+00,3.749055385589599609e+00,3.748338699340820312e+00,3.747622489929199219e+00,3.746906042098999023e+00,3.746190309524536133e+00,3.745474815368652344e+00,3.744759559631347656e+00,3.744044780731201172e+00,3.743330001831054688e+00,3.742615222930908203e+00,3.741901159286499023e+00,3.741187334060668945e+00,3.740473747253417969e+00,3.739760398864746094e+00,3.739047527313232422e+00,3.738334178924560547e+00,3.737621784210205078e+00,3.736909627914428711e+00,3.736197710037231445e+00,3.735486030578613281e+00,3.734774112701416016e+00,3.734062910079956055e+00,3.733352184295654297e+00,3.732641696929931641e+00,3.731931209564208984e+00,3.731221199035644531e+00,3.730510950088500977e+00,3.729801416397094727e+00,3.729092359542846680e+00,3.728383302688598633e+00,3.727674722671508789e+00,3.726966142654418945e+00,3.726257562637329102e+00,3.725549697875976562e+00,3.724842071533203125e+00,3.724134683609008789e+00,3.723427772521972656e+00,3.722720861434936523e+00,3.722013950347900391e+00,3.721307516098022461e+00,3.720601558685302734e+00,3.716038227081298828e+00
3.083105325698852539e+00,3.082620859146118164e+00,3.082136392593383789e+00,3.081651926040649414e+00,3.081167936325073242e+00,3.080683946609497070e+00,3.080199956893920898e+00,3.079716205596923828e+00,3.079232692718505859e+00,3.078748941421508789e+00,3.078265666961669922e+00,3.077782630920410156e+00,3.077299594879150391e+00,3.076816797256469727e+00,3.076334476470947266e+00,3.075851678848266602e+00,3.075369358062744141e+00,3.074887037277221680e+00,3.074405193328857422e+00,3.073923110961914062e+00,3.073441267013549805e+00,3.072959661483764648e+00,3.072478055953979492e+00,3.071996688842773438e+00,3.071515560150146484e+00,2.674051761627197266e+00,2.656487703323364258e+00,3.070072889328002930e+00,3.069592237472534180e+00,3.069111824035644531e+00,3.068631649017333984e+00,3.068151473999023438e+00,3.067671298980712891e+00,3.067191600799560547e+00,3.066711902618408203e+00,3.066232442855834961e+00,3.065753221511840820e+00,3.065274000167846680e+00,3.064794778823852539e+00,3.064315795898437500e+00,3.063837051391601562e+00,3.063358545303344727e+00,3.062880039215087891e+00,3.062401771545410156e+00,3.061923265457153320e+00,3.061445236206054688e+00,3.060967445373535156e+00,3.060489892959594727e+00,3.060012340545654297e+00,3.059534788131713867e+00,3.059057235717773438e+00,3.058580160140991211e+00,3.058103322982788086e+00,3.057626485824584961e+00,3.057149887084960938e+00,3.056673288345336914e+00,3.056196689605712891e+00,3.055720329284667969e+00,3.055244445800781250e+00,3.054768562316894531e+00,3.054292678833007812e+00,3.053816795349121094e+00,3.053341388702392578e+00,3.052865982055664062e+00,3.052390813827514648e+00,3.051915884017944336e+00,3.051440954208374023e+00,3.050966024398803711e+00,3.050491333007812500e+00,3.050016880035400391e+00,3.049542665481567383e+00,3.049068450927734375e+00,3.048594474792480469e+00,3.048120498657226562e+00,3.047646760940551758e+00,3.047173261642456055e+00,3.046699762344360352e+00,3.046226501464843750e+00,3.045753479003906250e+00,3.045280218124389648e+00
2.604840993881225586e+00,2.604495048522949219e+00,2.604149341583251953e+00,2.603803396224975586e+00,2.603457927703857422e+00,2.603112220764160156e+00,2.602766752243041992e+00,2.602421283721923828e+00,2.602076053619384766e+00,2.601730585098266602e+00,2.601385593414306641e+00,2.601040601730346680e+00,2.600695610046386719e+00,2.600350856781005859e+00,2.600006103515625000e+00,2.599661350250244141e+00,2.599316835403442383e+00,2.598972320556640625e+00,2.598627567291259766e+00,2.598283290863037109e+00,2.597939491271972656e+00,2.597595214843750000e+00,2.597251176834106445e+00,2.596907138824462891e+00,2.596563339233398438e+00,2.596219539642333984e+00,2.595875978469848633e+00,2.595532417297363281e+00,2.595188856124877930e+00,2.594845294952392578e+00,2.594501972198486328e+00,2.594158649444580078e+00,2.593815565109252930e+00,2.593472719192504883e+00,2.593129634857177734e+00,2.592786550521850586e+00,2.592443943023681641e+00,2.592101335525512695e+00,2.591758728027343750e+00,2.591416120529174805e+00,2.591073751449584961e+00,2.590731382369995117e+00,2.590389013290405273e+00,2.590046882629394531e+00,2.589704990386962891e+00,2.589363098144531250e+00,2.589021205902099609e+00,2.588679313659667969e+00,2.588337659835815430e+00,2.587996006011962891e+00,2.587654590606689453e+00,2.587313175201416016e+00,2.586971759796142578e+00,2.586630344390869141e+00,2.586289405822753906e+00,2.585948228836059570e+00,2.585607290267944336e+00,2.585266590118408203e+00,2.584925413131713867e+00,2.584584951400756836e+00,2.584244251251220703e+00,2.583903789520263672e+00,2.583563327789306641e+00,2.583223104476928711e+00,2.582882642745971680e+00,2.582542419433593750e+00,2.582202434539794922e+00,2.581862449645996094e+00,2.581522703170776367e+00,2.581182956695556641e+00,2.580842971801757812e+00,2.580503463745117188e+00,2.580163955688476562e+00,2.579824447631835938e+00,2.579485177993774414e+00,2.579145908355712891e+00,2.578806400299072266e+00,2.578467369079589844e+00,2.578128576278686523e+00,2.577789545059204102e+00
2.255031108856201172e+00,2.254771709442138672e+00,2.254512548446655273e+00,2.254253387451171875e+00,2.253994464874267578e+00,2.253735303878784180e+00,2.253476381301879883e+00,2.253217458724975586e+00,2.252958536148071289e+00,2.252699613571166992e+00,2.252440929412841797e+00,2.252182245254516602e+00,2.251923561096191406e+00,2.251665115356445312e+00,2.251406669616699219e+00,2.251148223876953125e+00,2.250889778137207031e+00,2.250631570816040039e+00,2.250373125076293945e+00,2.250114917755126953e+00,2.249856710433959961e+00,2.249598741531372070e+00,2.249340534210205078e+00,2.249082565307617188e+00,2.248824834823608398e+00,2.248567104339599609e+00,2.248309135437011719e+00,2.248051404953002930e+00,2.247793674468994141e+00,2.247536182403564453e+00,2.247278451919555664e+00,2.247020959854125977e+00,2.246763467788696289e+00,2.246506214141845703e+00,2.246248722076416016e+00,2.245991468429565430e+00,2.245734453201293945e+00,2.245477199554443359e+00,2.245219945907592773e+00,2.244962930679321289e+00,2.244705915451049805e+00,2.244449138641357422e+00,2.244192123413085938e+00,2.243935346603393555e+00,2.243678569793701172e+00,2.243421792984008789e+00,2.243165254592895508e+00,2.242908716201782227e+00,2.242652177810668945e+00,2.242395877838134766e+00,2.242139339447021484e+00,2.241883039474487305e+00,2.241626739501953125e+00,2.241370439529418945e+00,2.241114377975463867e+00,2.240858316421508789e+00,2.240602016448974609e+00,2.240346193313598633e+00,2.240090131759643555e+00,2.239834308624267578e+00,2.239578485488891602e+00,2.239322662353515625e+00,2.239067077636718750e+00,2.238811492919921875e+00,2.238555908203125000e+00,2.238300323486328125e+00,2.238044977188110352e+00,2.237789392471313477e+00,2.237534046173095703e+00,2.237278699874877930e+00,2.237023591995239258e+00,2.236768484115600586e+00,2.236513376235961914e+00,2.236258268356323242e+00,2.236003160476684570e+00,2.235748291015625000e+00,2.235493421554565430e+00,2.235238552093505859e+00,2.234983921051025391e+00,2.234729051589965820e+00
1.988051176071166992e+00,1.987849831581115723e+00,1.987648248672485352e+00,1.987446904182434082e+00,1.987245440483093262e+00,1.987044095993041992e+00,1.986842751502990723e+00,1.986641526222229004e+00,1.986440181732177734e+00,1.986238956451416016e+00,1.986037850379943848e+00,1.985836625099182129e+00,1.985635757446289062e+00,1.985434651374816895e+00,1.985233664512634277e+00,1.985032677650451660e+00,1.984831929206848145e+00,1.984630942344665527e+00,1.984429955482482910e+00,1.984229326248168945e+00,1.984028458595275879e+00,1.983827829360961914e+00,1.983627080917358398e+00,1.983426570892333984e+00,1.983225822448730469e+00,1.983025431632995605e+00,1.982824802398681641e+00,1.982624292373657227e+00,1.982423901557922363e+00,1.982223510742187500e+00,1.982023239135742188e+00,1.981823086738586426e+00,1.981622695922851562e+00,1.981422543525695801e+00,1.981222271919250488e+00,1.981022000312805176e+00,1.980822086334228516e+00,1.980621933937072754e+00,1.980422019958496094e+00,1.980221867561340332e+00,1.980022072792053223e+00,1.979822039604187012e+00,1.979622125625610352e+00,1.979422450065612793e+00,1.979222536087036133e+00,1.979022860527038574e+00,1.978823065757751465e+00,1.978623390197753906e+00,1.978423833847045898e+00,1.978224158287048340e+00,1.978024721145629883e+00,1.977825164794921875e+00,1.977625727653503418e+00,1.977426290512084961e+00,1.977226734161376953e+00,1.977027535438537598e+00,1.976828098297119141e+00,1.976629018783569336e+00,1.976429700851440430e+00,1.976230382919311523e+00,1.976031422615051270e+00,1.975832223892211914e+00,1.975633263587951660e+00,1.975434064865112305e+00,1.975234985351562500e+00,1.975036263465881348e+00,1.974837183952331543e+00,1.974638462066650391e+00,1.974439501762390137e+00,1.974240899085998535e+00,1.974042057991027832e+00,1.973843216896057129e+00,1.973644733428955078e+00,1.973446011543273926e+00,1.973247528076171875e+00,1.973048925399780273e+00,1.972850322723388672e+00,1.972651958465576172e+00,1.972453474998474121e+00,1.972255229949951172e+00
1.777596354484558105e+00,1.777435183525085449e+00,1.777274250984191895e+00,1.777113080024719238e+00,1.776952147483825684e+00,1.776790976524353027e+00,1.776630163192749023e+00,1.776469111442565918e+00,1.776308298110961914e+00,1.776147365570068359e+00,1.775986433029174805e+00,1.775825738906860352e+00,1.775664806365966797e+00,1.775504112243652344e+00,1.775343298912048340e+00,1.775182723999023438e+00,1.775021910667419434e+00,1.774861335754394531e+00,1.774700641632080078e+00,1.774539947509765625e+00,1.774379491806030273e+00,1.774218916893005371e+00,1.774058461189270020e+00,1.773897886276245117e+00,1.773737549781799316e+00,1.773577094078063965e+00,1.773416757583618164e+00,1.773256301879882812e+00,1.773095965385437012e+00,1.772935748100280762e+00,1.772775292396545410e+00,1.772615194320678711e+00,1.772454857826232910e+00,1.772294759750366211e+00,1.772134542465209961e+00,1.771974563598632812e+00,1.771814465522766113e+00,1.771654367446899414e+00,1.771494269371032715e+00,1.771334290504455566e+00,1.771174192428588867e+00,1.771014332771301270e+00,1.770854353904724121e+00,1.770694613456726074e+00,1.770534634590148926e+00,1.770374655723571777e+00,1.770214915275573730e+00,1.770055055618286133e+00,1.769895434379577637e+00,1.769735574722290039e+00,1.769575834274291992e+00,1.769416213035583496e+00,1.769256472587585449e+00,1.769096970558166504e+00,1.768937349319458008e+00,1.768777847290039062e+00,1.768618226051330566e+00,1.768458724021911621e+00,1.768299341201782227e+00,1.768139839172363281e+00,1.767980456352233887e+00,1.767821073532104492e+00,1.767661571502685547e+00,1.767502307891845703e+00,1.767343044281005859e+00,1.767183780670166016e+00,1.767024517059326172e+00,1.766865253448486328e+00,1.766706109046936035e+00,1.766546845436096191e+00,1.766387820243835449e+00,1.766228675842285156e+00,1.766069769859313965e+00,1.765910625457763672e+00,1.765751481056213379e+00,1.765592694282531738e+00,1.765433669090270996e+00,1.765274882316589355e+00,1.765115857124328613e+00,1.764956951141357422e+00
1.607433557510375977e+00,1.607301831245422363e+00,1.607170104980468750e+00,1.607038497924804688e+00,1.606906652450561523e+00,1.606775164604187012e+00,1.606643438339233398e+00,1.606511831283569336e+00,1.606380224227905273e+00,1.606248497962951660e+00,1.606117129325866699e+00,1.605985522270202637e+00,1.605854034423828125e+00,1.605722427368164062e+00,1.605591058731079102e+00,1.605459570884704590e+00,1.605328202247619629e+00,1.605196714401245117e+00,1.605065345764160156e+00,1.604933977127075195e+00,1.604802608489990234e+00,1.604671359062194824e+00,1.604539990425109863e+00,1.604408860206604004e+00,1.604277491569519043e+00,1.604146361351013184e+00,1.604014992713928223e+00,1.603883743286132812e+00,1.603752732276916504e+00,1.603621482849121094e+00,1.603490471839904785e+00,1.603359222412109375e+00,1.603228211402893066e+00,1.603097081184387207e+00,1.602966189384460449e+00,1.602835059165954590e+00,1.602704048156738281e+00,1.602573156356811523e+00,1.602442145347595215e+00,1.602311253547668457e+00,1.602180242538452148e+00,1.602049469947814941e+00,1.601918697357177734e+00,1.601787805557250977e+00,1.601657032966613770e+00,1.601526141166687012e+00,1.601395487785339355e+00,1.601264595985412598e+00,1.601133823394775391e+00,1.601003170013427734e+00,1.600872397422790527e+00,1.600741863250732422e+00,1.600611090660095215e+00,1.600480437278747559e+00,1.600349903106689453e+00,1.600219249725341797e+00,1.600088715553283691e+00,1.599958062171936035e+00,1.599827408790588379e+00,1.599696993827819824e+00,1.599566459655761719e+00,1.599436044692993164e+00,1.599305629730224609e+00,1.599175214767456055e+00,1.599044799804687500e+00,1.598914384841918945e+00,1.598784089088439941e+00,1.598653674125671387e+00,1.598523378372192383e+00,1.598393082618713379e+00,1.598262667655944824e+00,1.598132491111755371e+00,1.598002195358276367e+00,1.597872138023376465e+00,1.597741842269897461e+00,1.597611784934997559e+00,1.597481608390808105e+00,1.597351312637329102e+00,1.597221374511718750e+00,1.597091197967529297e+00
1.467002868652343750e+00,1.466893076896667480e+00,1.466783404350280762e+00,1.466673612594604492e+00,1.466563940048217773e+00,1.466454267501831055e+00,1.466344714164733887e+00,1.466234922409057617e+00,1.466125369071960449e+00,1.466015696525573730e+00,1.465906143188476562e+00,1.465796589851379395e+00,1.465687036514282227e+00,1.465577483177185059e+00,1.465467929840087891e+00,1.465358495712280273e+00,1.465248942375183105e+00,1.465139508247375488e+00,1.465029954910278320e+00,1.464920520782470703e+00,1.464811205863952637e+00,1.464701652526855469e+00,1.464592337608337402e+00,1.464482903480529785e+00,1.464373588562011719e+00,1.464264273643493652e+00,1.464154958724975586e+00,1.464045643806457520e+00,1.463936209678649902e+00,1.463827013969421387e+00,1.463717699050903320e+00,1.463608503341674805e+00,1.463499307632446289e+00,1.463390111923217773e+00,1.463280797004699707e+00,1.463171720504760742e+00,1.463062524795532227e+00,1.462953329086303711e+00,1.462844252586364746e+00,1.462735056877136230e+00,1.462626099586486816e+00,1.462516903877258301e+00,1.462407946586608887e+00,1.462298870086669922e+00,1.462189793586730957e+00,1.462080717086791992e+00,1.461971759796142578e+00,1.461862921714782715e+00,1.461753964424133301e+00,1.461645007133483887e+00,1.461536049842834473e+00,1.461427092552185059e+00,1.461318254470825195e+00,1.461209297180175781e+00,1.461100459098815918e+00,1.460991501808166504e+00,1.460882663726806641e+00,1.460773944854736328e+00,1.460665106773376465e+00,1.460556268692016602e+00,1.460447549819946289e+00,1.460338711738586426e+00,1.460229992866516113e+00,1.460121273994445801e+00,1.460012555122375488e+00,1.459903836250305176e+00,1.459795236587524414e+00,1.459686517715454102e+00,1.459577798843383789e+00,1.459469199180603027e+00,1.459360599517822266e+00,1.459251999855041504e+00,1.459143400192260742e+00,1.459034800529479980e+00,1.458926320075988770e+00,1.458817720413208008e+00,1.458709239959716797e+00,1.458600759506225586e+00,1.458492279052734375e+00,1.458383798599243164e+00
1.349137544631958008e+00,1.349044799804687500e+00,1.348951935768127441e+00,1.348859190940856934e+00,1.348766326904296875e+00,1.348673701286315918e+00,1.348580837249755859e+00,1.348488211631774902e+00,1.348395466804504395e+00,1.348302721977233887e+00,1.348209977149963379e+00,1.348117351531982422e+00,1.348024725914001465e+00,1.347931981086730957e+00,1.347839355468750000e+00,1.347746729850769043e+00,1.347654104232788086e+00,1.347561478614807129e+00,1.347468852996826172e+00,1.347376346588134766e+00,1.347283720970153809e+00,1.347191214561462402e+00,1.347098588943481445e+00,1.347006201744079590e+00,1.346913576126098633e+00,1.346821188926696777e+00,1.346728563308715820e+00,1.346636056900024414e+00,1.346543669700622559e+00,1.346451163291931152e+00,1.346358776092529297e+00,1.346266269683837891e+00,1.346174001693725586e+00,1.346081495285034180e+00,1.345989108085632324e+00,1.345896720886230469e+00,1.345804333686828613e+00,1.345712065696716309e+00,1.345619678497314453e+00,1.345527410507202148e+00,1.345435023307800293e+00,1.345342755317687988e+00,1.345250368118286133e+00,1.345158219337463379e+00,1.345065832138061523e+00,1.344973564147949219e+00,1.344881415367126465e+00,1.344789147377014160e+00,1.344696998596191406e+00,1.344604730606079102e+00,1.344512581825256348e+00,1.344420313835144043e+00,1.344328403472900391e+00,1.344236135482788086e+00,1.344143986701965332e+00,1.344051837921142578e+00,1.343959689140319824e+00,1.343867659568786621e+00,1.343775510787963867e+00,1.343683362007141113e+00,1.343591451644897461e+00,1.343499302864074707e+00,1.343407273292541504e+00,1.343315243721008301e+00,1.343223214149475098e+00,1.343131303787231445e+00,1.343039155006408691e+00,1.342947244644165039e+00,1.342855334281921387e+00,1.342763423919677734e+00,1.342671394348144531e+00,1.342579364776611328e+00,1.342487573623657227e+00,1.342395663261413574e+00,1.342303752899169922e+00,1.342211842536926270e+00,1.342119932174682617e+00,1.342028141021728516e+00,1.341936230659484863e+00,1.341844558715820312e+00
1.248803377151489258e+00,1.248723864555358887e+00,1.248644471168518066e+00,1.248564839363098145e+00,1.248485445976257324e+00,1.248405933380126953e+00,1.248326539993286133e+00,1.248247027397155762e+00,1.248167634010314941e+00,1.248088121414184570e+00,1.248008608818054199e+00,1.247929215431213379e+00,1.247849822044372559e+00,1.247770428657531738e+00,1.247691035270690918e+00,1.247611761093139648e+00,1.247532248497009277e+00,1.247452974319458008e+00,1.247373580932617188e+00,1.247294187545776367e+00,1.247214913368225098e+00,1.247135519981384277e+00,1.247056365013122559e+00,1.246976971626281738e+00,1.246897697448730469e+00,1.246818423271179199e+00,1.246739149093627930e+00,1.246659874916076660e+00,1.246580600738525391e+00,1.246501445770263672e+00,1.246422171592712402e+00,1.246343016624450684e+00,1.246263742446899414e+00,1.246184587478637695e+00,1.246105313301086426e+00,1.246026277542114258e+00,1.245947003364562988e+00,1.245867848396301270e+00,1.245788693428039551e+00,1.245709538459777832e+00,1.245630502700805664e+00,1.245551347732543945e+00,1.245472192764282227e+00,1.245393037796020508e+00,1.245314002037048340e+00,1.245234966278076172e+00,1.245155811309814453e+00,1.245076775550842285e+00,1.244997739791870117e+00,1.244918704032897949e+00,1.244839668273925781e+00,1.244760751724243164e+00,1.244681715965270996e+00,1.244602680206298828e+00,1.244523644447326660e+00,1.244444608688354492e+00,1.244365692138671875e+00,1.244286894798278809e+00,1.244207978248596191e+00,1.244128942489624023e+00,1.244050145149230957e+00,1.243971109390258789e+00,1.243892192840576172e+00,1.243813395500183105e+00,1.243734359741210938e+00,1.243655562400817871e+00,1.243576645851135254e+00,1.243497729301452637e+00,1.243418931961059570e+00,1.243340134620666504e+00,1.243261337280273438e+00,1.243182420730590820e+00,1.243103742599487305e+00,1.243024826049804688e+00,1.242946028709411621e+00,1.242867350578308105e+00,1.242788553237915039e+00,1.242709755897521973e+00,1.242631077766418457e+00,1.242552280426025391e+00
1.162359833717346191e+00,1.162290930747985840e+00,1.162222027778625488e+00,1.162153124809265137e+00,1.162084221839904785e+00,1.162015438079833984e+00,1.161946535110473633e+00,1.161877751350402832e+00,1.161808848381042480e+00,1.161740064620971680e+00,1.161671280860900879e+00,1.161602377891540527e+00,1.161533594131469727e+00,1.161464810371398926e+00,1.161396026611328125e+00,1.161327242851257324e+00,1.161258578300476074e+00,1.161189675331115723e+00,1.161120891571044922e+00,1.161052227020263672e+00,1.160983443260192871e+00,1.160914778709411621e+00,1.160845994949340820e+00,1.160777330398559570e+00,1.160708546638488770e+00,1.160639882087707520e+00,1.160571217536926270e+00,1.160502433776855469e+00,1.160433888435363770e+00,1.160365104675292969e+00,1.160296559333801270e+00,1.160227894783020020e+00,1.160159230232238770e+00,1.160090565681457520e+00,1.160022020339965820e+00,1.159953355789184570e+00,1.159884691238403320e+00,1.159816145896911621e+00,1.159747481346130371e+00,1.159678936004638672e+00,1.159610390663146973e+00,1.159541845321655273e+00,1.159473180770874023e+00,1.159404754638671875e+00,1.159336090087890625e+00,1.159267544746398926e+00,1.159199118614196777e+00,1.159130573272705078e+00,1.159062027931213379e+00,1.158993482589721680e+00,1.158925056457519531e+00,1.158856511116027832e+00,1.158788084983825684e+00,1.158719539642333984e+00,1.158651113510131836e+00,1.158582687377929688e+00,1.158514142036437988e+00,1.158445835113525391e+00,1.158377289772033691e+00,1.158308982849121094e+00,1.158240556716918945e+00,1.158172130584716797e+00,1.158103704452514648e+00,1.158035516738891602e+00,1.157967090606689453e+00,1.157898664474487305e+00,1.157830357551574707e+00,1.157761931419372559e+00,1.157693624496459961e+00,1.157625198364257812e+00,1.157556891441345215e+00,1.157488584518432617e+00,1.157420277595520020e+00,1.157351970672607422e+00,1.157283663749694824e+00,1.157215356826782227e+00,1.157147049903869629e+00,1.157078742980957031e+00,1.157010555267333984e+00,1.156942248344421387e+00
1.087108850479125977e+00,1.087048530578613281e+00,1.086988329887390137e+00,1.086928009986877441e+00,1.086867809295654297e+00,1.086807608604431152e+00,1.086747407913208008e+00,1.086687088012695312e+00,1.086627006530761719e+00,1.086566686630249023e+00,1.086506485939025879e+00,1.086446285247802734e+00,1.086386084556579590e+00,1.086326003074645996e+00,1.086265802383422852e+00,1.086205601692199707e+00,1.086145401000976562e+00,1.086085319519042969e+00,1.086025118827819824e+00,1.085964918136596680e+00,1.085904836654663086e+00,1.085844755172729492e+00,1.085784673690795898e+00,1.085724472999572754e+00,1.085664391517639160e+00,1.085604310035705566e+00,1.085544228553771973e+00,1.085484147071838379e+00,1.085423946380615234e+00,1.085363984107971191e+00,1.085303902626037598e+00,1.085243821144104004e+00,1.085183739662170410e+00,1.085123777389526367e+00,1.085063695907592773e+00,1.085003614425659180e+00,1.084943652153015137e+00,1.084883570671081543e+00,1.084823608398437500e+00,1.084763526916503906e+00,1.084703564643859863e+00,1.084643483161926270e+00,1.084583520889282227e+00,1.084523558616638184e+00,1.084463596343994141e+00,1.084403634071350098e+00,1.084343671798706055e+00,1.084283709526062012e+00,1.084223747253417969e+00,1.084163784980773926e+00,1.084103822708129883e+00,1.084043979644775391e+00,1.083984017372131348e+00,1.083924174308776855e+00,1.083864212036132812e+00,1.083804249763488770e+00,1.083744406700134277e+00,1.083684444427490234e+00,1.083624601364135742e+00,1.083564758300781250e+00,1.083504915237426758e+00,1.083445072174072266e+00,1.083385229110717773e+00,1.083325266838073730e+00,1.083265423774719238e+00,1.083205580711364746e+00,1.083145737648010254e+00,1.083086013793945312e+00,1.083026170730590820e+00,1.082966446876525879e+00,1.082906603813171387e+00,1.082846879959106445e+00,1.082787036895751953e+00,1.082727193832397461e+00,1.082667469978332520e+00,1.082607626914978027e+00,1.082547903060913086e+00,1.082488179206848145e+00,1.082428455352783203e+00,1.082368612289428711e+00
1.021008849143981934e+00,1.020955801010131836e+00,1.020902633666992188e+00,1.020849466323852539e+00,1.020796298980712891e+00,1.020743250846862793e+00,1.020690083503723145e+00,1.020636916160583496e+00,1.020583868026733398e+00,1.020530700683593750e+00,1.020477652549743652e+00,1.020424485206604004e+00,1.020371437072753906e+00,1.020318269729614258e+00,1.020265221595764160e+00,1.020212173461914062e+00,1.020159125328063965e+00,1.020105957984924316e+00,1.020052909851074219e+00,1.019999861717224121e+00,1.019946813583374023e+00,1.019893765449523926e+00,1.019840717315673828e+00,1.019787669181823730e+00,1.019734621047973633e+00,1.019681692123413086e+00,1.019628643989562988e+00,1.019575595855712891e+00,1.019522666931152344e+00,1.019469618797302246e+00,1.019416570663452148e+00,1.019363641738891602e+00,1.019310593605041504e+00,1.019257664680480957e+00,1.019204735755920410e+00,1.019151687622070312e+00,1.019098758697509766e+00,1.019045829772949219e+00,1.018992781639099121e+00,1.018939852714538574e+00,1.018886923789978027e+00,1.018833994865417480e+00,1.018781065940856934e+00,1.018728137016296387e+00,1.018675208091735840e+00,1.018622279167175293e+00,1.018569350242614746e+00,1.018516421318054199e+00,1.018463611602783203e+00,1.018410682678222656e+00,1.018357872962951660e+00,1.018304944038391113e+00,1.018252134323120117e+00,1.018199205398559570e+00,1.018146276473999023e+00,1.018093466758728027e+00,1.018040537834167480e+00,1.017987728118896484e+00,1.017934918403625488e+00,1.017882108688354492e+00,1.017829298973083496e+00,1.017776489257812500e+00,1.017723560333251953e+00,1.017670750617980957e+00,1.017617940902709961e+00,1.017565131187438965e+00,1.017512440681457520e+00,1.017459511756896973e+00,1.017406821250915527e+00,1.017354011535644531e+00,1.017301201820373535e+00,1.017248511314392090e+00,1.017195701599121094e+00,1.017143011093139648e+00,1.017090320587158203e+00,1.017037510871887207e+00,1.016984701156616211e+00,1.016932010650634766e+00,1.016879320144653320e+00,1.016826510429382324e+00
9.624865055084228516e-01,9.624392986297607422e-01,9.623919725418090820e-01,9.623447656631469727e-01,9.622976183891296387e-01,9.622503519058227539e-01,9.622031450271606445e-01,9.621558785438537598e-01,9.621087908744812012e-01,9.620615243911743164e-01,9.620143175125122070e-01,9.619671106338500977e-01,9.619199037551879883e-01,9.618728160858154297e-01,9.618256092071533203e-01,9.617784023284912109e-01,9.617311954498291016e-01,9.616841077804565430e-01,9.616369605064392090e-01,9.615897536277770996e-01,9.615426063537597656e-01,9.614953994750976562e-01,9.614483714103698730e-01,9.614012241363525391e-01,9.613540768623352051e-01,9.613068699836730957e-01,9.612598419189453125e-01,9.612126946449279785e-01,9.611656069755554199e-01,9.611184597015380859e-01,9.610713124275207520e-01,9.610242843627929688e-01,9.609771966934204102e-01,9.609300494194030762e-01,9.608829617500305176e-01,9.608359932899475098e-01,9.607888460159301758e-01,9.607417583465576172e-01,9.606946706771850586e-01,9.606475830078125000e-01,9.606006145477294922e-01,9.605535268783569336e-01,9.605064392089843750e-01,9.604594111442565918e-01,9.604124426841735840e-01,9.603654146194458008e-01,9.603183269500732422e-01,9.602712988853454590e-01,9.602242112159729004e-01,9.601773023605346680e-01,9.601302742958068848e-01,9.600832462310791016e-01,9.600362181663513184e-01,9.599893093109130859e-01,9.599422812461853027e-01,9.598952531814575195e-01,9.598482251167297363e-01,9.598012566566467285e-01,9.597543478012084961e-01,9.597073793411254883e-01,9.596603512763977051e-01,9.596133828163146973e-01,9.595665335655212402e-01,9.595195055007934570e-01,9.594725370407104492e-01,9.594255685806274414e-01,9.593786001205444336e-01,9.593317508697509766e-01,9.592848420143127441e-01,9.592378735542297363e-01,9.591909050941467285e-01,9.591441154479980469e-01,9.590971469879150391e-01,9.590502381324768066e-01,9.590033292770385742e-01,9.589563608169555664e-01,9.589095711708068848e-01,9.588626623153686523e-01,9.588157534599304199e-01,9.587689638137817383e-01
9.103091359138488770e-01,9.102668762207031250e-01,9.102246165275573730e-01,9.101824164390563965e-01,9.101401567459106445e-01,9.100978970527648926e-01,9.100556373596191406e-01,9.100134968757629395e-01,9.099712371826171875e-01,9.099289774894714355e-01,9.098867177963256836e-01,9.098445177078247070e-01,9.098023772239685059e-01,9.097601175308227539e-01,9.097179174423217773e-01,9.096756577491760254e-01,9.096335768699645996e-01,9.095913767814636230e-01,9.095491170883178711e-01,9.095069169998168945e-01,9.094647169113159180e-01,9.094226360321044922e-01,9.093804359436035156e-01,9.093382358551025391e-01,9.092960357666015625e-01,9.092539548873901367e-01,9.092118144035339355e-01,9.091696143150329590e-01,9.091274142265319824e-01,9.090852737426757812e-01,9.090431928634643555e-01,9.090010523796081543e-01,9.089589118957519531e-01,9.089167118072509766e-01,9.088746905326843262e-01,9.088325500488281250e-01,9.087904095649719238e-01,9.087482690811157227e-01,9.087061285972595215e-01,9.086641073226928711e-01,9.086219668388366699e-01,9.085798859596252441e-01,9.085377454757690430e-01,9.084957242012023926e-01,9.084536433219909668e-01,9.084115028381347656e-01,9.083694219589233398e-01,9.083273410797119141e-01,9.082853198051452637e-01,9.082432389259338379e-01,9.082011580467224121e-01,9.081590771675109863e-01,9.081171154975891113e-01,9.080750346183776855e-01,9.080329537391662598e-01,9.079908728599548340e-01,9.079487919807434082e-01,9.079068303108215332e-01,9.078648090362548828e-01,9.078227281570434570e-01,9.077807068824768066e-01,9.077387452125549316e-01,9.076967239379882812e-01,9.076547026634216309e-01,9.076126217842102051e-01,9.075706005096435547e-01,9.075286984443664551e-01,9.074866771697998047e-01,9.074446558952331543e-01,9.074026346206665039e-01,9.073607325553894043e-01,9.073187112808227539e-01,9.072767496109008789e-01,9.072347283363342285e-01,9.071927666664123535e-01,9.071508646011352539e-01,9.071088433265686035e-01,9.070668816566467285e-01,9.070249199867248535e-01,9.069830179214477539e-01
8.634980320930480957e-01,8.634600043296813965e-01,8.634220361709594727e-01,8.633840084075927734e-01,8.633459806442260742e-01,8.633079528808593750e-01,8.632700443267822266e-01,8.632320165634155273e-01,8.631939888000488281e-01,8.631559610366821289e-01,8.631179332733154297e-01,8.630800247192382812e-01,8.630420565605163574e-01,8.630040287971496582e-01,8.629660010337829590e-01,8.629281520843505859e-01,8.628901243209838867e-01,8.628521561622619629e-01,8.628141880035400391e-01,8.627761602401733398e-01,8.627383112907409668e-01,8.627003431320190430e-01,8.626623153686523438e-01,8.626243472099304199e-01,8.625864982604980469e-01,8.625485301017761230e-01,8.625105619430541992e-01,8.624725937843322754e-01,8.624346852302551270e-01,8.623968362808227539e-01,8.623588681221008301e-01,8.623208999633789062e-01,8.622829914093017578e-01,8.622451424598693848e-01,8.622072339057922363e-01,8.621692657470703125e-01,8.621313571929931641e-01,8.620934486389160156e-01,8.620555996894836426e-01,8.620176911354064941e-01,8.619797825813293457e-01,8.619418740272521973e-01,8.619040846824645996e-01,8.618661761283874512e-01,8.618282675743103027e-01,8.617903590202331543e-01,8.617524504661560059e-01,8.617146611213684082e-01,8.616768121719360352e-01,8.616389036178588867e-01,8.616010546684265137e-01,8.615632653236389160e-01,8.615253567695617676e-01,8.614875078201293945e-01,8.614496588706970215e-01,8.614117503166198730e-01,8.613740205764770508e-01,8.613361716270446777e-01,8.612983226776123047e-01,8.612604737281799316e-01,8.612226843833923340e-01,8.611848354339599609e-01,8.611470460891723633e-01,8.611091971397399902e-01,8.610713481903076172e-01,8.610336184501647949e-01,8.609957695007324219e-01,8.609579801559448242e-01,8.609201312065124512e-01,8.608824014663696289e-01,8.608446121215820312e-01,8.608068227767944336e-01,8.607689738273620605e-01,8.607311844825744629e-01,8.606935143470764160e-01,8.606556653976440430e-01,8.606178760528564453e-01,8.605800867080688477e-01,8.605424165725708008e-01,8.605046272277832031e-01
8.212658166885375977e-01,8.212314844131469727e-01,8.211970925331115723e-01,8.211627006530761719e-01,8.211283087730407715e-01,8.210939764976501465e-01,8.210595846176147461e-01,8.210251927375793457e-01,8.209908008575439453e-01,8.209564089775085449e-01,8.209220767021179199e-01,8.208876848220825195e-01,8.208533525466918945e-01,8.208189606666564941e-01,8.207846879959106445e-01,8.207502961158752441e-01,8.207159042358398438e-01,8.206815719604492188e-01,8.206471800804138184e-01,8.206129074096679688e-01,8.205785751342773438e-01,8.205441832542419434e-01,8.205098509788513184e-01,8.204755783081054688e-01,8.204412460327148438e-01,8.204069137573242188e-01,8.203725814819335938e-01,8.203382492065429688e-01,8.203039765357971191e-01,8.202696442604064941e-01,8.202353119850158691e-01,8.202009797096252441e-01,8.201667666435241699e-01,8.201324343681335449e-01,8.200981020927429199e-01,8.200638294219970703e-01,8.200294971466064453e-01,8.199952840805053711e-01,8.199609518051147461e-01,8.199266791343688965e-01,8.198923468589782715e-01,8.198581337928771973e-01,8.198238611221313477e-01,8.197895884513854980e-01,8.197552561759948730e-01,8.197209835052490234e-01,8.196867704391479492e-01,8.196524977684020996e-01,8.196182250976562500e-01,8.195839524269104004e-01,8.195497393608093262e-01,8.195155262947082520e-01,8.194812536239624023e-01,8.194469809532165527e-01,8.194127082824707031e-01,8.193785548210144043e-01,8.193442821502685547e-01,8.193100094795227051e-01,8.192757964134216309e-01,8.192416429519653320e-01,8.192073702812194824e-01,8.191731572151184082e-01,8.191388845443725586e-01,8.191046714782714844e-01,8.190705180168151855e-01,8.190363049507141113e-01,8.190020322799682617e-01,8.189678192138671875e-01,8.189337253570556641e-01,8.188994526863098145e-01,8.188652992248535156e-01,8.188310861587524414e-01,8.187968730926513672e-01,8.187627196311950684e-01,8.187285065650939941e-01,8.186942934989929199e-01,8.186601400375366211e-01,8.186259865760803223e-01,8.185918331146240234e-01,8.185576200485229492e-01
