3.097731590270996094e+00,3.176022529602050781e+00,3.258373022079467773e+00,3.345107793807983398e+00,3.436586856842041016e+00,3.533209562301635742e+00,3.635423183441162109e+00,3.743721723556518555e+00,3.858666658401489258e+00,3.980893135070800781e+00,4.111116409301757812e+00,4.250147342681884766e+00,4.398910999298095703e+00,4.558466911315917969e+00,4.730032444000244141e+00,4.915018081665039062e+00,5.000000000000000000e+00,5.000000000000000000e+00,5.000000000000000000e+00,5.000000000000000000e+00,5.000000000000000000e+00,5.000000000000000000e+00,5.000000000000000000e+00,5.000000000000000000e+00,5.000000000000000000e+00,5.000000000000000000e+00,5.000000000000000000e+00,5.000000000000000000e+00,5.000000000000000000e+00,5.000000000000000000e+00,5.000000000000000000e+00,5.000000000000000000e+00,5.000000000000000000e+00,5.000000000000000000e+00,5.000000000000000000e+00,5.000000000000000000e+00,5.000000000000000000e+00,5.000000000000000000e+00,5.000000000000000000e+00,5.000000000000000000e+00,5.000000000000000000e+00,5.000000000000000000e+00,5.000000000000000000e+00,5.000000000000000000e+00,5.000000000000000000e+00,5.000000000000000000e+00,5.000000000000000000e+00,5.000000000000000000e+00,5.000000000000000000e+00,5.000000000000000000e+00,5.000000000000000000e+00,5.000000000000000000e+00,5.000000000000000000e+00,5.000000000000000000e+00,5.000000000000000000e+00,5.000000000000000000e+00,5.000000000000000000e+00,5.000000000000000000e+00,5.000000000000000000e+00,5.000000000000000000e+00,5.000000000000000000e+00,5.000000000000000000e+00,5.000000000000000000e+00,5.000000000000000000e+00,5.000000000000000000e+00,5.000000000000000000e+00,5.000000000000000000e+00,5.000000000000000000e+00,5.000000000000000000e+00,5.000000000000000000e+00,4.854470729827880859e+00,4.694949626922607422e+00,4.545578956604003906e+00,4.405419826507568359e+00,4.273645401000976562e+00,4.149525165557861328e+00,4.032411098480224609e+00,3.921726465225219727e+00,3.816952466964721680e+00,3.717631578445434570e+00
3.097665071487426758e+00,3.175952672958374023e+00,3.258299589157104492e+00,3.345030546188354492e+00,3.436505317687988281e+00,3.533123254776000977e+00,3.635331869125366211e+00,3.743629455566406250e+00,3.858572959899902344e+00,3.980793476104736328e+00,4.111010074615478516e+00,4.250033855438232422e+00,4.398789882659912109e+00,4.558336257934570312e+00,4.729892253875732422e+00,4.914866447448730469e+00,5.000000000000000000e+00,5.000000000000000000e+00,5.000000000000000000e+00,5.000000000000000000e+00,5.000000000000000000e+00,5.000000000000000000e+00,5.000000000000000000e+00,5.000000000000000000e+00,5.000000000000000000e+00,5.000000000000000000e+00,5.000000000000000000e+00,5.000000000000000000e+00,5.000000000000000000e+00,5.000000000000000000e+00,5.000000000000000000e+00,5.000000000000000000e+00,5.000000000000000000e+00,5.000000000000000000e+00,5.000000000000000000e+00,5.000000000000000000e+00,5.000000000000000000e+00,5.000000000000000000e+00,5.000000000000000000e+00,5.000000000000000000e+00,5.000000000000000000e+00,5.000000000000000000e+00,5.000000000000000000e+00,5.000000000000000000e+00,5.000000000000000000e+00,5.000000000000000000e+00,5.000000000000000000e+00,5.000000000000000000e+00,5.000000000000000000e+00,5.000000000000000000e+00,5.000000000000000000e+00,5.000000000000000000e+00,5.000000000000000000e+00,5.000000000000000000e+00,5.000000000000000000e+00,5.000000000000000000e+00,5.000000000000000000e+00,5.000000000000000000e+00,5.000000000000000000e+00,5.000000000000000000e+00,5.000000000000000000e+00,5.000000000000000000e+00,5.000000000000000000e+00,5.000000000000000000e+00,5.000000000000000000e+00,5.000000000000000000e+00,5.000000000000000000e+00,5.000000000000000000e+00,5.000000000000000000e+00,5.000000000000000000e+00,4.854614257812500000e+00,4.695084095001220703e+00,4.545704841613769531e+00,4.405537605285644531e+00,4.273756504058837891e+00,4.149627208709716797e+00,4.032504081726074219e+00,3.921811103820800781e+00,3.817033290863037109e+00,3.717707633972167969e+00
3.097598791122436523e+00,3.175883054733276367e+00,3.258226156234741211e+00,3.344953536987304688e+00,3.436423540115356445e+00,3.533036947250366211e+00,3.635240316390991211e+00,3.743532657623291016e+00,3.858474969863891602e+00,3.980693817138671875e+00,4.110904216766357422e+00,4.249920368194580078e+00,4.398668289184570312e+00,4.558205604553222656e+00,4.729751586914062500e+00,4.914714813232421875e+00,5.000000000000000000e+00,5.000000000000000000e+00,5.000000000000000000e+00,5.000000000000000000e+00,5.000000000000000000e+00,5.000000000000000000e+00,5.000000000000000000e+00,5.000000000000000000e+00,5.000000000000000000e+00,5.000000000000000000e+00,5.000000000000000000e+00,5.000000000000000000e+00,5.000000000000000000e+00,5.000000000000000000e+00,5.000000000000000000e+00,5.000000000000000000e+00,5.000000000000000000e+00,5.000000000000000000e+00,5.000000000000000000e+00,5.000000000000000000e+00,5.000000000000000000e+00,5.000000000000000000e+00,5.000000000000000000e+00,5.000000000000000000e+00,5.000000000000000000e+00,5.000000000000000000e+00,5.000000000000000000e+00,5.000000000000000000e+00,5.000000000000000000e+00,5.000000000000000000e+00,5.000000000000000000e+00,5.000000000000000000e+00,5.000000000000000000e+00,5.000000000000000000e+00,5.000000000000000000e+00,5.000000000000000000e+00,5.000000000000000000e+00,5.000000000000000000e+00,5.000000000000000000e+00,5.000000000000000000e+00,5.000000000000000000e+00,5.000000000000000000e+00,5.000000000000000000e+00,5.000000000000000000e+00,5.000000000000000000e+00,5.000000000000000000e+00,5.000000000000000000e+00,5.000000000000000000e+00,5.000000000000000000e+00,5.000000000000000000e+00,5.000000000000000000e+00,5.000000000000000000e+00,5.000000000000000000e+00,5.000000000000000000e+00,4.854757785797119141e+00,4.695218086242675781e+00,4.545828342437744141e+00,4.405649662017822266e+00,4.273858070373535156e+00,4.149722099304199219e+00,4.032593727111816406e+00,3.921895980834960938e+00,3.817113637924194336e+00,3.717783927917480469e+00
3.097532749176025391e+00,3.175813198089599609e+00,3.258152961730957031e+00,3.344876050949096680e+00,3.436342000961303711e+00,3.532950639724731445e+00,3.635149002075195312e+00,3.743435621261596680e+00,3.858372449874877930e+00,3.980590105056762695e+00,4.110798358917236328e+00,4.249807357788085938e+00,4.398546695709228516e+00,4.558075428009033203e+00,4.729611396789550781e+00,4.914563179016113281e+00,5.000000000000000000e+00,5.000000000000000000e+00,5.000000000000000000e+00,5.000000000000000000e+00,5.000000000000000000e+00,5.000000000000000000e+00,5.000000000000000000e+00,5.000000000000000000e+00,5.000000000000000000e+00,5.000000000000000000e+00,5.000000000000000000e+00,5.000000000000000000e+00,5.000000000000000000e+00,5.000000000000000000e+00,5.000000000000000000e+00,5.000000000000000000e+00,5.000000000000000000e+00,5.000000000000000000e+00,5.000000000000000000e+00,5.000000000000000000e+00,5.000000000000000000e+00,5.000000000000000000e+00,5.000000000000000000e+00,5.000000000000000000e+00,5.000000000000000000e+00,5.000000000000000000e+00,5.000000000000000000e+00,5.000000000000000000e+00,5.000000000000000000e+00,5.000000000000000000e+00,5.000000000000000000e+00,5.000000000000000000e+00,5.000000000000000000e+00,5.000000000000000000e+00,5.000000000000000000e+00,5.000000000000000000e+00,5.000000000000000000e+00,5.000000000000000000e+00,5.000000000000000000e+00,5.000000000000000000e+00,5.000000000000000000e+00,5.000000000000000000e+00,5.000000000000000000e+00,5.000000000000000000e+00,5.000000000000000000e+00,5.000000000000000000e+00,5.000000000000000000e+00,5.000000000000000000e+00,5.000000000000000000e+00,5.000000000000000000e+00,5.000000000000000000e+00,5.000000000000000000e+00,5.000000000000000000e+00,5.000000000000000000e+00,4.854894638061523438e+00,4.695341587066650391e+00,4.545942306518554688e+00,4.405756473541259766e+00,4.273958683013916016e+00,4.149816989898681641e+00,4.032683372497558594e+00,3.921980857849121094e+00,3.817193984985351562e+00,3.717860221862792969e+00
3.097466468811035156e+00,3.175743579864501953e+00,3.258079528808593750e+00,3.344798803329467773e+00,3.436260223388671875e+00,3.532864570617675781e+00,3.635057687759399414e+00,3.743338823318481445e+00,3.858269453048706055e+00,3.980480432510375977e+00,4.110687255859375000e+00,4.249693870544433594e+00,4.398425102233886719e+00,4.557945251464843750e+00,4.729470729827880859e+00,4.914411544799804688e+00,5.000000000000000000e+00,5.000000000000000000e+00,5.000000000000000000e+00,5.000000000000000000e+00,5.000000000000000000e+00,5.000000000000000000e+00,5.000000000000000000e+00,5.000000000000000000e+00,5.000000000000000000e+00,5.000000000000000000e+00,5.000000000000000000e+00,5.000000000000000000e+00,5.000000000000000000e+00,5.000000000000000000e+00,5.000000000000000000e+00,5.000000000000000000e+00,5.000000000000000000e+00,5.000000000000000000e+00,5.000000000000000000e+00,5.000000000000000000e+00,5.000000000000000000e+00,5.000000000000000000e+00,5.000000000000000000e+00,5.000000000000000000e+00,5.000000000000000000e+00,5.000000000000000000e+00,5.000000000000000000e+00,5.000000000000000000e+00,5.000000000000000000e+00,5.000000000000000000e+00,5.000000000000000000e+00,5.000000000000000000e+00,5.000000000000000000e+00,5.000000000000000000e+00,5.000000000000000000e+00,5.000000000000000000e+00,5.000000000000000000e+00,5.000000000000000000e+00,5.000000000000000000e+00,5.000000000000000000e+00,5.000000000000000000e+00,5.000000000000000000e+00,5.000000000000000000e+00,5.000000000000000000e+00,5.000000000000000000e+00,5.000000000000000000e+00,5.000000000000000000e+00,5.000000000000000000e+00,5.000000000000000000e+00,5.000000000000000000e+00,5.000000000000000000e+00,5.000000000000000000e+00,5.000000000000000000e+00,5.000000000000000000e+00,4.855024814605712891e+00,4.695463180541992188e+00,4.546056270599365234e+00,4.405863761901855469e+00,4.274059295654296875e+00,4.149911880493164062e+00,4.032773017883300781e+00,3.922065496444702148e+00,3.817274332046508789e+00,3.717936277389526367e+00
3.097400188446044922e+00,3.175673723220825195e+00,3.258006334304809570e+00,3.344721317291259766e+00,3.436178684234619141e+00,3.532778263092041016e+00,3.634966373443603516e+00,3.743241786956787109e+00,3.858166456222534180e+00,3.980370998382568359e+00,4.110570430755615234e+00,4.249575138092041016e+00,4.398303985595703125e+00,4.557814598083496094e+00,4.729330539703369141e+00,4.914259910583496094e+00,5.000000000000000000e+00,5.000000000000000000e+00,5.000000000000000000e+00,5.000000000000000000e+00,5.000000000000000000e+00,5.000000000000000000e+00,5.000000000000000000e+00,5.000000000000000000e+00,5.000000000000000000e+00,5.000000000000000000e+00,5.000000000000000000e+00,5.000000000000000000e+00,5.000000000000000000e+00,5.000000000000000000e+00,5.000000000000000000e+00,5.000000000000000000e+00,5.000000000000000000e+00,5.000000000000000000e+00,5.000000000000000000e+00,5.000000000000000000e+00,5.000000000000000000e+00,5.000000000000000000e+00,5.000000000000000000e+00,5.000000000000000000e+00,5.000000000000000000e+00,5.000000000000000000e+00,5.000000000000000000e+00,5.000000000000000000e+00,5.000000000000000000e+00,5.000000000000000000e+00,5.000000000000000000e+00,5.000000000000000000e+00,5.000000000000000000e+00,5.000000000000000000e+00,5.000000000000000000e+00,5.000000000000000000e+00,5.000000000000000000e+00,5.000000000000000000e+00,5.000000000000000000e+00,5.000000000000000000e+00,5.000000000000000000e+00,5.000000000000000000e+00,5.000000000000000000e+00,5.000000000000000000e+00,5.000000000000000000e+00,5.000000000000000000e+00,5.000000000000000000e+00,5.000000000000000000e+00,5.000000000000000000e+00,5.000000000000000000e+00,5.000000000000000000e+00,5.000000000000000000e+00,5.000000000000000000e+00,5.000000000000000000e+00,4.855154514312744141e+00,4.695584774017333984e+00,4.546169757843017578e+00,4.405970573425292969e+00,4.274159908294677734e+00,4.150006771087646484e+00,4.032862663269042969e+00,3.922150373458862305e+00,3.817354679107666016e+00,3.718012571334838867e+00
3.097333669662475586e+00,3.175604104995727539e+00,3.257932901382446289e+00,3.344644069671630859e+00,3.436096906661987305e+00,3.532691955566406250e+00,3.634875059127807617e+00,3.743144989013671875e+00,3.858063697814941406e+00,3.980261325836181641e+00,4.110453605651855469e+00,4.249450683593750000e+00,4.398177146911621094e+00,4.557683944702148438e+00,4.729190349578857422e+00,4.914108276367187500e+00,5.000000000000000000e+00,5.000000000000000000e+00,5.000000000000000000e+00,5.000000000000000000e+00,5.000000000000000000e+00,5.000000000000000000e+00,5.000000000000000000e+00,5.000000000000000000e+00,5.000000000000000000e+00,5.000000000000000000e+00,5.000000000000000000e+00,5.000000000000000000e+00,5.000000000000000000e+00,5.000000000000000000e+00,5.000000000000000000e+00,5.000000000000000000e+00,5.000000000000000000e+00,5.000000000000000000e+00,5.000000000000000000e+00,5.000000000000000000e+00,5.000000000000000000e+00,5.000000000000000000e+00,5.000000000000000000e+00,5.000000000000000000e+00,5.000000000000000000e+00,5.000000000000000000e+00,5.000000000000000000e+00,5.000000000000000000e+00,5.000000000000000000e+00,5.000000000000000000e+00,5.000000000000000000e+00,5.000000000000000000e+00,5.000000000000000000e+00,5.000000000000000000e+00,5.000000000000000000e+00,5.000000000000000000e+00,5.000000000000000000e+00,5.000000000000000000e+00,5.000000000000000000e+00,5.000000000000000000e+00,5.000000000000000000e+00,5.000000000000000000e+00,5.000000000000000000e+00,5.000000000000000000e+00,5.000000000000000000e+00,5.000000000000000000e+00,5.000000000000000000e+00,5.000000000000000000e+00,5.000000000000000000e+00,5.000000000000000000e+00,5.000000000000000000e+00,5.000000000000000000e+00,5.000000000000000000e+00,5.000000000000000000e+00,4.855284690856933594e+00,4.695706367492675781e+00,4.546283721923828125e+00,4.406077861785888672e+00,4.274260997772216797e+00,4.150101661682128906e+00,4.032952308654785156e+00,3.922235250473022461e+00,3.817435026168823242e+00,3.718088865280151367e+00
3.097267389297485352e+00,3.175534248352050781e+00,3.257859706878662109e+00,3.344566822052001953e+00,3.436015367507934570e+00,3.532605648040771484e+00,3.634783506393432617e+00,3.743048667907714844e+00,3.857960700988769531e+00,3.980151891708374023e+00,4.110336780548095703e+00,4.249325752258300781e+00,4.398043155670166016e+00,4.557548046112060547e+00,4.729049682617187500e+00,4.913957118988037109e+00,5.000000000000000000e+00,5.000000000000000000e+00,5.000000000000000000e+00,5.000000000000000000e+00,5.000000000000000000e+00,5.000000000000000000e+00,5.000000000000000000e+00,5.000000000000000000e+00,5.000000000000000000e+00,5.000000000000000000e+00,5.000000000000000000e+00,5.000000000000000000e+00,5.000000000000000000e+00,5.000000000000000000e+00,5.000000000000000000e+00,5.000000000000000000e+00,5.000000000000000000e+00,5.000000000000000000e+00,5.000000000000000000e+00,5.000000000000000000e+00,5.000000000000000000e+00,5.000000000000000000e+00,5.000000000000000000e+00,5.000000000000000000e+00,5.000000000000000000e+00,5.000000000000000000e+00,5.000000000000000000e+00,5.000000000000000000e+00,5.000000000000000000e+00,5.000000000000000000e+00,5.000000000000000000e+00,5.000000000000000000e+00,5.000000000000000000e+00,5.000000000000000000e+00,5.000000000000000000e+00,5.000000000000000000e+00,5.000000000000000000e+00,5.000000000000000000e+00,5.000000000000000000e+00,5.000000000000000000e+00,5.000000000000000000e+00,5.000000000000000000e+00,5.000000000000000000e+00,5.000000000000000000e+00,5.000000000000000000e+00,5.000000000000000000e+00,5.000000000000000000e+00,5.000000000000000000e+00,5.000000000000000000e+00,5.000000000000000000e+00,5.000000000000000000e+00,5.000000000000000000e+00,5.000000000000000000e+00,5.000000000000000000e+00,4.855414390563964844e+00,4.695827960968017578e+00,4.546397686004638672e+00,4.406184673309326172e+00,4.274361610412597656e+00,4.150196552276611328e+00,4.033041954040527344e+00,3.922320127487182617e+00,3.817515373229980469e+00,3.718164920806884766e+00
3.097173690795898438e+00,3.175451278686523438e+00,3.257786273956298828e+00,3.344489336013793945e+00,3.435934066772460938e+00,3.532519578933715820e+00,3.634692192077636719e+00,3.742951631546020508e+00,3.857857704162597656e+00,3.980042219161987305e+00,4.110219955444335938e+00,4.249200820922851562e+00,4.397910118103027344e+00,4.557404518127441406e+00,4.728903770446777344e+00,4.913805007934570312e+00,5.000000000000000000e+00,5.000000000000000000e+00,5.000000000000000000e+00,5.000000000000000000e+00,5.000000000000000000e+00,5.000000000000000000e+00,5.000000000000000000e+00,5.000000000000000000e+00,5.000000000000000000e+00,5.000000000000000000e+00,5.000000000000000000e+00,5.000000000000000000e+00,5.000000000000000000e+00,5.000000000000000000e+00,5.000000000000000000e+00,5.000000000000000000e+00,5.000000000000000000e+00,5.000000000000000000e+00,5.000000000000000000e+00,5.000000000000000000e+00,5.000000000000000000e+00,5.000000000000000000e+00,5.000000000000000000e+00,5.000000000000000000e+00,5.000000000000000000e+00,5.000000000000000000e+00,5.000000000000000000e+00,5.000000000000000000e+00,5.000000000000000000e+00,5.000000000000000000e+00,5.000000000000000000e+00,5.000000000000000000e+00,5.000000000000000000e+00,5.000000000000000000e+00,5.000000000000000000e+00,5.000000000000000000e+00,5.000000000000000000e+00,5.000000000000000000e+00,5.000000000000000000e+00,5.000000000000000000e+00,5.000000000000000000e+00,5.000000000000000000e+00,5.000000000000000000e+00,5.000000000000000000e+00,5.000000000000000000e+00,5.000000000000000000e+00,5.000000000000000000e+00,5.000000000000000000e+00,5.000000000000000000e+00,5.000000000000000000e+00,5.000000000000000000e+00,5.000000000000000000e+00,5.000000000000000000e+00,5.000000000000000000e+00,4.855544567108154297e+00,4.695949554443359375e+00,4.546511650085449219e+00,4.406291961669921875e+00,4.274462223052978516e+00,4.150291919708251953e+00,4.033131599426269531e+00,3.922404766082763672e+00,3.817595720291137695e+00,3.718241214752197266e+00
3.097074985504150391e+00,3.175347566604614258e+00,3.257679700851440430e+00,3.344394445419311523e+00,3.435852050781250000e+00,3.532433271408081055e+00,3.634600877761840820e+00,3.742854833602905273e+00,3.857754945755004883e+00,3.979933261871337891e+00,4.110103130340576172e+00,4.249076366424560547e+00,4.397776126861572266e+00,4.557261466979980469e+00,4.728748798370361328e+00,4.913647651672363281e+00,5.000000000000000000e+00,5.000000000000000000e+00,5.000000000000000000e+00,5.000000000000000000e+00,5.000000000000000000e+00,5.000000000000000000e+00,5.000000000000000000e+00,5.000000000000000000e+00,5.000000000000000000e+00,5.000000000000000000e+00,5.000000000000000000e+00,5.000000000000000000e+00,5.000000000000000000e+00,5.000000000000000000e+00,5.000000000000000000e+00,5.000000000000000000e+00,5.000000000000000000e+00,5.000000000000000000e+00,5.000000000000000000e+00,5.000000000000000000e+00,5.000000000000000000e+00,5.000000000000000000e+00,5.000000000000000000e+00,5.000000000000000000e+00,5.000000000000000000e+00,5.000000000000000000e+00,5.000000000000000000e+00,5.000000000000000000e+00,5.000000000000000000e+00,5.000000000000000000e+00,5.000000000000000000e+00,5.000000000000000000e+00,5.000000000000000000e+00,5.000000000000000000e+00,5.000000000000000000e+00,5.000000000000000000e+00,5.000000000000000000e+00,5.000000000000000000e+00,5.000000000000000000e+00,5.000000000000000000e+00,5.000000000000000000e+00,5.000000000000000000e+00,5.000000000000000000e+00,5.000000000000000000e+00,5.000000000000000000e+00,5.000000000000000000e+00,5.000000000000000000e+00,5.000000000000000000e+00,5.000000000000000000e+00,5.000000000000000000e+00,5.000000000000000000e+00,5.000000000000000000e+00,5.000000000000000000e+00,5.000000000000000000e+00,4.855674743652343750e+00,4.696071147918701172e+00,4.546625614166259766e+00,4.406398773193359375e+00,4.274562835693359375e+00,4.150386810302734375e+00,4.033221244812011719e+00,3.922489643096923828e+00,3.817676067352294922e+00,3.718317508697509766e+00
3.096976518630981445e+00,3.175244331359863281e+00,3.257570505142211914e+00,3.344279766082763672e+00,3.435730695724487305e+00,3.532323837280273438e+00,3.634505987167358398e+00,3.742758035659790039e+00,3.857651948928833008e+00,3.979823827743530273e+00,4.109986782073974609e+00,4.248951435089111328e+00,4.397642612457275391e+00,4.557117938995361328e+00,4.728594779968261719e+00,4.913480758666992188e+00,5.000000000000000000e+00,5.000000000000000000e+00,5.000000000000000000e+00,5.000000000000000000e+00,5.000000000000000000e+00,5.000000000000000000e+00,5.000000000000000000e+00,5.000000000000000000e+00,5.000000000000000000e+00,5.000000000000000000e+00,5.000000000000000000e+00,5.000000000000000000e+00,5.000000000000000000e+00,5.000000000000000000e+00,5.000000000000000000e+00,5.000000000000000000e+00,5.000000000000000000e+00,5.000000000000000000e+00,5.000000000000000000e+00,5.000000000000000000e+00,5.000000000000000000e+00,5.000000000000000000e+00,5.000000000000000000e+00,5.000000000000000000e+00,5.000000000000000000e+00,5.000000000000000000e+00,5.000000000000000000e+00,5.000000000000000000e+00,5.000000000000000000e+00,5.000000000000000000e+00,5.000000000000000000e+00,5.000000000000000000e+00,5.000000000000000000e+00,5.000000000000000000e+00,5.000000000000000000e+00,5.000000000000000000e+00,5.000000000000000000e+00,5.000000000000000000e+00,5.000000000000000000e+00,5.000000000000000000e+00,5.000000000000000000e+00,5.000000000000000000e+00,5.000000000000000000e+00,5.000000000000000000e+00,5.000000000000000000e+00,5.000000000000000000e+00,5.000000000000000000e+00,5.000000000000000000e+00,5.000000000000000000e+00,5.000000000000000000e+00,5.000000000000000000e+00,5.000000000000000000e+00,5.000000000000000000e+00,5.000000000000000000e+00,4.855804443359375000e+00,4.696192741394042969e+00,4.546739578247070312e+00,4.406506061553955078e+00,4.274663925170898438e+00,4.150481700897216797e+00,4.033310890197753906e+00,3.922574520111083984e+00,3.817756414413452148e+00,3.718393802642822266e+00
3.096906900405883789e+00,3.175155401229858398e+00,3.257461547851562500e+00,3.344164848327636719e+00,3.435609340667724609e+00,3.532196044921875000e+00,3.634370326995849609e+00,3.742631912231445312e+00,3.857541084289550781e+00,3.979714155197143555e+00,4.109869956970214844e+00,4.248826980590820312e+00,4.397508621215820312e+00,4.556974411010742188e+00,4.728440284729003906e+00,4.913313865661621094e+00,5.000000000000000000e+00,5.000000000000000000e+00,5.000000000000000000e+00,5.000000000000000000e+00,5.000000000000000000e+00,5.000000000000000000e+00,5.000000000000000000e+00,5.000000000000000000e+00,5.000000000000000000e+00,5.000000000000000000e+00,5.000000000000000000e+00,5.000000000000000000e+00,5.000000000000000000e+00,5.000000000000000000e+00,5.000000000000000000e+00,5.000000000000000000e+00,5.000000000000000000e+00,5.000000000000000000e+00,5.000000000000000000e+00,5.000000000000000000e+00,5.000000000000000000e+00,5.000000000000000000e+00,5.000000000000000000e+00,5.000000000000000000e+00,5.000000000000000000e+00,5.000000000000000000e+00,5.000000000000000000e+00,5.000000000000000000e+00,5.000000000000000000e+00,5.000000000000000000e+00,5.000000000000000000e+00,5.000000000000000000e+00,5.000000000000000000e+00,5.000000000000000000e+00,5.000000000000000000e+00,5.000000000000000000e+00,5.000000000000000000e+00,5.000000000000000000e+00,5.000000000000000000e+00,5.000000000000000000e+00,5.000000000000000000e+00,5.000000000000000000e+00,5.000000000000000000e+00,5.000000000000000000e+00,5.000000000000000000e+00,5.000000000000000000e+00,5.000000000000000000e+00,5.000000000000000000e+00,5.000000000000000000e+00,5.000000000000000000e+00,5.000000000000000000e+00,5.000000000000000000e+00,5.000000000000000000e+00,5.000000000000000000e+00,4.855934619903564453e+00,4.696314334869384766e+00,4.546853542327880859e+00,4.406612873077392578e+00,4.274764537811279297e+00,4.150576591491699219e+00,4.033400535583496094e+00,3.922659397125244141e+00,3.817836761474609375e+00,3.718469858169555664e+00
3.096840620040893555e+00,3.175085783004760742e+00,3.257387161254882812e+00,3.344068765640258789e+00,3.435490131378173828e+00,3.532067775726318359e+00,3.634234428405761719e+00,3.742487907409667969e+00,3.857388019561767578e+00,3.979567527770996094e+00,4.109739780426025391e+00,4.248702049255371094e+00,4.397375106811523438e+00,4.556830406188964844e+00,4.728285312652587891e+00,4.913146972656250000e+00,5.000000000000000000e+00,5.000000000000000000e+00,5.000000000000000000e+00,5.000000000000000000e+00,5.000000000000000000e+00,5.000000000000000000e+00,5.000000000000000000e+00,5.000000000000000000e+00,5.000000000000000000e+00,5.000000000000000000e+00,5.000000000000000000e+00,5.000000000000000000e+00,5.000000000000000000e+00,5.000000000000000000e+00,5.000000000000000000e+00,5.000000000000000000e+00,5.000000000000000000e+00,5.000000000000000000e+00,5.000000000000000000e+00,5.000000000000000000e+00,5.000000000000000000e+00,5.000000000000000000e+00,5.000000000000000000e+00,5.000000000000000000e+00,5.000000000000000000e+00,5.000000000000000000e+00,5.000000000000000000e+00,5.000000000000000000e+00,5.000000000000000000e+00,5.000000000000000000e+00,5.000000000000000000e+00,5.000000000000000000e+00,5.000000000000000000e+00,5.000000000000000000e+00,5.000000000000000000e+00,5.000000000000000000e+00,5.000000000000000000e+00,5.000000000000000000e+00,5.000000000000000000e+00,5.000000000000000000e+00,5.000000000000000000e+00,5.000000000000000000e+00,5.000000000000000000e+00,5.000000000000000000e+00,5.000000000000000000e+00,5.000000000000000000e+00,5.000000000000000000e+00,5.000000000000000000e+00,5.000000000000000000e+00,5.000000000000000000e+00,5.000000000000000000e+00,5.000000000000000000e+00,5.000000000000000000e+00,5.000000000000000000e+00,4.856064319610595703e+00,4.696435928344726562e+00,4.546967983245849609e+00,4.406720161437988281e+00,4.274865150451660156e+00,4.150671482086181641e+00,4.033490180969238281e+00,3.922744274139404297e+00,3.817917108535766602e+00,3.718546152114868164e+00
3.096774339675903320e+00,3.175015926361083984e+00,3.257313966751098633e+00,3.343991756439208984e+00,3.435408592224121094e+00,3.531964063644409180e+00,3.634104251861572266e+00,3.742343902587890625e+00,3.857235670089721680e+00,3.979404687881469727e+00,4.109565734863281250e+00,4.248529911041259766e+00,4.397221088409423828e+00,4.556686878204345703e+00,4.728130817413330078e+00,4.912980079650878906e+00,5.000000000000000000e+00,5.000000000000000000e+00,5.000000000000000000e+00,5.000000000000000000e+00,5.000000000000000000e+00,5.000000000000000000e+00,5.000000000000000000e+00,5.000000000000000000e+00,5.000000000000000000e+00,5.000000000000000000e+00,5.000000000000000000e+00,5.000000000000000000e+00,5.000000000000000000e+00,5.000000000000000000e+00,5.000000000000000000e+00,5.000000000000000000e+00,5.000000000000000000e+00,5.000000000000000000e+00,5.000000000000000000e+00,5.000000000000000000e+00,5.000000000000000000e+00,5.000000000000000000e+00,5.000000000000000000e+00,5.000000000000000000e+00,5.000000000000000000e+00,5.000000000000000000e+00,5.000000000000000000e+00,5.000000000000000000e+00,5.000000000000000000e+00,5.000000000000000000e+00,5.000000000000000000e+00,5.000000000000000000e+00,5.000000000000000000e+00,5.000000000000000000e+00,5.000000000000000000e+00,5.000000000000000000e+00,5.000000000000000000e+00,5.000000000000000000e+00,5.000000000000000000e+00,5.000000000000000000e+00,5.000000000000000000e+00,5.000000000000000000e+00,5.000000000000000000e+00,5.000000000000000000e+00,5.000000000000000000e+00,5.000000000000000000e+00,5.000000000000000000e+00,5.000000000000000000e+00,5.000000000000000000e+00,5.000000000000000000e+00,5.000000000000000000e+00,5.000000000000000000e+00,5.000000000000000000e+00,5.000000000000000000e+00,4.856194496154785156e+00,4.696557521820068359e+00,4.547081947326660156e+00,4.406826972961425781e+00,4.274966239929199219e+00,4.150766372680664062e+00,4.033580303192138672e+00,3.922829151153564453e+00,3.817997455596923828e+00,3.718622446060180664e+00
3.096708297729492188e+00,3.174946546554565430e+00,3.257240772247314453e+00,3.343914508819580078e+00,3.435326814651489258e+00,3.531877756118774414e+00,3.634012937545776367e+00,3.742230892181396484e+00,3.857091903686523438e+00,3.979241847991943359e+00,4.109392642974853516e+00,4.248344421386718750e+00,4.397022247314453125e+00,4.556484222412109375e+00,4.727947235107421875e+00,4.912813186645507812e+00,5.000000000000000000e+00,5.000000000000000000e+00,5.000000000000000000e+00,5.000000000000000000e+00,5.000000000000000000e+00,5.000000000000000000e+00,5.000000000000000000e+00,5.000000000000000000e+00,5.000000000000000000e+00,5.000000000000000000e+00,5.000000000000000000e+00,5.000000000000000000e+00,5.000000000000000000e+00,5.000000000000000000e+00,5.000000000000000000e+00,5.000000000000000000e+00,5.000000000000000000e+00,5.000000000000000000e+00,5.000000000000000000e+00,5.000000000000000000e+00,5.000000000000000000e+00,5.000000000000000000e+00,5.000000000000000000e+00,5.000000000000000000e+00,5.000000000000000000e+00,5.000000000000000000e+00,5.000000000000000000e+00,5.000000000000000000e+00,5.000000000000000000e+00,5.000000000000000000e+00,5.000000000000000000e+00,5.000000000000000000e+00,5.000000000000000000e+00,5.000000000000000000e+00,5.000000000000000000e+00,5.000000000000000000e+00,5.000000000000000000e+00,5.000000000000000000e+00,5.000000000000000000e+00,5.000000000000000000e+00,5.000000000000000000e+00,5.000000000000000000e+00,5.000000000000000000e+00,5.000000000000000000e+00,5.000000000000000000e+00,5.000000000000000000e+00,5.000000000000000000e+00,5.000000000000000000e+00,5.000000000000000000e+00,5.000000000000000000e+00,5.000000000000000000e+00,5.000000000000000000e+00,5.000000000000000000e+00,5.000000000000000000e+00,4.856324672698974609e+00,4.696679115295410156e+00,4.547195911407470703e+00,4.406934261322021484e+00,4.275066852569580078e+00,4.150861740112304688e+00,4.033669948577880859e+00,3.922913789749145508e+00,3.818077802658081055e+00,3.718698978424072266e+00
3.096642017364501953e+00,3.174876928329467773e+00,3.257167339324951172e+00,3.343837261199951172e+00,3.435245275497436523e+00,3.531791448593139648e+00,3.633921623229980469e+00,3.742133855819702148e+00,3.856989383697509766e+00,3.979118108749389648e+00,4.109233856201171875e+00,4.248158931732177734e+00,4.396823406219482422e+00,4.556270599365234375e+00,4.727717399597167969e+00,4.912570953369140625e+00,5.000000000000000000e+00,5.000000000000000000e+00,5.000000000000000000e+00,5.000000000000000000e+00,5.000000000000000000e+00,5.000000000000000000e+00,5.000000000000000000e+00,5.000000000000000000e+00,5.000000000000000000e+00,5.000000000000000000e+00,5.000000000000000000e+00,5.000000000000000000e+00,5.000000000000000000e+00,5.000000000000000000e+00,5.000000000000000000e+00,5.000000000000000000e+00,5.000000000000000000e+00,5.000000000000000000e+00,5.000000000000000000e+00,5.000000000000000000e+00,5.000000000000000000e+00,5.000000000000000000e+00,5.000000000000000000e+00,5.000000000000000000e+00,5.000000000000000000e+00,5.000000000000000000e+00,5.000000000000000000e+00,5.000000000000000000e+00,5.000000000000000000e+00,5.000000000000000000e+00,5.000000000000000000e+00,5.000000000000000000e+00,5.000000000000000000e+00,5.000000000000000000e+00,5.000000000000000000e+00,5.000000000000000000e+00,5.000000000000000000e+00,5.000000000000000000e+00,5.000000000000000000e+00,5.000000000000000000e+00,5.000000000000000000e+00,5.000000000000000000e+00,5.000000000000000000e+00,5.000000000000000000e+00,5.000000000000000000e+00,5.000000000000000000e+00,5.000000000000000000e+00,5.000000000000000000e+00,5.000000000000000000e+00,5.000000000000000000e+00,5.000000000000000000e+00,5.000000000000000000e+00,5.000000000000000000e+00,5.000000000000000000e+00,4.856454372406005859e+00,4.696800708770751953e+00,4.547309875488281250e+00,4.407041072845458984e+00,4.275167465209960938e+00,4.150956630706787109e+00,4.033759593963623047e+00,3.923001527786254883e+00,3.818163871765136719e+00,3.718783140182495117e+00
3.096575736999511719e+00,3.174807071685791016e+00,3.257093906402587891e+00,3.343759775161743164e+00,3.435163736343383789e+00,3.531705141067504883e+00,3.633830547332763672e+00,3.742037534713745117e+00,3.856886625289916992e+00,3.979008674621582031e+00,4.109117031097412109e+00,4.248022079467773438e+00,4.396646976470947266e+00,4.556057453155517578e+00,4.727487564086914062e+00,4.912322998046875000e+00,5.000000000000000000e+00,5.000000000000000000e+00,5.000000000000000000e+00,5.000000000000000000e+00,5.000000000000000000e+00,5.000000000000000000e+00,5.000000000000000000e+00,5.000000000000000000e+00,5.000000000000000000e+00,5.000000000000000000e+00,5.000000000000000000e+00,5.000000000000000000e+00,5.000000000000000000e+00,5.000000000000000000e+00,5.000000000000000000e+00,5.000000000000000000e+00,5.000000000000000000e+00,5.000000000000000000e+00,5.000000000000000000e+00,5.000000000000000000e+00,5.000000000000000000e+00,5.000000000000000000e+00,5.000000000000000000e+00,5.000000000000000000e+00,5.000000000000000000e+00,5.000000000000000000e+00,5.000000000000000000e+00,5.000000000000000000e+00,5.000000000000000000e+00,5.000000000000000000e+00,5.000000000000000000e+00,5.000000000000000000e+00,5.000000000000000000e+00,5.000000000000000000e+00,5.000000000000000000e+00,5.000000000000000000e+00,5.000000000000000000e+00,5.000000000000000000e+00,5.000000000000000000e+00,5.000000000000000000e+00,5.000000000000000000e+00,5.000000000000000000e+00,5.000000000000000000e+00,5.000000000000000000e+00,5.000000000000000000e+00,5.000000000000000000e+00,5.000000000000000000e+00,5.000000000000000000e+00,5.000000000000000000e+00,5.000000000000000000e+00,5.000000000000000000e+00,5.000000000000000000e+00,5.000000000000000000e+00,5.000000000000000000e+00,4.856585025787353516e+00,4.696922302246093750e+00,4.547423839569091797e+00,4.407148361206054688e+00,4.275270462036132812e+00,4.151057243347167969e+00,4.033857822418212891e+00,3.923094987869262695e+00,3.818252563476562500e+00,3.718867301940917969e+00
3.096509456634521484e+00,3.174737453460693359e+00,3.257020711898803711e+00,3.343682527542114258e+00,3.435082435607910156e+00,3.531619310379028320e+00,3.633739233016967773e+00,3.741940736770629883e+00,3.856783866882324219e+00,3.978899240493774414e+00,4.109000682830810547e+00,4.247897624969482422e+00,4.396513462066650391e+00,4.555904865264892578e+00,4.727288722991943359e+00,4.912075042724609375e+00,5.000000000000000000e+00,5.000000000000000000e+00,5.000000000000000000e+00,5.000000000000000000e+00,5.000000000000000000e+00,5.000000000000000000e+00,5.000000000000000000e+00,5.000000000000000000e+00,5.000000000000000000e+00,5.000000000000000000e+00,5.000000000000000000e+00,4.986280918121337891e+00,5.000000000000000000e+00,5.000000000000000000e+00,5.000000000000000000e+00,5.000000000000000000e+00,5.000000000000000000e+00,5.000000000000000000e+00,5.000000000000000000e+00,5.000000000000000000e+00,5.000000000000000000e+00,5.000000000000000000e+00,5.000000000000000000e+00,5.000000000000000000e+00,5.000000000000000000e+00,5.000000000000000000e+00,5.000000000000000000e+00,5.000000000000000000e+00,5.000000000000000000e+00,5.000000000000000000e+00,5.000000000000000000e+00,5.000000000000000000e+00,5.000000000000000000e+00,5.000000000000000000e+00,5.000000000000000000e+00,5.000000000000000000e+00,5.000000000000000000e+00,5.000000000000000000e+00,5.000000000000000000e+00,5.000000000000000000e+00,5.000000000000000000e+00,5.000000000000000000e+00,5.000000000000000000e+00,5.000000000000000000e+00,5.000000000000000000e+00,5.000000000000000000e+00,5.000000000000000000e+00,5.000000000000000000e+00,5.000000000000000000e+00,5.000000000000000000e+00,5.000000000000000000e+00,5.000000000000000000e+00,5.000000000000000000e+00,5.000000000000000000e+00,4.856715202331542969e+00,4.697044849395751953e+00,4.547543048858642578e+00,4.407264232635498047e+00,4.275381565093994141e+00,4.151162147521972656e+00,4.033957004547119141e+00,3.923188686370849609e+00,3.818341255187988281e+00,3.718951225280761719e+00
3.096443176269531250e+00,3.174667835235595703e+00,3.256947517395019531e+00,3.343605518341064453e+00,3.435000896453857422e+00,3.531533241271972656e+00,3.633647918701171875e+00,3.741843938827514648e+00,3.856680870056152344e+00,3.978789806365966797e+00,4.108883857727050781e+00,4.247772693634033203e+00,4.396379947662353516e+00,4.555761814117431641e+00,4.727134227752685547e+00,4.911903858184814453e+00,5.000000000000000000e+00,5.000000000000000000e+00,5.000000000000000000e+00,5.000000000000000000e+00,5.000000000000000000e+00,5.000000000000000000e+00,5.000000000000000000e+00,5.000000000000000000e+00,5.000000000000000000e+00,5.000000000000000000e+00,5.000000000000000000e+00,5.000000000000000000e+00,5.000000000000000000e+00,5.000000000000000000e+00,5.000000000000000000e+00,5.000000000000000000e+00,5.000000000000000000e+00,5.000000000000000000e+00,5.000000000000000000e+00,5.000000000000000000e+00,5.000000000000000000e+00,5.000000000000000000e+00,5.000000000000000000e+00,5.000000000000000000e+00,5.000000000000000000e+00,5.000000000000000000e+00,5.000000000000000000e+00,5.000000000000000000e+00,5.000000000000000000e+00,5.000000000000000000e+00,5.000000000000000000e+00,5.000000000000000000e+00,5.000000000000000000e+00,5.000000000000000000e+00,5.000000000000000000e+00,5.000000000000000000e+00,5.000000000000000000e+00,5.000000000000000000e+00,5.000000000000000000e+00,5.000000000000000000e+00,5.000000000000000000e+00,5.000000000000000000e+00,5.000000000000000000e+00,5.000000000000000000e+00,5.000000000000000000e+00,5.000000000000000000e+00,5.000000000000000000e+00,5.000000000000000000e+00,5.000000000000000000e+00,5.000000000000000000e+00,5.000000000000000000e+00,5.000000000000000000e+00,5.000000000000000000e+00,5.000000000000000000e+00,4.856854438781738281e+00,4.697178840637207031e+00,4.547668933868408203e+00,4.407382488250732422e+00,4.275492668151855469e+00,4.151266574859619141e+00,4.034055709838867188e+00,3.923282146453857422e+00,3.818429708480834961e+00,3.719035387039184570e+00
3.096377134323120117e+00,3.174598455429077148e+00,3.256874322891235352e+00,3.343528270721435547e+00,3.434919357299804688e+00,3.531446933746337891e+00,3.633556842803955078e+00,3.741747140884399414e+00,3.856578111648559570e+00,3.978680372238159180e+00,4.108767509460449219e+00,4.247648239135742188e+00,4.396246433258056641e+00,4.555618286132812500e+00,4.726979732513427734e+00,4.911737442016601562e+00,5.000000000000000000e+00,5.000000000000000000e+00,5.000000000000000000e+00,5.000000000000000000e+00,5.000000000000000000e+00,5.000000000000000000e+00,5.000000000000000000e+00,5.000000000000000000e+00,5.000000000000000000e+00,5.000000000000000000e+00,5.000000000000000000e+00,4.995278358459472656e+00,5.000000000000000000e+00,5.000000000000000000e+00,5.000000000000000000e+00,5.000000000000000000e+00,5.000000000000000000e+00,5.000000000000000000e+00,5.000000000000000000e+00,5.000000000000000000e+00,5.000000000000000000e+00,5.000000000000000000e+00,5.000000000000000000e+00,5.000000000000000000e+00,5.000000000000000000e+00,5.000000000000000000e+00,5.000000000000000000e+00,5.000000000000000000e+00,5.000000000000000000e+00,5.000000000000000000e+00,5.000000000000000000e+00,5.000000000000000000e+00,5.000000000000000000e+00,5.000000000000000000e+00,5.000000000000000000e+00,5.000000000000000000e+00,5.000000000000000000e+00,5.000000000000000000e+00,5.000000000000000000e+00,5.000000000000000000e+00,5.000000000000000000e+00,5.000000000000000000e+00,5.000000000000000000e+00,5.000000000000000000e+00,5.000000000000000000e+00,5.000000000000000000e+00,5.000000000000000000e+00,5.000000000000000000e+00,5.000000000000000000e+00,5.000000000000000000e+00,5.000000000000000000e+00,5.000000000000000000e+00,5.000000000000000000e+00,5.000000000000000000e+00,4.856997489929199219e+00,4.697312831878662109e+00,4.547794342041015625e+00,4.407500743865966797e+00,4.275603771209716797e+00,4.151371479034423828e+00,4.034154891967773438e+00,3.923375844955444336e+00,3.818518400192260742e+00,3.719119548797607422e+00
3.096310853958129883e+00,3.174528837203979492e+00,3.256800889968872070e+00,3.343451023101806641e+00,3.434837818145751953e+00,3.531360626220703125e+00,3.633465528488159180e+00,3.741650342941284180e+00,3.856475353240966797e+00,3.978571414947509766e+00,4.108650684356689453e+00,4.247523784637451172e+00,4.396112918853759766e+00,4.555474758148193359e+00,4.726825714111328125e+00,4.911570549011230469e+00,5.000000000000000000e+00,5.000000000000000000e+00,5.000000000000000000e+00,5.000000000000000000e+00,5.000000000000000000e+00,5.000000000000000000e+00,5.000000000000000000e+00,5.000000000000000000e+00,5.000000000000000000e+00,5.000000000000000000e+00,5.000000000000000000e+00,4.978290557861328125e+00,5.000000000000000000e+00,5.000000000000000000e+00,5.000000000000000000e+00,5.000000000000000000e+00,5.000000000000000000e+00,5.000000000000000000e+00,5.000000000000000000e+00,5.000000000000000000e+00,5.000000000000000000e+00,5.000000000000000000e+00,5.000000000000000000e+00,5.000000000000000000e+00,5.000000000000000000e+00,5.000000000000000000e+00,5.000000000000000000e+00,5.000000000000000000e+00,5.000000000000000000e+00,5.000000000000000000e+00,5.000000000000000000e+00,5.000000000000000000e+00,5.000000000000000000e+00,5.000000000000000000e+00,5.000000000000000000e+00,5.000000000000000000e+00,5.000000000000000000e+00,5.000000000000000000e+00,5.000000000000000000e+00,5.000000000000000000e+00,5.000000000000000000e+00,5.000000000000000000e+00,5.000000000000000000e+00,5.000000000000000000e+00,5.000000000000000000e+00,5.000000000000000000e+00,5.000000000000000000e+00,5.000000000000000000e+00,5.000000000000000000e+00,5.000000000000000000e+00,5.000000000000000000e+00,5.000000000000000000e+00,5.000000000000000000e+00,5.000000000000000000e+00,4.857141017913818359e+00,4.697447299957275391e+00,4.547920227050781250e+00,4.407618522644042969e+00,4.275714874267578125e+00,4.151476383209228516e+00,4.034253597259521484e+00,3.923469305038452148e+00,3.818607091903686523e+00,3.719203472137451172e+00
3.096244573593139648e+00,3.174458980560302734e+00,3.256727695465087891e+00,3.343373775482177734e+00,3.434756278991699219e+00,3.531274557113647461e+00,3.633374214172363281e+00,3.741554021835327148e+00,3.856372833251953125e+00,3.978461980819702148e+00,4.108534336090087891e+00,4.247398853302001953e+00,4.395978927612304688e+00,4.555331707000732422e+00,4.726671218872070312e+00,4.911404132843017578e+00,5.000000000000000000e+00,5.000000000000000000e+00,5.000000000000000000e+00,5.000000000000000000e+00,5.000000000000000000e+00,5.000000000000000000e+00,5.000000000000000000e+00,5.000000000000000000e+00,5.000000000000000000e+00,5.000000000000000000e+00,5.000000000000000000e+00,4.963640689849853516e+00,5.000000000000000000e+00,5.000000000000000000e+00,5.000000000000000000e+00,5.000000000000000000e+00,5.000000000000000000e+00,5.000000000000000000e+00,5.000000000000000000e+00,5.000000000000000000e+00,5.000000000000000000e+00,5.000000000000000000e+00,5.000000000000000000e+00,5.000000000000000000e+00,5.000000000000000000e+00,5.000000000000000000e+00,5.000000000000000000e+00,5.000000000000000000e+00,5.000000000000000000e+00,5.000000000000000000e+00,5.000000000000000000e+00,5.000000000000000000e+00,5.000000000000000000e+00,5.000000000000000000e+00,5.000000000000000000e+00,5.000000000000000000e+00,5.000000000000000000e+00,5.000000000000000000e+00,5.000000000000000000e+00,5.000000000000000000e+00,5.000000000000000000e+00,5.000000000000000000e+00,5.000000000000000000e+00,5.000000000000000000e+00,5.000000000000000000e+00,5.000000000000000000e+00,5.000000000000000000e+00,5.000000000000000000e+00,5.000000000000000000e+00,5.000000000000000000e+00,5.000000000000000000e+00,5.000000000000000000e+00,5.000000000000000000e+00,5.000000000000000000e+00,4.857284545898437500e+00,4.697581291198730469e+00,4.548046112060546875e+00,4.407736778259277344e+00,4.275825977325439453e+00,4.151581287384033203e+00,4.034352779388427734e+00,3.923563003540039062e+00,3.818695783615112305e+00,3.719287633895874023e+00
3.096178293228149414e+00,3.174389362335205078e+00,3.256654262542724609e+00,3.343296527862548828e+00,3.434674739837646484e+00,3.531188726425170898e+00,3.633283376693725586e+00,3.741457223892211914e+00,3.856270074844360352e+00,3.978352546691894531e+00,4.108417510986328125e+00,4.247274398803710938e+00,4.395845890045166016e+00,4.555188179016113281e+00,4.726516723632812500e+00,4.911237239837646484e+00,5.000000000000000000e+00,5.000000000000000000e+00,5.000000000000000000e+00,5.000000000000000000e+00,5.000000000000000000e+00,5.000000000000000000e+00,5.000000000000000000e+00,5.000000000000000000e+00,5.000000000000000000e+00,5.000000000000000000e+00,5.000000000000000000e+00,4.916399002075195312e+00,5.000000000000000000e+00,5.000000000000000000e+00,5.000000000000000000e+00,5.000000000000000000e+00,5.000000000000000000e+00,5.000000000000000000e+00,5.000000000000000000e+00,5.000000000000000000e+00,5.000000000000000000e+00,5.000000000000000000e+00,5.000000000000000000e+00,5.000000000000000000e+00,5.000000000000000000e+00,5.000000000000000000e+00,5.000000000000000000e+00,5.000000000000000000e+00,5.000000000000000000e+00,5.000000000000000000e+00,5.000000000000000000e+00,5.000000000000000000e+00,5.000000000000000000e+00,5.000000000000000000e+00,5.000000000000000000e+00,5.000000000000000000e+00,5.000000000000000000e+00,5.000000000000000000e+00,5.000000000000000000e+00,5.000000000000000000e+00,5.000000000000000000e+00,5.000000000000000000e+00,5.000000000000000000e+00,5.000000000000000000e+00,5.000000000000000000e+00,5.000000000000000000e+00,5.000000000000000000e+00,5.000000000000000000e+00,5.000000000000000000e+00,5.000000000000000000e+00,5.000000000000000000e+00,5.000000000000000000e+00,5.000000000000000000e+00,5.000000000000000000e+00,4.857428073883056641e+00,4.697715759277343750e+00,4.548171520233154297e+00,4.407855033874511719e+00,4.275937080383300781e+00,4.151685714721679688e+00,4.034451484680175781e+00,3.923656463623046875e+00,3.818784475326538086e+00,3.719371795654296875e+00
3.096112012863159180e+00,3.174319744110107422e+00,3.256581068038940430e+00,3.343219518661499023e+00,3.434593439102172852e+00,3.531102418899536133e+00,3.633192062377929688e+00,3.741360425949096680e+00,3.856167316436767578e+00,3.978243112564086914e+00,4.108301162719726562e+00,4.247149467468261719e+00,4.395712375640869141e+00,4.555044651031494141e+00,4.726362705230712891e+00,4.854104518890380859e+00,4.852895736694335938e+00,4.851687431335449219e+00,4.850479602813720703e+00,4.849272251129150391e+00,4.848065853118896484e+00,4.846859455108642578e+00,4.845654487609863281e+00,4.844449520111083984e+00,4.843245029449462891e+00,4.842041492462158203e+00,4.840838432312011719e+00,4.839635848999023438e+00,4.838434219360351562e+00,4.837232589721679688e+00,4.836032390594482422e+00,4.834832191467285156e+00,4.833632469177246094e+00,4.832433700561523438e+00,4.831235885620117188e+00,4.830037593841552734e+00,4.828840732574462891e+00,4.827644348144531250e+00,4.826448440551757812e+00,4.825253486633300781e+00,4.824058532714843750e+00,4.822864532470703125e+00,4.821671009063720703e+00,4.820477962493896484e+00,4.819285392761230469e+00,4.818093776702880859e+00,4.816903114318847656e+00,4.815711975097656250e+00,4.814522266387939453e+00,4.813333034515380859e+00,4.812143802642822266e+00,4.810956001281738281e+00,4.809768199920654297e+00,4.808580875396728516e+00,4.807394504547119141e+00,4.806209087371826172e+00,4.805023193359375000e+00,4.803838729858398438e+00,4.802654743194580078e+00,4.801470756530761719e+00,4.800288200378417969e+00,4.799105644226074219e+00,4.797924041748046875e+00,4.796742916107177734e+00,4.795562267303466797e+00,4.794382095336914062e+00,4.793202877044677734e+00,4.792024135589599609e+00,4.790845394134521484e+00,4.789667606353759766e+00,4.788490772247314453e+00,4.697849750518798828e+00,4.548297405242919922e+00,4.407973289489746094e+00,4.276048183441162109e+00,4.151790618896484375e+00,4.034550666809082031e+00,3.923750162124633789e+00,3.818873167037963867e+00,3.719455957412719727e+00
3.096045732498168945e+00,3.174250364303588867e+00,3.256507873535156250e+00,3.343142271041870117e+00,3.434511899948120117e+00,3.531016349792480469e+00,3.633100748062133789e+00,3.741263628005981445e+00,3.770685434341430664e+00,3.769955873489379883e+00,3.769226551055908203e+00,3.768497705459594727e+00,3.767768621444702148e+00,3.767040252685546875e+00,3.766312122344970703e+00,3.765584230422973633e+00,3.764856576919555664e+00,3.764129400253295898e+00,3.763401985168457031e+00,3.762675285339355469e+00,3.761948823928833008e+00,3.761222600936889648e+00,3.760496854782104492e+00,3.759771347045898438e+00,3.759045600891113281e+00,3.758320569992065430e+00,3.757595777511596680e+00,3.756871223449707031e+00,3.756147146224975586e+00,3.755422830581665039e+00,3.754699230194091797e+00,3.753975868225097656e+00,3.753252744674682617e+00,3.752529859542846680e+00,3.751807451248168945e+00,3.751084566116333008e+00,3.750362634658813477e+00,3.749640941619873047e+00,3.748919725418090820e+00,3.748198509216308594e+00,3.747477769851684570e+00,3.746756553649902344e+00,3.746036291122436523e+00,3.745316267013549805e+00,3.744596719741821289e+00,3.743877172470092773e+00,3.743157863616943359e+00,3.742438554763793945e+00,3.741719961166381836e+00,3.741001605987548828e+00,3.740283489227294922e+00,3.739565849304199219e+00,3.738848209381103516e+00,3.738130569458007812e+00,3.737413644790649414e+00,3.736696958541870117e+00,3.735980510711669922e+00,3.735264301300048828e+00,3.734548330307006836e+00,3.733832359313964844e+00,3.733117103576660156e+00,3.732402086257934570e+00,3.731687307357788086e+00,3.730972766876220703e+00,3.730258464813232422e+00,3.729544162750244141e+00,3.728830337524414062e+00,3.728116989135742188e+00,3.727403879165649414e+00,3.726691007614135742e+00,3.725978374481201172e+00,3.725265502929687500e+00,3.724553585052490234e+00,3.723841667175292969e+00,3.723130226135253906e+00,3.722419023513793945e+00,3.721707582473754883e+00,3.720996856689453125e+00,3.720286369323730469e+00,3.719576358795166016e+00
3.083135843276977539e+00,3.082648038864135742e+00,3.082160472869873047e+00,3.081672906875610352e+00,3.081185579299926758e+00,3.080698728561401367e+00,3.080211877822875977e+00,3.079725027084350586e+00,3.079238414764404297e+00,3.078751802444458008e+00,3.078265428543090820e+00,3.077779293060302734e+00,3.077293157577514648e+00,3.076807498931884766e+00,3.076321601867675781e+00,3.075835943222045898e+00,3.075350522994995117e+00,3.074865102767944336e+00,3.074379682540893555e+00,3.073894739151000977e+00,3.073409795761108398e+00,3.072925329208374023e+00,3.072440624237060547e+00,3.071956396102905273e+00,3.071471691131591797e+00,3.070987701416015625e+00,3.070503711700439453e+00,3.070019960403442383e+00,3.069536447525024414e+00,3.069052696228027344e+00,3.068569421768188477e+00,3.068086147308349609e+00,3.067603111267089844e+00,3.067120313644409180e+00,3.066637754440307617e+00,3.066154956817626953e+00,3.065672636032104492e+00,3.065190315246582031e+00,3.064708232879638672e+00,3.064226150512695312e+00,3.063744544982910156e+00,3.063262462615966797e+00,3.062781095504760742e+00,3.062299728393554688e+00,3.061818599700927734e+00,3.061337471008300781e+00,3.060856580734252930e+00,3.060375690460205078e+00,3.059895038604736328e+00,3.059414625167846680e+00,3.058934450149536133e+00,3.058454275131225586e+00,3.057974100112915039e+00,3.057494163513183594e+00,3.057014465332031250e+00,3.056535005569458008e+00,3.056055545806884766e+00,3.055576324462890625e+00,3.055097103118896484e+00,3.054618120193481445e+00,3.054139137268066406e+00,3.053660631179809570e+00,3.053182125091552734e+00,3.052703857421875000e+00,3.052225589752197266e+00,3.051747322082519531e+00,3.051269531250000000e+00,3.050791740417480469e+00,3.050314188003540039e+00,3.049836635589599609e+00,3.049359560012817383e+00,3.048882007598876953e+00,3.048405170440673828e+00,3.047928333282470703e+00,3.047451496124267578e+00,3.046975135803222656e+00,3.046498537063598633e+00,3.046022176742553711e+00,3.045546054840087891e+00,3.045070171356201172e+00
2.604865312576293945e+00,2.604517221450805664e+00,2.604169368743896484e+00,2.603821277618408203e+00,2.603473424911499023e+00,2.603125572204589844e+00,2.602777957916259766e+00,2.602430343627929688e+00,2.602082729339599609e+00,2.601735591888427734e+00,2.601388216018676758e+00,2.601040840148925781e+00,2.600693702697753906e+00,2.600346803665161133e+00,2.599999666213989258e+00,2.599653005599975586e+00,2.599306344985961914e+00,2.598959684371948242e+00,2.598613023757934570e+00,2.598266363143920898e+00,2.597919940948486328e+00,2.597573518753051758e+00,2.597227334976196289e+00,2.596881151199340820e+00,2.596534967422485352e+00,2.596189022064208984e+00,2.595843076705932617e+00,2.595497369766235352e+00,2.595151662826538086e+00,2.594805955886840820e+00,2.594460487365722656e+00,2.594115018844604492e+00,2.593769788742065430e+00,2.593424558639526367e+00,2.593079328536987305e+00,2.592734098434448242e+00,2.592389106750488281e+00,2.592044353485107422e+00,2.591699600219726562e+00,2.591354846954345703e+00,2.591010332107543945e+00,2.590665578842163086e+00,2.590321302413940430e+00,2.589977025985717773e+00,2.589632749557495117e+00,2.589288711547851562e+00,2.588944673538208008e+00,2.588600635528564453e+00,2.588256597518920898e+00,2.587913036346435547e+00,2.587569236755371094e+00,2.587225675582885742e+00,2.586882352828979492e+00,2.586538791656494141e+00,2.586195468902587891e+00,2.585852146148681641e+00,2.585509061813354492e+00,2.585166215896606445e+00,2.584823131561279297e+00,2.584480047225952148e+00,2.584137439727783203e+00,2.583794832229614258e+00,2.583452224731445312e+00,2.583109617233276367e+00,2.582767248153686523e+00,2.582424879074096680e+00,2.582082748413085938e+00,2.581740617752075195e+00,2.581398487091064453e+00,2.581056594848632812e+00,2.580714702606201172e+00,2.580372810363769531e+00,2.580031156539916992e+00,2.579689502716064453e+00,2.579348087310791016e+00,2.579006671905517578e+00,2.578665256500244141e+00,2.578324079513549805e+00,2.577982902526855469e+00,2.577641963958740234e+00
2.255051374435424805e+00,2.254790544509887695e+00,2.254529476165771484e+00,2.254268646240234375e+00,2.254008054733276367e+00,2.253747463226318359e+00,2.253486871719360352e+00,2.253226280212402344e+00,2.252965688705444336e+00,2.252705335617065430e+00,2.252444982528686523e+00,2.252184629440307617e+00,2.251924276351928711e+00,2.251664161682128906e+00,2.251404047012329102e+00,2.251143932342529297e+00,2.250883817672729492e+00,2.250623941421508789e+00,2.250364065170288086e+00,2.250104188919067383e+00,2.249844551086425781e+00,2.249584674835205078e+00,2.249325037002563477e+00,2.249065399169921875e+00,2.248805999755859375e+00,2.248546361923217773e+00,2.248286724090576172e+00,2.248027324676513672e+00,2.247768163681030273e+00,2.247508764266967773e+00,2.247249603271484375e+00,2.246990442276000977e+00,2.246731281280517578e+00,2.246472358703613281e+00,2.246213436126708984e+00,2.245954275131225586e+00,2.245695352554321289e+00,2.245436668395996094e+00,2.245177984237670898e+00,2.244919300079345703e+00,2.244660615921020508e+00,2.244401931762695312e+00,2.244143486022949219e+00,2.243885040283203125e+00,2.243626594543457031e+00,2.243368387222290039e+00,2.243110179901123047e+00,2.242851734161376953e+00,2.242593526840209961e+00,2.242335557937622070e+00,2.242077589035034180e+00,2.241819620132446289e+00,2.241561651229858398e+00,2.241303682327270508e+00,2.241045951843261719e+00,2.240788221359252930e+00,2.240530490875244141e+00,2.240272998809814453e+00,2.240015506744384766e+00,2.239757776260375977e+00,2.239500522613525391e+00,2.239243030548095703e+00,2.238985776901245117e+00,2.238728523254394531e+00,2.238471269607543945e+00,2.238214015960693359e+00,2.237957000732421875e+00,2.237699985504150391e+00,2.237442970275878906e+00,2.237186193466186523e+00,2.236929416656494141e+00,2.236672401428222656e+00,2.236415863037109375e+00,2.236159086227416992e+00,2.235902547836303711e+00,2.235646009445190430e+00,2.235389232635498047e+00,2.235132932662963867e+00,2.234876632690429688e+00,2.234620332717895508e+00
1.988068580627441406e+00,1.987865805625915527e+00,1.987663030624389648e+00,1.987460255622863770e+00,1.987257599830627441e+00,1.987054944038391113e+00,1.986852407455444336e+00,1.986649751663208008e+00,1.986447334289550781e+00,1.986245036125183105e+00,1.986042618751525879e+00,1.985840201377868652e+00,1.985637784004211426e+00,1.985435485839843750e+00,1.985233306884765625e+00,1.985031008720397949e+00,1.984828829765319824e+00,1.984626650810241699e+00,1.984424471855163574e+00,1.984222412109375000e+00,1.984020471572875977e+00,1.983818411827087402e+00,1.983616471290588379e+00,1.983414649963378906e+00,1.983212947845458984e+00,1.983011126518249512e+00,1.982809305191040039e+00,1.982607603073120117e+00,1.982405900955200195e+00,1.982204198837280273e+00,1.982002377510070801e+00,1.981800794601440430e+00,1.981599330902099609e+00,1.981397747993469238e+00,1.981196284294128418e+00,1.980994939804077148e+00,1.980793476104736328e+00,1.980592250823974609e+00,1.980390906333923340e+00,1.980189681053161621e+00,1.979988455772399902e+00,1.979786992073059082e+00,1.979585886001586914e+00,1.979384779930114746e+00,1.979183793067932129e+00,1.978982806205749512e+00,1.978781819343566895e+00,1.978580832481384277e+00,1.978379964828491211e+00,1.978179097175598145e+00,1.977978348731994629e+00,1.977777600288391113e+00,1.977576851844787598e+00,1.977375864982604980e+00,1.977175235748291016e+00,1.976974725723266602e+00,1.976774096488952637e+00,1.976573586463928223e+00,1.976373076438903809e+00,1.976172685623168945e+00,1.975972294807434082e+00,1.975771903991699219e+00,1.975571632385253906e+00,1.975371360778808594e+00,1.975171089172363281e+00,1.974970698356628418e+00,1.974770545959472656e+00,1.974570393562316895e+00,1.974370360374450684e+00,1.974170327186584473e+00,1.973970293998718262e+00,1.973770380020141602e+00,1.973570466041564941e+00,1.973370552062988281e+00,1.973170757293701172e+00,1.972970962524414062e+00,1.972770929336547852e+00,1.972571253776550293e+00,1.972371578216552734e+00,1.972171902656555176e+00
1.777611494064331055e+00,1.777449250221252441e+00,1.777287125587463379e+00,1.777125120162963867e+00,1.776962995529174805e+00,1.776801228523254395e+00,1.776639223098754883e+00,1.776477217674255371e+00,1.776315331459045410e+00,1.776153326034545898e+00,1.775991439819335938e+00,1.775829672813415527e+00,1.775667786598205566e+00,1.775506019592285156e+00,1.775344252586364746e+00,1.775182485580444336e+00,1.775020837783813477e+00,1.774859070777893066e+00,1.774697422981262207e+00,1.774535894393920898e+00,1.774374485015869141e+00,1.774212956428527832e+00,1.774051308631896973e+00,1.773889899253845215e+00,1.773728370666503906e+00,1.773566961288452148e+00,1.773405551910400391e+00,1.773244142532348633e+00,1.773082852363586426e+00,1.772921442985534668e+00,1.772760152816772461e+00,1.772598862648010254e+00,1.772437691688537598e+00,1.772276401519775391e+00,1.772115230560302734e+00,1.771954298019409180e+00,1.771793007850646973e+00,1.771631956100463867e+00,1.771470904350280762e+00,1.771309852600097656e+00,1.771148800849914551e+00,1.770987629890441895e+00,1.770826697349548340e+00,1.770665764808654785e+00,1.770504832267761230e+00,1.770344018936157227e+00,1.770183205604553223e+00,1.770022392272949219e+00,1.769861578941345215e+00,1.769700884819030762e+00,1.769540190696716309e+00,1.769379496574401855e+00,1.769218802452087402e+00,1.769057989120483398e+00,1.768897414207458496e+00,1.768736839294433594e+00,1.768576383590698242e+00,1.768415808677673340e+00,1.768255352973937988e+00,1.768094897270202637e+00,1.767934441566467285e+00,1.767774105072021484e+00,1.767613768577575684e+00,1.767453432083129883e+00,1.767293095588684082e+00,1.767132639884948730e+00,1.766972422599792480e+00,1.766812205314636230e+00,1.766651988029479980e+00,1.766491889953613281e+00,1.766331672668457031e+00,1.766171574592590332e+00,1.766011595726013184e+00,1.765851497650146484e+00,1.765691518783569336e+00,1.765531539916992188e+00,1.765371441841125488e+00,1.765211462974548340e+00,1.765051603317260742e+00,1.764891743659973145e+00
1.607446908950805664e+00,1.607314348220825195e+00,1.607181906700134277e+00,1.607049345970153809e+00,1.606916904449462891e+00,1.606784343719482422e+00,1.606651902198791504e+00,1.606519341468811035e+00,1.606387019157409668e+00,1.606254577636718750e+00,1.606122136116027832e+00,1.605989813804626465e+00,1.605857372283935547e+00,1.605725049972534180e+00,1.605592727661132812e+00,1.605460524559020996e+00,1.605328321456909180e+00,1.605196118354797363e+00,1.605063915252685547e+00,1.604931712150573730e+00,1.604799509048461914e+00,1.604667425155639648e+00,1.604535222053527832e+00,1.604403138160705566e+00,1.604271054267883301e+00,1.604138970375061035e+00,1.604006886482238770e+00,1.603874921798706055e+00,1.603742837905883789e+00,1.603610873222351074e+00,1.603478908538818359e+00,1.603347182273864746e+00,1.603215217590332031e+00,1.603083372116088867e+00,1.602951526641845703e+00,1.602819561958312988e+00,1.602687835693359375e+00,1.602555990219116211e+00,1.602424144744873047e+00,1.602292418479919434e+00,1.602160692214965820e+00,1.602028846740722656e+00,1.601897120475769043e+00,1.601765394210815430e+00,1.601633787155151367e+00,1.601502180099487305e+00,1.601370573043823242e+00,1.601238965988159180e+00,1.601107358932495117e+00,1.600975871086120605e+00,1.600844264030456543e+00,1.600712776184082031e+00,1.600581288337707520e+00,1.600449681282043457e+00,1.600318193435668945e+00,1.600186824798583984e+00,1.600055456161499023e+00,1.599923968315124512e+00,1.599792718887329102e+00,1.599661350250244141e+00,1.599529981613159180e+00,1.599398732185363770e+00,1.599267482757568359e+00,1.599136233329772949e+00,1.599004983901977539e+00,1.598873615264892578e+00,1.598742485046386719e+00,1.598611354827880859e+00,1.598480224609375000e+00,1.598349094390869141e+00,1.598217964172363281e+00,1.598086833953857422e+00,1.597955822944641113e+00,1.597824811935424805e+00,1.597693800926208496e+00,1.597562789916992188e+00,1.597431659698486328e+00,1.597300767898559570e+00,1.597169756889343262e+00,1.597038865089416504e+00
1.467014908790588379e+00,1.466904401779174805e+00,1.466794013977050781e+00,1.466683626174926758e+00,1.466573238372802734e+00,1.466462850570678711e+00,1.466352462768554688e+00,1.466242194175720215e+00,1.466131806373596191e+00,1.466021537780761719e+00,1.465911269187927246e+00,1.465801000595092773e+00,1.465690732002258301e+00,1.465580582618713379e+00,1.465470314025878906e+00,1.465360164642333984e+00,1.465250015258789062e+00,1.465139746665954590e+00,1.465029597282409668e+00,1.464919447898864746e+00,1.464809417724609375e+00,1.464699268341064453e+00,1.464589118957519531e+00,1.464479088783264160e+00,1.464369058609008789e+00,1.464259028434753418e+00,1.464148998260498047e+00,1.464039087295532227e+00,1.463929057121276855e+00,1.463819146156311035e+00,1.463709115982055664e+00,1.463599205017089844e+00,1.463489294052124023e+00,1.463379383087158203e+00,1.463269472122192383e+00,1.463159561157226562e+00,1.463049769401550293e+00,1.462939858436584473e+00,1.462830066680908203e+00,1.462720274925231934e+00,1.462610483169555664e+00,1.462500691413879395e+00,1.462391138076782227e+00,1.462281346321105957e+00,1.462171673774719238e+00,1.462061882019042969e+00,1.461952209472656250e+00,1.461842417716979980e+00,1.461732745170593262e+00,1.461623072624206543e+00,1.461513519287109375e+00,1.461403846740722656e+00,1.461294293403625488e+00,1.461184620857238770e+00,1.461075067520141602e+00,1.460965514183044434e+00,1.460855960845947266e+00,1.460746407508850098e+00,1.460636973381042480e+00,1.460527420043945312e+00,1.460417985916137695e+00,1.460308551788330078e+00,1.460199117660522461e+00,1.460089683532714844e+00,1.459980368614196777e+00,1.459870815277099609e+00,1.459761381149291992e+00,1.459652066230773926e+00,1.459542751312255859e+00,1.459433436393737793e+00,1.459324121475219727e+00,1.459214806556701660e+00,1.459105610847473145e+00,1.458996295928955078e+00,1.458887100219726562e+00,1.458777904510498047e+00,1.458668589591979980e+00,1.458559393882751465e+00,1.458450198173522949e+00,1.458341002464294434e+00
1.349148511886596680e+00,1.349055051803588867e+00,1.348961710929870605e+00,1.348868250846862793e+00,1.348774909973144531e+00,1.348681569099426270e+00,1.348588228225708008e+00,1.348494887351989746e+00,1.348401546478271484e+00,1.348308444023132324e+00,1.348215103149414062e+00,1.348121881484985352e+00,1.348028540611267090e+00,1.347935318946838379e+00,1.347842097282409668e+00,1.347748875617980957e+00,1.347655653953552246e+00,1.347562432289123535e+00,1.347469329833984375e+00,1.347376108169555664e+00,1.347283005714416504e+00,1.347189784049987793e+00,1.347096681594848633e+00,1.347003579139709473e+00,1.346910595893859863e+00,1.346817493438720703e+00,1.346724390983581543e+00,1.346631288528442383e+00,1.346538305282592773e+00,1.346445202827453613e+00,1.346352219581604004e+00,1.346259236335754395e+00,1.346166133880615234e+00,1.346073150634765625e+00,1.345980167388916016e+00,1.345887184143066406e+00,1.345794320106506348e+00,1.345701336860656738e+00,1.345608472824096680e+00,1.345515608787536621e+00,1.345422744750976562e+00,1.345329761505126953e+00,1.345236897468566895e+00,1.345144033432006836e+00,1.345051169395446777e+00,1.344958424568176270e+00,1.344865560531616211e+00,1.344772696495056152e+00,1.344679951667785645e+00,1.344587087631225586e+00,1.344494342803955078e+00,1.344401597976684570e+00,1.344308853149414062e+00,1.344215989112854004e+00,1.344123244285583496e+00,1.344030618667602539e+00,1.343937873840332031e+00,1.343845129013061523e+00,1.343752503395080566e+00,1.343659877777099609e+00,1.343567252159118652e+00,1.343474507331848145e+00,1.343382000923156738e+00,1.343289375305175781e+00,1.343196749687194824e+00,1.343104004859924316e+00,1.343011498451232910e+00,1.342918872833251953e+00,1.342826366424560547e+00,1.342733860015869141e+00,1.342641353607177734e+00,1.342548847198486328e+00,1.342456340789794922e+00,1.342363834381103516e+00,1.342271327972412109e+00,1.342178940773010254e+00,1.342086315155029297e+00,1.341993927955627441e+00,1.341901540756225586e+00,1.341809034347534180e+00
1.248813390731811523e+00,1.248733401298522949e+00,1.248653292655944824e+00,1.248573303222656250e+00,1.248493313789367676e+00,1.248413443565368652e+00,1.248333454132080078e+00,1.248253464698791504e+00,1.248173594474792480e+00,1.248093605041503906e+00,1.248013615608215332e+00,1.247933745384216309e+00,1.247853755950927734e+00,1.247773885726928711e+00,1.247694015502929688e+00,1.247614145278930664e+00,1.247534275054931641e+00,1.247454404830932617e+00,1.247374534606933594e+00,1.247294664382934570e+00,1.247214913368225098e+00,1.247135162353515625e+00,1.247055292129516602e+00,1.246975541114807129e+00,1.246895670890808105e+00,1.246815919876098633e+00,1.246736168861389160e+00,1.246656417846679688e+00,1.246576666831970215e+00,1.246496915817260742e+00,1.246417164802551270e+00,1.246337413787841797e+00,1.246257662773132324e+00,1.246178030967712402e+00,1.246098279953002930e+00,1.246018767356872559e+00,1.245939016342163086e+00,1.245859384536743164e+00,1.245779752731323242e+00,1.245700120925903320e+00,1.245620489120483398e+00,1.245540857315063477e+00,1.245461225509643555e+00,1.245381593704223633e+00,1.245302081108093262e+00,1.245222449302673340e+00,1.245142936706542969e+00,1.245063304901123047e+00,1.244983792304992676e+00,1.244904279708862305e+00,1.244824767112731934e+00,1.244745254516601562e+00,1.244665741920471191e+00,1.244586229324340820e+00,1.244506835937500000e+00,1.244427323341369629e+00,1.244347810745239258e+00,1.244268298149108887e+00,1.244188785552978516e+00,1.244109392166137695e+00,1.244029998779296875e+00,1.243950605392456055e+00,1.243871212005615234e+00,1.243791699409484863e+00,1.243712425231933594e+00,1.243632912635803223e+00,1.243553519248962402e+00,1.243474125862121582e+00,1.243394851684570312e+00,1.243315458297729492e+00,1.243236184120178223e+00,1.243156909942626953e+00,1.243077516555786133e+00,1.242998242378234863e+00,1.242918968200683594e+00,1.242839694023132324e+00,1.242760300636291504e+00,1.242681145668029785e+00,1.242601871490478516e+00,1.242522597312927246e+00
1.162369012832641602e+00,1.162299633026123047e+00,1.162230372428894043e+00,1.162161111831665039e+00,1.162091732025146484e+00,1.162022471427917480e+00,1.161953210830688477e+00,1.161883831024169922e+00,1.161814570426940918e+00,1.161745309829711914e+00,1.161676049232482910e+00,1.161606788635253906e+00,1.161537528038024902e+00,1.161468386650085449e+00,1.161399126052856445e+00,1.161329865455627441e+00,1.161260724067687988e+00,1.161191582679748535e+00,1.161122322082519531e+00,1.161053180694580078e+00,1.160984039306640625e+00,1.160914897918701172e+00,1.160845637321472168e+00,1.160776495933532715e+00,1.160707354545593262e+00,1.160638213157653809e+00,1.160569071769714355e+00,1.160500049591064453e+00,1.160430908203125000e+00,1.160361766815185547e+00,1.160292744636535645e+00,1.160223722457885742e+00,1.160154581069946289e+00,1.160085558891296387e+00,1.160016417503356934e+00,1.159947395324707031e+00,1.159878373146057129e+00,1.159809350967407227e+00,1.159740328788757324e+00,1.159671306610107422e+00,1.159602284431457520e+00,1.159533262252807617e+00,1.159464240074157715e+00,1.159395217895507812e+00,1.159326314926147461e+00,1.159257292747497559e+00,1.159188389778137207e+00,1.159119486808776855e+00,1.159050464630126953e+00,1.158981561660766602e+00,1.158912658691406250e+00,1.158843755722045898e+00,1.158774852752685547e+00,1.158705949783325195e+00,1.158637046813964844e+00,1.158568143844604492e+00,1.158499240875244141e+00,1.158430337905883789e+00,1.158361554145812988e+00,1.158292651176452637e+00,1.158223867416381836e+00,1.158155083656311035e+00,1.158086180686950684e+00,1.158017277717590332e+00,1.157948493957519531e+00,1.157879590988159180e+00,1.157810807228088379e+00,1.157742023468017578e+00,1.157673239707946777e+00,1.157604455947875977e+00,1.157535672187805176e+00,1.157467007637023926e+00,1.157398223876953125e+00,1.157329440116882324e+00,1.157260775566101074e+00,1.157191991806030273e+00,1.157123208045959473e+00,1.157054543495178223e+00,1.156985759735107422e+00,1.156917095184326172e+00
1.087117314338684082e+00,1.087056756019592285e+00,1.086996078491210938e+00,1.086935400962829590e+00,1.086874842643737793e+00,1.086814165115356445e+00,1.086753606796264648e+00,1.086692929267883301e+00,1.086632370948791504e+00,1.086571812629699707e+00,1.086511254310607910e+00,1.086450576782226562e+00,1.086390018463134766e+00,1.086329579353332520e+00,1.086269021034240723e+00,1.086208462715148926e+00,1.086147904396057129e+00,1.086087346076965332e+00,1.086026787757873535e+00,1.085966348648071289e+00,1.085905790328979492e+00,1.085845232009887695e+00,1.085784792900085449e+00,1.085724234580993652e+00,1.085663795471191406e+00,1.085603356361389160e+00,1.085542798042297363e+00,1.085482478141784668e+00,1.085421919822692871e+00,1.085361480712890625e+00,1.085301041603088379e+00,1.085240602493286133e+00,1.085180163383483887e+00,1.085119724273681641e+00,1.085059285163879395e+00,1.084998846054077148e+00,1.084938526153564453e+00,1.084878087043762207e+00,1.084817647933959961e+00,1.084757328033447266e+00,1.084696888923645020e+00,1.084636569023132324e+00,1.084576249122619629e+00,1.084515810012817383e+00,1.084455490112304688e+00,1.084395170211791992e+00,1.084334850311279297e+00,1.084274411201477051e+00,1.084214091300964355e+00,1.084153771400451660e+00,1.084093451499938965e+00,1.084033131599426270e+00,1.083972930908203125e+00,1.083912611007690430e+00,1.083852291107177734e+00,1.083791971206665039e+00,1.083731770515441895e+00,1.083671569824218750e+00,1.083611249923706055e+00,1.083551049232482910e+00,1.083490729331970215e+00,1.083430528640747070e+00,1.083370327949523926e+00,1.083310008049011230e+00,1.083249807357788086e+00,1.083189606666564941e+00,1.083129405975341797e+00,1.083069205284118652e+00,1.083008885383605957e+00,1.082948803901672363e+00,1.082888603210449219e+00,1.082828402519226074e+00,1.082768201828002930e+00,1.082708001136779785e+00,1.082647919654846191e+00,1.082587718963623047e+00,1.082527518272399902e+00,1.082467436790466309e+00,1.082407236099243164e+00,1.082347154617309570e+00
1.021016836166381836e+00,1.020963311195373535e+00,1.020909905433654785e+00,1.020856380462646484e+00,1.020802855491638184e+00,1.020749449729919434e+00,1.020695924758911133e+00,1.020642518997192383e+00,1.020588994026184082e+00,1.020535588264465332e+00,1.020482182502746582e+00,1.020428776741027832e+00,1.020375370979309082e+00,1.020321846008300781e+00,1.020268440246582031e+00,1.020215034484863281e+00,1.020161628723144531e+00,1.020108222961425781e+00,1.020054817199707031e+00,1.020001411437988281e+00,1.019948005676269531e+00,1.019894599914550781e+00,1.019841313362121582e+00,1.019787907600402832e+00,1.019734621047973633e+00,1.019681215286254883e+00,1.019627928733825684e+00,1.019574522972106934e+00,1.019521236419677734e+00,1.019467830657958984e+00,1.019414544105529785e+00,1.019361138343811035e+00,1.019307851791381836e+00,1.019254565238952637e+00,1.019201278686523438e+00,1.019147872924804688e+00,1.019094586372375488e+00,1.019041299819946289e+00,1.018988132476806641e+00,1.018934845924377441e+00,1.018881559371948242e+00,1.018828272819519043e+00,1.018774986267089844e+00,1.018721699714660645e+00,1.018668532371520996e+00,1.018615245819091797e+00,1.018561959266662598e+00,1.018508791923522949e+00,1.018455505371093750e+00,1.018402338027954102e+00,1.018349051475524902e+00,1.018295884132385254e+00,1.018242597579956055e+00,1.018189549446105957e+00,1.018136262893676758e+00,1.018083095550537109e+00,1.018029928207397461e+00,1.017976760864257812e+00,1.017923593521118164e+00,1.017870426177978516e+00,1.017817258834838867e+00,1.017764091491699219e+00,1.017710924148559570e+00,1.017657756805419922e+00,1.017604589462280273e+00,1.017551422119140625e+00,1.017498373985290527e+00,1.017445206642150879e+00,1.017392158508300781e+00,1.017338991165161133e+00,1.017285943031311035e+00,1.017232775688171387e+00,1.017179727554321289e+00,1.017126560211181641e+00,1.017073392868041992e+00,1.017020344734191895e+00,1.016967177391052246e+00,1.016914129257202148e+00,1.016861081123352051e+00,1.016808032989501953e+00
9.624939560890197754e-01,9.624463319778442383e-01,9.623988270759582520e-01,9.623512625694274902e-01,9.623037576675415039e-01,9.622563123703002930e-01,9.622087478637695312e-01,9.621613025665283203e-01,9.621137380599975586e-01,9.620662927627563477e-01,9.620187282562255859e-01,9.619712829589843750e-01,9.619237780570983887e-01,9.618763327598571777e-01,9.618287682533264160e-01,9.617813825607299805e-01,9.617338776588439941e-01,9.616864323616027832e-01,9.616389274597167969e-01,9.615915417671203613e-01,9.615441560745239258e-01,9.614966511726379395e-01,9.614492654800415039e-01,9.614017605781555176e-01,9.613543748855590820e-01,9.613068699836730957e-01,9.612595438957214355e-01,9.612120389938354492e-01,9.611647129058837891e-01,9.611172080039978027e-01,9.610698819160461426e-01,9.610224366188049316e-01,9.609751105308532715e-01,9.609276652336120605e-01,9.608803391456604004e-01,9.608330130577087402e-01,9.607855677604675293e-01,9.607382416725158691e-01,9.606908559799194336e-01,9.606435298919677734e-01,9.605960845947265625e-01,9.605488181114196777e-01,9.605014324188232422e-01,9.604541063308715820e-01,9.604067206382751465e-01,9.603594541549682617e-01,9.603120684623718262e-01,9.602648019790649414e-01,9.602174162864685059e-01,9.601701498031616211e-01,9.601228833198547363e-01,9.600755572319030762e-01,9.600282907485961914e-01,9.599809646606445312e-01,9.599336981773376465e-01,9.598863720893859863e-01,9.598391056060791016e-01,9.597917795181274414e-01,9.597445726394653320e-01,9.596972465515136719e-01,9.596500396728515625e-01,9.596027135848999023e-01,9.595555067062377930e-01,9.595082402229309082e-01,9.594610333442687988e-01,9.594138264656066895e-01,9.593665599822998047e-01,9.593193531036376953e-01,9.592720866203308105e-01,9.592249393463134766e-01,9.591776728630065918e-01,9.591305255889892578e-01,9.590832591056823730e-01,9.590361118316650391e-01,9.589888453483581543e-01,9.589416980743408203e-01,9.588944315910339355e-01,9.588473439216613770e-01,9.588000774383544922e-01,9.587528705596923828e-01
9.103160500526428223e-01,9.102736115455627441e-01,9.102311134338378906e-01,9.101885557174682617e-01,9.101460576057434082e-01,9.101034998893737793e-01,9.100610613822937012e-01,9.100185036659240723e-01,9.099760651588439941e-01,9.099335074424743652e-01,9.098910689353942871e-01,9.098485708236694336e-01,9.098061323165893555e-01,9.097635746002197266e-01,9.097211360931396484e-01,9.096786379814147949e-01,9.096361994743347168e-01,9.095938205718994141e-01,9.095513224601745605e-01,9.095088839530944824e-01,9.094663858413696289e-01,9.094240069389343262e-01,9.093815088272094727e-01,9.093391299247741699e-01,9.092966318130493164e-01,9.092542529106140137e-01,9.092118144035339355e-01,9.091694355010986328e-01,9.091269373893737793e-01,9.090845584869384766e-01,9.090421199798583984e-01,9.089997410774230957e-01,9.089574217796325684e-01,9.089149832725524902e-01,9.088726043701171875e-01,9.088301658630371094e-01,9.087878465652465820e-01,9.087454080581665039e-01,9.087030887603759766e-01,9.086606502532958984e-01,9.086183309555053711e-01,9.085759520530700684e-01,9.085336327552795410e-01,9.084911942481994629e-01,9.084488749504089355e-01,9.084064960479736328e-01,9.083641767501831055e-01,9.083219170570373535e-01,9.082795381546020508e-01,9.082372188568115234e-01,9.081948399543762207e-01,9.081525802612304688e-01,9.081102013587951660e-01,9.080679416656494141e-01,9.080255627632141113e-01,9.079833030700683594e-01,9.079409837722778320e-01,9.078987240791320801e-01,9.078563451766967773e-01,9.078140854835510254e-01,9.077718257904052734e-01,9.077295064926147461e-01,9.076873064041137695e-01,9.076449275016784668e-01,9.076027274131774902e-01,9.075604081153869629e-01,9.075182080268859863e-01,9.074758887290954590e-01,9.074336886405944824e-01,9.073913693428039551e-01,9.073491692543029785e-01,9.073068499565124512e-01,9.072646498680114746e-01,9.072223901748657227e-01,9.071801900863647461e-01,9.071379899978637695e-01,9.070957303047180176e-01,9.070535302162170410e-01,9.070112705230712891e-01,9.069691300392150879e-01
8.635045886039733887e-01,8.634663820266723633e-01,8.634281158447265625e-01,8.633898496627807617e-01,8.633515834808349609e-01,8.633133769035339355e-01,8.632750511169433594e-01,8.632369041442871094e-01,8.631985783576965332e-01,8.631604313850402832e-01,8.631221055984497070e-01,8.630839586257934570e-01,8.630456924438476562e-01,8.630074858665466309e-01,8.629693388938903809e-01,8.629310727119445801e-01,8.628928661346435547e-01,8.628546595573425293e-01,8.628164529800415039e-01,8.627782464027404785e-01,8.627400398254394531e-01,8.627018332481384277e-01,8.626636862754821777e-01,8.626254200935363770e-01,8.625872731208801270e-01,8.625490665435791016e-01,8.625109195709228516e-01,8.624727725982666016e-01,8.624345660209655762e-01,8.623964786529541016e-01,8.623582720756530762e-01,8.623201251029968262e-01,8.622819185256958008e-01,8.622438311576843262e-01,8.622056245803833008e-01,8.621675372123718262e-01,8.621293306350708008e-01,8.620912432670593262e-01,8.620530366897583008e-01,8.620149493217468262e-01,8.619767427444458008e-01,8.619387149810791016e-01,8.619006276130676270e-01,8.618624210357666016e-01,8.618243336677551270e-01,8.617861866950988770e-01,8.617481589317321777e-01,8.617100119590759277e-01,8.616719245910644531e-01,8.616337776184082031e-01,8.615957498550415039e-01,8.615576028823852539e-01,8.615195155143737793e-01,8.614814281463623047e-01,8.614433407783508301e-01,8.614052534103393555e-01,8.613672256469726562e-01,8.613291382789611816e-01,8.612910509109497070e-01,8.612530231475830078e-01,8.612149357795715332e-01,8.611769080162048340e-01,8.611388206481933594e-01,8.611007928848266602e-01,8.610627055168151855e-01,8.610246777534484863e-01,8.609865903854370117e-01,8.609486222267150879e-01,8.609105348587036133e-01,8.608725070953369141e-01,8.608344793319702148e-01,8.607964515686035156e-01,8.607584834098815918e-01,8.607203960418701172e-01,8.606824278831481934e-01,8.606444001197814941e-01,8.606064319610595703e-01,8.605683445930480957e-01,8.605304360389709473e-01,8.604923486709594727e-01
8.212720751762390137e-01,8.212374448776245117e-01,8.212028741836547852e-01,8.211682438850402832e-01,8.211336731910705566e-01,8.210990428924560547e-01,8.210644721984863281e-01,8.210298418998718262e-01,8.209952712059020996e-01,8.209607601165771484e-01,8.209261298179626465e-01,8.208915591239929199e-01,8.208569288253784180e-01,8.208224177360534668e-01,8.207877874374389648e-01,8.207532763481140137e-01,8.207186460494995117e-01,8.206841349601745605e-01,8.206495046615600586e-01,8.206149935722351074e-01,8.205804228782653809e-01,8.205459117889404297e-01,8.205112814903259277e-01,8.204767704010009766e-01,8.204423189163208008e-01,8.204076886177062988e-01,8.203732371330261230e-01,8.203386068344116211e-01,8.203041553497314453e-01,8.202695846557617188e-01,8.202350735664367676e-01,8.202005028724670410e-01,8.201660513877868652e-01,8.201314806938171387e-01,8.200969696044921875e-01,8.200624585151672363e-01,8.200279474258422852e-01,8.199934363365173340e-01,8.199589848518371582e-01,8.199244737625122070e-01,8.198899626731872559e-01,8.198555111885070801e-01,8.198209404945373535e-01,8.197864890098571777e-01,8.197519779205322266e-01,8.197175264358520508e-01,8.196830153465270996e-01,8.196485638618469238e-01,8.196140527725219727e-01,8.195796608924865723e-01,8.195451498031616211e-01,8.195106983184814453e-01,8.194761872291564941e-01,8.194417953491210938e-01,8.194073438644409180e-01,8.193728327751159668e-01,8.193384408950805664e-01,8.193039298057556152e-01,8.192695379257202148e-01,8.192350268363952637e-01,8.192006349563598633e-01,8.191661834716796875e-01,8.191317915916442871e-01,8.190972805023193359e-01,8.190628886222839355e-01,8.190284371376037598e-01,8.189940452575683594e-01,8.189596533775329590e-01,8.189252018928527832e-01,8.188908696174621582e-01,8.188564181327819824e-01,8.188220262527465820e-01,8.187875747680664062e-01,8.187532424926757812e-01,8.187187910079956055e-01,8.186843991279602051e-01,8.186500072479248047e-01,8.186156153678894043e-01,8.185812234878540039e-01,8.185468316078186035e-01
7.829779386520385742e-01,7.829465270042419434e-01,7.829150557518005371e-01,7.828836441040039062e-01,7.828521132469177246e-01,7.828207015991210938e-01,7.827892899513244629e-01,7.827578186988830566e-01,7.827264070510864258e-01,7.826949357986450195e-01,7.826635241508483887e-01,7.826320528984069824e-01,7.826006412506103516e-01,7.825692296028137207e-01,7.825378179550170898e-01,7.825063467025756836e-01,7.824749350547790527e-01,7.824435234069824219e-01,7.824121117591857910e-01,7.823806405067443848e-01,7.823492884635925293e-01,7.823179364204406738e-01,7.822864651679992676e-01,7.822551131248474121e-01,7.822236418724060059e-01,7.821922898292541504e-01,7.821608781814575195e-01,7.821295261383056641e-01,7.820980548858642578e-01,7.820667028427124023e-01,7.820352911949157715e-01,7.820039391517639160e-01,7.819725275039672852e-01,7.819411754608154297e-01,7.819097638130187988e-01,7.818784117698669434e-01,7.818471193313598633e-01,7.818157076835632324e-01,7.817843556404113770e-01,7.817529439926147461e-01,7.817216515541076660e-01,7.816902399063110352e-01,7.816589474678039551e-01,7.816275358200073242e-01,7.815961837768554688e-01,7.815648317337036133e-01,7.815335392951965332e-01,7.815021276473999023e-01,7.814708352088928223e-01,7.814395427703857422e-01,7.814081311225891113e-01,7.813768386840820312e-01,7.813454866409301758e-01,7.813141942024230957e-01,7.812828421592712402e-01,7.812515497207641602e-01,7.812201976776123047e-01,7.811889052391052246e-01,7.811575531959533691e-01,7.811262607574462891e-01,7.810949087142944336e-01,7.810636162757873535e-01,7.810323238372802734e-01,7.810010313987731934e-01,7.809697389602661133e-01,7.809384465217590332e-01,7.809071540832519531e-01,7.808758616447448730e-01,7.808445692062377930e-01,7.808132767677307129e-01,7.807819843292236328e-01,7.807506918907165527e-01,7.807194590568542480e-01,7.806881070137023926e-01,7.806568741798400879e-01,7.806255817413330078e-01,7.805943489074707031e-01,7.805630564689636230e-01,7.805318236351013184e-01,7.805005908012390137e-01
7.480959296226501465e-01,7.480671405792236328e-01,7.480384707450866699e-01,7.480098009109497070e-01,7.479810714721679688e-01,7.479523420333862305e-01,7.479236125946044922e-01,7.478949427604675293e-01,7.478662133216857910e-01,7.478375434875488281e-01,7.478088140487670898e-01,7.477801442146301270e-01,7.477514147758483887e-01,7.477227449417114258e-01,7.476940155029296875e-01,7.476653456687927246e-01,7.476367354393005371e-01,7.476080060005187988e-01,7.475793361663818359e-01,7.475506663322448730e-01,7.475219964981079102e-01,7.474932670593261719e-01,7.474646568298339844e-01,7.474359273910522461e-01,7.474073171615600586e-01,7.473785877227783203e-01,7.473499774932861328e-01,7.473212480545043945e-01,7.472926378250122070e-01,7.472639679908752441e-01,7.472353577613830566e-01,7.472066879272460938e-01,7.471780180931091309e-01,7.471494078636169434e-01,7.471207380294799805e-01,7.470921277999877930e-01,7.470634579658508301e-01,7.470348477363586426e-01,7.470061779022216797e-01,7.469775676727294922e-01,7.469488978385925293e-01,7.469202876091003418e-01,7.468916177749633789e-01,7.468630671501159668e-01,7.468343973159790039e-01,7.468057870864868164e-01,7.467771768569946289e-01,7.467485666275024414e-01,7.467199563980102539e-01,7.466913461685180664e-01,7.466627359390258789e-01,7.466340661048889160e-01,7.466055154800415039e-01,7.465769052505493164e-01,7.465482950210571289e-01,7.465196847915649414e-01,7.464911341667175293e-01,7.464624643325805664e-01,7.464339137077331543e-01,7.464053034782409668e-01,7.463767528533935547e-01,7.463482022285461426e-01,7.463195919990539551e-01,7.462909817695617676e-01,7.462623715400695801e-01,7.462338209152221680e-01,7.462052106857299805e-01,7.461767196655273438e-01,7.461481094360351562e-01,7.461195588111877441e-01,7.460909485816955566e-01,7.460623979568481445e-01,7.460338473320007324e-01,7.460052967071533203e-01,7.459766864776611328e-01,7.459481954574584961e-01,7.459196448326110840e-01,7.458910942077636719e-01,7.458625435829162598e-01,7.458339929580688477e-01
7.161893248558044434e-01,7.161629796028137207e-01,7.161366939544677734e-01,7.161103487014770508e-01,7.160840630531311035e-01,7.160577178001403809e-01,7.160314321517944336e-01,7.160050868988037109e-01,7.159788012504577637e-01,7.159524559974670410e-01,7.159261703491210938e-01,7.158998250961303711e-01,7.158735990524291992e-01,7.158473134040832520e-01,7.158209681510925293e-01,7.157947421073913574e-01,7.157683968544006348e-01,7.157421112060546875e-01,7.157158255577087402e-01,7.156895399093627930e-01,7.156632542610168457e-01,7.156369686126708984e-01,7.156106829643249512e-01,7.155844569206237793e-01,7.155581116676330566e-01,7.155318856239318848e-01,7.155055999755859375e-01,7.154793143272399902e-01,7.154530882835388184e-01,7.154268026351928711e-01,7.154005765914916992e-01,7.153742909431457520e-01,7.153480052947998047e-01,7.153217196464538574e-01,7.152954936027526855e-01,7.152692079544067383e-01,7.152429819107055664e-01,7.152166962623596191e-01,7.151904702186584473e-01,7.151642441749572754e-01,7.151380181312561035e-01,7.151117324829101562e-01,7.150855064392089844e-01,7.150592803955078125e-01,7.150330543518066406e-01,7.150068283081054688e-01,7.149805426597595215e-01,7.149543762207031250e-01,7.149280905723571777e-01,7.149019241333007812e-01,7.148756384849548340e-01,7.148494720458984375e-01,7.148231863975524902e-01,7.147970199584960938e-01,7.147707343101501465e-01,7.147445678710937500e-01,7.147183418273925781e-01,7.146921157836914062e-01,7.146659493446350098e-01,7.146397233009338379e-01,7.146135568618774414e-01,7.145872712135314941e-01,7.145611047744750977e-01,7.145348787307739258e-01,7.145087122917175293e-01,7.144824862480163574e-01,7.144563198089599609e-01,7.144300937652587891e-01,7.144039273262023926e-01,7.143777012825012207e-01,7.143515348434448242e-01,7.143254280090332031e-01,7.142992019653320312e-01,7.142730355262756348e-01,7.142468094825744629e-01,7.142206430435180664e-01,7.141944766044616699e-01,7.141683101654052734e-01,7.141420841217041016e-01,7.141159772872924805e-01
6.868929862976074219e-01,6.868688464164733887e-01,6.868445873260498047e-01,6.868203878402709961e-01,6.867961883544921875e-01,6.867719888687133789e-01,6.867477893829345703e-01,6.867235898971557617e-01,6.866993308067321777e-01,6.866751909255981445e-01,6.866509914398193359e-01,6.866267919540405273e-01,6.866026520729064941e-01,6.865783929824829102e-01,6.865542531013488770e-01,6.865300536155700684e-01,6.865058541297912598e-01,6.864816546440124512e-01,6.864575147628784180e-01,6.864333152770996094e-01,6.864091157913208008e-01,6.863849163055419922e-01,6.863607764244079590e-01,6.863365769386291504e-01,6.863124370574951172e-01,6.862882971763610840e-01,6.862640976905822754e-01,6.862399578094482422e-01,6.862157583236694336e-01,6.861916184425354004e-01,6.861674189567565918e-01,6.861432790756225586e-01,6.861190795898437500e-01,6.860949993133544922e-01,6.860707998275756836e-01,6.860466599464416504e-01,6.860224604606628418e-01,6.859983801841735840e-01,6.859742403030395508e-01,6.859500408172607422e-01,6.859259605407714844e-01,6.859017610549926758e-01,6.858776807785034180e-01,6.858534812927246094e-01,6.858293414115905762e-01,6.858052015304565430e-01,6.857811212539672852e-01,6.857569217681884766e-01,6.857328414916992188e-01,6.857086420059204102e-01,6.856845617294311523e-01,6.856604218482971191e-01,6.856363415718078613e-01,6.856122016906738281e-01,6.855880618095397949e-01,6.855639815330505371e-01,6.855398416519165039e-01,6.855157613754272461e-01,6.854916214942932129e-01,6.854674816131591797e-01,6.854433417320251465e-01,6.854192614555358887e-01,6.853951215744018555e-01,6.853710412979125977e-01,6.853469610214233398e-01,6.853228807449340820e-01,6.852987408638000488e-01,6.852746605873107910e-01,6.852505803108215332e-01,6.852264404296875000e-01,6.852024197578430176e-01,6.851782798767089844e-01,6.851541996002197266e-01,6.851300597190856934e-01,6.851060390472412109e-01,6.850818991661071777e-01,6.850578784942626953e-01,6.850337386131286621e-01,6.850097179412841797e-01,6.849855780601501465e-01
6.598993539810180664e-01,6.598769426345825195e-01,6.598546504974365234e-01,6.598322987556457520e-01,6.598099470138549805e-01,6.597876548767089844e-01,6.597653031349182129e-01,6.597429513931274414e-01,6.597205996513366699e-01,6.596983075141906738e-01,6.596759557723999023e-01,6.596536636352539062e-01,6.596313118934631348e-01,6.596089601516723633e-01,6.595866084098815918e-01,6.595643162727355957e-01,6.595419645309448242e-01,6.595196723937988281e-01,6.594973206520080566e-01,6.594750285148620605e-01,6.594527363777160645e-01,6.594303846359252930e-01,6.594080924987792969e-01,6.593858003616333008e-01,6.593635082244873047e-01,6.593411564826965332e-01,6.593188643455505371e-01,6.592965126037597656e-01,6.592742800712585449e-01,6.592519283294677734e-01,6.592296361923217773e-01,6.592073440551757812e-01,6.591850519180297852e-01,6.591627001762390137e-01,6.591404676437377930e-01,6.591181755065917969e-01,6.590958833694458008e-01,6.590735912322998047e-01,6.590512990951538086e-01,6.590290069580078125e-01,6.590067148208618164e-01,6.589844226837158203e-01,6.589621305465698242e-01,6.589398384094238281e-01,6.589175462722778320e-01,6.588953137397766113e-01,6.588730216026306152e-01,6.588507294654846191e-01,6.588284373283386230e-01,6.588062047958374023e-01,6.587839722633361816e-01,6.587616205215454102e-01,6.587393879890441895e-01,6.587170958518981934e-01,6.586948633193969727e-01,6.586725711822509766e-01,6.586503386497497559e-01,6.586280465126037598e-01,6.586058139801025391e-01,6.585835218429565430e-01,6.585612893104553223e-01,6.585389971733093262e-01,6.585167646408081055e-01,6.584945321083068848e-01,6.584722995758056641e-01,6.584500670433044434e-01,6.584277749061584473e-01,6.584055423736572266e-01,6.583833098411560059e-01,6.583610773086547852e-01,6.583387851715087891e-01,6.583165526390075684e-01,6.582943201065063477e-01,6.582720875740051270e-01,6.582498550415039062e-01,6.582276225090026855e-01,6.582053899765014648e-01,6.581831574440002441e-01,6.581609249114990234e-01,6.581386923789978027e-01
6.349470019340515137e-01,6.349263191223144531e-01,6.349056959152221680e-01,6.348849534988403320e-01,6.348642706871032715e-01,6.348435878753662109e-01,6.348229050636291504e-01,6.348022222518920898e-01,6.347815394401550293e-01,6.347608566284179688e-01,6.347402334213256836e-01,6.347194910049438477e-01,6.346988677978515625e-01,6.346781849861145020e-01,6.346575021743774414e-01,6.346368193626403809e-01,6.346161961555480957e-01,6.345955133438110352e-01,6.345748305320739746e-01,6.345542073249816895e-01,6.345335245132446289e-01,6.345129013061523438e-01,6.344922184944152832e-01,6.344715356826782227e-01,6.344508528709411621e-01,6.344302296638488770e-01,6.344095468521118164e-01,6.343889236450195312e-01,6.343682408332824707e-01,6.343476176261901855e-01,6.343269348144531250e-01,6.343063116073608398e-01,6.342856884002685547e-01,6.342650651931762695e-01,6.342444419860839844e-01,6.342237591743469238e-01,6.342031359672546387e-01,6.341824531555175781e-01,6.341618299484252930e-01,6.341412067413330078e-01,6.341205835342407227e-01,6.340999007225036621e-01,6.340793371200561523e-01,6.340586543083190918e-01,6.340380311012268066e-01,6.340174078941345215e-01,6.339967846870422363e-01,6.339761614799499512e-01,6.339555382728576660e-01,6.339349150657653809e-01,6.339142918586730957e-01,6.338936686515808105e-01,6.338730454444885254e-01,6.338524222373962402e-01,6.338317990303039551e-01,6.338112354278564453e-01,6.337905526161193848e-01,6.337699890136718750e-01,6.337493658065795898e-01,6.337287425994873047e-01,6.337081789970397949e-01,6.336875557899475098e-01,6.336669325828552246e-01,6.336463093757629395e-01,6.336257457733154297e-01,6.336051225662231445e-01,6.335845589637756348e-01,6.335639357566833496e-01,6.335433125495910645e-01,6.335226893424987793e-01,6.335021257400512695e-01,6.334815025329589844e-01,6.334609389305114746e-01,6.334403157234191895e-01,6.334197521209716797e-01,6.333991885185241699e-01,6.333785653114318848e-01,6.333580017089843750e-01,6.333374381065368652e-01,6.333168745040893555e-01
