5.000000000000000000e+00,5.000000000000000000e+00,5.000000000000000000e+00,5.000000000000000000e+00,5.000000000000000000e+00,5.000000000000000000e+00,5.000000000000000000e+00,5.000000000000000000e+00,5.000000000000000000e+00,5.000000000000000000e+00,5.000000000000000000e+00,5.000000000000000000e+00,5.000000000000000000e+00,5.000000000000000000e+00,5.000000000000000000e+00,5.000000000000000000e+00,5.000000000000000000e+00,5.000000000000000000e+00,5.000000000000000000e+00,5.000000000000000000e+00,5.000000000000000000e+00,5.000000000000000000e+00,5.000000000000000000e+00,5.000000000000000000e+00,5.000000000000000000e+00,5.000000000000000000e+00,5.000000000000000000e+00,5.000000000000000000e+00,5.000000000000000000e+00,5.000000000000000000e+00,5.000000000000000000e+00,5.000000000000000000e+00,5.000000000000000000e+00,5.000000000000000000e+00,5.000000000000000000e+00,5.000000000000000000e+00,5.000000000000000000e+00,5.000000000000000000e+00,5.000000000000000000e+00,5.000000000000000000e+00,5.000000000000000000e+00,5.000000000000000000e+00,5.000000000000000000e+00,5.000000000000000000e+00,5.000000000000000000e+00,5.000000000000000000e+00,5.000000000000000000e+00,5.000000000000000000e+00,5.000000000000000000e+00,5.000000000000000000e+00,5.000000000000000000e+00,5.000000000000000000e+00,5.000000000000000000e+00,5.000000000000000000e+00,5.000000000000000000e+00,5.000000000000000000e+00,5.000000000000000000e+00,4.610044956207275391e+00,4.438292980194091797e+00,4.278879165649414062e+00,4.130519866943359375e+00,3.992103815078735352e+00,3.862663984298706055e+00,3.741354227066040039e+00,3.627432107925415039e+00,3.520242691040039062e+00,3.419206380844116211e+00,3.323807477951049805e+00,3.233587980270385742e+00,3.148156881332397461e+00,3.067141771316528320e+00,2.990191698074340820e+00,2.917008161544799805e+00,2.847319126129150391e+00,2.780853748321533203e+00,2.717420578002929688e+00,2.656816720962524414e+00,2.598857164382934570e+00,2.543372392654418945e+00,2.490207195281982422e+00
4.884147644042968750e+00,5.000000000000000000e+00,5.000000000000000000e+00,5.000000000000000000e+00,5.000000000000000000e+00,5.000000000000000000e+00,5.000000000000000000e+00,5.000000000000000000e+00,5.000000000000000000e+00,5.000000000000000000e+00,5.000000000000000000e+00,5.000000000000000000e+00,5.000000000000000000e+00,5.000000000000000000e+00,5.000000000000000000e+00,5.000000000000000000e+00,5.000000000000000000e+00,5.000000000000000000e+00,5.000000000000000000e+00,5.000000000000000000e+00,5.000000000000000000e+00,5.000000000000000000e+00,5.000000000000000000e+00,5.000000000000000000e+00,5.000000000000000000e+00,5.000000000000000000e+00,5.000000000000000000e+00,5.000000000000000000e+00,5.000000000000000000e+00,5.000000000000000000e+00,5.000000000000000000e+00,5.000000000000000000e+00,5.000000000000000000e+00,5.000000000000000000e+00,5.000000000000000000e+00,5.000000000000000000e+00,5.000000000000000000e+00,5.000000000000000000e+00,5.000000000000000000e+00,5.000000000000000000e+00,5.000000000000000000e+00,5.000000000000000000e+00,5.000000000000000000e+00,5.000000000000000000e+00,5.000000000000000000e+00,5.000000000000000000e+00,5.000000000000000000e+00,5.000000000000000000e+00,5.000000000000000000e+00,5.000000000000000000e+00,5.000000000000000000e+00,5.000000000000000000e+00,5.000000000000000000e+00,5.000000000000000000e+00,5.000000000000000000e+00,5.000000000000000000e+00,4.795781135559082031e+00,4.610189437866210938e+00,4.438427448272705078e+00,4.279004096984863281e+00,4.130636215209960938e+00,3.992212295532226562e+00,3.862765312194824219e+00,3.741449356079101562e+00,3.627521514892578125e+00,3.520326852798461914e+00,3.419285774230957031e+00,3.323909044265747070e+00,3.233725070953369141e+00,3.148305654525756836e+00,3.067282915115356445e+00,2.990320920944213867e+00,2.917097568511962891e+00,2.847374200820922852e+00,2.780906438827514648e+00,2.717470884323120117e+00,2.656864643096923828e+00,2.598902940750122070e+00,2.543416261672973633e+00,2.490249395370483398e+00
4.884020328521728516e+00,5.000000000000000000e+00,5.000000000000000000e+00,5.000000000000000000e+00,5.000000000000000000e+00,5.000000000000000000e+00,5.000000000000000000e+00,5.000000000000000000e+00,5.000000000000000000e+00,5.000000000000000000e+00,5.000000000000000000e+00,5.000000000000000000e+00,5.000000000000000000e+00,5.000000000000000000e+00,5.000000000000000000e+00,5.000000000000000000e+00,5.000000000000000000e+00,5.000000000000000000e+00,5.000000000000000000e+00,5.000000000000000000e+00,5.000000000000000000e+00,5.000000000000000000e+00,5.000000000000000000e+00,5.000000000000000000e+00,5.000000000000000000e+00,5.000000000000000000e+00,5.000000000000000000e+00,5.000000000000000000e+00,5.000000000000000000e+00,5.000000000000000000e+00,5.000000000000000000e+00,5.000000000000000000e+00,5.000000000000000000e+00,5.000000000000000000e+00,5.000000000000000000e+00,5.000000000000000000e+00,5.000000000000000000e+00,5.000000000000000000e+00,5.000000000000000000e+00,5.000000000000000000e+00,5.000000000000000000e+00,5.000000000000000000e+00,5.000000000000000000e+00,5.000000000000000000e+00,5.000000000000000000e+00,5.000000000000000000e+00,5.000000000000000000e+00,5.000000000000000000e+00,5.000000000000000000e+00,5.000000000000000000e+00,5.000000000000000000e+00,5.000000000000000000e+00,5.000000000000000000e+00,5.000000000000000000e+00,5.000000000000000000e+00,4.997112274169921875e+00,4.795937538146972656e+00,4.610334396362304688e+00,4.438561439514160156e+00,4.279128551483154297e+00,4.130752563476562500e+00,3.992321014404296875e+00,3.862867116928100586e+00,3.741544723510742188e+00,3.627611398696899414e+00,3.520444631576538086e+00,3.419442892074584961e+00,3.324074983596801758e+00,3.233882188796997070e+00,3.148446083068847656e+00,3.067378997802734375e+00,2.990381717681884766e+00,2.917155265808105469e+00,2.847429275512695312e+00,2.780958890914916992e+00,2.717520952224731445e+00,2.656912565231323242e+00,2.598948955535888672e+00,2.543460369110107422e+00,2.490291595458984375e+00
4.883893489837646484e+00,5.000000000000000000e+00,5.000000000000000000e+00,5.000000000000000000e+00,5.000000000000000000e+00,5.000000000000000000e+00,5.000000000000000000e+00,5.000000000000000000e+00,5.000000000000000000e+00,5.000000000000000000e+00,5.000000000000000000e+00,5.000000000000000000e+00,5.000000000000000000e+00,5.000000000000000000e+00,5.000000000000000000e+00,5.000000000000000000e+00,5.000000000000000000e+00,5.000000000000000000e+00,5.000000000000000000e+00,5.000000000000000000e+00,5.000000000000000000e+00,5.000000000000000000e+00,5.000000000000000000e+00,5.000000000000000000e+00,5.000000000000000000e+00,5.000000000000000000e+00,5.000000000000000000e+00,5.000000000000000000e+00,5.000000000000000000e+00,5.000000000000000000e+00,5.000000000000000000e+00,5.000000000000000000e+00,5.000000000000000000e+00,5.000000000000000000e+00,5.000000000000000000e+00,5.000000000000000000e+00,5.000000000000000000e+00,5.000000000000000000e+00,5.000000000000000000e+00,5.000000000000000000e+00,5.000000000000000000e+00,5.000000000000000000e+00,5.000000000000000000e+00,5.000000000000000000e+00,5.000000000000000000e+00,5.000000000000000000e+00,5.000000000000000000e+00,5.000000000000000000e+00,5.000000000000000000e+00,5.000000000000000000e+00,5.000000000000000000e+00,5.000000000000000000e+00,5.000000000000000000e+00,5.000000000000000000e+00,5.000000000000000000e+00,4.997282028198242188e+00,4.796093940734863281e+00,4.610478878021240234e+00,4.438695430755615234e+00,4.279253482818603516e+00,4.130868434906005859e+00,3.992429256439208984e+00,3.862968444824218750e+00,3.741682529449462891e+00,3.627792596817016602e+00,3.520630836486816406e+00,3.419618606567382812e+00,3.324227809906005859e+00,3.233985424041748047e+00,3.148513078689575195e+00,3.067442655563354492e+00,2.990442037582397461e+00,2.917212724685668945e+00,2.847484111785888672e+00,2.781011104583740234e+00,2.717571020126342773e+00,2.656960487365722656e+00,2.598994731903076172e+00,2.543503999710083008e+00,2.490333557128906250e+00
4.883766174316406250e+00,5.000000000000000000e+00,5.000000000000000000e+00,5.000000000000000000e+00,5.000000000000000000e+00,5.000000000000000000e+00,5.000000000000000000e+00,5.000000000000000000e+00,5.000000000000000000e+00,5.000000000000000000e+00,5.000000000000000000e+00,5.000000000000000000e+00,5.000000000000000000e+00,5.000000000000000000e+00,5.000000000000000000e+00,5.000000000000000000e+00,5.000000000000000000e+00,5.000000000000000000e+00,5.000000000000000000e+00,5.000000000000000000e+00,5.000000000000000000e+00,5.000000000000000000e+00,5.000000000000000000e+00,5.000000000000000000e+00,5.000000000000000000e+00,5.000000000000000000e+00,5.000000000000000000e+00,5.000000000000000000e+00,5.000000000000000000e+00,5.000000000000000000e+00,5.000000000000000000e+00,5.000000000000000000e+00,5.000000000000000000e+00,5.000000000000000000e+00,5.000000000000000000e+00,5.000000000000000000e+00,5.000000000000000000e+00,5.000000000000000000e+00,5.000000000000000000e+00,5.000000000000000000e+00,5.000000000000000000e+00,5.000000000000000000e+00,5.000000000000000000e+00,5.000000000000000000e+00,5.000000000000000000e+00,5.000000000000000000e+00,3.394814252853393555e+00,5.000000000000000000e+00,5.000000000000000000e+00,5.000000000000000000e+00,5.000000000000000000e+00,5.000000000000000000e+00,5.000000000000000000e+00,5.000000000000000000e+00,5.000000000000000000e+00,4.997451782226562500e+00,4.796250820159912109e+00,4.610623836517333984e+00,4.438829898834228516e+00,4.279377937316894531e+00,4.130984783172607422e+00,3.992591381072998047e+00,3.863178968429565430e+00,3.741892337799072266e+00,3.627989768981933594e+00,3.520798683166503906e+00,3.419730424880981445e+00,3.324302911758422852e+00,3.234056472778320312e+00,3.148580551147460938e+00,3.067506551742553711e+00,2.990502834320068359e+00,2.917270660400390625e+00,2.847539186477661133e+00,2.781063795089721680e+00,2.717621088027954102e+00,2.657008409500122070e+00,2.599040508270263672e+00,2.543548107147216797e+00,2.490375518798828125e+00
4.883639335632324219e+00,5.000000000000000000e+00,5.000000000000000000e+00,5.000000000000000000e+00,5.000000000000000000e+00,5.000000000000000000e+00,5.000000000000000000e+00,5.000000000000000000e+00,5.000000000000000000e+00,5.000000000000000000e+00,5.000000000000000000e+00,5.000000000000000000e+00,5.000000000000000000e+00,5.000000000000000000e+00,5.000000000000000000e+00,5.000000000000000000e+00,5.000000000000000000e+00,5.000000000000000000e+00,5.000000000000000000e+00,5.000000000000000000e+00,5.000000000000000000e+00,5.000000000000000000e+00,5.000000000000000000e+00,5.000000000000000000e+00,5.000000000000000000e+00,5.000000000000000000e+00,5.000000000000000000e+00,5.000000000000000000e+00,5.000000000000000000e+00,5.000000000000000000e+00,5.000000000000000000e+00,5.000000000000000000e+00,5.000000000000000000e+00,5.000000000000000000e+00,5.000000000000000000e+00,5.000000000000000000e+00,5.000000000000000000e+00,5.000000000000000000e+00,5.000000000000000000e+00,5.000000000000000000e+00,5.000000000000000000e+00,5.000000000000000000e+00,5.000000000000000000e+00,5.000000000000000000e+00,5.000000000000000000e+00,3.411496400833129883e+00,3.381212711334228516e+00,3.428194522857666016e+00,5.000000000000000000e+00,5.000000000000000000e+00,5.000000000000000000e+00,5.000000000000000000e+00,5.000000000000000000e+00,5.000000000000000000e+00,5.000000000000000000e+00,4.997622013092041016e+00,4.796407699584960938e+00,4.610768318176269531e+00,4.438963890075683594e+00,4.279570102691650391e+00,4.131230831146240234e+00,3.992830753326416016e+00,3.863403081893920898e+00,3.742077589035034180e+00,3.628111839294433594e+00,3.520882606506347656e+00,3.419809579849243164e+00,3.324377536773681641e+00,3.234127283096313477e+00,3.148647546768188477e+00,3.067570209503173828e+00,2.990563392639160156e+00,2.917328357696533203e+00,2.847594022750854492e+00,2.781116008758544922e+00,2.717671155929565430e+00,2.657056093215942383e+00,2.599086284637451172e+00,2.543591737747192383e+00,2.490417480468750000e+00
4.883512496948242188e+00,5.000000000000000000e+00,5.000000000000000000e+00,5.000000000000000000e+00,5.000000000000000000e+00,5.000000000000000000e+00,5.000000000000000000e+00,5.000000000000000000e+00,5.000000000000000000e+00,5.000000000000000000e+00,5.000000000000000000e+00,5.000000000000000000e+00,5.000000000000000000e+00,5.000000000000000000e+00,5.000000000000000000e+00,5.000000000000000000e+00,5.000000000000000000e+00,5.000000000000000000e+00,5.000000000000000000e+00,5.000000000000000000e+00,5.000000000000000000e+00,5.000000000000000000e+00,5.000000000000000000e+00,5.000000000000000000e+00,5.000000000000000000e+00,5.000000000000000000e+00,5.000000000000000000e+00,5.000000000000000000e+00,5.000000000000000000e+00,5.000000000000000000e+00,5.000000000000000000e+00,5.000000000000000000e+00,5.000000000000000000e+00,5.000000000000000000e+00,5.000000000000000000e+00,5.000000000000000000e+00,5.000000000000000000e+00,5.000000000000000000e+00,5.000000000000000000e+00,5.000000000000000000e+00,5.000000000000000000e+00,5.000000000000000000e+00,5.000000000000000000e+00,5.000000000000000000e+00,5.000000000000000000e+00,3.403309345245361328e+00,3.378875494003295898e+00,3.434109926223754883e+00,5.000000000000000000e+00,5.000000000000000000e+00,5.000000000000000000e+00,5.000000000000000000e+00,5.000000000000000000e+00,5.000000000000000000e+00,5.000000000000000000e+00,4.997792243957519531e+00,4.796566009521484375e+00,4.610998630523681641e+00,4.439254760742187500e+00,4.279845237731933594e+00,4.131487369537353516e+00,3.993036985397338867e+00,3.863536834716796875e+00,3.742172718048095703e+00,3.628201246261596680e+00,3.520966768264770508e+00,3.419888973236083984e+00,3.324452638626098633e+00,3.234198331832885742e+00,3.148715019226074219e+00,3.067634105682373047e+00,2.990624189376831055e+00,2.917386054992675781e+00,2.847649097442626953e+00,2.781168699264526367e+00,2.717721223831176758e+00,2.657104015350341797e+00,2.599132061004638672e+00,2.543635845184326172e+00,2.490459680557250977e+00
4.883385658264160156e+00,5.000000000000000000e+00,5.000000000000000000e+00,5.000000000000000000e+00,5.000000000000000000e+00,5.000000000000000000e+00,5.000000000000000000e+00,5.000000000000000000e+00,5.000000000000000000e+00,5.000000000000000000e+00,5.000000000000000000e+00,5.000000000000000000e+00,5.000000000000000000e+00,5.000000000000000000e+00,5.000000000000000000e+00,5.000000000000000000e+00,5.000000000000000000e+00,5.000000000000000000e+00,5.000000000000000000e+00,5.000000000000000000e+00,5.000000000000000000e+00,5.000000000000000000e+00,5.000000000000000000e+00,5.000000000000000000e+00,5.000000000000000000e+00,5.000000000000000000e+00,5.000000000000000000e+00,5.000000000000000000e+00,5.000000000000000000e+00,5.000000000000000000e+00,5.000000000000000000e+00,5.000000000000000000e+00,5.000000000000000000e+00,5.000000000000000000e+00,5.000000000000000000e+00,5.000000000000000000e+00,5.000000000000000000e+00,5.000000000000000000e+00,5.000000000000000000e+00,5.000000000000000000e+00,5.000000000000000000e+00,5.000000000000000000e+00,5.000000000000000000e+00,5.000000000000000000e+00,5.000000000000000000e+00,3.385818719863891602e+00,3.367675542831420898e+00,5.000000000000000000e+00,5.000000000000000000e+00,5.000000000000000000e+00,5.000000000000000000e+00,5.000000000000000000e+00,5.000000000000000000e+00,5.000000000000000000e+00,5.000000000000000000e+00,4.998070716857910156e+00,4.796911239624023438e+00,4.611317634582519531e+00,4.439550876617431641e+00,4.280076503753662109e+00,4.131635189056396484e+00,3.993145227432250977e+00,3.863638401031494141e+00,3.742267847061157227e+00,3.628290653228759766e+00,3.521050930023193359e+00,3.419968366622924805e+00,3.324527740478515625e+00,3.234269380569458008e+00,3.148782253265380859e+00,3.067698001861572266e+00,2.990684986114501953e+00,2.917443990707397461e+00,2.847704410552978516e+00,2.781221151351928711e+00,2.717771530151367188e+00,2.657152175903320312e+00,2.599178075790405273e+00,2.543679714202880859e+00,2.490501880645751953e+00
4.883270263671875000e+00,5.000000000000000000e+00,5.000000000000000000e+00,5.000000000000000000e+00,5.000000000000000000e+00,5.000000000000000000e+00,5.000000000000000000e+00,5.000000000000000000e+00,5.000000000000000000e+00,5.000000000000000000e+00,5.000000000000000000e+00,5.000000000000000000e+00,5.000000000000000000e+00,5.000000000000000000e+00,5.000000000000000000e+00,5.000000000000000000e+00,5.000000000000000000e+00,5.000000000000000000e+00,5.000000000000000000e+00,5.000000000000000000e+00,5.000000000000000000e+00,5.000000000000000000e+00,5.000000000000000000e+00,5.000000000000000000e+00,5.000000000000000000e+00,5.000000000000000000e+00,5.000000000000000000e+00,5.000000000000000000e+00,5.000000000000000000e+00,5.000000000000000000e+00,5.000000000000000000e+00,5.000000000000000000e+00,5.000000000000000000e+00,5.000000000000000000e+00,5.000000000000000000e+00,5.000000000000000000e+00,5.000000000000000000e+00,5.000000000000000000e+00,5.000000000000000000e+00,5.000000000000000000e+00,5.000000000000000000e+00,5.000000000000000000e+00,5.000000000000000000e+00,3.411793470382690430e+00,3.385382890701293945e+00,3.363340139389038086e+00,3.350647926330566406e+00,3.332675695419311523e+00,3.330646276473999023e+00,3.329615116119384766e+00,5.000000000000000000e+00,5.000000000000000000e+00,5.000000000000000000e+00,5.000000000000000000e+00,5.000000000000000000e+00,4.998445987701416016e+00,4.797256946563720703e+00,4.611579895019531250e+00,4.439715385437011719e+00,4.280200958251953125e+00,4.131751060485839844e+00,3.993253231048583984e+00,3.863739252090454102e+00,3.742362737655639648e+00,3.628379821777343750e+00,3.521134853363037109e+00,3.420047521591186523e+00,3.324602603912353516e+00,3.234340190887451172e+00,3.148849248886108398e+00,3.067761659622192383e+00,2.990745544433593750e+00,2.917501449584960938e+00,2.847759246826171875e+00,2.781273603439331055e+00,2.717821359634399414e+00,2.657199859619140625e+00,2.599223852157592773e+00,2.543723583221435547e+00,2.490543842315673828e+00
4.883157253265380859e+00,5.000000000000000000e+00,5.000000000000000000e+00,5.000000000000000000e+00,5.000000000000000000e+00,5.000000000000000000e+00,5.000000000000000000e+00,5.000000000000000000e+00,5.000000000000000000e+00,5.000000000000000000e+00,5.000000000000000000e+00,5.000000000000000000e+00,5.000000000000000000e+00,5.000000000000000000e+00,5.000000000000000000e+00,5.000000000000000000e+00,5.000000000000000000e+00,5.000000000000000000e+00,5.000000000000000000e+00,5.000000000000000000e+00,5.000000000000000000e+00,5.000000000000000000e+00,5.000000000000000000e+00,5.000000000000000000e+00,5.000000000000000000e+00,5.000000000000000000e+00,5.000000000000000000e+00,5.000000000000000000e+00,5.000000000000000000e+00,5.000000000000000000e+00,5.000000000000000000e+00,5.000000000000000000e+00,5.000000000000000000e+00,5.000000000000000000e+00,5.000000000000000000e+00,5.000000000000000000e+00,5.000000000000000000e+00,5.000000000000000000e+00,5.000000000000000000e+00,5.000000000000000000e+00,5.000000000000000000e+00,5.000000000000000000e+00,3.428897619247436523e+00,3.392402648925781250e+00,3.360793828964233398e+00,3.339247226715087891e+00,3.327422142028808594e+00,3.314930438995361328e+00,3.304666996002197266e+00,3.304285287857055664e+00,3.332015037536621094e+00,5.000000000000000000e+00,5.000000000000000000e+00,5.000000000000000000e+00,5.000000000000000000e+00,4.998746395111083984e+00,4.797442436218261719e+00,4.611724376678466797e+00,4.439849376678466797e+00,4.280325412750244141e+00,4.131866931915283203e+00,3.993361473083496094e+00,3.863840818405151367e+00,3.742457866668701172e+00,3.628469228744506836e+00,3.521219015121459961e+00,3.420126914978027344e+00,3.324677705764770508e+00,3.234411239624023438e+00,3.148916721343994141e+00,3.067825555801391602e+00,2.990806341171264648e+00,2.917559385299682617e+00,2.847814321517944336e+00,2.781326055526733398e+00,2.717871665954589844e+00,2.657247781753540039e+00,2.599269628524780273e+00,2.543767452239990234e+00,2.490586042404174805e+00
4.883044242858886719e+00,5.000000000000000000e+00,5.000000000000000000e+00,5.000000000000000000e+00,5.000000000000000000e+00,5.000000000000000000e+00,5.000000000000000000e+00,5.000000000000000000e+00,5.000000000000000000e+00,5.000000000000000000e+00,5.000000000000000000e+00,5.000000000000000000e+00,5.000000000000000000e+00,5.000000000000000000e+00,5.000000000000000000e+00,5.000000000000000000e+00,5.000000000000000000e+00,5.000000000000000000e+00,5.000000000000000000e+00,5.000000000000000000e+00,5.000000000000000000e+00,5.000000000000000000e+00,5.000000000000000000e+00,5.000000000000000000e+00,5.000000000000000000e+00,5.000000000000000000e+00,5.000000000000000000e+00,5.000000000000000000e+00,5.000000000000000000e+00,5.000000000000000000e+00,5.000000000000000000e+00,5.000000000000000000e+00,5.000000000000000000e+00,5.000000000000000000e+00,5.000000000000000000e+00,5.000000000000000000e+00,5.000000000000000000e+00,5.000000000000000000e+00,5.000000000000000000e+00,5.000000000000000000e+00,5.000000000000000000e+00,5.000000000000000000e+00,3.425420045852661133e+00,3.400390863418579102e+00,3.363568544387817383e+00,3.343178749084472656e+00,3.331457614898681641e+00,3.318808078765869141e+00,3.317173004150390625e+00,3.326438665390014648e+00,3.343546152114868164e+00,5.000000000000000000e+00,5.000000000000000000e+00,5.000000000000000000e+00,5.000000000000000000e+00,4.998916149139404297e+00,4.797598838806152344e+00,4.611868858337402344e+00,4.439982891082763672e+00,4.280449390411376953e+00,4.131982803344726562e+00,3.993469953536987305e+00,3.863942146301269531e+00,3.742552995681762695e+00,3.628558635711669922e+00,3.521303415298461914e+00,3.420206546783447266e+00,3.324752807617187500e+00,3.234482288360595703e+00,3.148984193801879883e+00,3.067889690399169922e+00,2.990867137908935547e+00,2.917617082595825195e+00,2.847869396209716797e+00,2.781378746032714844e+00,2.717921733856201172e+00,2.657295703887939453e+00,2.599315643310546875e+00,2.543811321258544922e+00,2.490628004074096680e+00
4.882930755615234375e+00,5.000000000000000000e+00,5.000000000000000000e+00,5.000000000000000000e+00,5.000000000000000000e+00,5.000000000000000000e+00,5.000000000000000000e+00,5.000000000000000000e+00,5.000000000000000000e+00,5.000000000000000000e+00,5.000000000000000000e+00,5.000000000000000000e+00,5.000000000000000000e+00,5.000000000000000000e+00,5.000000000000000000e+00,5.000000000000000000e+00,5.000000000000000000e+00,5.000000000000000000e+00,5.000000000000000000e+00,5.000000000000000000e+00,5.000000000000000000e+00,5.000000000000000000e+00,5.000000000000000000e+00,5.000000000000000000e+00,5.000000000000000000e+00,5.000000000000000000e+00,5.000000000000000000e+00,5.000000000000000000e+00,5.000000000000000000e+00,5.000000000000000000e+00,5.000000000000000000e+00,5.000000000000000000e+00,5.000000000000000000e+00,5.000000000000000000e+00,5.000000000000000000e+00,5.000000000000000000e+00,5.000000000000000000e+00,5.000000000000000000e+00,5.000000000000000000e+00,5.000000000000000000e+00,5.000000000000000000e+00,5.000000000000000000e+00,3.423489809036254883e+00,3.437787771224975586e+00,3.373760223388671875e+00,3.352068901062011719e+00,3.336776018142700195e+00,3.327576398849487305e+00,3.337524175643920898e+00,3.324051141738891602e+00,5.000000000000000000e+00,5.000000000000000000e+00,5.000000000000000000e+00,5.000000000000000000e+00,5.000000000000000000e+00,4.999085426330566406e+00,4.797754764556884766e+00,4.612012863159179688e+00,4.440116882324218750e+00,4.280573844909667969e+00,4.132098197937011719e+00,3.993577718734741211e+00,3.864043235778808594e+00,3.742647886276245117e+00,3.628647804260253906e+00,3.521387338638305664e+00,3.420285701751708984e+00,3.324827432632446289e+00,3.234553098678588867e+00,3.149051189422607422e+00,3.067953348159790039e+00,2.990927457809448242e+00,2.917674779891967773e+00,2.847924232482910156e+00,2.781430959701538086e+00,2.717971801757812500e+00,2.657343626022338867e+00,2.599361181259155273e+00,2.543855190277099609e+00,2.490669965744018555e+00
4.882818222045898438e+00,5.000000000000000000e+00,5.000000000000000000e+00,5.000000000000000000e+00,5.000000000000000000e+00,5.000000000000000000e+00,5.000000000000000000e+00,5.000000000000000000e+00,5.000000000000000000e+00,5.000000000000000000e+00,5.000000000000000000e+00,5.000000000000000000e+00,5.000000000000000000e+00,5.000000000000000000e+00,5.000000000000000000e+00,5.000000000000000000e+00,5.000000000000000000e+00,5.000000000000000000e+00,5.000000000000000000e+00,5.000000000000000000e+00,5.000000000000000000e+00,5.000000000000000000e+00,5.000000000000000000e+00,5.000000000000000000e+00,5.000000000000000000e+00,5.000000000000000000e+00,5.000000000000000000e+00,5.000000000000000000e+00,5.000000000000000000e+00,5.000000000000000000e+00,5.000000000000000000e+00,5.000000000000000000e+00,5.000000000000000000e+00,5.000000000000000000e+00,5.000000000000000000e+00,5.000000000000000000e+00,5.000000000000000000e+00,5.000000000000000000e+00,5.000000000000000000e+00,5.000000000000000000e+00,5.000000000000000000e+00,5.000000000000000000e+00,3.421303749084472656e+00,3.437410116195678711e+00,3.393466472625732422e+00,3.373816013336181641e+00,3.361840486526489258e+00,3.348898887634277344e+00,3.351381301879882812e+00,3.327999830245971680e+00,5.000000000000000000e+00,5.000000000000000000e+00,5.000000000000000000e+00,5.000000000000000000e+00,5.000000000000000000e+00,4.999254703521728516e+00,4.797910690307617188e+00,4.612156867980957031e+00,4.440250396728515625e+00,4.280697822570800781e+00,4.132214069366455078e+00,3.993686199188232422e+00,3.864144802093505859e+00,3.742743015289306641e+00,3.628737211227416992e+00,3.521471500396728516e+00,3.420365095138549805e+00,3.324902534484863281e+00,3.234624147415161133e+00,3.149118661880493164e+00,3.068017244338989258e+00,2.990988254547119141e+00,2.917732715606689453e+00,2.847979307174682617e+00,2.781483650207519531e+00,2.718021869659423828e+00,2.657391548156738281e+00,2.599407196044921875e+00,2.543899297714233398e+00,2.490712165832519531e+00
4.882705211639404297e+00,5.000000000000000000e+00,5.000000000000000000e+00,5.000000000000000000e+00,5.000000000000000000e+00,5.000000000000000000e+00,5.000000000000000000e+00,5.000000000000000000e+00,5.000000000000000000e+00,5.000000000000000000e+00,5.000000000000000000e+00,5.000000000000000000e+00,5.000000000000000000e+00,5.000000000000000000e+00,5.000000000000000000e+00,5.000000000000000000e+00,5.000000000000000000e+00,5.000000000000000000e+00,5.000000000000000000e+00,5.000000000000000000e+00,5.000000000000000000e+00,5.000000000000000000e+00,5.000000000000000000e+00,5.000000000000000000e+00,5.000000000000000000e+00,5.000000000000000000e+00,5.000000000000000000e+00,5.000000000000000000e+00,5.000000000000000000e+00,5.000000000000000000e+00,5.000000000000000000e+00,5.000000000000000000e+00,5.000000000000000000e+00,5.000000000000000000e+00,5.000000000000000000e+00,5.000000000000000000e+00,5.000000000000000000e+00,5.000000000000000000e+00,5.000000000000000000e+00,5.000000000000000000e+00,5.000000000000000000e+00,5.000000000000000000e+00,3.418591499328613281e+00,3.441271066665649414e+00,3.416728019714355469e+00,3.388302087783813477e+00,3.375051259994506836e+00,3.363283395767211914e+00,3.386006832122802734e+00,3.331502914428710938e+00,5.000000000000000000e+00,5.000000000000000000e+00,5.000000000000000000e+00,5.000000000000000000e+00,5.000000000000000000e+00,4.999424934387207031e+00,4.798067092895507812e+00,4.612301826477050781e+00,4.440384387969970703e+00,4.280822277069091797e+00,4.132329940795898438e+00,3.993794441223144531e+00,3.864246129989624023e+00,3.742838144302368164e+00,3.628826618194580078e+00,3.521555662155151367e+00,3.420444726943969727e+00,3.324977636337280273e+00,3.234695196151733398e+00,3.149185895919799805e+00,3.068081140518188477e+00,2.991049051284790039e+00,2.917790412902832031e+00,2.848034381866455078e+00,2.781536102294921875e+00,2.718072175979614258e+00,2.657439470291137695e+00,2.599453210830688477e+00,2.543943166732788086e+00,2.490754365921020508e+00
4.882591724395751953e+00,5.000000000000000000e+00,5.000000000000000000e+00,5.000000000000000000e+00,5.000000000000000000e+00,5.000000000000000000e+00,5.000000000000000000e+00,5.000000000000000000e+00,5.000000000000000000e+00,5.000000000000000000e+00,5.000000000000000000e+00,5.000000000000000000e+00,5.000000000000000000e+00,5.000000000000000000e+00,5.000000000000000000e+00,5.000000000000000000e+00,5.000000000000000000e+00,5.000000000000000000e+00,5.000000000000000000e+00,5.000000000000000000e+00,5.000000000000000000e+00,5.000000000000000000e+00,5.000000000000000000e+00,5.000000000000000000e+00,5.000000000000000000e+00,5.000000000000000000e+00,5.000000000000000000e+00,5.000000000000000000e+00,5.000000000000000000e+00,5.000000000000000000e+00,5.000000000000000000e+00,5.000000000000000000e+00,5.000000000000000000e+00,5.000000000000000000e+00,5.000000000000000000e+00,5.000000000000000000e+00,5.000000000000000000e+00,5.000000000000000000e+00,5.000000000000000000e+00,5.000000000000000000e+00,5.000000000000000000e+00,5.000000000000000000e+00,3.415133953094482422e+00,3.435373067855834961e+00,3.412021636962890625e+00,3.376513719558715820e+00,3.358065128326416016e+00,3.348253726959228516e+00,3.353701591491699219e+00,3.335157155990600586e+00,5.000000000000000000e+00,5.000000000000000000e+00,5.000000000000000000e+00,5.000000000000000000e+00,5.000000000000000000e+00,4.999594211578369141e+00,4.798223495483398438e+00,4.612445831298828125e+00,4.440517902374267578e+00,4.280946731567382812e+00,4.132445812225341797e+00,3.993902444839477539e+00,3.864347219467163086e+00,3.742932796478271484e+00,3.628915786743164062e+00,3.521639585494995117e+00,3.420523881912231445e+00,3.325052499771118164e+00,3.234766006469726562e+00,3.149253129959106445e+00,3.068144798278808594e+00,2.991109609603881836e+00,2.917848110198974609e+00,2.848089456558227539e+00,2.781588554382324219e+00,2.718122243881225586e+00,2.657487392425537109e+00,2.599498748779296875e+00,2.543987035751342773e+00,2.490796327590942383e+00
4.882478713989257812e+00,5.000000000000000000e+00,5.000000000000000000e+00,5.000000000000000000e+00,5.000000000000000000e+00,5.000000000000000000e+00,5.000000000000000000e+00,5.000000000000000000e+00,5.000000000000000000e+00,5.000000000000000000e+00,5.000000000000000000e+00,5.000000000000000000e+00,5.000000000000000000e+00,5.000000000000000000e+00,5.000000000000000000e+00,5.000000000000000000e+00,5.000000000000000000e+00,5.000000000000000000e+00,5.000000000000000000e+00,5.000000000000000000e+00,5.000000000000000000e+00,5.000000000000000000e+00,5.000000000000000000e+00,5.000000000000000000e+00,5.000000000000000000e+00,5.000000000000000000e+00,5.000000000000000000e+00,5.000000000000000000e+00,5.000000000000000000e+00,5.000000000000000000e+00,5.000000000000000000e+00,5.000000000000000000e+00,5.000000000000000000e+00,5.000000000000000000e+00,5.000000000000000000e+00,5.000000000000000000e+00,5.000000000000000000e+00,5.000000000000000000e+00,5.000000000000000000e+00,5.000000000000000000e+00,5.000000000000000000e+00,5.000000000000000000e+00,3.431680440902709961e+00,3.454577684402465820e+00,3.400083541870117188e+00,3.359440088272094727e+00,3.338889598846435547e+00,3.322767496109008789e+00,3.344380140304565430e+00,3.349426031112670898e+00,5.000000000000000000e+00,5.000000000000000000e+00,5.000000000000000000e+00,5.000000000000000000e+00,5.000000000000000000e+00,4.999754905700683594e+00,4.798372745513916016e+00,4.612585544586181641e+00,4.440649032592773438e+00,4.281069755554199219e+00,4.132561683654785156e+00,3.994010925292968750e+00,3.864448547363281250e+00,3.743028163909912109e+00,3.629005193710327148e+00,3.521723985671997070e+00,3.420603275299072266e+00,3.325127601623535156e+00,3.234837293624877930e+00,3.149320363998413086e+00,3.068208932876586914e+00,2.991170406341552734e+00,2.917905807495117188e+00,2.848144531250000000e+00,2.781641006469726562e+00,2.718172311782836914e+00,2.657535314559936523e+00,2.599544763565063477e+00,2.544030904769897461e+00,2.490838527679443359e+00
4.882365226745605469e+00,5.000000000000000000e+00,5.000000000000000000e+00,5.000000000000000000e+00,5.000000000000000000e+00,5.000000000000000000e+00,5.000000000000000000e+00,5.000000000000000000e+00,5.000000000000000000e+00,5.000000000000000000e+00,5.000000000000000000e+00,5.000000000000000000e+00,5.000000000000000000e+00,5.000000000000000000e+00,5.000000000000000000e+00,5.000000000000000000e+00,5.000000000000000000e+00,5.000000000000000000e+00,5.000000000000000000e+00,5.000000000000000000e+00,5.000000000000000000e+00,5.000000000000000000e+00,5.000000000000000000e+00,5.000000000000000000e+00,5.000000000000000000e+00,5.000000000000000000e+00,5.000000000000000000e+00,5.000000000000000000e+00,5.000000000000000000e+00,5.000000000000000000e+00,5.000000000000000000e+00,5.000000000000000000e+00,5.000000000000000000e+00,5.000000000000000000e+00,5.000000000000000000e+00,5.000000000000000000e+00,5.000000000000000000e+00,5.000000000000000000e+00,5.000000000000000000e+00,5.000000000000000000e+00,5.000000000000000000e+00,5.000000000000000000e+00,3.457721233367919922e+00,5.000000000000000000e+00,3.390412330627441406e+00,3.350157022476196289e+00,3.341340541839599609e+00,3.310397386550903320e+00,3.333349704742431641e+00,3.375732421875000000e+00,5.000000000000000000e+00,5.000000000000000000e+00,5.000000000000000000e+00,5.000000000000000000e+00,5.000000000000000000e+00,4.999911785125732422e+00,4.798517704010009766e+00,4.612719535827636719e+00,4.440773010253906250e+00,4.281185150146484375e+00,4.132669448852539062e+00,3.994112491607666016e+00,3.864545345306396484e+00,3.743119478225708008e+00,3.629092454910278320e+00,3.521806716918945312e+00,3.420682430267333984e+00,3.325202703475952148e+00,3.234908342361450195e+00,3.149387836456298828e+00,3.068272829055786133e+00,2.991231203079223633e+00,2.917963743209838867e+00,2.848199605941772461e+00,2.781693696975708008e+00,2.718222618103027344e+00,2.657583236694335938e+00,2.599590539932250977e+00,2.544074773788452148e+00,2.490880727767944336e+00
4.882252216339111328e+00,5.000000000000000000e+00,5.000000000000000000e+00,5.000000000000000000e+00,5.000000000000000000e+00,5.000000000000000000e+00,5.000000000000000000e+00,5.000000000000000000e+00,5.000000000000000000e+00,5.000000000000000000e+00,5.000000000000000000e+00,5.000000000000000000e+00,5.000000000000000000e+00,5.000000000000000000e+00,5.000000000000000000e+00,5.000000000000000000e+00,5.000000000000000000e+00,5.000000000000000000e+00,5.000000000000000000e+00,5.000000000000000000e+00,5.000000000000000000e+00,5.000000000000000000e+00,5.000000000000000000e+00,5.000000000000000000e+00,5.000000000000000000e+00,5.000000000000000000e+00,5.000000000000000000e+00,5.000000000000000000e+00,5.000000000000000000e+00,5.000000000000000000e+00,5.000000000000000000e+00,5.000000000000000000e+00,5.000000000000000000e+00,5.000000000000000000e+00,5.000000000000000000e+00,5.000000000000000000e+00,5.000000000000000000e+00,5.000000000000000000e+00,5.000000000000000000e+00,5.000000000000000000e+00,5.000000000000000000e+00,5.000000000000000000e+00,3.479684829711914062e+00,5.000000000000000000e+00,3.398351669311523438e+00,3.365381479263305664e+00,3.392224311828613281e+00,3.318674564361572266e+00,3.345757484436035156e+00,3.407866716384887695e+00,3.432019948959350586e+00,5.000000000000000000e+00,5.000000000000000000e+00,5.000000000000000000e+00,5.000000000000000000e+00,5.000000000000000000e+00,4.798662662506103516e+00,4.612853050231933594e+00,4.440896987915039062e+00,4.281300544738769531e+00,4.132777214050292969e+00,3.994212865829467773e+00,3.864639043807983398e+00,3.743207693099975586e+00,3.629175186157226562e+00,3.521884679794311523e+00,3.420756101608276367e+00,3.325272560119628906e+00,3.234975337982177734e+00,3.149451971054077148e+00,3.068334579467773438e+00,2.991290330886840820e+00,2.918020963668823242e+00,2.848254442214965820e+00,2.781745910644531250e+00,2.718272447586059570e+00,2.657631158828735352e+00,2.599636316299438477e+00,2.544118642807006836e+00,2.490922689437866211e+00
4.882139682769775391e+00,5.000000000000000000e+00,5.000000000000000000e+00,5.000000000000000000e+00,5.000000000000000000e+00,5.000000000000000000e+00,5.000000000000000000e+00,5.000000000000000000e+00,5.000000000000000000e+00,5.000000000000000000e+00,5.000000000000000000e+00,5.000000000000000000e+00,5.000000000000000000e+00,5.000000000000000000e+00,5.000000000000000000e+00,5.000000000000000000e+00,5.000000000000000000e+00,5.000000000000000000e+00,5.000000000000000000e+00,5.000000000000000000e+00,5.000000000000000000e+00,5.000000000000000000e+00,5.000000000000000000e+00,5.000000000000000000e+00,5.000000000000000000e+00,5.000000000000000000e+00,5.000000000000000000e+00,5.000000000000000000e+00,5.000000000000000000e+00,5.000000000000000000e+00,5.000000000000000000e+00,5.000000000000000000e+00,5.000000000000000000e+00,5.000000000000000000e+00,5.000000000000000000e+00,5.000000000000000000e+00,5.000000000000000000e+00,5.000000000000000000e+00,5.000000000000000000e+00,5.000000000000000000e+00,5.000000000000000000e+00,5.000000000000000000e+00,3.516790151596069336e+00,5.000000000000000000e+00,3.439415454864501953e+00,3.396238088607788086e+00,3.389546871185302734e+00,3.358209133148193359e+00,3.369261980056762695e+00,3.459528446197509766e+00,3.434417963027954102e+00,5.000000000000000000e+00,5.000000000000000000e+00,5.000000000000000000e+00,5.000000000000000000e+00,5.000000000000000000e+00,4.798807144165039062e+00,4.612987518310546875e+00,4.441021442413330078e+00,4.281415939331054688e+00,4.132884502410888672e+00,3.994313240051269531e+00,3.864732980728149414e+00,3.743295669555664062e+00,3.629258155822753906e+00,3.521962642669677734e+00,3.420829534530639648e+00,3.325342178344726562e+00,3.235041141510009766e+00,3.149514436721801758e+00,3.068393707275390625e+00,2.991346597671508789e+00,2.918074369430541992e+00,2.848305702209472656e+00,2.781795263290405273e+00,2.718320369720458984e+00,2.657677173614501953e+00,2.599681138992309570e+00,2.544161796569824219e+00,2.490964651107788086e+00
4.882026195526123047e+00,5.000000000000000000e+00,5.000000000000000000e+00,5.000000000000000000e+00,5.000000000000000000e+00,5.000000000000000000e+00,5.000000000000000000e+00,5.000000000000000000e+00,5.000000000000000000e+00,5.000000000000000000e+00,5.000000000000000000e+00,5.000000000000000000e+00,5.000000000000000000e+00,5.000000000000000000e+00,5.000000000000000000e+00,5.000000000000000000e+00,5.000000000000000000e+00,5.000000000000000000e+00,5.000000000000000000e+00,5.000000000000000000e+00,5.000000000000000000e+00,5.000000000000000000e+00,5.000000000000000000e+00,5.000000000000000000e+00,5.000000000000000000e+00,5.000000000000000000e+00,5.000000000000000000e+00,5.000000000000000000e+00,5.000000000000000000e+00,5.000000000000000000e+00,5.000000000000000000e+00,5.000000000000000000e+00,5.000000000000000000e+00,5.000000000000000000e+00,5.000000000000000000e+00,5.000000000000000000e+00,5.000000000000000000e+00,5.000000000000000000e+00,5.000000000000000000e+00,5.000000000000000000e+00,5.000000000000000000e+00,5.000000000000000000e+00,3.544364213943481445e+00,3.567802429199218750e+00,3.500828742980957031e+00,3.473554611206054688e+00,3.417717695236206055e+00,3.380388498306274414e+00,3.383534908294677734e+00,3.497847080230712891e+00,3.445459127426147461e+00,5.000000000000000000e+00,5.000000000000000000e+00,5.000000000000000000e+00,5.000000000000000000e+00,5.000000000000000000e+00,4.798952579498291016e+00,4.613121032714843750e+00,4.441145420074462891e+00,4.281531333923339844e+00,4.132991790771484375e+00,3.994413614273071289e+00,3.864826917648315430e+00,3.743383884429931641e+00,3.629340887069702148e+00,3.522040843963623047e+00,3.420903205871582031e+00,3.325411796569824219e+00,3.235106945037841797e+00,3.149576663970947266e+00,3.068452835083007812e+00,2.991403341293334961e+00,2.918128013610839844e+00,2.848356723785400391e+00,2.781843900680541992e+00,2.718366861343383789e+00,2.657721519470214844e+00,2.599723577499389648e+00,2.544202566146850586e+00,2.491003751754760742e+00
4.881913185119628906e+00,5.000000000000000000e+00,5.000000000000000000e+00,5.000000000000000000e+00,5.000000000000000000e+00,5.000000000000000000e+00,5.000000000000000000e+00,5.000000000000000000e+00,5.000000000000000000e+00,5.000000000000000000e+00,5.000000000000000000e+00,5.000000000000000000e+00,5.000000000000000000e+00,5.000000000000000000e+00,5.000000000000000000e+00,5.000000000000000000e+00,5.000000000000000000e+00,5.000000000000000000e+00,5.000000000000000000e+00,5.000000000000000000e+00,5.000000000000000000e+00,5.000000000000000000e+00,5.000000000000000000e+00,5.000000000000000000e+00,5.000000000000000000e+00,5.000000000000000000e+00,5.000000000000000000e+00,5.000000000000000000e+00,5.000000000000000000e+00,5.000000000000000000e+00,5.000000000000000000e+00,5.000000000000000000e+00,5.000000000000000000e+00,5.000000000000000000e+00,5.000000000000000000e+00,5.000000000000000000e+00,5.000000000000000000e+00,5.000000000000000000e+00,5.000000000000000000e+00,5.000000000000000000e+00,5.000000000000000000e+00,5.000000000000000000e+00,3.584682941436767578e+00,5.000000000000000000e+00,3.542015552520751953e+00,3.521169185638427734e+00,3.422042608261108398e+00,3.382442235946655273e+00,3.395159959793090820e+00,5.000000000000000000e+00,3.456583738327026367e+00,5.000000000000000000e+00,5.000000000000000000e+00,5.000000000000000000e+00,5.000000000000000000e+00,5.000000000000000000e+00,4.799097061157226562e+00,4.613255023956298828e+00,4.441269397735595703e+00,4.281646251678466797e+00,4.133099079132080078e+00,3.994513988494873047e+00,3.864920854568481445e+00,3.743472099304199219e+00,3.629423618316650391e+00,3.522118806838989258e+00,3.420976877212524414e+00,3.325481176376342773e+00,3.235172748565673828e+00,3.149639368057250977e+00,3.068512201309204102e+00,2.991459608078002930e+00,2.918181419372558594e+00,2.848407745361328125e+00,2.781892538070678711e+00,2.718413352966308594e+00,2.657766103744506836e+00,2.599766016006469727e+00,2.544243335723876953e+00,2.491042613983154297e+00
4.881800174713134766e+00,5.000000000000000000e+00,5.000000000000000000e+00,5.000000000000000000e+00,5.000000000000000000e+00,5.000000000000000000e+00,5.000000000000000000e+00,5.000000000000000000e+00,5.000000000000000000e+00,5.000000000000000000e+00,5.000000000000000000e+00,5.000000000000000000e+00,5.000000000000000000e+00,5.000000000000000000e+00,5.000000000000000000e+00,5.000000000000000000e+00,5.000000000000000000e+00,5.000000000000000000e+00,5.000000000000000000e+00,5.000000000000000000e+00,5.000000000000000000e+00,5.000000000000000000e+00,5.000000000000000000e+00,5.000000000000000000e+00,5.000000000000000000e+00,5.000000000000000000e+00,5.000000000000000000e+00,5.000000000000000000e+00,5.000000000000000000e+00,5.000000000000000000e+00,5.000000000000000000e+00,5.000000000000000000e+00,5.000000000000000000e+00,5.000000000000000000e+00,5.000000000000000000e+00,5.000000000000000000e+00,5.000000000000000000e+00,5.000000000000000000e+00,5.000000000000000000e+00,5.000000000000000000e+00,5.000000000000000000e+00,5.000000000000000000e+00,5.000000000000000000e+00,5.000000000000000000e+00,3.585422992706298828e+00,3.552359104156494141e+00,3.426446437835693359e+00,3.390322446823120117e+00,3.424413204193115234e+00,5.000000000000000000e+00,5.000000000000000000e+00,5.000000000000000000e+00,5.000000000000000000e+00,5.000000000000000000e+00,5.000000000000000000e+00,5.000000000000000000e+00,4.799242019653320312e+00,4.613388538360595703e+00,4.441393375396728516e+00,4.281761646270751953e+00,4.133206844329833984e+00,3.994614124298095703e+00,3.865014791488647461e+00,3.743560075759887695e+00,3.629506587982177734e+00,3.522196769714355469e+00,3.421050310134887695e+00,3.325551033020019531e+00,3.235238552093505859e+00,3.149701833724975586e+00,3.068571329116821289e+00,2.991515874862670898e+00,2.918235063552856445e+00,2.848458766937255859e+00,2.781941413879394531e+00,2.718459844589233398e+00,2.657810449600219727e+00,2.599808692932128906e+00,2.544284105300903320e+00,2.491081714630126953e+00
4.881687164306640625e+00,5.000000000000000000e+00,5.000000000000000000e+00,5.000000000000000000e+00,5.000000000000000000e+00,5.000000000000000000e+00,5.000000000000000000e+00,5.000000000000000000e+00,5.000000000000000000e+00,5.000000000000000000e+00,5.000000000000000000e+00,5.000000000000000000e+00,5.000000000000000000e+00,5.000000000000000000e+00,5.000000000000000000e+00,5.000000000000000000e+00,5.000000000000000000e+00,5.000000000000000000e+00,5.000000000000000000e+00,5.000000000000000000e+00,5.000000000000000000e+00,5.000000000000000000e+00,5.000000000000000000e+00,5.000000000000000000e+00,5.000000000000000000e+00,5.000000000000000000e+00,5.000000000000000000e+00,5.000000000000000000e+00,5.000000000000000000e+00,5.000000000000000000e+00,5.000000000000000000e+00,5.000000000000000000e+00,5.000000000000000000e+00,5.000000000000000000e+00,5.000000000000000000e+00,5.000000000000000000e+00,5.000000000000000000e+00,5.000000000000000000e+00,5.000000000000000000e+00,5.000000000000000000e+00,5.000000000000000000e+00,5.000000000000000000e+00,5.000000000000000000e+00,5.000000000000000000e+00,3.635350704193115234e+00,3.594469547271728516e+00,3.441893815994262695e+00,3.399316787719726562e+00,5.000000000000000000e+00,5.000000000000000000e+00,5.000000000000000000e+00,5.000000000000000000e+00,5.000000000000000000e+00,5.000000000000000000e+00,5.000000000000000000e+00,5.000000000000000000e+00,4.799386978149414062e+00,4.613522529602050781e+00,4.441517353057861328e+00,4.281877040863037109e+00,4.133314132690429688e+00,3.994714498519897461e+00,3.865108728408813477e+00,3.743648290634155273e+00,3.629589319229125977e+00,3.522274732589721680e+00,3.421123981475830078e+00,3.325620651245117188e+00,3.235304355621337891e+00,3.149764060974121094e+00,3.068630456924438477e+00,2.991572141647338867e+00,2.918288469314575195e+00,2.848509788513183594e+00,2.781990051269531250e+00,2.718506097793579102e+00,2.657854795455932617e+00,2.599851131439208984e+00,2.544324636459350586e+00,2.491120815277099609e+00
4.881574153900146484e+00,5.000000000000000000e+00,5.000000000000000000e+00,5.000000000000000000e+00,5.000000000000000000e+00,5.000000000000000000e+00,5.000000000000000000e+00,5.000000000000000000e+00,5.000000000000000000e+00,5.000000000000000000e+00,5.000000000000000000e+00,5.000000000000000000e+00,5.000000000000000000e+00,5.000000000000000000e+00,5.000000000000000000e+00,5.000000000000000000e+00,5.000000000000000000e+00,5.000000000000000000e+00,5.000000000000000000e+00,5.000000000000000000e+00,5.000000000000000000e+00,5.000000000000000000e+00,5.000000000000000000e+00,5.000000000000000000e+00,5.000000000000000000e+00,5.000000000000000000e+00,5.000000000000000000e+00,5.000000000000000000e+00,5.000000000000000000e+00,5.000000000000000000e+00,5.000000000000000000e+00,5.000000000000000000e+00,5.000000000000000000e+00,5.000000000000000000e+00,5.000000000000000000e+00,5.000000000000000000e+00,5.000000000000000000e+00,5.000000000000000000e+00,5.000000000000000000e+00,5.000000000000000000e+00,5.000000000000000000e+00,5.000000000000000000e+00,5.000000000000000000e+00,5.000000000000000000e+00,5.000000000000000000e+00,3.606206417083740234e+00,3.446077108383178711e+00,3.399511575698852539e+00,5.000000000000000000e+00,5.000000000000000000e+00,5.000000000000000000e+00,5.000000000000000000e+00,5.000000000000000000e+00,5.000000000000000000e+00,5.000000000000000000e+00,5.000000000000000000e+00,4.799531936645507812e+00,4.613656520843505859e+00,4.441641807556152344e+00,4.281992435455322266e+00,4.133421421051025391e+00,3.994814872741699219e+00,3.865202665328979492e+00,3.743736743927001953e+00,3.629672288894653320e+00,3.522353172302246094e+00,3.421197652816772461e+00,3.325690269470214844e+00,3.235370159149169922e+00,3.149826526641845703e+00,3.068689823150634766e+00,2.991628408432006836e+00,2.918342113494873047e+00,2.848560810089111328e+00,2.782038688659667969e+00,2.718552589416503906e+00,2.657899379730224609e+00,2.599893569946289062e+00,2.544365406036376953e+00,2.491159677505493164e+00
4.881450653076171875e+00,5.000000000000000000e+00,5.000000000000000000e+00,5.000000000000000000e+00,5.000000000000000000e+00,5.000000000000000000e+00,5.000000000000000000e+00,5.000000000000000000e+00,5.000000000000000000e+00,5.000000000000000000e+00,5.000000000000000000e+00,5.000000000000000000e+00,5.000000000000000000e+00,5.000000000000000000e+00,5.000000000000000000e+00,5.000000000000000000e+00,5.000000000000000000e+00,5.000000000000000000e+00,5.000000000000000000e+00,5.000000000000000000e+00,5.000000000000000000e+00,5.000000000000000000e+00,5.000000000000000000e+00,5.000000000000000000e+00,5.000000000000000000e+00,5.000000000000000000e+00,5.000000000000000000e+00,5.000000000000000000e+00,5.000000000000000000e+00,5.000000000000000000e+00,5.000000000000000000e+00,5.000000000000000000e+00,5.000000000000000000e+00,5.000000000000000000e+00,5.000000000000000000e+00,5.000000000000000000e+00,5.000000000000000000e+00,5.000000000000000000e+00,5.000000000000000000e+00,5.000000000000000000e+00,5.000000000000000000e+00,5.000000000000000000e+00,5.000000000000000000e+00,5.000000000000000000e+00,3.570103168487548828e+00,3.549851894378662109e+00,3.386674165725708008e+00,3.374933481216430664e+00,5.000000000000000000e+00,5.000000000000000000e+00,5.000000000000000000e+00,5.000000000000000000e+00,5.000000000000000000e+00,5.000000000000000000e+00,5.000000000000000000e+00,5.000000000000000000e+00,4.799676895141601562e+00,4.613790512084960938e+00,4.441765785217285156e+00,4.282107830047607422e+00,4.133528709411621094e+00,3.994915246963500977e+00,3.865296602249145508e+00,3.743824958801269531e+00,3.629755020141601562e+00,3.522431135177612305e+00,3.421271085739135742e+00,3.325759887695312500e+00,3.235435962677001953e+00,3.149888992309570312e+00,3.068748950958251953e+00,2.991684675216674805e+00,2.918395757675170898e+00,2.848611831665039062e+00,2.782087326049804688e+00,2.718599081039428711e+00,2.657943725585937500e+00,2.599936008453369141e+00,2.544406414031982422e+00,2.491198778152465820e+00
4.881323814392089844e+00,5.000000000000000000e+00,5.000000000000000000e+00,5.000000000000000000e+00,5.000000000000000000e+00,5.000000000000000000e+00,5.000000000000000000e+00,5.000000000000000000e+00,5.000000000000000000e+00,5.000000000000000000e+00,5.000000000000000000e+00,5.000000000000000000e+00,5.000000000000000000e+00,5.000000000000000000e+00,5.000000000000000000e+00,5.000000000000000000e+00,5.000000000000000000e+00,5.000000000000000000e+00,5.000000000000000000e+00,5.000000000000000000e+00,5.000000000000000000e+00,5.000000000000000000e+00,5.000000000000000000e+00,5.000000000000000000e+00,5.000000000000000000e+00,5.000000000000000000e+00,5.000000000000000000e+00,5.000000000000000000e+00,5.000000000000000000e+00,5.000000000000000000e+00,5.000000000000000000e+00,5.000000000000000000e+00,5.000000000000000000e+00,5.000000000000000000e+00,5.000000000000000000e+00,5.000000000000000000e+00,5.000000000000000000e+00,5.000000000000000000e+00,5.000000000000000000e+00,5.000000000000000000e+00,5.000000000000000000e+00,5.000000000000000000e+00,5.000000000000000000e+00,5.000000000000000000e+00,3.536796092987060547e+00,3.526005029678344727e+00,3.360091209411621094e+00,3.351274728775024414e+00,5.000000000000000000e+00,5.000000000000000000e+00,5.000000000000000000e+00,5.000000000000000000e+00,5.000000000000000000e+00,5.000000000000000000e+00,5.000000000000000000e+00,5.000000000000000000e+00,4.799821376800537109e+00,4.613924026489257812e+00,4.441889762878417969e+00,4.282222747802734375e+00,4.133636474609375000e+00,3.995016098022460938e+00,3.865390539169311523e+00,3.743913173675537109e+00,3.629837989807128906e+00,3.522509098052978516e+00,3.421344757080078125e+00,3.325829267501831055e+00,3.235502004623413086e+00,3.149951457977294922e+00,3.068808317184448242e+00,2.991740942001342773e+00,2.918449163436889648e+00,2.848662853240966797e+00,2.782135963439941406e+00,2.718645572662353516e+00,2.657988309860229492e+00,2.599978685379028320e+00,2.544446945190429688e+00,2.491237878799438477e+00
4.881197452545166016e+00,5.000000000000000000e+00,5.000000000000000000e+00,5.000000000000000000e+00,5.000000000000000000e+00,5.000000000000000000e+00,5.000000000000000000e+00,5.000000000000000000e+00,5.000000000000000000e+00,5.000000000000000000e+00,5.000000000000000000e+00,5.000000000000000000e+00,5.000000000000000000e+00,5.000000000000000000e+00,5.000000000000000000e+00,5.000000000000000000e+00,5.000000000000000000e+00,5.000000000000000000e+00,5.000000000000000000e+00,5.000000000000000000e+00,5.000000000000000000e+00,5.000000000000000000e+00,5.000000000000000000e+00,5.000000000000000000e+00,5.000000000000000000e+00,5.000000000000000000e+00,5.000000000000000000e+00,5.000000000000000000e+00,5.000000000000000000e+00,5.000000000000000000e+00,5.000000000000000000e+00,5.000000000000000000e+00,5.000000000000000000e+00,5.000000000000000000e+00,5.000000000000000000e+00,5.000000000000000000e+00,5.000000000000000000e+00,5.000000000000000000e+00,5.000000000000000000e+00,5.000000000000000000e+00,5.000000000000000000e+00,5.000000000000000000e+00,5.000000000000000000e+00,5.000000000000000000e+00,3.503994226455688477e+00,3.500954151153564453e+00,3.342408657073974609e+00,3.339681625366210938e+00,5.000000000000000000e+00,5.000000000000000000e+00,5.000000000000000000e+00,5.000000000000000000e+00,5.000000000000000000e+00,5.000000000000000000e+00,5.000000000000000000e+00,5.000000000000000000e+00,4.799966335296630859e+00,4.614058017730712891e+00,4.442014217376708984e+00,4.282338619232177734e+00,4.133744239807128906e+00,3.995116472244262695e+00,3.865484714508056641e+00,3.744001150131225586e+00,3.629920721054077148e+00,3.522587299346923828e+00,3.421418428421020508e+00,3.325898885726928711e+00,3.235567808151245117e+00,3.150013685226440430e+00,3.068867444992065430e+00,2.991797208786010742e+00,2.918502807617187500e+00,2.848713874816894531e+00,2.782184839248657227e+00,2.718692064285278320e+00,2.658032655715942383e+00,2.600021123886108398e+00,2.544487714767456055e+00,2.491276741027832031e+00
4.881070613861083984e+00,5.000000000000000000e+00,5.000000000000000000e+00,5.000000000000000000e+00,5.000000000000000000e+00,5.000000000000000000e+00,5.000000000000000000e+00,5.000000000000000000e+00,5.000000000000000000e+00,5.000000000000000000e+00,5.000000000000000000e+00,5.000000000000000000e+00,5.000000000000000000e+00,5.000000000000000000e+00,5.000000000000000000e+00,5.000000000000000000e+00,5.000000000000000000e+00,5.000000000000000000e+00,5.000000000000000000e+00,5.000000000000000000e+00,5.000000000000000000e+00,5.000000000000000000e+00,5.000000000000000000e+00,5.000000000000000000e+00,5.000000000000000000e+00,5.000000000000000000e+00,5.000000000000000000e+00,5.000000000000000000e+00,5.000000000000000000e+00,5.000000000000000000e+00,5.000000000000000000e+00,5.000000000000000000e+00,5.000000000000000000e+00,5.000000000000000000e+00,5.000000000000000000e+00,5.000000000000000000e+00,5.000000000000000000e+00,5.000000000000000000e+00,5.000000000000000000e+00,5.000000000000000000e+00,5.000000000000000000e+00,5.000000000000000000e+00,5.000000000000000000e+00,5.000000000000000000e+00,3.471398115158081055e+00,3.491390943527221680e+00,3.318440198898315430e+00,3.340911865234375000e+00,5.000000000000000000e+00,5.000000000000000000e+00,5.000000000000000000e+00,5.000000000000000000e+00,5.000000000000000000e+00,5.000000000000000000e+00,5.000000000000000000e+00,5.000000000000000000e+00,4.800111770629882812e+00,4.614192008972167969e+00,4.442138195037841797e+00,4.282454013824462891e+00,4.133851528167724609e+00,3.995216846466064453e+00,3.865578651428222656e+00,3.744089365005493164e+00,3.630003690719604492e+00,3.522665262222290039e+00,3.421492099761962891e+00,3.325968503952026367e+00,3.235633611679077148e+00,3.150076150894165039e+00,3.068926572799682617e+00,2.991853475570678711e+00,2.918556690216064453e+00,2.848764896392822266e+00,2.782233476638793945e+00,2.718738555908203125e+00,2.658077239990234375e+00,2.600063562393188477e+00,2.544528484344482422e+00,2.491315841674804688e+00
4.880944252014160156e+00,5.000000000000000000e+00,5.000000000000000000e+00,5.000000000000000000e+00,5.000000000000000000e+00,5.000000000000000000e+00,5.000000000000000000e+00,5.000000000000000000e+00,5.000000000000000000e+00,5.000000000000000000e+00,5.000000000000000000e+00,5.000000000000000000e+00,5.000000000000000000e+00,5.000000000000000000e+00,5.000000000000000000e+00,5.000000000000000000e+00,5.000000000000000000e+00,5.000000000000000000e+00,5.000000000000000000e+00,5.000000000000000000e+00,5.000000000000000000e+00,5.000000000000000000e+00,5.000000000000000000e+00,5.000000000000000000e+00,5.000000000000000000e+00,5.000000000000000000e+00,5.000000000000000000e+00,5.000000000000000000e+00,5.000000000000000000e+00,5.000000000000000000e+00,5.000000000000000000e+00,5.000000000000000000e+00,5.000000000000000000e+00,5.000000000000000000e+00,5.000000000000000000e+00,5.000000000000000000e+00,5.000000000000000000e+00,5.000000000000000000e+00,5.000000000000000000e+00,5.000000000000000000e+00,5.000000000000000000e+00,5.000000000000000000e+00,5.000000000000000000e+00,5.000000000000000000e+00,3.481283187866210938e+00,3.482752323150634766e+00,3.303221940994262695e+00,5.000000000000000000e+00,5.000000000000000000e+00,5.000000000000000000e+00,5.000000000000000000e+00,5.000000000000000000e+00,5.000000000000000000e+00,5.000000000000000000e+00,5.000000000000000000e+00,5.000000000000000000e+00,4.800256729125976562e+00,4.614326000213623047e+00,4.442262172698974609e+00,4.282569408416748047e+00,4.133958816528320312e+00,3.995317220687866211e+00,3.865672588348388672e+00,3.744177579879760742e+00,3.630086421966552734e+00,3.522743225097656250e+00,3.421565532684326172e+00,3.326037883758544922e+00,3.235699415206909180e+00,3.150138616561889648e+00,3.068986177444458008e+00,2.991909742355346680e+00,2.918610095977783203e+00,2.848815917968750000e+00,2.782282114028930664e+00,2.718785047531127930e+00,2.658121585845947266e+00,2.600106239318847656e+00,2.544569253921508789e+00,2.491354942321777344e+00
4.880897998809814453e+00,5.000000000000000000e+00,5.000000000000000000e+00,5.000000000000000000e+00,5.000000000000000000e+00,5.000000000000000000e+00,5.000000000000000000e+00,5.000000000000000000e+00,5.000000000000000000e+00,5.000000000000000000e+00,5.000000000000000000e+00,5.000000000000000000e+00,5.000000000000000000e+00,5.000000000000000000e+00,5.000000000000000000e+00,5.000000000000000000e+00,5.000000000000000000e+00,5.000000000000000000e+00,5.000000000000000000e+00,5.000000000000000000e+00,5.000000000000000000e+00,5.000000000000000000e+00,5.000000000000000000e+00,5.000000000000000000e+00,5.000000000000000000e+00,5.000000000000000000e+00,5.000000000000000000e+00,5.000000000000000000e+00,5.000000000000000000e+00,5.000000000000000000e+00,5.000000000000000000e+00,5.000000000000000000e+00,5.000000000000000000e+00,5.000000000000000000e+00,5.000000000000000000e+00,5.000000000000000000e+00,5.000000000000000000e+00,5.000000000000000000e+00,5.000000000000000000e+00,5.000000000000000000e+00,5.000000000000000000e+00,5.000000000000000000e+00,5.000000000000000000e+00,5.000000000000000000e+00,3.439578771591186523e+00,5.000000000000000000e+00,3.306774377822875977e+00,5.000000000000000000e+00,5.000000000000000000e+00,5.000000000000000000e+00,5.000000000000000000e+00,5.000000000000000000e+00,5.000000000000000000e+00,5.000000000000000000e+00,5.000000000000000000e+00,5.000000000000000000e+00,4.800401210784912109e+00,4.614459991455078125e+00,4.442386150360107422e+00,4.282684326171875000e+00,4.134066581726074219e+00,3.995417594909667969e+00,3.865766525268554688e+00,3.744265794754028320e+00,3.630169391632080078e+00,3.522821426391601562e+00,3.421639204025268555e+00,3.326107501983642578e+00,3.235765457153320312e+00,3.150200843811035156e+00,3.069045305252075195e+00,2.991966009140014648e+00,2.918663740158081055e+00,2.848866939544677734e+00,2.782330989837646484e+00,2.718831539154052734e+00,2.658166170120239258e+00,2.600148677825927734e+00,2.544609785079956055e+00,2.491393804550170898e+00
4.872806549072265625e+00,4.871586322784423828e+00,4.870366573333740234e+00,4.869147300720214844e+00,4.867929458618164062e+00,4.866711139678955078e+00,4.865494251251220703e+00,4.864277839660644531e+00,4.863061428070068359e+00,4.861846446990966797e+00,4.860631465911865234e+00,4.859417438507080078e+00,4.858203887939453125e+00,4.856991291046142578e+00,4.855778694152832031e+00,4.854567050933837891e+00,4.853356361389160156e+00,4.852145671844482422e+00,4.850935935974121094e+00,4.849726676940917969e+00,4.848517894744873047e+00,4.847309589385986328e+00,4.846102237701416016e+00,4.844895362854003906e+00,4.843688964843750000e+00,4.842483520507812500e+00,4.841278553009033203e+00,4.840074062347412109e+00,4.838870048522949219e+00,4.837666511535644531e+00,4.836463928222656250e+00,4.835261821746826172e+00,4.834060668945312500e+00,4.832859516143798828e+00,4.831659317016601562e+00,4.830459594726562500e+00,4.829260349273681641e+00,4.828062057495117188e+00,4.826863765716552734e+00,4.825666904449462891e+00,4.824470043182373047e+00,4.823274135589599609e+00,4.822078227996826172e+00,4.820883274078369141e+00,3.474182844161987305e+00,3.541715621948242188e+00,3.300088405609130859e+00,4.816109657287597656e+00,4.814917564392089844e+00,4.813725948333740234e+00,4.812535285949707031e+00,4.811345100402832031e+00,4.810155391693115234e+00,4.808966636657714844e+00,4.807777881622314453e+00,4.806590080261230469e+00,4.800546169281005859e+00,4.614593982696533203e+00,4.442510604858398438e+00,4.282799720764160156e+00,4.134173870086669922e+00,3.995517969131469727e+00,3.865860462188720703e+00,3.744353771209716797e+00,3.630252122879028320e+00,3.522899389266967773e+00,3.421713352203369141e+00,3.326177120208740234e+00,3.235831499099731445e+00,3.150263309478759766e+00,3.069104671478271484e+00,2.992022275924682617e+00,2.918717384338378906e+00,2.848917961120605469e+00,2.782379627227783203e+00,2.718878030776977539e+00,2.658210515975952148e+00,2.600191116333007812e+00,2.544650554656982422e+00,2.491432905197143555e+00
3.776825428009033203e+00,3.776092290878295898e+00,3.775359392166137695e+00,3.774627208709716797e+00,3.773894786834716797e+00,3.773162841796875000e+00,3.772431135177612305e+00,3.771699666976928711e+00,3.770968914031982422e+00,3.770237922668457031e+00,3.769507408142089844e+00,3.768776893615722656e+00,3.768046855926513672e+00,3.767317533493041992e+00,3.766588211059570312e+00,3.765858888626098633e+00,3.765130043029785156e+00,3.764401674270629883e+00,3.763673305511474609e+00,3.762945175170898438e+00,3.762217521667480469e+00,3.761490106582641602e+00,3.760763168334960938e+00,3.760036230087280273e+00,3.759309530258178711e+00,3.758583068847656250e+00,3.757857084274291992e+00,3.757131576538085938e+00,3.756406068801879883e+00,3.755680799484252930e+00,3.754955768585205078e+00,3.754231452941894531e+00,3.753507137298583984e+00,3.752783060073852539e+00,3.752058982849121094e+00,3.751335382461547852e+00,3.750612497329711914e+00,3.749889612197875977e+00,3.749166727066040039e+00,3.748444318771362305e+00,3.747722148895263672e+00,3.747000694274902344e+00,3.746279001235961914e+00,3.745557546615600586e+00,3.744836568832397461e+00,3.744116067886352539e+00,3.296397686004638672e+00,3.742675304412841797e+00,3.741955280303955078e+00,3.741235733032226562e+00,3.740516662597656250e+00,3.739797592163085938e+00,3.739078760147094727e+00,3.738360166549682617e+00,3.737641811370849609e+00,3.736924171447753906e+00,3.736206293106079102e+00,3.735488891601562500e+00,3.734771728515625000e+00,3.734055042266845703e+00,3.733338356018066406e+00,3.732622146606445312e+00,3.731905937194824219e+00,3.731190204620361328e+00,3.630335569381713867e+00,3.522977352142333984e+00,3.421786785125732422e+00,3.326246738433837891e+00,3.235897302627563477e+00,3.150325775146484375e+00,3.069163799285888672e+00,2.992078542709350586e+00,2.918770790100097656e+00,2.848969221115112305e+00,2.782428264617919922e+00,2.718924522399902344e+00,2.658254861831665039e+00,2.600233554840087891e+00,2.544691324234008789e+00,2.491472005844116211e+00
3.083329916000366211e+00,3.082841157913208008e+00,3.082352638244628906e+00,3.081864356994628906e+00,3.081376075744628906e+00,3.080888271331787109e+00,3.080400466918945312e+00,3.079912662506103516e+00,3.079425096511840820e+00,3.078937768936157227e+00,3.078450679779052734e+00,3.077963590621948242e+00,3.077476739883422852e+00,3.076989889144897461e+00,3.076503515243530273e+00,3.076016902923583984e+00,3.075530529022216797e+00,3.075044393539428711e+00,3.074558258056640625e+00,3.074072837829589844e+00,3.073586940765380859e+00,3.073101282119750977e+00,3.072615861892700195e+00,3.072130680084228516e+00,3.071645736694335938e+00,3.071160793304443359e+00,3.070676088333129883e+00,3.070191383361816406e+00,3.069707155227661133e+00,3.069222927093505859e+00,3.068738698959350586e+00,3.068254470825195312e+00,3.067770719528198242e+00,3.067287206649780273e+00,3.066803693771362305e+00,3.066320180892944336e+00,3.065836906433105469e+00,3.065353870391845703e+00,3.064871072769165039e+00,3.064388275146484375e+00,3.063905715942382812e+00,3.063423156738281250e+00,3.062941074371337891e+00,3.062458753585815430e+00,3.061976671218872070e+00,3.061494827270507812e+00,3.061012983322143555e+00,3.060531616210937500e+00,3.060050249099731445e+00,3.059568881988525391e+00,3.059087753295898438e+00,3.058606624603271484e+00,3.058126211166381836e+00,3.057645320892333984e+00,3.057164907455444336e+00,3.056684494018554688e+00,3.056204080581665039e+00,3.055724382400512695e+00,3.055244445800781250e+00,3.054764509201049805e+00,3.054284811019897461e+00,3.053805589675903320e+00,3.053326368331909180e+00,3.052847146987915039e+00,3.052368164062500000e+00,3.051889181137084961e+00,3.051410675048828125e+00,3.050932168960571289e+00,3.050453662872314453e+00,3.049975395202636719e+00,3.049497127532958984e+00,2.992135047912597656e+00,2.918824434280395508e+00,2.849020242691040039e+00,2.782476902008056641e+00,2.718971014022827148e+00,2.658299446105957031e+00,2.600276231765747070e+00,2.544732093811035156e+00,2.491511106491088867e+00
2.605002403259277344e+00,2.604653596878051758e+00,2.604305028915405273e+00,2.603956460952758789e+00,2.603607892990112305e+00,2.603259563446044922e+00,2.602911233901977539e+00,2.602563142776489258e+00,2.602214813232421875e+00,2.601866960525512695e+00,2.601518869400024414e+00,2.601171255111694336e+00,2.600823402404785156e+00,2.600475788116455078e+00,2.600128173828125000e+00,2.599780559539794922e+00,2.599433422088623047e+00,2.599086046218872070e+00,2.598738670349121094e+00,2.598391532897949219e+00,2.598044633865356445e+00,2.597697734832763672e+00,2.597351074218750000e+00,2.597004175186157227e+00,2.596657514572143555e+00,2.596311092376708984e+00,2.595964670181274414e+00,2.595618247985839844e+00,2.595271825790405273e+00,2.594925642013549805e+00,2.594579696655273438e+00,2.594233751296997070e+00,2.593887805938720703e+00,2.593541860580444336e+00,2.593196153640747070e+00,2.592850685119628906e+00,2.592505216598510742e+00,2.592159748077392578e+00,2.591814279556274414e+00,2.591469049453735352e+00,2.591124057769775391e+00,2.590778827667236328e+00,2.590433835983276367e+00,2.590088844299316406e+00,2.589744329452514648e+00,2.589399576187133789e+00,2.589054822921752930e+00,2.588710308074951172e+00,2.588366031646728516e+00,2.588021755218505859e+00,2.587677478790283203e+00,2.587333202362060547e+00,2.586989164352416992e+00,2.586645126342773438e+00,2.586301565170288086e+00,2.585957527160644531e+00,2.585613965988159180e+00,2.585270166397094727e+00,2.584926843643188477e+00,2.584583520889282227e+00,2.584240198135375977e+00,2.583896875381469727e+00,2.583553552627563477e+00,2.583210706710815430e+00,2.582867622375488281e+00,2.582524776458740234e+00,2.582181930541992188e+00,2.581839323043823242e+00,2.581496715545654297e+00,2.581154346466064453e+00,2.580811738967895508e+00,2.580469369888305664e+00,2.580127477645874023e+00,2.579785108566284180e+00,2.579442977905273438e+00,2.579101085662841797e+00,2.578759193420410156e+00,2.578417539596557617e+00,2.544772863388061523e+00,2.491550207138061523e+00
2.255153179168701172e+00,2.254891633987426758e+00,2.254630327224731445e+00,2.254369020462036133e+00,2.254107952117919922e+00,2.253846883773803711e+00,2.253585577011108398e+00,2.253324508666992188e+00,2.253063678741455078e+00,2.252802848815917969e+00,2.252542018890380859e+00,2.252281188964843750e+00,2.252020359039306641e+00,2.251759767532348633e+00,2.251499176025390625e+00,2.251238584518432617e+00,2.250978231430053711e+00,2.250717639923095703e+00,2.250457525253295898e+00,2.250197172164916992e+00,2.249936819076538086e+00,2.249676704406738281e+00,2.249416351318359375e+00,2.249156475067138672e+00,2.248896598815917969e+00,2.248636484146118164e+00,2.248376607894897461e+00,2.248116970062255859e+00,2.247857093811035156e+00,2.247597455978393555e+00,2.247337818145751953e+00,2.247078180313110352e+00,2.246818780899047852e+00,2.246559143066406250e+00,2.246299743652343750e+00,2.246040344238281250e+00,2.245781183242797852e+00,2.245522022247314453e+00,2.245262861251831055e+00,2.245003700256347656e+00,2.244744539260864258e+00,2.244485616683959961e+00,2.244226694107055664e+00,2.243967771530151367e+00,2.243709087371826172e+00,2.243450164794921875e+00,2.243191719055175781e+00,2.242933034896850586e+00,2.242674350738525391e+00,2.242415904998779297e+00,2.242157459259033203e+00,2.241899251937866211e+00,2.241640806198120117e+00,2.241382360458374023e+00,2.241124153137207031e+00,2.240866184234619141e+00,2.240607976913452148e+00,2.240350008010864258e+00,2.240092039108276367e+00,2.239834070205688477e+00,2.239576339721679688e+00,2.239318609237670898e+00,2.239060878753662109e+00,2.238803148269653320e+00,2.238545417785644531e+00,2.238287925720214844e+00,2.238030433654785156e+00,2.237772941589355469e+00,2.237515687942504883e+00,2.237258434295654297e+00,2.237001180648803711e+00,2.236743927001953125e+00,2.236486673355102539e+00,2.236229658126831055e+00,2.235972642898559570e+00,2.235715627670288086e+00,2.235458612442016602e+00,2.235201835632324219e+00,2.234945058822631836e+00,2.234688520431518555e+00
1.988146781921386719e+00,1.987943768501281738e+00,1.987740516662597656e+00,1.987537503242492676e+00,1.987334370613098145e+00,1.987131476402282715e+00,1.986928582191467285e+00,1.986725568771362305e+00,1.986522793769836426e+00,1.986319780349731445e+00,1.986117124557495117e+00,1.985914468765258789e+00,1.985711574554443359e+00,1.985509037971496582e+00,1.985306262969970703e+00,1.985103845596313477e+00,1.984901428222656250e+00,1.984698772430419922e+00,1.984496355056762695e+00,1.984293818473815918e+00,1.984091520309448242e+00,1.983889341354370117e+00,1.983686804771423340e+00,1.983484745025634766e+00,1.983282566070556641e+00,1.983080267906188965e+00,1.982878208160400391e+00,1.982676029205322266e+00,1.982474088668823242e+00,1.982272148132324219e+00,1.982070088386535645e+00,1.981868267059326172e+00,1.981666207313537598e+00,1.981464505195617676e+00,1.981262803077697754e+00,1.981060862541198730e+00,1.980859279632568359e+00,1.980657458305358887e+00,1.980455875396728516e+00,1.980254411697387695e+00,1.980052709579467773e+00,1.979851245880126953e+00,1.979649662971496582e+00,1.979448318481445312e+00,1.979247093200683594e+00,1.979045510292053223e+00,1.978844285011291504e+00,1.978642940521240234e+00,1.978441834449768066e+00,1.978240728378295898e+00,1.978039383888244629e+00,1.977838397026062012e+00,1.977637410163879395e+00,1.977436304092407227e+00,1.977235436439514160e+00,1.977034330368041992e+00,1.976833462715148926e+00,1.976632714271545410e+00,1.976431727409362793e+00,1.976231098175048828e+00,1.976030230522155762e+00,1.975829601287841797e+00,1.975629091262817383e+00,1.975428342819213867e+00,1.975227832794189453e+00,1.975027203559875488e+00,1.974826693534851074e+00,1.974626421928405762e+00,1.974425792694091797e+00,1.974225521087646484e+00,1.974025130271911621e+00,1.973824858665466309e+00,1.973624706268310547e+00,1.973424434661865234e+00,1.973224282264709473e+00,1.973024129867553711e+00,1.972824096679687500e+00,1.972624182701110840e+00,1.972424030303955078e+00,1.972224116325378418e+00
1.777673363685607910e+00,1.777510881423950195e+00,1.777348518371582031e+00,1.777186274528503418e+00,1.777023792266845703e+00,1.776861548423767090e+00,1.776699185371398926e+00,1.776537060737609863e+00,1.776374936103820801e+00,1.776212573051452637e+00,1.776050567626953125e+00,1.775888323783874512e+00,1.775726318359375000e+00,1.775564312934875488e+00,1.775402069091796875e+00,1.775240182876586914e+00,1.775078058242797852e+00,1.774916172027587891e+00,1.774754405021667480e+00,1.774592399597167969e+00,1.774430632591247559e+00,1.774268865585327148e+00,1.774106860160827637e+00,1.773945212364196777e+00,1.773783326148986816e+00,1.773621678352355957e+00,1.773460030555725098e+00,1.773298263549804688e+00,1.773136734962463379e+00,1.772975087165832520e+00,1.772813558578491211e+00,1.772652149200439453e+00,1.772490501403808594e+00,1.772329092025756836e+00,1.772167444229125977e+00,1.772006154060363770e+00,1.771844863891601562e+00,1.771683335304260254e+00,1.771522045135498047e+00,1.771360635757446289e+00,1.771199464797973633e+00,1.771038293838500977e+00,1.770877003669738770e+00,1.770715832710266113e+00,1.770554542541503906e+00,1.770393490791320801e+00,1.770232558250427246e+00,1.770071387290954590e+00,1.769910335540771484e+00,1.769749402999877930e+00,1.769588351249694824e+00,1.769427418708801270e+00,1.769266366958618164e+00,1.769105553627014160e+00,1.768944859504699707e+00,1.768783807754516602e+00,1.768623113632202148e+00,1.768462300300598145e+00,1.768301606178283691e+00,1.768140912055969238e+00,1.767980098724365234e+00,1.767819523811340332e+00,1.767658829689025879e+00,1.767498254776000977e+00,1.767337799072265625e+00,1.767177104949951172e+00,1.767016649246215820e+00,1.766856074333190918e+00,1.766695737838745117e+00,1.766535401344299316e+00,1.766374826431274414e+00,1.766214609146118164e+00,1.766054153442382812e+00,1.765893936157226562e+00,1.765733718872070312e+00,1.765573263168334961e+00,1.765413165092468262e+00,1.765252947807312012e+00,1.765092849731445312e+00,1.764932751655578613e+00
1.607497096061706543e+00,1.607364296913146973e+00,1.607231497764587402e+00,1.607098698616027832e+00,1.606965899467468262e+00,1.606833338737487793e+00,1.606700539588928223e+00,1.606567859649658203e+00,1.606435060501098633e+00,1.606302499771118164e+00,1.606169939041137695e+00,1.606037259101867676e+00,1.605904817581176758e+00,1.605772137641906738e+00,1.605639696121215820e+00,1.605507254600524902e+00,1.605374574661254883e+00,1.605242252349853516e+00,1.605109810829162598e+00,1.604977369308471680e+00,1.604844927787780762e+00,1.604712486267089844e+00,1.604580163955688477e+00,1.604447960853576660e+00,1.604315519332885742e+00,1.604183316230773926e+00,1.604050874710083008e+00,1.603918790817260742e+00,1.603786587715148926e+00,1.603654265403747559e+00,1.603522181510925293e+00,1.603389859199523926e+00,1.603257775306701660e+00,1.603125810623168945e+00,1.602993607521057129e+00,1.602861523628234863e+00,1.602729439735412598e+00,1.602597475051879883e+00,1.602465510368347168e+00,1.602333426475524902e+00,1.602201581001281738e+00,1.602069497108459473e+00,1.601937651634216309e+00,1.601805806159973145e+00,1.601673841476440430e+00,1.601541996002197266e+00,1.601410150527954102e+00,1.601278305053710938e+00,1.601146697998046875e+00,1.601014733314514160e+00,1.600883126258850098e+00,1.600751399993896484e+00,1.600619673728942871e+00,1.600488066673278809e+00,1.600356221199035645e+00,1.600224733352661133e+00,1.600093126296997070e+00,1.599961400032043457e+00,1.599829912185668945e+00,1.599698185920715332e+00,1.599566817283630371e+00,1.599435329437255859e+00,1.599303722381591797e+00,1.599172353744506836e+00,1.599040865898132324e+00,1.598909497261047363e+00,1.598778128623962402e+00,1.598646640777587891e+00,1.598515391349792480e+00,1.598383903503417969e+00,1.598252654075622559e+00,1.598121404647827148e+00,1.597990036010742188e+00,1.597858905792236328e+00,1.597727537155151367e+00,1.597596406936645508e+00,1.597465276718139648e+00,1.597334027290344238e+00,1.597202897071838379e+00,1.597071886062622070e+00
1.467056035995483398e+00,1.466945528984069824e+00,1.466834902763366699e+00,1.466724276542663574e+00,1.466613769531250000e+00,1.466503143310546875e+00,1.466392636299133301e+00,1.466282129287719727e+00,1.466171503067016602e+00,1.466061115264892578e+00,1.465950489044189453e+00,1.465840101242065430e+00,1.465729713439941406e+00,1.465619206428527832e+00,1.465508937835693359e+00,1.465398430824279785e+00,1.465288043022155762e+00,1.465177774429321289e+00,1.465067386627197266e+00,1.464957118034362793e+00,1.464846849441528320e+00,1.464736461639404297e+00,1.464626193046569824e+00,1.464515924453735352e+00,1.464405775070190430e+00,1.464295506477355957e+00,1.464185237884521484e+00,1.464075088500976562e+00,1.463964819908142090e+00,1.463854789733886719e+00,1.463744640350341797e+00,1.463634490966796875e+00,1.463524341583251953e+00,1.463414192199707031e+00,1.463304162025451660e+00,1.463194251060485840e+00,1.463084101676940918e+00,1.462974071502685547e+00,1.462864041328430176e+00,1.462754130363464355e+00,1.462644219398498535e+00,1.462534070014953613e+00,1.462424278259277344e+00,1.462314248085021973e+00,1.462204337120056152e+00,1.462094545364379883e+00,1.461984634399414062e+00,1.461874723434448242e+00,1.461764931678771973e+00,1.461655139923095703e+00,1.461545348167419434e+00,1.461435437202453613e+00,1.461325764656066895e+00,1.461215972900390625e+00,1.461106181144714355e+00,1.460996508598327637e+00,1.460886716842651367e+00,1.460777044296264648e+00,1.460667490959167480e+00,1.460557699203491211e+00,1.460448145866394043e+00,1.460338473320007324e+00,1.460228919982910156e+00,1.460119366645812988e+00,1.460009694099426270e+00,1.459900140762329102e+00,1.459790468215942383e+00,1.459681034088134766e+00,1.459571599960327148e+00,1.459462046623229980e+00,1.459352612495422363e+00,1.459243059158325195e+00,1.459133625030517578e+00,1.459024310111999512e+00,1.458914756774902344e+00,1.458805441856384277e+00,1.458696126937866211e+00,1.458586692810058594e+00,1.458477377891540527e+00,1.458367943763732910e+00
1.349182963371276855e+00,1.349089503288269043e+00,1.348995804786682129e+00,1.348902344703674316e+00,1.348808884620666504e+00,1.348715305328369141e+00,1.348621845245361328e+00,1.348528265953063965e+00,1.348434925079345703e+00,1.348341464996337891e+00,1.348248004913330078e+00,1.348154544830322266e+00,1.348061084747314453e+00,1.347967743873596191e+00,1.347874402999877930e+00,1.347780942916870117e+00,1.347687602043151855e+00,1.347594261169433594e+00,1.347500920295715332e+00,1.347407579421997070e+00,1.347314238548278809e+00,1.347221016883850098e+00,1.347127795219421387e+00,1.347034454345703125e+00,1.346941232681274414e+00,1.346847891807556152e+00,1.346754670143127441e+00,1.346661448478698730e+00,1.346568226814270020e+00,1.346475005149841309e+00,1.346381783485412598e+00,1.346288681030273438e+00,1.346195578575134277e+00,1.346102356910705566e+00,1.346009254455566406e+00,1.345916032791137695e+00,1.345823049545288086e+00,1.345729947090148926e+00,1.345636844635009766e+00,1.345543742179870605e+00,1.345450639724731445e+00,1.345357656478881836e+00,1.345264673233032227e+00,1.345171570777893066e+00,1.345078587532043457e+00,1.344985604286193848e+00,1.344892621040344238e+00,1.344799637794494629e+00,1.344706654548645020e+00,1.344613790512084961e+00,1.344520926475524902e+00,1.344427943229675293e+00,1.344335079193115234e+00,1.344242095947265625e+00,1.344149231910705566e+00,1.344056367874145508e+00,1.343963503837585449e+00,1.343870639801025391e+00,1.343777775764465332e+00,1.343685030937194824e+00,1.343592286109924316e+00,1.343499422073364258e+00,1.343406677246093750e+00,1.343313813209533691e+00,1.343221187591552734e+00,1.343128442764282227e+00,1.343035697937011719e+00,1.342942953109741211e+00,1.342850208282470703e+00,1.342757582664489746e+00,1.342664957046508789e+00,1.342572212219238281e+00,1.342479586601257324e+00,1.342386960983276367e+00,1.342294335365295410e+00,1.342201709747314453e+00,1.342109084129333496e+00,1.342016577720642090e+00,1.341924071311950684e+00,1.341831445693969727e+00
1.248842597007751465e+00,1.248762607574462891e+00,1.248682379722595215e+00,1.248602271080017090e+00,1.248522043228149414e+00,1.248441934585571289e+00,1.248361945152282715e+00,1.248281717300415039e+00,1.248201727867126465e+00,1.248121500015258789e+00,1.248041510581970215e+00,1.247961521148681641e+00,1.247881412506103516e+00,1.247801423072814941e+00,1.247721433639526367e+00,1.247641324996948242e+00,1.247561335563659668e+00,1.247481226921081543e+00,1.247401356697082520e+00,1.247321367263793945e+00,1.247241377830505371e+00,1.247161388397216797e+00,1.247081398963928223e+00,1.247001528739929199e+00,1.246921658515930176e+00,1.246841669082641602e+00,1.246761798858642578e+00,1.246681809425354004e+00,1.246602058410644531e+00,1.246522188186645508e+00,1.246442198753356934e+00,1.246362447738647461e+00,1.246282577514648438e+00,1.246202707290649414e+00,1.246122956275939941e+00,1.246043086051940918e+00,1.245963335037231445e+00,1.245883464813232422e+00,1.245803713798522949e+00,1.245723962783813477e+00,1.245644092559814453e+00,1.245564460754394531e+00,1.245484709739685059e+00,1.245404958724975586e+00,1.245325207710266113e+00,1.245245456695556641e+00,1.245165824890136719e+00,1.245086193084716797e+00,1.245006442070007324e+00,1.244926810264587402e+00,1.244847059249877930e+00,1.244767427444458008e+00,1.244687795639038086e+00,1.244608163833618164e+00,1.244528532028198242e+00,1.244448900222778320e+00,1.244369387626647949e+00,1.244289755821228027e+00,1.244210124015808105e+00,1.244130611419677734e+00,1.244050979614257812e+00,1.243971467018127441e+00,1.243891954421997070e+00,1.243812441825866699e+00,1.243732929229736328e+00,1.243653416633605957e+00,1.243573904037475586e+00,1.243494510650634766e+00,1.243414878845214844e+00,1.243335485458374023e+00,1.243255972862243652e+00,1.243176579475402832e+00,1.243097186088562012e+00,1.243017673492431641e+00,1.242938280105590820e+00,1.242858886718750000e+00,1.242779493331909180e+00,1.242700099945068359e+00,1.242620706558227539e+00,1.242541432380676270e+00
1.162394046783447266e+00,1.162324547767639160e+00,1.162255167961120605e+00,1.162185788154602051e+00,1.162116289138793945e+00,1.162046909332275391e+00,1.161977529525756836e+00,1.161908149719238281e+00,1.161838769912719727e+00,1.161769270896911621e+00,1.161700010299682617e+00,1.161630630493164062e+00,1.161561250686645508e+00,1.161491870880126953e+00,1.161422491073608398e+00,1.161353230476379395e+00,1.161283969879150391e+00,1.161214590072631836e+00,1.161145329475402832e+00,1.161075949668884277e+00,1.161006689071655273e+00,1.160937428474426270e+00,1.160868048667907715e+00,1.160798907279968262e+00,1.160729527473449707e+00,1.160660386085510254e+00,1.160591125488281250e+00,1.160521864891052246e+00,1.160452604293823242e+00,1.160383343696594238e+00,1.160314202308654785e+00,1.160245060920715332e+00,1.160175800323486328e+00,1.160106658935546875e+00,1.160037398338317871e+00,1.159968256950378418e+00,1.159899115562438965e+00,1.159829974174499512e+00,1.159760832786560059e+00,1.159691691398620605e+00,1.159622550010681152e+00,1.159553408622741699e+00,1.159484267234802246e+00,1.159415245056152344e+00,1.159346103668212891e+00,1.159276962280273438e+00,1.159207940101623535e+00,1.159138798713684082e+00,1.159069776535034180e+00,1.159000754356384277e+00,1.158931732177734375e+00,1.158862709999084473e+00,1.158793568611145020e+00,1.158724665641784668e+00,1.158655643463134766e+00,1.158586621284484863e+00,1.158517599105834961e+00,1.158448576927185059e+00,1.158379673957824707e+00,1.158310770988464355e+00,1.158241748809814453e+00,1.158172845840454102e+00,1.158103823661804199e+00,1.158034920692443848e+00,1.157966017723083496e+00,1.157896995544433594e+00,1.157828211784362793e+00,1.157759189605712891e+00,1.157690405845642090e+00,1.157621502876281738e+00,1.157552599906921387e+00,1.157483696937561035e+00,1.157414913177490234e+00,1.157346010208129883e+00,1.157277226448059082e+00,1.157208323478698730e+00,1.157139539718627930e+00,1.157070636749267578e+00,1.157001852989196777e+00,1.156933069229125977e+00
1.087139010429382324e+00,1.087078332901000977e+00,1.087017536163330078e+00,1.086956739425659180e+00,1.086896061897277832e+00,1.086835384368896484e+00,1.086774587631225586e+00,1.086713910102844238e+00,1.086653232574462891e+00,1.086592555046081543e+00,1.086531877517700195e+00,1.086471199989318848e+00,1.086410522460937500e+00,1.086349844932556152e+00,1.086289167404174805e+00,1.086228609085083008e+00,1.086167812347412109e+00,1.086107254028320312e+00,1.086046695709228516e+00,1.085986018180847168e+00,1.085925340652465820e+00,1.085864782333374023e+00,1.085804224014282227e+00,1.085743546485900879e+00,1.085682988166809082e+00,1.085622429847717285e+00,1.085561752319335938e+00,1.085501194000244141e+00,1.085440754890441895e+00,1.085380077362060547e+00,1.085319638252258301e+00,1.085258960723876953e+00,1.085198521614074707e+00,1.085137963294982910e+00,1.085077404975891113e+00,1.085016965866088867e+00,1.084956407546997070e+00,1.084895849227905273e+00,1.084835410118103027e+00,1.084774851799011230e+00,1.084714412689208984e+00,1.084653973579406738e+00,1.084593415260314941e+00,1.084532976150512695e+00,1.084472537040710449e+00,1.084412097930908203e+00,1.084351658821105957e+00,1.084291219711303711e+00,1.084230780601501465e+00,1.084170341491699219e+00,1.084110021591186523e+00,1.084049582481384277e+00,1.083989143371582031e+00,1.083928823471069336e+00,1.083868384361267090e+00,1.083807945251464844e+00,1.083747625350952148e+00,1.083687186241149902e+00,1.083626866340637207e+00,1.083566546440124512e+00,1.083506226539611816e+00,1.083445906639099121e+00,1.083385467529296875e+00,1.083325147628784180e+00,1.083264827728271484e+00,1.083204507827758789e+00,1.083144187927246094e+00,1.083083868026733398e+00,1.083023667335510254e+00,1.082963347434997559e+00,1.082903027534484863e+00,1.082842826843261719e+00,1.082782506942749023e+00,1.082722187042236328e+00,1.082661986351013184e+00,1.082601666450500488e+00,1.082541465759277344e+00,1.082481265068054199e+00,1.082421064376831055e+00,1.082360863685607910e+00
1.021035671234130859e+00,1.020982146263122559e+00,1.020928621292114258e+00,1.020874977111816406e+00,1.020821452140808105e+00,1.020767807960510254e+00,1.020714282989501953e+00,1.020660758018493652e+00,1.020607233047485352e+00,1.020553708076477051e+00,1.020500183105468750e+00,1.020446658134460449e+00,1.020393133163452148e+00,1.020339608192443848e+00,1.020286083221435547e+00,1.020232558250427246e+00,1.020179033279418945e+00,1.020125627517700195e+00,1.020072102546691895e+00,1.020018577575683594e+00,1.019965171813964844e+00,1.019911646842956543e+00,1.019858241081237793e+00,1.019804716110229492e+00,1.019751310348510742e+00,1.019697904586791992e+00,1.019644379615783691e+00,1.019590973854064941e+00,1.019537448883056641e+00,1.019484043121337891e+00,1.019430637359619141e+00,1.019377231597900391e+00,1.019323825836181641e+00,1.019270420074462891e+00,1.019217014312744141e+00,1.019163608551025391e+00,1.019110202789306641e+00,1.019056916236877441e+00,1.019003510475158691e+00,1.018950104713439941e+00,1.018896818161010742e+00,1.018843412399291992e+00,1.018790006637573242e+00,1.018736720085144043e+00,1.018683314323425293e+00,1.018630027770996094e+00,1.018576622009277344e+00,1.018523335456848145e+00,1.018470048904418945e+00,1.018416643142700195e+00,1.018363356590270996e+00,1.018310070037841797e+00,1.018256783485412598e+00,1.018203496932983398e+00,1.018150210380554199e+00,1.018096923828125000e+00,1.018043637275695801e+00,1.017990350723266602e+00,1.017937183380126953e+00,1.017883777618408203e+00,1.017830610275268555e+00,1.017777323722839355e+00,1.017724156379699707e+00,1.017670869827270508e+00,1.017617583274841309e+00,1.017564415931701660e+00,1.017511129379272461e+00,1.017457962036132812e+00,1.017404794692993164e+00,1.017351508140563965e+00,1.017298340797424316e+00,1.017245173454284668e+00,1.017192006111145020e+00,1.017138838768005371e+00,1.017085552215576172e+00,1.017032504081726074e+00,1.016979336738586426e+00,1.016926050186157227e+00,1.016873002052307129e+00,1.016819834709167480e+00
9.625105261802673340e-01,9.624629020690917969e-01,9.624153375625610352e-01,9.623677134513854980e-01,9.623201489448547363e-01,9.622724056243896484e-01,9.622248411178588867e-01,9.621772766113281250e-01,9.621297121047973633e-01,9.620821475982666016e-01,9.620345234870910645e-01,9.619869589805603027e-01,9.619393944740295410e-01,9.618918895721435547e-01,9.618443250656127930e-01,9.617967009544372559e-01,9.617491960525512695e-01,9.617016315460205078e-01,9.616541266441345215e-01,9.616066217422485352e-01,9.615589976310729980e-01,9.615114927291870117e-01,9.614639878273010254e-01,9.614165425300598145e-01,9.613690376281738281e-01,9.613214135169982910e-01,9.612739682197570801e-01,9.612264633178710938e-01,9.611790180206298828e-01,9.611315727233886719e-01,9.610840082168579102e-01,9.610365033149719238e-01,9.609890580177307129e-01,9.609416127204895020e-01,9.608941674232482910e-01,9.608467817306518555e-01,9.607992172241210938e-01,9.607517719268798828e-01,9.607043862342834473e-01,9.606569409370422363e-01,9.606094956398010254e-01,9.605619907379150391e-01,9.605146050453186035e-01,9.604672193527221680e-01,9.604198336601257324e-01,9.603724479675292969e-01,9.603249430656433105e-01,9.602775573730468750e-01,9.602301716804504395e-01,9.601827859878540039e-01,9.601354598999023438e-01,9.600879549980163574e-01,9.600405693054199219e-01,9.599932432174682617e-01,9.599459171295166016e-01,9.598985314369201660e-01,9.598510861396789551e-01,9.598037600517272949e-01,9.597564339637756348e-01,9.597091078758239746e-01,9.596617817878723145e-01,9.596143960952758789e-01,9.595670700073242188e-01,9.595197439193725586e-01,9.594724774360656738e-01,9.594251513481140137e-01,9.593777656555175781e-01,9.593304395675659180e-01,9.592831730842590332e-01,9.592359066009521484e-01,9.591886401176452637e-01,9.591412544250488281e-01,9.590939879417419434e-01,9.590467214584350586e-01,9.589994549751281738e-01,9.589522480964660645e-01,9.589048624038696289e-01,9.588575959205627441e-01,9.588103890419006348e-01,9.587631821632385254e-01
9.103307723999023438e-01,9.102882146835327148e-01,9.102456569671630859e-01,9.102030396461486816e-01,9.101604819297790527e-01,9.101178646087646484e-01,9.100753068923950195e-01,9.100327491760253906e-01,9.099901914596557617e-01,9.099476337432861328e-01,9.099050164222717285e-01,9.098624587059020996e-01,9.098199009895324707e-01,9.097774028778076172e-01,9.097349047660827637e-01,9.096922278404235840e-01,9.096497297286987305e-01,9.096072316169738770e-01,9.095647335052490234e-01,9.095222353935241699e-01,9.094796180725097656e-01,9.094371199607849121e-01,9.093946218490600586e-01,9.093521237373352051e-01,9.093096852302551270e-01,9.092670679092407227e-01,9.092246294021606445e-01,9.091821312904357910e-01,9.091396331787109375e-01,9.090971946716308594e-01,9.090546369552612305e-01,9.090121984481811523e-01,9.089697003364562988e-01,9.089272618293762207e-01,9.088848233222961426e-01,9.088422656059265137e-01,9.087998867034912109e-01,9.087574481964111328e-01,9.087150096893310547e-01,9.086725711822509766e-01,9.086300730705261230e-01,9.085876345634460449e-01,9.085451960563659668e-01,9.085028171539306641e-01,9.084603786468505859e-01,9.084178805351257324e-01,9.083755016326904297e-01,9.083331227302551270e-01,9.082907438278198242e-01,9.082483649253845215e-01,9.082058668136596680e-01,9.081634879112243652e-01,9.081211090087890625e-01,9.080787301063537598e-01,9.080364108085632324e-01,9.079939126968383789e-01,9.079515933990478516e-01,9.079092144966125488e-01,9.078668355941772461e-01,9.078245162963867188e-01,9.077820777893066406e-01,9.077397584915161133e-01,9.076973795890808105e-01,9.076550602912902832e-01,9.076127409934997559e-01,9.075704216957092285e-01,9.075279831886291504e-01,9.074857234954833984e-01,9.074434041976928711e-01,9.074010848999023438e-01,9.073587656021118164e-01,9.073163866996765137e-01,9.072740674018859863e-01,9.072318077087402344e-01,9.071894884109497070e-01,9.071472287178039551e-01,9.071048498153686523e-01,9.070625901222229004e-01,9.070203304290771484e-01,9.069780707359313965e-01
8.635177016258239746e-01,8.634793758392333984e-01,8.634410500526428223e-01,8.634027838706970215e-01,8.633643984794616699e-01,8.633260726928710938e-01,8.632878065109252930e-01,8.632494807243347168e-01,8.632112145423889160e-01,8.631728291511535645e-01,8.631345629692077637e-01,8.630962967872619629e-01,8.630580306053161621e-01,8.630197644233703613e-01,8.629813790321350098e-01,8.629431128501892090e-01,8.629048466682434082e-01,8.628665804862976074e-01,8.628283739089965820e-01,8.627900481224060059e-01,8.627517819404602051e-01,8.627135157585144043e-01,8.626753091812133789e-01,8.626370429992675781e-01,8.625987172126770020e-01,8.625605106353759766e-01,8.625223040580749512e-01,8.624840378761291504e-01,8.624458312988281250e-01,8.624075651168823242e-01,8.623693585395812988e-01,8.623310923576354980e-01,8.622929453849792480e-01,8.622547388076782227e-01,8.622165322303771973e-01,8.621782660484313965e-01,8.621400594711303711e-01,8.621018528938293457e-01,8.620636463165283203e-01,8.620254993438720703e-01,8.619872331619262695e-01,8.619490265846252441e-01,8.619108796119689941e-01,8.618727326393127441e-01,8.618345260620117188e-01,8.617963194847106934e-01,8.617581129074096680e-01,8.617199659347534180e-01,8.616818189620971680e-01,8.616436719894409180e-01,8.616054654121398926e-01,8.615673184394836426e-01,8.615291714668273926e-01,8.614910244941711426e-01,8.614529371261596680e-01,8.614146709442138672e-01,8.613765835762023926e-01,8.613384366035461426e-01,8.613003492355346680e-01,8.612622022628784180e-01,8.612240552902221680e-01,8.611859083175659180e-01,8.611478209495544434e-01,8.611097335815429688e-01,8.610716462135314941e-01,8.610334396362304688e-01,8.609953522682189941e-01,8.609572649002075195e-01,8.609191775321960449e-01,8.608810901641845703e-01,8.608429431915283203e-01,8.608048558235168457e-01,8.607667684555053711e-01,8.607287406921386719e-01,8.606906533241271973e-01,8.606525063514709473e-01,8.606144785881042480e-01,8.605763912200927734e-01,8.605383634567260742e-01,8.605003356933593750e-01
