3.786342620849609375e+00,3.745780944824218750e+00,3.706079006195068359e+00,3.667209863662719727e+00,3.629148244857788086e+00,3.591867923736572266e+00,3.555345773696899414e+00,3.519558906555175781e+00,3.484485149383544922e+00,3.450103759765625000e+00,3.416393995285034180e+00,3.383336782455444336e+00,3.350913047790527344e+00,3.319104909896850586e+00,3.287895202636718750e+00,3.257266998291015625e+00,3.227203845977783203e+00,3.197690725326538086e+00,3.168712139129638672e+00,3.140254497528076172e+00,3.112303256988525391e+00,3.084845304489135742e+00,3.057867527008056641e+00,3.031357765197753906e+00,3.005303382873535156e+00,2.979693174362182617e+00,2.954515695571899414e+00,2.929760217666625977e+00,2.905416011810302734e+00,2.881473064422607422e+00,2.857921600341796875e+00,2.834752082824707031e+00,2.811954975128173828e+00,2.789521932601928711e+00,2.767443895339965820e+00,2.745712518692016602e+00,2.724319696426391602e+00,6.867092847824096680e-01,6.776989102363586426e-01,6.689219474792480469e-01,6.603693366050720215e-01,6.520327329635620117e-01,6.511001586914062500e-01,6.533055901527404785e-01,6.555259227752685547e-01,6.577779650688171387e-01,6.600852608680725098e-01,6.623718738555908203e-01,6.813773512840270996e-01,7.073748707771301270e-01,2.456381082534790039e+00,2.439245223999023438e+00,2.422346830368041992e+00,2.405681133270263672e+00,2.389242887496948242e+00,2.373028039932250977e+00,2.357031583786010742e+00,2.341249227523803711e+00,2.325677156448364258e+00,2.310310602188110352e+00,2.295145988464355469e+00,2.280179023742675781e+00,5.144889950752258301e-01,5.045650601387023926e-01,4.947566986083984375e-01,4.820598363876342773e-01,4.767495393753051758e-01,4.723711311817169189e-01,4.682409763336181641e-01,4.658223092555999756e-01,4.634285271167755127e-01,4.610591530799865723e-01,4.588700830936431885e-01,4.582091271877288818e-01,4.583756923675537109e-01,4.600365757942199707e-01,4.617095887660980225e-01,4.646357297897338867e-01,4.817102253437042236e-01,4.870483279228210449e-01
3.786345243453979492e+00,3.745783329010009766e+00,3.706081867218017578e+00,3.667212724685668945e+00,3.629150629043579102e+00,3.591870069503784180e+00,3.555347919464111328e+00,3.519561052322387695e+00,3.484487295150756836e+00,3.450105905532836914e+00,3.416396141052246094e+00,3.383338928222656250e+00,3.350915431976318359e+00,3.319107294082641602e+00,3.287897348403930664e+00,3.257268905639648438e+00,3.227205753326416016e+00,3.197692394256591797e+00,3.168714046478271484e+00,3.140256166458129883e+00,3.112304925918579102e+00,3.084846973419189453e+00,3.057869434356689453e+00,3.031359434127807617e+00,3.005305051803588867e+00,2.979694604873657227e+00,2.954517364501953125e+00,2.929761648178100586e+00,2.905417680740356445e+00,2.881474733352661133e+00,2.857923269271850586e+00,2.834753513336181641e+00,2.811956644058227539e+00,2.789523363113403320e+00,2.767445325851440430e+00,2.745713949203491211e+00,6.912941932678222656e-01,6.823454499244689941e-01,6.736255884170532227e-01,6.650462150573730469e-01,6.565918922424316406e-01,6.530929207801818848e-01,6.543100476264953613e-01,6.555317044258117676e-01,6.573519110679626465e-01,6.595999002456665039e-01,6.618633270263671875e-01,6.642008423805236816e-01,6.875666975975036621e-01,7.137023806571960449e-01,2.456382036209106445e+00,2.439246177673339844e+00,2.422348022460937500e+00,2.405682086944580078e+00,2.389243841171264648e+00,2.373028993606567383e+00,2.357032537460327148e+00,2.341250419616699219e+00,2.325678110122680664e+00,2.310311555862426758e+00,2.295146942138671875e+00,2.280179977416992188e+00,5.154300332069396973e-01,5.054701566696166992e-01,4.945921599864959717e-01,4.819037020206451416e-01,4.768169224262237549e-01,4.724372029304504395e-01,4.681372344493865967e-01,4.648535251617431641e-01,4.624696373939514160e-01,4.601100683212280273e-01,4.580896794795989990e-01,4.574309289455413818e-01,4.584879279136657715e-01,4.601496458053588867e-01,4.618234932422637939e-01,4.652960896492004395e-01,4.824201166629791260e-01,2.040648221969604492e+00
3.786347866058349609e+00,3.745786190032958984e+00,3.706084489822387695e+00,3.667215108871459961e+00,3.629152774810791016e+00,3.591872453689575195e+00,3.555350303649902344e+00,3.519563198089599609e+00,3.484489440917968750e+00,3.450108051300048828e+00,3.416398286819458008e+00,3.383341312408447266e+00,3.350917339324951172e+00,3.319109201431274414e+00,3.287899255752563477e+00,3.257270812988281250e+00,3.227207422256469727e+00,3.197694301605224609e+00,3.168715715408325195e+00,3.140258073806762695e+00,3.112306594848632812e+00,3.084848880767822266e+00,3.057871103286743164e+00,3.031360864639282227e+00,3.005306720733642578e+00,2.979696273803710938e+00,2.954518795013427734e+00,2.929763317108154297e+00,2.905419111251831055e+00,2.881476163864135742e+00,2.857924938201904297e+00,2.834755182266235352e+00,2.811958074569702148e+00,2.789524793624877930e+00,2.767446756362915039e+00,6.946219801902770996e-01,6.858133077621459961e-01,6.771638989448547363e-01,6.687298417091369629e-01,6.605033874511718750e-01,6.554341316223144531e-01,6.564982533454895020e-01,6.577869653701782227e-01,6.590216755867004395e-01,6.602609753608703613e-01,6.615050435066223145e-01,6.637247800827026367e-01,6.722087860107421875e-01,6.969146132469177246e-01,2.473761558532714844e+00,2.456383228302001953e+00,2.439247369766235352e+00,2.422349214553833008e+00,2.405683040618896484e+00,2.389245033264160156e+00,2.373029947280883789e+00,2.357033491134643555e+00,2.341251373291015625e+00,2.325679063796997070e+00,2.310312509536743164e+00,2.295147895812988281e+00,2.280180931091308594e+00,5.163745880126953125e-01,5.063784718513488770e-01,4.944278001785278320e-01,4.817476570606231689e-01,4.768842458724975586e-01,4.725033044815063477e-01,4.682022035121917725e-01,4.639786183834075928e-01,4.615146815776824951e-01,4.591648578643798828e-01,4.573118686676025391e-01,4.569496512413024902e-01,4.586002528667449951e-01,4.602628052234649658e-01,4.619374275207519531e-01,4.659583568572998047e-01,4.831320047378540039e-01,2.040648937225341797e+00
3.786350727081298828e+00,3.745788812637329102e+00,3.706086874008178711e+00,3.667217493057250977e+00,3.629155158996582031e+00,3.591874837875366211e+00,3.555352449417114258e+00,3.519565582275390625e+00,3.484491586685180664e+00,3.450110435485839844e+00,3.416400671005249023e+00,3.383343219757080078e+00,3.350919485092163086e+00,3.319111347198486328e+00,3.287901163101196289e+00,3.257272720336914062e+00,3.227209329605102539e+00,3.197696208953857422e+00,3.168717622756958008e+00,3.140259981155395508e+00,3.112308740615844727e+00,3.084850549697875977e+00,3.057872772216796875e+00,3.031362533569335938e+00,3.005308389663696289e+00,2.979697942733764648e+00,2.954520463943481445e+00,2.929764747619628906e+00,2.905420541763305664e+00,2.881477832794189453e+00,2.857926368713378906e+00,2.834756612777709961e+00,2.811959505081176758e+00,2.789526224136352539e+00,6.967925429344177246e-01,6.888003349304199219e-01,6.800758838653564453e-01,6.715696454048156738e-01,6.632735133171081543e-01,6.588465571403503418e-01,6.594676971435546875e-01,6.600899100303649902e-01,6.607133746147155762e-01,6.619850397109985352e-01,6.633703112602233887e-01,6.647614240646362305e-01,6.661584377288818359e-01,6.804120540618896484e-01,7.065202593803405762e-01,2.473762750625610352e+00,2.456384420394897461e+00,2.439248561859130859e+00,2.422350168228149414e+00,2.405684232711791992e+00,2.389245986938476562e+00,2.373030900955200195e+00,2.357034683227539062e+00,2.341252326965332031e+00,2.325680255889892578e+00,2.310313701629638672e+00,2.295148849487304688e+00,2.280181884765625000e+00,5.173225402832031250e-01,5.072900056838989258e-01,4.942635595798492432e-01,4.815916717052459717e-01,4.769516587257385254e-01,4.725694954395294189e-01,4.682671129703521729e-01,4.640423953533172607e-01,4.605636894702911377e-01,4.582234919071197510e-01,4.565367400646209717e-01,4.570612609386444092e-01,4.587126076221466064e-01,4.603759646415710449e-01,4.620514810085296631e-01,4.666225314140319824e-01,4.838460683822631836e-01,2.040649652481079102e+00
3.786353349685668945e+00,3.745791196823120117e+00,3.706089258193969727e+00,3.667219877243041992e+00,3.629157543182373047e+00,3.591876983642578125e+00,3.555354833602905273e+00,3.519567728042602539e+00,3.484494209289550781e+00,3.450112581253051758e+00,3.416402816772460938e+00,3.383345365524291992e+00,3.350921392440795898e+00,3.319113254547119141e+00,3.287903070449829102e+00,3.257274627685546875e+00,3.227211236953735352e+00,3.197697877883911133e+00,3.168719768524169922e+00,3.140261888504028320e+00,3.112310409545898438e+00,3.084852218627929688e+00,3.057874441146850586e+00,3.031364202499389648e+00,3.005309820175170898e+00,2.979699373245239258e+00,2.954521894454956055e+00,2.929766654968261719e+00,2.905422449111938477e+00,2.881479263305664062e+00,2.857927799224853516e+00,2.834758043289184570e+00,2.811960935592651367e+00,6.989766359329223633e-01,6.913586854934692383e-01,6.830130219459533691e-01,6.744335889816284180e-01,6.660670042037963867e-01,6.622946262359619141e-01,6.629222631454467773e-01,6.635510921478271484e-01,6.641811132431030273e-01,6.648123264312744141e-01,6.654447317123413086e-01,6.661613583564758301e-01,6.675642132759094238e-01,6.764602065086364746e-01,6.931234002113342285e-01,7.163943648338317871e-01,2.473763704299926758e+00,2.456385374069213867e+00,2.439249515533447266e+00,2.422351121902465820e+00,2.405685186386108398e+00,2.389246940612792969e+00,2.373032093048095703e+00,2.357035636901855469e+00,2.341253519058227539e+00,2.325681209564208984e+00,2.310314655303955078e+00,2.295149803161621094e+00,2.280182838439941406e+00,5.182739496231079102e-01,5.074470043182373047e-01,4.940993487834930420e-01,4.814844727516174316e-01,4.770190417766571045e-01,4.726356267929077148e-01,4.683321118354797363e-01,4.641062021255493164e-01,4.599558711051940918e-01,4.572859704494476318e-01,4.557642340660095215e-01,4.571728408336639404e-01,4.588250517845153809e-01,4.604892432689666748e-01,4.621655344963073730e-01,4.669245779514312744e-01,4.833506941795349121e-01,2.040650367736816406e+00
3.786355972290039062e+00,3.745793819427490234e+00,3.706091880798339844e+00,3.667222261428833008e+00,3.629159927368164062e+00,3.591879367828369141e+00,3.555357456207275391e+00,3.519570350646972656e+00,3.484496355056762695e+00,3.450114727020263672e+00,3.416404724121093750e+00,3.383347272872924805e+00,3.350923538208007812e+00,3.319115161895751953e+00,3.287904977798461914e+00,3.257276535034179688e+00,3.227213382720947266e+00,3.197700023651123047e+00,3.168721437454223633e+00,3.140263557434082031e+00,3.112312078475952148e+00,3.084853887557983398e+00,3.057876110076904297e+00,3.031365871429443359e+00,3.005311489105224609e+00,2.979701042175292969e+00,2.954523801803588867e+00,2.929768085479736328e+00,2.905423879623413086e+00,2.881480693817138672e+00,2.857929229736328125e+00,2.834759473800659180e+00,7.011745572090148926e-01,6.935088634490966797e-01,6.859756112098693848e-01,6.773220896720886230e-01,6.688842177391052246e-01,6.657789945602416992e-01,6.664132475852966309e-01,6.670487523078918457e-01,6.676854491233825684e-01,6.683233380317687988e-01,6.689624786376953125e-01,6.696028113365173340e-01,6.698941588401794434e-01,6.776067018508911133e-01,6.922651529312133789e-01,7.098295688629150391e-01,2.491390943527221680e+00,2.473764896392822266e+00,2.456386566162109375e+00,2.439250707626342773e+00,2.422352313995361328e+00,2.405686140060424805e+00,2.389248132705688477e+00,2.373033046722412109e+00,2.357036828994750977e+00,2.341254472732543945e+00,2.325682163238525391e+00,2.310315608978271484e+00,2.295150756835937500e+00,2.280183792114257812e+00,5.192289352416992188e-01,5.072739720344543457e-01,4.939353168010711670e-01,4.815531969070434570e-01,4.770864844322204590e-01,4.727018475532531738e-01,4.683970510959625244e-01,4.641700088977813721e-01,4.600185155868530273e-01,4.563522636890411377e-01,4.556433856487274170e-01,4.572845101356506348e-01,4.589375555515289307e-01,4.605195224285125732e-01,4.621122181415557861e-01,4.637774527072906494e-01,4.776998758316040039e-01,2.040651321411132812e+00
3.786358356475830078e+00,3.745796442031860352e+00,3.706094264984130859e+00,3.667224645614624023e+00,3.629162311553955078e+00,3.591881990432739258e+00,3.555359601974487305e+00,3.519572496414184570e+00,3.484498500823974609e+00,3.450116872787475586e+00,3.416406869888305664e+00,3.383349418640136719e+00,3.350925445556640625e+00,3.319117069244384766e+00,3.287906885147094727e+00,3.257278680801391602e+00,3.227215290069580078e+00,3.197701930999755859e+00,3.168723344802856445e+00,3.140265226364135742e+00,3.112313985824584961e+00,3.084855794906616211e+00,3.057877779006958008e+00,3.031367540359497070e+00,3.005313158035278320e+00,2.979702949523925781e+00,2.954525232315063477e+00,2.929769754409790039e+00,2.905425310134887695e+00,2.881482362747192383e+00,2.857930660247802734e+00,2.834760904312133789e+00,6.956724524497985840e-01,6.881258487701416016e-01,6.802354454994201660e-01,6.717252731323242188e-01,6.693001985549926758e-01,6.699412465095520020e-01,6.705834269523620605e-01,6.712269186973571777e-01,6.718716025352478027e-01,6.720499396324157715e-01,6.720052957534790039e-01,6.735545396804809570e-01,6.797922253608703613e-01,6.940231323242187500e-01,7.088624835014343262e-01,2.509271144866943359e+00,2.491392135620117188e+00,2.473766088485717773e+00,2.456387758255004883e+00,2.439251661300659180e+00,2.422353267669677734e+00,2.405687332153320312e+00,2.389249324798583984e+00,2.373034238815307617e+00,2.357037782669067383e+00,2.341255426406860352e+00,2.325683116912841797e+00,2.310316562652587891e+00,2.295151710510253906e+00,2.280184745788574219e+00,5.201874375343322754e-01,5.071010589599609375e-01,4.937714040279388428e-01,4.816218614578247070e-01,4.771538972854614258e-01,4.727680087089538574e-01,4.684620797634124756e-01,4.642338454723358154e-01,4.600812494754791260e-01,4.560022950172424316e-01,4.556989669799804688e-01,4.572584331035614014e-01,4.588285684585571289e-01,4.604095518589019775e-01,4.620015025138854980e-01,4.636771678924560547e-01,4.721796512603759766e-01,4.889841675758361816e-01
3.786360979080200195e+00,3.745798826217651367e+00,3.706096649169921875e+00,3.667227506637573242e+00,3.629164934158325195e+00,3.591884374618530273e+00,3.555361986160278320e+00,3.519574642181396484e+00,3.484500646591186523e+00,3.450119018554687500e+00,3.416409015655517578e+00,3.383351564407348633e+00,3.350927352905273438e+00,3.319119453430175781e+00,3.287909269332885742e+00,3.257280588150024414e+00,3.227217197418212891e+00,3.197703599929809570e+00,3.168725013732910156e+00,3.140267133712768555e+00,3.112315654754638672e+00,3.084857463836669922e+00,3.057879447937011719e+00,3.031369447708129883e+00,3.005315065383911133e+00,2.979704618453979492e+00,2.954526901245117188e+00,2.929771184921264648e+00,2.905426979064941406e+00,2.881483793258666992e+00,2.857932090759277344e+00,6.978495121002197266e-01,6.902559399604797363e-01,6.828258633613586426e-01,6.745905876159667969e-01,6.728589534759521484e-01,6.735067367553710938e-01,6.741558313369750977e-01,6.742197275161743164e-01,6.741747260093688965e-01,6.741297841072082520e-01,6.740847826004028320e-01,6.784625649452209473e-01,6.840583086013793945e-01,6.963159441947937012e-01,7.112545967102050781e-01,2.527409791946411133e+00,2.509272336959838867e+00,2.491393089294433594e+00,2.473767042160034180e+00,2.456388711929321289e+00,2.439252853393554688e+00,2.422354459762573242e+00,2.405688524246215820e+00,2.389250278472900391e+00,2.373035192489624023e+00,2.357038736343383789e+00,2.341256380081176758e+00,2.325684070587158203e+00,2.310317516326904297e+00,2.295152664184570312e+00,2.280185699462890625e+00,5.209879279136657715e-01,5.069282650947570801e-01,4.936075210571289062e-01,4.816906154155731201e-01,4.773938655853271484e-01,4.732260406017303467e-01,4.691304266452789307e-01,4.651050865650177002e-01,4.611481428146362305e-01,4.572580754756927490e-01,4.555913209915161133e-01,4.571500420570373535e-01,4.587194323539733887e-01,4.602997004985809326e-01,4.618908762931823730e-01,4.635769426822662354e-01,4.673213362693786621e-01,4.832016229629516602e-01
3.786363601684570312e+00,3.745801448822021484e+00,3.706099510192871094e+00,3.667229890823364258e+00,3.629167318344116211e+00,3.591886758804321289e+00,3.555364131927490234e+00,3.519577026367187500e+00,3.484502792358398438e+00,3.450121164321899414e+00,3.416411161422729492e+00,3.383353471755981445e+00,3.350929737091064453e+00,3.319121360778808594e+00,3.287911176681518555e+00,3.257282495498657227e+00,3.227219104766845703e+00,3.197705507278442383e+00,3.168726921081542969e+00,3.140268802642822266e+00,3.112317323684692383e+00,3.084859132766723633e+00,3.057881355285644531e+00,3.031371116638183594e+00,3.005316734313964844e+00,2.979706048965454102e+00,2.954528570175170898e+00,2.929772615432739258e+00,2.905428409576416016e+00,2.881485223770141602e+00,7.023672461509704590e-01,6.935042738914489746e-01,6.849232316017150879e-01,6.774803996086120605e-01,6.764487624168395996e-01,6.764035224914550781e-01,6.763582229614257812e-01,6.763129830360412598e-01,6.762677431106567383e-01,6.762225031852722168e-01,6.778569817543029785e-01,6.834427118301391602e-01,6.891213059425354004e-01,6.986239552497863770e-01,7.136629223823547363e-01,2.545812368392944336e+00,2.527410745620727539e+00,2.509273290634155273e+00,2.491394281387329102e+00,2.473768234252929688e+00,2.456389904022216797e+00,2.439254045486450195e+00,2.422355651855468750e+00,2.405689477920532227e+00,2.389251232147216797e+00,2.373036146163940430e+00,2.357039690017700195e+00,2.341257333755493164e+00,2.325685024261474609e+00,2.310318470001220703e+00,2.295153617858886719e+00,2.280186653137207031e+00,5.208055973052978516e-01,5.074142813682556152e-01,4.954279959201812744e-01,4.839878082275390625e-01,4.788406491279602051e-01,4.746477007865905762e-01,4.705275297164916992e-01,4.664782583713531494e-01,4.624980986118316650e-01,4.585852622985839844e-01,4.554837048053741455e-01,4.570416808128356934e-01,4.586103856563568115e-01,4.601898789405822754e-01,4.617802798748016357e-01,4.634767174720764160e-01,4.654661417007446289e-01,4.775542616844177246e-01
3.786366224288940430e+00,3.745804309844970703e+00,3.706102132797241211e+00,3.667232275009155273e+00,3.629169702529907227e+00,3.591888904571533203e+00,3.555366516113281250e+00,3.519579172134399414e+00,3.484504938125610352e+00,3.450123310089111328e+00,3.416413545608520508e+00,3.383355855941772461e+00,3.350931882858276367e+00,3.319123506546020508e+00,3.287913084030151367e+00,3.257284402847290039e+00,3.227220773696899414e+00,3.197707414627075195e+00,3.168728590011596680e+00,3.140270709991455078e+00,3.112319469451904297e+00,3.084861040115356445e+00,3.057883024215698242e+00,3.031372785568237305e+00,3.005318164825439453e+00,2.979707717895507812e+00,2.954530000686645508e+00,2.929774284362792969e+00,2.905429840087890625e+00,2.881486654281616211e+00,6.993550062179565430e-01,6.905676126480102539e-01,6.819983124732971191e-01,6.777965426445007324e-01,6.782712936401367188e-01,6.784648299217224121e-01,6.784192323684692383e-01,6.783736944198608398e-01,6.783282160758972168e-01,6.828281283378601074e-01,6.884964704513549805e-01,6.942597031593322754e-01,7.009474039077758789e-01,7.160875797271728516e-01,2.564485073089599609e+00,2.545813560485839844e+00,2.527411937713623047e+00,2.509274482727050781e+00,2.491395473480224609e+00,2.473769187927246094e+00,2.456391096115112305e+00,2.439254999160766602e+00,2.422356605529785156e+00,2.405690431594848633e+00,2.389252185821533203e+00,2.373037099838256836e+00,2.357040643692016602e+00,2.341258287429809570e+00,2.325685977935791016e+00,2.310319423675537109e+00,2.295154809951782227e+00,2.280187606811523438e+00,5.235995054244995117e-01,5.108458399772644043e-01,4.986988008022308350e-01,4.871118366718292236e-01,4.801448881626129150e-01,4.760778844356536865e-01,4.719329476356506348e-01,4.678595960140228271e-01,4.638558924198150635e-01,4.599201679229736328e-01,4.560506641864776611e-01,4.569334387779235840e-01,4.585013389587402344e-01,4.600800871849060059e-01,4.616697430610656738e-01,4.633765816688537598e-01,4.652067422866821289e-01,4.720373749732971191e-01
3.786369085311889648e+00,3.745806694030761719e+00,3.706104516983032227e+00,3.667234659194946289e+00,3.629172086715698242e+00,3.591891288757324219e+00,3.555368661880493164e+00,3.519581317901611328e+00,3.484507083892822266e+00,3.450125694274902344e+00,3.416415691375732422e+00,3.383358001708984375e+00,3.350933790206909180e+00,3.319125413894653320e+00,3.287914991378784180e+00,3.257286310195922852e+00,3.227222681045532227e+00,3.197709083557128906e+00,3.168730497360229492e+00,3.140272617340087891e+00,3.112321138381958008e+00,3.084862709045410156e+00,3.057884693145751953e+00,3.031374454498291016e+00,3.005319833755493164e+00,2.979709386825561523e+00,2.954531669616699219e+00,2.929775714874267578e+00,2.905431509017944336e+00,7.053534388542175293e-01,6.963686943054199219e-01,6.876557469367980957e-01,6.791580915451049805e-01,6.784251332283020020e-01,6.789007782936096191e-01,6.793771386146545410e-01,6.798541545867919922e-01,6.821153759956359863e-01,6.878728270530700684e-01,6.936255693435668945e-01,6.994753479957580566e-01,7.054246664047241211e-01,7.185288071632385254e-01,2.583433866500854492e+00,2.564486265182495117e+00,2.545814752578735352e+00,2.527413129806518555e+00,2.509275674819946289e+00,2.491396665573120117e+00,2.473770618438720703e+00,2.456392049789428711e+00,2.439256191253662109e+00,2.422357797622680664e+00,2.405691623687744141e+00,2.389253377914428711e+00,2.373038291931152344e+00,2.357041597366333008e+00,2.341259241104125977e+00,2.325687170028686523e+00,2.310320615768432617e+00,2.295155763626098633e+00,2.280188560485839844e+00,5.272542834281921387e-01,5.143241882324218750e-01,5.020130872726440430e-01,4.902765154838562012e-01,4.811803400516510010e-01,4.775167703628540039e-01,4.733467996120452881e-01,4.692490994930267334e-01,4.652217328548431396e-01,4.612628817558288574e-01,4.573708176612854004e-01,4.568251967430114746e-01,4.583923518657684326e-01,4.599703252315521240e-01,4.615592360496520996e-01,4.632764756679534912e-01,4.651058316230773926e-01,4.694961309432983398e-01
3.786371707916259766e+00,3.745809316635131836e+00,3.706106901168823242e+00,3.667237281799316406e+00,3.629174470901489258e+00,3.591893672943115234e+00,3.555371046066284180e+00,3.519583940505981445e+00,3.484509706497192383e+00,3.450127840042114258e+00,3.416417598724365234e+00,3.383359909057617188e+00,3.350935697555541992e+00,3.319127321243286133e+00,3.287916898727416992e+00,3.257288217544555664e+00,3.227224588394165039e+00,3.197711229324340820e+00,3.168732643127441406e+00,3.140274524688720703e+00,3.112322807312011719e+00,3.084864377975463867e+00,3.057886362075805664e+00,3.031376123428344727e+00,3.005321502685546875e+00,2.979710817337036133e+00,2.954533100128173828e+00,2.929777622222900391e+00,2.905433177947998047e+00,7.023096084594726562e-01,6.934078335762023926e-01,6.847683191299438477e-01,6.785790324211120605e-01,6.790548563003540039e-01,6.795313954353332520e-01,6.800086498260498047e-01,6.805887222290039062e-01,6.878177523612976074e-01,6.978943943977355957e-01,7.047699689865112305e-01,7.108100056648254395e-01,7.209866642951965332e-01,2.602664709091186523e+00,2.583435058593750000e+00,2.564487457275390625e+00,2.545815944671630859e+00,2.527414321899414062e+00,2.509276866912841797e+00,2.491397857666015625e+00,2.473771572113037109e+00,2.456393241882324219e+00,2.439257144927978516e+00,2.422358751296997070e+00,2.405692577362060547e+00,2.389254331588745117e+00,2.373039245605468750e+00,2.357042789459228516e+00,2.341260433197021484e+00,2.325688123703002930e+00,2.310321569442749023e+00,2.295156478881835938e+00,2.280189514160156250e+00,2.265416383743286133e+00,5.178501605987548828e-01,5.053717494010925293e-01,4.934805929660797119e-01,4.822203218936920166e-01,4.785825014114379883e-01,4.747691750526428223e-01,4.706469178199768066e-01,4.665955901145935059e-01,4.626134335994720459e-01,4.586986899375915527e-01,4.567170143127441406e-01,4.582834243774414062e-01,4.598606526851654053e-01,4.614487886428833008e-01,4.631763994693756104e-01,4.650049805641174316e-01,4.676236808300018311e-01
3.786374330520629883e+00,3.745811700820922852e+00,3.706109285354614258e+00,3.667239665985107422e+00,3.629176855087280273e+00,3.591895818710327148e+00,3.555373668670654297e+00,3.519586086273193359e+00,3.484511852264404297e+00,3.450129985809326172e+00,3.416419744491577148e+00,3.383362054824829102e+00,3.350937843322753906e+00,3.319129228591918945e+00,3.287918806076049805e+00,3.257290124893188477e+00,3.227226734161376953e+00,3.197713136672973633e+00,3.168734312057495117e+00,3.140276193618774414e+00,3.112324476242065430e+00,3.084866285324096680e+00,3.057888031005859375e+00,3.031377553939819336e+00,3.005323171615600586e+00,2.979712486267089844e+00,2.954535007476806641e+00,2.929779052734375000e+00,2.905434846878051758e+00,6.992919445037841797e-01,6.904719471931457520e-01,6.819050312042236328e-01,6.792090535163879395e-01,6.796858310699462891e-01,6.801632046699523926e-01,6.807215213775634766e-01,6.828612089157104492e-01,6.936163306236267090e-01,7.038648724555969238e-01,7.144208550453186035e-01,7.234614491462707520e-01,2.622183799743652344e+00,2.602665901184082031e+00,2.583436250686645508e+00,2.564488649368286133e+00,2.545817375183105469e+00,2.527415513992309570e+00,2.509278059005737305e+00,2.491398811340332031e+00,2.473772764205932617e+00,2.456394195556640625e+00,2.439258337020874023e+00,2.422359704971313477e+00,2.405693531036376953e+00,2.389255285263061523e+00,2.373040437698364258e+00,2.357043743133544922e+00,2.341261386871337891e+00,2.325689077377319336e+00,2.310322523117065430e+00,2.295157432556152344e+00,2.280190467834472656e+00,2.265417337417602539e+00,5.214248299598693848e-01,5.087756514549255371e-01,4.967256486415863037e-01,4.851333498954772949e-01,4.796112179756164551e-01,4.760124981403350830e-01,4.720530509948730469e-01,4.679776132106781006e-01,4.639719724655151367e-01,4.600342214107513428e-01,4.566088616847991943e-01,4.581745564937591553e-01,4.597510099411010742e-01,4.613384008407592773e-01,4.630763828754425049e-01,4.649042189121246338e-01,4.667465090751647949e-01
3.786376953125000000e+00,3.745814323425292969e+00,3.706111907958984375e+00,3.667242050170898438e+00,3.629179239273071289e+00,3.591898679733276367e+00,3.555375814437866211e+00,3.519588470458984375e+00,3.484513998031616211e+00,3.450132131576538086e+00,3.416421890258789062e+00,3.383364200592041016e+00,3.350939750671386719e+00,3.319131374359130859e+00,3.287921190261840820e+00,3.257292270660400391e+00,3.227228641510009766e+00,3.197715044021606445e+00,3.168736219406127930e+00,3.140277862548828125e+00,3.112326383590698242e+00,3.084867954254150391e+00,3.057889699935913086e+00,3.031379222869873047e+00,3.005325078964233398e+00,2.979714393615722656e+00,2.954536437988281250e+00,2.929780721664428711e+00,7.052953243255615234e-01,6.963001489639282227e-01,6.875609159469604492e-01,6.793632507324218750e-01,6.798402667045593262e-01,6.803178787231445312e-01,6.808543205261230469e-01,6.818428635597229004e-01,6.887918710708618164e-01,6.995133757591247559e-01,7.099382877349853516e-01,7.206785678863525391e-01,2.641998052597045898e+00,2.622184991836547852e+00,2.602667093276977539e+00,2.583437442779541016e+00,2.564490079879760742e+00,2.545818567276000977e+00,2.527416706085205078e+00,2.509279251098632812e+00,2.491400003433227539e+00,2.473773956298828125e+00,2.456395387649536133e+00,2.439259290695190430e+00,2.422360897064208984e+00,2.405694723129272461e+00,2.389256477355957031e+00,2.373041391372680664e+00,2.357044935226440430e+00,2.341262340545654297e+00,2.325690031051635742e+00,2.310323476791381836e+00,2.295158386230468750e+00,2.280191421508789062e+00,2.265418291091918945e+00,5.250492095947265625e-01,5.122257471084594727e-01,5.000137090682983398e-01,4.882722198963165283e-01,4.806443750858306885e-01,4.770302474498748779e-01,4.734676778316497803e-01,4.693678319454193115e-01,4.653384387493133545e-01,4.613776206970214844e-01,4.574836194515228271e-01,4.580657184123992920e-01,4.596414864063262939e-01,4.612281024456024170e-01,4.629763960838317871e-01,4.648034274578094482e-01,4.666449427604675293e-01
3.786379337310791016e+00,3.745816707611083984e+00,3.706114292144775391e+00,3.667244911193847656e+00,3.629181861877441406e+00,3.591900825500488281e+00,3.555378198623657227e+00,3.519590616226196289e+00,3.484516143798828125e+00,3.450134277343750000e+00,3.416424036026000977e+00,3.383366107940673828e+00,3.350941896438598633e+00,3.319133520126342773e+00,3.287923097610473633e+00,3.257294178009033203e+00,3.227230548858642578e+00,3.197716712951660156e+00,3.168737888336181641e+00,3.140279769897460938e+00,3.112328052520751953e+00,3.084869623184204102e+00,3.057891368865966797e+00,3.031381130218505859e+00,3.005326509475708008e+00,2.979715824127197266e+00,2.954538106918334961e+00,2.929782152175903320e+00,7.022520303726196289e-01,6.933338642120361328e-01,6.846742630004882812e-01,6.799947023391723633e-01,6.804725527763366699e-01,6.809871792793273926e-01,6.819761395454406738e-01,6.834031343460083008e-01,6.948264837265014648e-01,7.055116891860961914e-01,7.161175012588500977e-01,2.662113904953002930e+00,2.641999244689941406e+00,2.622186422348022461e+00,2.602668285369873047e+00,2.583438873291015625e+00,2.564491271972656250e+00,2.545819520950317383e+00,2.527417898178100586e+00,2.509280204772949219e+00,2.491401195526123047e+00,2.473774909973144531e+00,2.456396341323852539e+00,2.439260482788085938e+00,2.422362089157104492e+00,2.405695915222167969e+00,2.389257669448852539e+00,2.373042345046997070e+00,2.357045888900756836e+00,2.341263294219970703e+00,2.325690984725952148e+00,2.310324430465698242e+00,2.295159339904785156e+00,2.280192375183105469e+00,2.265419244766235352e+00,2.250836372375488281e+00,5.157229304313659668e-01,5.033455491065979004e-01,4.914520382881164551e-01,4.816820323467254639e-01,4.780522882938385010e-01,4.744768440723419189e-01,4.707663655281066895e-01,4.667129814624786377e-01,4.627288281917572021e-01,4.588121473789215088e-01,4.579569697380065918e-01,4.595319926738739014e-01,4.611178040504455566e-01,4.628764390945434570e-01,4.647026956081390381e-01,4.665434062480926514e-01
3.786381959915161133e+00,3.745819330215454102e+00,3.706117153167724609e+00,3.667247295379638672e+00,3.629184246063232422e+00,3.591903209686279297e+00,3.555380344390869141e+00,3.519592761993408203e+00,3.484518289566040039e+00,3.450136423110961914e+00,3.416425943374633789e+00,3.383368253707885742e+00,3.350944280624389648e+00,3.319135665893554688e+00,3.287925004959106445e+00,3.257296085357666016e+00,3.227232456207275391e+00,3.197718620300292969e+00,3.168739795684814453e+00,3.140281438827514648e+00,3.112329721450805664e+00,3.084871530532836914e+00,3.057893276214599609e+00,3.031382799148559570e+00,3.005328178405761719e+00,2.979717493057250977e+00,2.954539537429809570e+00,7.083064317703247070e-01,6.992348432540893555e-01,6.903926134109497070e-01,6.818117499351501465e-01,6.806274056434631348e-01,6.811200976371765137e-01,6.821094751358032227e-01,6.831016540527343750e-01,6.893432736396789551e-01,7.009677290916442871e-01,7.116136550903320312e-01,7.224051356315612793e-01,2.662115335464477539e+00,2.642000436782836914e+00,2.622187852859497070e+00,2.602669715881347656e+00,2.583440065383911133e+00,2.564492464065551758e+00,2.545820713043212891e+00,2.527419090270996094e+00,2.509281396865844727e+00,2.491402149200439453e+00,2.473776102066040039e+00,2.456397533416748047e+00,2.439261674880981445e+00,2.422363042831420898e+00,2.405696868896484375e+00,2.389258623123168945e+00,2.373043298721313477e+00,2.357046842575073242e+00,2.341264486312866211e+00,2.325691938400268555e+00,2.310325145721435547e+00,2.295160055160522461e+00,2.280192852020263672e+00,2.265419721603393555e+00,2.250836849212646484e+00,5.192682147026062012e-01,5.067221522331237793e-01,4.946734905242919922e-01,4.831708073616027832e-01,4.790787398815155029e-01,4.754879772663116455e-01,4.719506800174713135e-01,4.680956900119781494e-01,4.640880227088928223e-01,4.601483345031738281e-01,4.578482508659362793e-01,4.594224989414215088e-01,4.610075652599334717e-01,4.627765417098999023e-01,4.646020233631134033e-01,4.664419293403625488e-01
3.786385059356689453e+00,3.745822191238403320e+00,3.706119537353515625e+00,3.667249679565429688e+00,3.629186630249023438e+00,3.591905593872070312e+00,3.555382490158081055e+00,3.519595146179199219e+00,3.484520673751831055e+00,3.450138568878173828e+00,3.416428565979003906e+00,3.383370637893676758e+00,3.350946187973022461e+00,3.319137573242187500e+00,3.287926912307739258e+00,3.257297992706298828e+00,3.227234125137329102e+00,3.197720527648925781e+00,3.168741464614868164e+00,3.140283346176147461e+00,3.112331867218017578e+00,3.084873199462890625e+00,3.057895183563232422e+00,3.031384468078613281e+00,3.005329847335815430e+00,2.979719161987304688e+00,2.954541206359863281e+00,7.052372097969055176e-01,6.962435245513916016e-01,6.874763369560241699e-01,6.807822585105895996e-01,6.812612414360046387e-01,6.822428107261657715e-01,6.832354068756103516e-01,6.842308640480041504e-01,6.953875422477722168e-01,7.071662545204162598e-01,7.178221940994262695e-01,2.682539939880371094e+00,2.662116289138793945e+00,2.642001628875732422e+00,2.622188568115234375e+00,2.602670431137084961e+00,2.583440780639648438e+00,2.564492940902709961e+00,2.545821428298950195e+00,2.527419567108154297e+00,2.509282112121582031e+00,2.491402864456176758e+00,2.473776578903198242e+00,2.456398010253906250e+00,2.439261913299560547e+00,2.422363519668579102e+00,2.405697345733642578e+00,2.389258861541748047e+00,2.373043537139892578e+00,2.357047080993652344e+00,2.341264486312866211e+00,2.325692176818847656e+00,2.310325384140014648e+00,2.295160531997680664e+00,2.280193328857421875e+00,2.265420198440551758e+00,2.250837087631225586e+00,5.228625535964965820e-01,5.101443529129028320e-01,4.979374110698699951e-01,4.862842857837677002e-01,4.801096022129058838e-01,4.765034914016723633e-01,4.729510843753814697e-01,4.694512486457824707e-01,4.654551744461059570e-01,4.614923894405364990e-01,4.577395617961883545e-01,4.593130946159362793e-01,4.608973860740661621e-01,4.626767039299011230e-01,4.645013809204101562e-01,4.663404822349548340e-01
3.786387443542480469e+00,3.745824813842773438e+00,3.706122159957885742e+00,3.667252063751220703e+00,3.629189014434814453e+00,3.591907739639282227e+00,3.555384874343872070e+00,3.519597291946411133e+00,3.484522819519042969e+00,3.450140953063964844e+00,3.416430473327636719e+00,3.383372545242309570e+00,3.350948095321655273e+00,3.319139480590820312e+00,3.287928819656372070e+00,3.257299900054931641e+00,3.227236032485961914e+00,3.197722196578979492e+00,3.168743610382080078e+00,3.140284776687622070e+00,3.112333059310913086e+00,3.084874391555786133e+00,3.057896137237548828e+00,3.031385660171508789e+00,3.005330801010131836e+00,2.979720115661621094e+00,7.113434672355651855e-01,7.021943926811218262e-01,6.932776570320129395e-01,6.845845580101013184e-01,6.814163923263549805e-01,6.823762059211730957e-01,6.833692193031311035e-01,6.843650937080383301e-01,6.898955106735229492e-01,7.015388011932373047e-01,7.132970094680786133e-01,7.241399288177490234e-01,2.682540178298950195e+00,2.662116765975952148e+00,2.642002105712890625e+00,2.622189044952392578e+00,2.602670907974243164e+00,2.583441257476806641e+00,2.564493656158447266e+00,2.545821905136108398e+00,2.527420043945312500e+00,2.509282350540161133e+00,2.491403102874755859e+00,2.473777055740356445e+00,2.456398487091064453e+00,2.439262390136718750e+00,2.422363758087158203e+00,2.405697584152221680e+00,2.389259338378906250e+00,2.373044013977050781e+00,2.357047319412231445e+00,2.341264963150024414e+00,2.325692415237426758e+00,2.310325860977172852e+00,2.295160770416259766e+00,2.280193805694580078e+00,2.265420675277709961e+00,2.250837564468383789e+00,5.265070199966430664e-01,5.136131048202514648e-01,5.012447237968444824e-01,4.894381165504455566e-01,4.811449646949768066e-01,4.775232970714569092e-01,4.739556908607482910e-01,4.704410433769226074e-01,4.668304622173309326e-01,4.628442823886871338e-01,4.589256644248962402e-01,4.592037200927734375e-01,4.607872664928436279e-01,4.625768959522247314e-01,4.644007682800292969e-01,4.662390947341918945e-01
3.786389589309692383e+00,3.745826721191406250e+00,3.706124067306518555e+00,3.667253732681274414e+00,3.629190444946289062e+00,3.591909408569335938e+00,3.555386304855346680e+00,3.519598722457885742e+00,3.484524250030517578e+00,3.450141906738281250e+00,3.416431665420532227e+00,3.383373737335205078e+00,3.350948810577392578e+00,3.319140195846557617e+00,3.287929534912109375e+00,3.257300376892089844e+00,3.227236747741699219e+00,3.197722911834716797e+00,3.168743848800659180e+00,3.140285730361938477e+00,3.112333774566650391e+00,3.084875106811523438e+00,3.057896852493286133e+00,3.031386137008666992e+00,3.005331516265869141e+00,2.979720592498779297e+00,7.084248065948486328e-01,6.992797851562500000e-01,6.903679370880126953e-01,6.817185282707214355e-01,6.825097799301147461e-01,6.835030913352966309e-01,6.844993829727172852e-01,6.854984760284423828e-01,6.959495544433593750e-01,7.077997922897338867e-01,7.195350527763366699e-01,2.703279972076416016e+00,2.682540655136108398e+00,2.662117242813110352e+00,2.642002344131469727e+00,2.622189521789550781e+00,2.602671384811401367e+00,2.583441734313964844e+00,2.564493894577026367e+00,2.545822381973266602e+00,2.527420520782470703e+00,2.509282827377319336e+00,2.491403818130493164e+00,2.473777294158935547e+00,2.456398725509643555e+00,2.439262628555297852e+00,2.422364234924316406e+00,2.405698060989379883e+00,2.389259576797485352e+00,2.373044490814208984e+00,2.357047796249389648e+00,2.341265439987182617e+00,2.325692892074584961e+00,2.310326099395751953e+00,2.295161247253417969e+00,2.280194044113159180e+00,2.265420913696289062e+00,2.250837802886962891e+00,2.236441373825073242e+00,5.171292424201965332e-01,5.045962929725646973e-01,4.926331341266632080e-01,4.821847379207611084e-01,4.785474538803100586e-01,4.749646186828613281e-01,4.714350700378417969e-01,4.679575562477111816e-01,4.642041623592376709e-01,4.602625668048858643e-01,4.590943753719329834e-01,4.606772065162658691e-01,4.624771177768707275e-01,4.643002450466156006e-01,4.661377370357513428e-01
3.786390542984008789e+00,3.745827674865722656e+00,3.706125020980834961e+00,3.667254924774169922e+00,3.629191637039184570e+00,3.591910123825073242e+00,3.555387020111083984e+00,3.519599437713623047e+00,3.484524965286254883e+00,3.450142621994018555e+00,3.416432380676269531e+00,3.383374452590942383e+00,3.350949764251708984e+00,3.319141149520874023e+00,3.287930488586425781e+00,3.257301092147827148e+00,3.227237224578857422e+00,3.197723627090454102e+00,3.168744564056396484e+00,3.140286207199096680e+00,3.112334489822387695e+00,3.084875822067260742e+00,3.057897567749023438e+00,3.031387090682983398e+00,3.005331993103027344e+00,7.175000905990600586e-01,7.055920958518981934e-01,6.965196132659912109e-01,6.876775026321411133e-01,6.832342743873596191e-01,6.838344335556030273e-01,6.846336722373962402e-01,6.856332421302795410e-01,6.904487013816833496e-01,7.021108269691467285e-01,7.141736149787902832e-01,7.258831262588500977e-01,2.703280448913574219e+00,2.682541131973266602e+00,2.662117719650268555e+00,2.642003059387207031e+00,2.622189998626708984e+00,2.602671623229980469e+00,2.583441972732543945e+00,2.564494371414184570e+00,2.545822620391845703e+00,2.527420997619628906e+00,2.509283304214477539e+00,2.491404056549072266e+00,2.473777770996093750e+00,2.456399440765380859e+00,2.439263105392456055e+00,2.422364473342895508e+00,2.405698299407958984e+00,2.389260053634643555e+00,2.373044729232788086e+00,2.357048273086547852e+00,2.341265678405761719e+00,2.325693368911743164e+00,2.310326576232910156e+00,2.295161485671997070e+00,2.280194282531738281e+00,2.265421152114868164e+00,2.250838041305541992e+00,2.236441612243652344e+00,5.206939578056335449e-01,5.079929828643798828e-01,4.958702027797698975e-01,4.843124151229858398e-01,4.795760214328765869e-01,4.759778678417205811e-01,4.724332690238952637e-01,4.689410626888275146e-01,4.655001163482666016e-01,4.616072475910186768e-01,4.589851796627044678e-01,4.605693221092224121e-01,4.623773992061614990e-01,4.641997218132019043e-01,4.660364091396331787e-01
3.786391258239746094e+00,3.745828628540039062e+00,3.706125736236572266e+00,3.667255640029907227e+00,3.629192590713500977e+00,3.591911315917968750e+00,3.555388212203979492e+00,3.519600629806518555e+00,3.484525680541992188e+00,3.450143337249755859e+00,3.416433095932006836e+00,3.383374929428100586e+00,3.350950479507446289e+00,3.319141864776611328e+00,3.287930965423583984e+00,3.257302045822143555e+00,3.227238178253173828e+00,3.197724103927612305e+00,3.168745040893554688e+00,3.140286684036254883e+00,3.112334966659545898e+00,3.084876298904418945e+00,3.057898044586181641e+00,3.031387567520141602e+00,3.005332708358764648e+00,7.129127979278564453e-01,7.027819752693176270e-01,6.937811374664306641e-01,6.850079298019409180e-01,6.850848197937011719e-01,6.856882572174072266e-01,6.862927675247192383e-01,6.868984103202819824e-01,6.965125203132629395e-01,7.083820700645446777e-01,7.206632494926452637e-01,2.724343061447143555e+00,2.703280687332153320e+00,2.682541608810424805e+00,2.662118196487426758e+00,2.642003536224365234e+00,2.622190475463867188e+00,2.602672338485717773e+00,2.583442687988281250e+00,2.564494848251342773e+00,2.545823097229003906e+00,2.527421236038208008e+00,2.509283781051635742e+00,2.491404533386230469e+00,2.473778247833251953e+00,2.456399679183959961e+00,2.439263582229614258e+00,2.422364950180053711e+00,2.405698537826538086e+00,2.389260292053222656e+00,2.373044967651367188e+00,2.357048511505126953e+00,2.341265916824340820e+00,2.325693607330322266e+00,2.310326814651489258e+00,2.295161962509155273e+00,2.280194759368896484e+00,2.265421628952026367e+00,2.250838518142700195e+00,2.236442089080810547e+00,5.243081450462341309e-01,5.114357471466064453e-01,4.991500079631805420e-01,4.874407052993774414e-01,4.806090891361236572e-01,4.769954383373260498e-01,4.734356999397277832e-01,4.699287116527557373e-01,4.664733707904815674e-01,4.629597961902618408e-01,4.590392112731933594e-01,4.604704678058624268e-01,4.622777104377746582e-01,4.640992581844329834e-01,4.659352004528045654e-01
3.786392688751220703e+00,3.745829343795776367e+00,3.706126689910888672e+00,3.667256355285644531e+00,3.629193305969238281e+00,3.591912031173706055e+00,3.555388927459716797e+00,3.519601345062255859e+00,3.484526634216308594e+00,3.450144529342651367e+00,3.416433811187744141e+00,3.383375644683837891e+00,3.350951194763183594e+00,3.319142341613769531e+00,3.287931680679321289e+00,3.257302761077880859e+00,3.227238893508911133e+00,3.197725057601928711e+00,3.168745994567871094e+00,3.140287399291992188e+00,3.112335443496704102e+00,3.084877014160156250e+00,3.057898759841918945e+00,3.031388044357299805e+00,7.229847311973571777e-01,7.095472216606140137e-01,6.999940872192382812e-01,6.910641193389892578e-01,6.863397359848022461e-01,6.869453787803649902e-01,6.875521540641784668e-01,6.881599426269531250e-01,6.915178894996643066e-01,7.029461264610290527e-01,7.147664427757263184e-01,7.272718548774719238e-01,2.724343776702880859e+00,2.703281164169311523e+00,2.682542085647583008e+00,2.662118673324584961e+00,2.642003774642944336e+00,2.622190952301025391e+00,2.602672815322875977e+00,2.583442926406860352e+00,2.564495325088500977e+00,2.545823574066162109e+00,2.527421951293945312e+00,2.509284019470214844e+00,2.491404771804809570e+00,2.473778486251831055e+00,2.456400156021118164e+00,2.439264059066772461e+00,2.422365427017211914e+00,2.405699253082275391e+00,2.389260768890380859e+00,2.373045682907104492e+00,2.357048749923706055e+00,2.341266393661499023e+00,2.325693845748901367e+00,2.310327291488647461e+00,2.295162200927734375e+00,2.280194997787475586e+00,2.265421867370605469e+00,2.250838994979858398e+00,2.236442327499389648e+00,5.279728770256042480e-01,5.149254202842712402e-01,5.024734735488891602e-01,4.906096160411834717e-01,4.816465377807617188e-01,4.780173301696777344e-01,4.744423925876617432e-01,4.709205925464630127e-01,4.674506485462188721e-01,4.640314579010009766e-01,4.603767693042755127e-01,4.603716135025024414e-01,4.621780812740325928e-01,4.639988243579864502e-01,4.658501446247100830e-01
3.777254819869995117e+00,3.745830535888671875e+00,3.706127882003784180e+00,3.667257308959960938e+00,3.629194021224975586e+00,3.591912746429443359e+00,3.555389881134033203e+00,3.519602060317993164e+00,3.484527349472045898e+00,3.450145244598388672e+00,3.416434764862060547e+00,3.383376598358154297e+00,3.350951910018920898e+00,3.319143056869506836e+00,3.287932395935058594e+00,3.257303237915039062e+00,3.227239608764648438e+00,3.197725772857666016e+00,3.168746709823608398e+00,3.140288352966308594e+00,3.112336397171020508e+00,3.084877490997314453e+00,3.057899236679077148e+00,3.031388521194458008e+00,7.181105613708496094e-01,7.063193321228027344e-01,6.972282528877258301e-01,6.883682012557983398e-01,6.882071495056152344e-01,6.888161301612854004e-01,6.894262433052062988e-01,6.899237036705017090e-01,6.980431079864501953e-01,7.096897959709167480e-01,7.217318415641784668e-01,2.745737314224243164e+00,2.724344253540039062e+00,2.703281879425048828e+00,2.682542562484741211e+00,2.662119150161743164e+00,2.642004251480102539e+00,2.622191190719604492e+00,2.602673053741455078e+00,2.583443403244018555e+00,2.564495801925659180e+00,2.545824050903320312e+00,2.527422189712524414e+00,2.509284734725952148e+00,2.491405487060546875e+00,2.473778963088989258e+00,2.456400394439697266e+00,2.439264297485351562e+00,2.422365665435791016e+00,2.405699491500854492e+00,2.389261245727539062e+00,2.373045921325683594e+00,2.357049226760864258e+00,2.341266870498657227e+00,2.325694322586059570e+00,2.310327529907226562e+00,2.295162677764892578e+00,2.280195474624633789e+00,2.265422344207763672e+00,2.250839233398437500e+00,2.236442804336547852e+00,2.222229242324829102e+00,5.184630751609802246e-01,5.058415532112121582e-01,4.938199818134307861e-01,4.826884567737579346e-01,4.790436029434204102e-01,4.754534363746643066e-01,4.719165861606597900e-01,4.684320092201232910e-01,4.649985134601593018e-01,4.616149961948394775e-01,4.602727890014648438e-01,4.620784819126129150e-01,4.640169739723205566e-01,4.660094082355499268e-01
3.083611249923706055e+00,3.083127021789550781e+00,3.082642793655395508e+00,3.082159042358398438e+00,3.081675291061401367e+00,3.081191539764404297e+00,3.080708265304565430e+00,3.080225229263305664e+00,3.079741954803466797e+00,3.079258918762207031e+00,3.078776121139526367e+00,3.078293323516845703e+00,3.077810764312744141e+00,3.077328443527221680e+00,3.076846122741699219e+00,3.076364040374755859e+00,3.075882196426391602e+00,3.075400352478027344e+00,3.074918746948242188e+00,3.074437379837036133e+00,3.073956251144409180e+00,3.073474884033203125e+00,3.057900190353393555e+00,7.285538315773010254e-01,7.146959304809570312e-01,7.035033702850341797e-01,6.944842338562011719e-01,6.894735097885131836e-01,6.900847554206848145e-01,6.906970739364624023e-01,6.912085413932800293e-01,6.938541531562805176e-01,7.046926021575927734e-01,7.165642380714416504e-01,7.288426756858825684e-01,2.745737791061401367e+00,2.724344730377197266e+00,2.703282356262207031e+00,2.682543039321899414e+00,2.662119626998901367e+00,2.642004966735839844e+00,2.622191905975341797e+00,2.602673530578613281e+00,2.583443880081176758e+00,2.564496040344238281e+00,2.545824527740478516e+00,2.527422666549682617e+00,2.509284973144531250e+00,2.491405725479125977e+00,2.473779439926147461e+00,2.456400871276855469e+00,2.439264535903930664e+00,2.422366142272949219e+00,2.405699729919433594e+00,2.389261484146118164e+00,2.373046159744262695e+00,2.357049703598022461e+00,2.341267108917236328e+00,2.325694799423217773e+00,2.310328006744384766e+00,2.295162916183471680e+00,2.280195713043212891e+00,2.265422582626342773e+00,2.250839471817016602e+00,2.236443042755126953e+00,2.222229480743408203e+00,5.220426917076110840e-01,5.092492103576660156e-01,4.970677495002746582e-01,4.854554831981658936e-01,4.801735281944274902e-01,4.765604436397552490e-01,4.730013310909271240e-01,4.694949686527252197e-01,4.660402238368988037e-01,4.626359939575195312e-01,4.602380692958831787e-01,4.621981084346771240e-01,4.641749262809753418e-01,4.661687314510345459e-01
2.605199813842773438e+00,2.604854345321655273e+00,2.604508876800537109e+00,2.604163408279418945e+00,2.603818178176879883e+00,2.603472709655761719e+00,2.603127717971801758e+00,2.602782487869262695e+00,2.602437496185302734e+00,2.602092742919921875e+00,2.601747751235961914e+00,2.601402997970581055e+00,2.601058721542358398e+00,2.600714206695556641e+00,2.600369691848754883e+00,2.600025415420532227e+00,2.599681138992309570e+00,2.599336862564086914e+00,2.598992824554443359e+00,2.598648786544799805e+00,2.598304986953735352e+00,2.597961187362670898e+00,2.597617387771606445e+00,7.233846783638000488e-01,7.113135457038879395e-01,7.007098197937011719e-01,6.917617321014404297e-01,6.913580894470214844e-01,6.919726729393005371e-01,6.924980878829956055e-01,6.929536461830139160e-01,6.997653245925903320e-01,7.114700675010681152e-01,7.235730886459350586e-01,2.593500375747680664e+00,2.593157768249511719e+00,2.592815399169921875e+00,2.592473030090332031e+00,2.592130661010742188e+00,2.591788530349731445e+00,2.591446399688720703e+00,2.591104507446289062e+00,2.590762615203857422e+00,2.583444356918334961e+00,2.564496517181396484e+00,2.545824766159057617e+00,2.527422904968261719e+00,2.509285449981689453e+00,2.491406202316284180e+00,2.473779916763305664e+00,2.456401348114013672e+00,2.439265251159667969e+00,2.422366619110107422e+00,2.405700206756591797e+00,2.389261722564697266e+00,2.373046636581420898e+00,2.357049942016601562e+00,2.341267585754394531e+00,2.325695037841796875e+00,2.310328245162963867e+00,2.295163393020629883e+00,2.280196189880371094e+00,2.265422821044921875e+00,2.250839710235595703e+00,2.236443281173706055e+00,2.222229719161987305e+00,5.256567001342773438e-01,5.126876831054687500e-01,5.003430843353271484e-01,4.885791540145874023e-01,4.817246198654174805e-01,4.780882596969604492e-01,4.745063781738281250e-01,4.709777534008026123e-01,4.675012230873107910e-01,4.640756547451019287e-01,4.606999754905700684e-01,4.623548984527587891e-01,4.643330574035644531e-01,4.663282036781311035e-01
2.255298376083374023e+00,2.255039453506469727e+00,2.254780530929565430e+00,2.254521608352661133e+00,2.254262685775756836e+00,2.254004001617431641e+00,2.253745317459106445e+00,2.253486633300781250e+00,2.253227949142456055e+00,2.252969503402709961e+00,2.252711057662963867e+00,2.252452611923217773e+00,2.252194166183471680e+00,2.251935958862304688e+00,2.251677751541137695e+00,2.251419544219970703e+00,2.251161575317382812e+00,2.250903367996215820e+00,2.250645399093627930e+00,2.250387430191040039e+00,2.250129461288452148e+00,2.249871730804443359e+00,7.342094182968139648e-01,7.199197411537170410e-01,7.079630494117736816e-01,6.979383230209350586e-01,6.926361322402954102e-01,6.932529211044311523e-01,6.937924623489379883e-01,6.942497491836547852e-01,6.968046426773071289e-01,7.064478993415832520e-01,7.183791995048522949e-01,2.246782302856445312e+00,2.246525287628173828e+00,2.246268272399902344e+00,2.246011257171630859e+00,2.245754241943359375e+00,2.245497703552246094e+00,2.245240926742553711e+00,2.244984149932861328e+00,2.244727373123168945e+00,2.244470834732055664e+00,2.244214296340942383e+00,2.243957757949829102e+00,2.243701457977294922e+00,2.243444919586181641e+00,2.243188619613647461e+00,2.242932319641113281e+00,2.242676258087158203e+00,2.242420196533203125e+00,2.242164134979248047e+00,2.241908073425292969e+00,2.241652250289916992e+00,2.241396188735961914e+00,2.241140365600585938e+00,2.240884542465209961e+00,2.240628957748413086e+00,2.240373134613037109e+00,2.240117549896240234e+00,2.239862203598022461e+00,2.239606618881225586e+00,2.239351272583007812e+00,2.239095926284790039e+00,2.236443758010864258e+00,2.222230195999145508e+00,2.208196163177490234e+00,5.161728858947753906e-01,5.036620497703552246e-01,4.917433261871337891e-01,4.829819202423095703e-01,4.796259105205535889e-01,4.760210514068603516e-01,4.724699556827545166e-01,4.689714312553405762e-01,4.655243456363677979e-01,4.621275961399078369e-01,4.625117778778076172e-01,4.644912779331207275e-01,4.664877951145172119e-01
1.988257765769958496e+00,1.988056659698486328e+00,1.987855195999145508e+00,1.987654089927673340e+00,1.987452745437622070e+00,1.987251758575439453e+00,1.987050533294677734e+00,1.986849546432495117e+00,1.986648440361022949e+00,1.986447453498840332e+00,1.986246705055236816e+00,1.986045598983764648e+00,1.985844850540161133e+00,1.985643982887268066e+00,1.985443234443664551e+00,1.985242366790771484e+00,1.985041856765747070e+00,1.984840989112854004e+00,1.984640479087829590e+00,1.984439730644226074e+00,1.984239339828491211e+00,1.984038949012756348e+00,7.287368774414062500e-01,7.164878845214843750e-01,7.046439647674560547e-01,6.951887011528015137e-01,6.945380568504333496e-01,6.950917243957519531e-01,6.955507397651672363e-01,6.960103511810302734e-01,7.021389007568359375e-01,7.132593393325805664e-01,7.254237532615661621e-01,1.981636047363281250e+00,1.981436133384704590e+00,1.981236100196838379e+00,1.981036305427551270e+00,1.980836391448974609e+00,1.980636596679687500e+00,1.980436682701110840e+00,1.980237126350402832e+00,1.980037331581115723e+00,1.979837775230407715e+00,1.979638218879699707e+00,1.979438543319702148e+00,1.979239106178283691e+00,1.979039430618286133e+00,1.978840112686157227e+00,1.978640556335449219e+00,1.978441357612609863e+00,1.978241920471191406e+00,1.978042721748352051e+00,1.977843284606933594e+00,1.977644205093383789e+00,1.977445125579833984e+00,1.977245926856994629e+00,1.977046847343444824e+00,1.976847648620605469e+00,1.976648807525634766e+00,1.976449728012084961e+00,1.976250886917114258e+00,1.976051807403564453e+00,1.975853085517883301e+00,1.975654125213623047e+00,1.975455522537231445e+00,1.975256919860839844e+00,1.975058078765869141e+00,5.197058916091918945e-01,5.070252418518066406e-01,4.949487447738647461e-01,4.852395057678222656e-01,4.810237586498260498e-01,4.775454103946685791e-01,4.739716053009033203e-01,4.704509079456329346e-01,4.669821262359619141e-01,4.635641276836395264e-01,4.626687169075012207e-01,4.646495580673217773e-01,4.666474461555480957e-01
1.777760386466979980e+00,1.777599573135375977e+00,1.777438759803771973e+00,1.777277827262878418e+00,1.777117013931274414e+00,1.776956081390380859e+00,1.776795387268066406e+00,1.776634454727172852e+00,1.776473879814147949e+00,1.776313066482543945e+00,1.776152491569519043e+00,1.775991678237915039e+00,1.775831103324890137e+00,1.775670647621154785e+00,1.775509953498840332e+00,1.775349497795104980e+00,1.775188922882080078e+00,1.775028467178344727e+00,1.774868011474609375e+00,1.774707674980163574e+00,1.774547100067138672e+00,1.774386882781982422e+00,7.252206206321716309e-01,7.130885720252990723e-01,7.014270424842834473e-01,6.958278417587280273e-01,6.963958144187927246e-01,6.968565583229064941e-01,6.973178982734680176e-01,6.997803449630737305e-01,7.082118391990661621e-01,7.202033400535583496e-01,1.772624731063842773e+00,1.772464632987976074e+00,1.772304773330688477e+00,1.772144794464111328e+00,1.771984815597534180e+00,1.771824955940246582e+00,1.771664977073669434e+00,1.771505236625671387e+00,1.771345376968383789e+00,1.771185636520385742e+00,1.771025776863098145e+00,1.770866155624389648e+00,1.770706295967102051e+00,1.770546793937683105e+00,1.770387172698974609e+00,1.770227432250976562e+00,1.770067930221557617e+00,1.769908308982849121e+00,1.769748926162719727e+00,1.769589304924011230e+00,1.769429922103881836e+00,1.769270300865173340e+00,1.769111037254333496e+00,1.768951535224914551e+00,1.768792271614074707e+00,1.768633008003234863e+00,1.768473625183105469e+00,1.768314480781555176e+00,1.768155097961425781e+00,1.767995953559875488e+00,1.767836689949035645e+00,1.767677664756774902e+00,1.767518401145935059e+00,1.767359375953674316e+00,1.767200231552124023e+00,5.260854363441467285e-01,5.104336738586425781e-01,4.981962144374847412e-01,4.877660274505615234e-01,4.822682738304138184e-01,4.790795445442199707e-01,4.754828512668609619e-01,4.719397425651550293e-01,4.684490561485290527e-01,4.650096297264099121e-01,4.628258049488067627e-01,4.648079872131347656e-01,4.668072462081909180e-01
1.607567071914672852e+00,1.607435345649719238e+00,1.607303857803344727e+00,1.607172250747680664e+00,1.607040762901306152e+00,1.606909155845642090e+00,1.606777787208557129e+00,1.606646299362182617e+00,1.606514811515808105e+00,1.606383442878723145e+00,1.606251955032348633e+00,1.606120586395263672e+00,1.605989217758178711e+00,1.605857849121093750e+00,1.605726480484008789e+00,1.605595231056213379e+00,1.605463862419128418e+00,1.605332732200622559e+00,1.605201482772827148e+00,1.605070233345031738e+00,1.604939103126525879e+00,1.604807853698730469e+00,7.382246851921081543e-01,7.097213864326477051e-01,6.986498832702636719e-01,6.977048516273498535e-01,6.981673240661621094e-01,6.986303925514221191e-01,6.990941166877746582e-01,7.051604390144348145e-01,7.150575518608093262e-01,1.603497385978698730e+00,1.603366255760192871e+00,1.603235483169555664e+00,1.603104472160339355e+00,1.602973699569702148e+00,1.602842688560485840e+00,1.602712035179138184e+00,1.602581143379211426e+00,1.602450370788574219e+00,1.602319717407226562e+00,1.602188825607299805e+00,1.602058172225952148e+00,1.601927399635314941e+00,1.601796746253967285e+00,1.601666092872619629e+00,1.601535439491271973e+00,1.601404786109924316e+00,1.601274251937866211e+00,1.601143598556518555e+00,1.601013064384460449e+00,1.600882649421691895e+00,1.600751996040344238e+00,1.600621581077575684e+00,1.600491046905517578e+00,1.600360751152038574e+00,1.600230216979980469e+00,1.600099802017211914e+00,1.599969387054443359e+00,1.599839091300964355e+00,1.599708557128906250e+00,1.599578380584716797e+00,1.599448084831237793e+00,1.599317789077758789e+00,1.599187612533569336e+00,1.599057316780090332e+00,1.598927140235900879e+00,1.598796844482421875e+00,5.138882398605346680e-01,5.014864802360534668e-01,4.903190732002258301e-01,4.835192263126373291e-01,4.803158640861511230e-01,4.770037531852722168e-01,4.734380543231964111e-01,4.699252545833587646e-01,4.664641916751861572e-01,4.630537629127502441e-01,4.649664759635925293e-01,4.669671058654785156e-01
1.467113256454467773e+00,1.467003703117370605e+00,1.466894030570983887e+00,1.466784477233886719e+00,1.466674923896789551e+00,1.466565370559692383e+00,1.466455817222595215e+00,1.466346383094787598e+00,1.466236710548400879e+00,1.466127395629882812e+00,1.466017961502075195e+00,1.465908408164978027e+00,1.465798974037170410e+00,1.465689539909362793e+00,1.465580224990844727e+00,1.465470790863037109e+00,1.465361475944519043e+00,1.465252041816711426e+00,1.465142726898193359e+00,1.465033292770385742e+00,1.464924097061157227e+00,7.470855712890625000e-01,7.292739748954772949e-01,7.185781598091125488e-01,6.990187764167785645e-01,6.994830369949340820e-01,6.999478340148925781e-01,7.004133462905883789e-01,7.027815580368041992e-01,7.106238007545471191e-01,1.463831901550292969e+00,1.463722825050354004e+00,1.463613748550415039e+00,1.463504672050476074e+00,1.463395595550537109e+00,1.463286519050598145e+00,1.463177442550659180e+00,1.463068366050720215e+00,1.462959408760070801e+00,1.462850332260131836e+00,1.462741494178771973e+00,1.462632417678833008e+00,1.462523579597473145e+00,1.462414622306823730e+00,1.462305665016174316e+00,1.462196826934814453e+00,1.462087869644165039e+00,1.461979150772094727e+00,1.461870193481445312e+00,1.461761474609375000e+00,1.461652517318725586e+00,1.461543798446655273e+00,1.461434960365295410e+00,1.461326241493225098e+00,1.461217403411865234e+00,1.461108684539794922e+00,1.461000084877014160e+00,1.460891366004943848e+00,1.460782647132873535e+00,1.460673928260803223e+00,1.460564851760864258e+00,1.460455775260925293e+00,1.460346579551696777e+00,1.460237503051757812e+00,1.460128426551818848e+00,1.460019469261169434e+00,1.459910392761230469e+00,1.459801435470581055e+00,5.173898339271545410e-01,5.048206448554992676e-01,4.928988814353942871e-01,4.859105348587036133e-01,4.815567135810852051e-01,4.783791899681091309e-01,4.749459028244018555e-01,4.714107513427734375e-01,4.679278731346130371e-01,4.644960463047027588e-01,4.651251435279846191e-01,4.671271443367004395e-01
1.349230408668518066e+00,1.349137783050537109e+00,1.349045038223266602e+00,1.348952412605285645e+00,1.348859786987304688e+00,1.348767042160034180e+00,1.348674416542053223e+00,1.348581790924072266e+00,1.348489165306091309e+00,1.348396539688110352e+00,1.348303914070129395e+00,1.348211288452148438e+00,1.348118782043457031e+00,1.348026156425476074e+00,1.347933650016784668e+00,1.347841262817382812e+00,1.347748637199401855e+00,1.347656250000000000e+00,1.347563624382019043e+00,1.347471237182617188e+00,1.347378730773925781e+00,7.319518327713012695e-01,7.180820107460021973e-01,7.136529088020324707e-01,7.094526886940002441e-01,7.104099988937377930e-01,7.136282920837402344e-01,7.022053599357604980e-01,7.082080245018005371e-01,7.168648838996887207e-01,1.346454858779907227e+00,1.346362471580505371e+00,1.346270203590393066e+00,1.346177816390991211e+00,1.346085548400878906e+00,1.345993280410766602e+00,1.345901012420654297e+00,1.345808863639831543e+00,1.345716595649719238e+00,1.345624327659606934e+00,1.345532059669494629e+00,1.345439910888671875e+00,1.345347762107849121e+00,1.345255613327026367e+00,1.345163345336914062e+00,1.345071315765380859e+00,1.344979047775268555e+00,1.344887018203735352e+00,1.344794988632202148e+00,1.344702482223510742e+00,1.344609975814819336e+00,1.344517588615417480e+00,1.344424962997436523e+00,1.344332575798034668e+00,1.344240188598632812e+00,1.344147682189941406e+00,1.344055294990539551e+00,1.343962907791137695e+00,1.343870639801025391e+00,1.343778252601623535e+00,1.343685865402221680e+00,1.343593597412109375e+00,1.343501210212707520e+00,1.343408942222595215e+00,1.343316674232482910e+00,1.343224406242370605e+00,1.343132138252258301e+00,1.343039870262145996e+00,5.317519903182983398e-01,5.081993937492370605e-01,4.960675835609436035e-01,4.884440600872039795e-01,4.828039705753326416e-01,4.796100556850433350e-01,4.764581024646759033e-01,4.729056954383850098e-01,4.694007635116577148e-01,4.659473896026611328e-01,4.652839004993438721e-01,4.672872722148895264e-01
1.248882532119750977e+00,1.248803019523620605e+00,1.248723745346069336e+00,1.248644232749938965e+00,1.248564839363098145e+00,1.248485445976257324e+00,1.248406052589416504e+00,1.248326778411865234e+00,1.248247385025024414e+00,1.248168110847473145e+00,1.248088717460632324e+00,1.248009443283081055e+00,1.247930049896240234e+00,1.247850775718688965e+00,1.247771382331848145e+00,1.247692108154296875e+00,1.247612833976745605e+00,1.247533559799194336e+00,1.247454285621643066e+00,1.247375130653381348e+00,7.380148172378540039e-01,7.226271629333496094e-01,7.143579125404357910e-01,7.081121802330017090e-01,7.090603709220886230e-01,7.106182575225830078e-01,7.155436277389526367e-01,7.205235958099365234e-01,7.188103795051574707e-01,1.246583104133605957e+00,1.246503949165344238e+00,1.246424913406372070e+00,1.246345758438110352e+00,1.246266722679138184e+00,1.246187567710876465e+00,1.246108531951904297e+00,1.246029376983642578e+00,1.245950341224670410e+00,1.245871067047119141e+00,1.245791673660278320e+00,1.245712280273437500e+00,1.245633006095886230e+00,1.245553612709045410e+00,1.245474219322204590e+00,1.245394825935363770e+00,1.245315551757812500e+00,1.245236277580261230e+00,1.245156884193420410e+00,1.245077610015869141e+00,1.244998335838317871e+00,1.244919061660766602e+00,1.244839906692504883e+00,1.244760632514953613e+00,1.244681358337402344e+00,1.244602203369140625e+00,1.244522929191589355e+00,1.244443774223327637e+00,1.244364500045776367e+00,1.244285345077514648e+00,1.244206190109252930e+00,1.244126915931701660e+00,1.244047760963439941e+00,1.243968605995178223e+00,1.243889451026916504e+00,1.243810415267944336e+00,1.243731260299682617e+00,1.243652224540710449e+00,1.243573069572448730e+00,1.243494033813476562e+00,5.116236805915832520e-01,4.993298053741455078e-01,4.910041987895965576e-01,4.840690493583679199e-01,4.808472394943237305e-01,4.776790440082550049e-01,4.744100570678710938e-01,4.708829522132873535e-01,4.674078226089477539e-01,4.654427468776702881e-01,4.674474298954010010e-01
1.162427902221679688e+00,1.162359118461608887e+00,1.162290334701538086e+00,1.162221550941467285e+00,1.162152647972106934e+00,1.162083983421325684e+00,1.162015080451965332e+00,1.161946415901184082e+00,1.161877632141113281e+00,1.161808848381042480e+00,1.161740064620971680e+00,1.161671400070190430e+00,1.161602735519409180e+00,1.161533951759338379e+00,1.161465287208557129e+00,1.161396503448486328e+00,1.161327838897705078e+00,1.161259174346923828e+00,1.161190509796142578e+00,1.161121845245361328e+00,7.301412820816040039e-01,7.209586501121520996e-01,7.128690481185913086e-01,7.059476971626281738e-01,7.079365849494934082e-01,7.107930779457092285e-01,7.136657238006591797e-01,7.204796671867370605e-01,1.160503745079040527e+00,1.160434961318969727e+00,1.160366058349609375e+00,1.160297155380249023e+00,1.160228371620178223e+00,1.160159468650817871e+00,1.160090565681457520e+00,1.160021781921386719e+00,1.159952998161315918e+00,1.159884095191955566e+00,1.159815311431884766e+00,1.159746527671813965e+00,1.159677743911743164e+00,1.159608960151672363e+00,1.159540176391601562e+00,1.159471511840820312e+00,1.159402728080749512e+00,1.159333944320678711e+00,1.159265279769897461e+00,1.159196496009826660e+00,1.159127831459045410e+00,1.159059047698974609e+00,1.158990263938903809e+00,1.158921599388122559e+00,1.158852934837341309e+00,1.158784270286560059e+00,1.158715605735778809e+00,1.158646941184997559e+00,1.158578276634216309e+00,1.158509612083435059e+00,1.158440947532653809e+00,1.158372402191162109e+00,1.158303737640380859e+00,1.158235192298889160e+00,1.158166527748107910e+00,1.158097982406616211e+00,1.158029437065124512e+00,1.157960772514343262e+00,1.157892227172851562e+00,1.157823562622070312e+00,1.157755017280578613e+00,5.169800519943237305e-01,5.026351213455200195e-01,4.935913085937500000e-01,4.865833818912506104e-01,4.820908308029174805e-01,4.789063036441802979e-01,4.757635593414306641e-01,4.723745286464691162e-01,4.688774347305297852e-01,4.656016826629638672e-01,4.676077961921691895e-01
1.087167978286743164e+00,1.087107896804809570e+00,1.087047696113586426e+00,1.086987495422363281e+00,1.086927294731140137e+00,1.086867094039916992e+00,1.086807012557983398e+00,1.086746811866760254e+00,1.086686730384826660e+00,1.086626529693603516e+00,1.086566448211669922e+00,1.086506247520446777e+00,1.086446166038513184e+00,1.086386084556579590e+00,1.086326003074645996e+00,1.086265802383422852e+00,1.086205720901489258e+00,1.086145401000976562e+00,1.086085081100463867e+00,7.316423058509826660e-01,7.238004207611083984e-01,7.177587151527404785e-01,7.100916504859924316e-01,7.038284540176391602e-01,7.045074105262756348e-01,7.077873349189758301e-01,7.092739939689636230e-01,7.223635315895080566e-01,1.085482120513916016e+00,1.085421800613403320e+00,1.085361599922180176e+00,1.085301280021667480e+00,1.085241079330444336e+00,1.085180878639221191e+00,1.085120677947998047e+00,1.085060477256774902e+00,1.085000276565551758e+00,1.084940075874328613e+00,1.084879875183105469e+00,1.084819674491882324e+00,1.084759473800659180e+00,1.084699153900146484e+00,1.084639072418212891e+00,1.084578871726989746e+00,1.084518671035766602e+00,1.084458589553833008e+00,1.084398388862609863e+00,1.084338307380676270e+00,1.084278225898742676e+00,1.084218025207519531e+00,1.084157943725585938e+00,1.084097862243652344e+00,1.084037780761718750e+00,1.083977699279785156e+00,1.083917617797851562e+00,1.083857536315917969e+00,1.083797454833984375e+00,1.083737373352050781e+00,1.083677172660827637e+00,1.083617210388183594e+00,1.083557128906250000e+00,1.083497047424316406e+00,1.083437085151672363e+00,1.083377003669738770e+00,1.083317041397094727e+00,1.083256959915161133e+00,1.083196997642517090e+00,1.083136916160583496e+00,1.083076953887939453e+00,1.083016991615295410e+00,5.059846043586730957e-01,4.962058067321777344e-01,4.891240000724792480e-01,4.833408594131469727e-01,4.801398813724517822e-01,4.769809842109680176e-01,4.738633632659912109e-01,4.703563153743743896e-01,4.668889343738555908e-01,4.677681922912597656e-01
1.021060824394226074e+00,1.021007657051086426e+00,1.020954608917236328e+00,1.020901560783386230e+00,1.020848512649536133e+00,1.020795345306396484e+00,1.020742058753967285e+00,1.020688772201538086e+00,1.020635485649108887e+00,1.020582199096679688e+00,1.020529031753540039e+00,1.020475745201110840e+00,1.020422458648681641e+00,1.020369291305541992e+00,1.020316004753112793e+00,1.020262718200683594e+00,1.020209431648254395e+00,1.020156264305114746e+00,1.020102977752685547e+00,7.257577180862426758e-01,7.202528119087219238e-01,7.135983705520629883e-01,7.084298133850097656e-01,7.020703554153442383e-01,7.014089822769165039e-01,7.014530301094055176e-01,7.007182836532592773e-01,7.053290009498596191e-01,7.155333757400512695e-01,1.019518017768859863e+00,1.019464850425720215e+00,1.019411683082580566e+00,1.019358515739440918e+00,1.019305348396301270e+00,1.019252181053161621e+00,1.019199013710021973e+00,1.019145965576171875e+00,1.019092798233032227e+00,1.019039750099182129e+00,1.018986582756042480e+00,1.018933534622192383e+00,1.018880486488342285e+00,1.018827319145202637e+00,1.018774271011352539e+00,1.018721222877502441e+00,1.018668055534362793e+00,1.018615007400512695e+00,1.018561959266662598e+00,1.018508911132812500e+00,1.018455862998962402e+00,1.018402814865112305e+00,1.018349766731262207e+00,1.018296718597412109e+00,1.018243670463562012e+00,1.018190622329711914e+00,1.018137693405151367e+00,1.018084645271301270e+00,1.018031597137451172e+00,1.017978668212890625e+00,1.017925620079040527e+00,1.017872691154479980e+00,1.017819643020629883e+00,1.017766714096069336e+00,1.017713785171508789e+00,1.017660737037658691e+00,1.017607688903808594e+00,1.017554759979248047e+00,1.017501831054687500e+00,1.017448902130126953e+00,1.017395973205566406e+00,5.093790292739868164e-01,4.988481700420379639e-01,4.916912615299224854e-01,4.847368896007537842e-01,4.813797771930694580e-01,4.782046079635620117e-01,4.750710427761077881e-01,4.718444645404815674e-01,4.683552682399749756e-01,4.679287672042846680e-01
9.625311493873596191e-01,9.624837636947631836e-01,9.624363780021667480e-01,9.623889923095703125e-01,9.623416662216186523e-01,9.622942805290222168e-01,9.622469544410705566e-01,9.621995687484741211e-01,9.621522426605224609e-01,9.621049165725708008e-01,9.620575904846191406e-01,9.620102643966674805e-01,9.619629383087158203e-01,9.619156122207641602e-01,9.618682861328125000e-01,9.618209600448608398e-01,9.617736339569091797e-01,9.617263674736022949e-01,7.406769394874572754e-01,7.232739329338073730e-01,7.169975042343139648e-01,7.125477194786071777e-01,7.081780433654785156e-01,7.015790939331054688e-01,6.967082619667053223e-01,6.963530182838439941e-01,6.939221024513244629e-01,6.955475807189941406e-01,7.008280754089355469e-01,9.611589908599853516e-01,9.611117243766784668e-01,9.610645174980163574e-01,9.610172510147094727e-01,9.609700441360473633e-01,9.609228372573852539e-01,9.608755707740783691e-01,9.608283638954162598e-01,9.607811570167541504e-01,9.607339501380920410e-01,9.606867432594299316e-01,9.606395363807678223e-01,9.605923891067504883e-01,9.605451822280883789e-01,9.604979753494262695e-01,9.604508280754089355e-01,9.604036211967468262e-01,9.603564739227294922e-01,9.603093266487121582e-01,9.602621793746948242e-01,9.602149724960327148e-01,9.601678252220153809e-01,9.601206779479980469e-01,9.600735902786254883e-01,9.600264430046081543e-01,9.599792957305908203e-01,9.599321484565734863e-01,9.598849415779113770e-01,9.598377943038940430e-01,9.597907066345214844e-01,9.597436189651489258e-01,9.596964716911315918e-01,9.596493840217590332e-01,9.596022963523864746e-01,9.595552086830139160e-01,9.595081210136413574e-01,9.594610333442687988e-01,9.594139456748962402e-01,9.593668580055236816e-01,9.593198299407958984e-01,9.592727422714233398e-01,5.224511027336120605e-01,5.015186667442321777e-01,4.942856132984161377e-01,4.872581660747528076e-01,4.826261401176452637e-01,4.794345498085021973e-01,4.762849211692810059e-01,4.731763601303100586e-01,4.698308110237121582e-01,4.680894017219543457e-01
9.103468656539916992e-01,9.103044867515563965e-01,9.102621078491210938e-01,9.102197289466857910e-01,9.101774096488952637e-01,9.101350307464599609e-01,9.100926518440246582e-01,9.100503325462341309e-01,9.100079536437988281e-01,9.099655747413635254e-01,9.099232554435729980e-01,9.098809361457824707e-01,9.098385572433471680e-01,9.097962379455566406e-01,9.097539186477661133e-01,9.097115993499755859e-01,9.096692800521850586e-01,9.096269607543945312e-01,9.095846414566040039e-01,7.216024994850158691e-01,7.154887318611145020e-01,7.114331722259521484e-01,7.088370323181152344e-01,7.042691707611083984e-01,6.983527541160583496e-01,6.924977302551269531e-01,6.888800859451293945e-01,6.879389286041259766e-01,6.892377734184265137e-01,6.963334679603576660e-01,9.090771079063415527e-01,9.090348482131958008e-01,9.089925885200500488e-01,9.089503288269042969e-01,9.089080691337585449e-01,9.088658094406127930e-01,9.088236093521118164e-01,9.087813496589660645e-01,9.087390899658203125e-01,9.086968898773193359e-01,9.086546301841735840e-01,9.086124300956726074e-01,9.085702300071716309e-01,9.085280299186706543e-01,9.084857702255249023e-01,9.084435701370239258e-01,9.084013700485229492e-01,9.083591699600219727e-01,9.083169698715209961e-01,9.082747697830200195e-01,9.082326292991638184e-01,9.081904292106628418e-01,9.081482291221618652e-01,9.081060886383056641e-01,9.080638885498046875e-01,9.080217480659484863e-01,9.079795479774475098e-01,9.079374074935913086e-01,9.078952670097351074e-01,9.078531265258789062e-01,9.078109860420227051e-01,9.077687859535217285e-01,9.077266454696655273e-01,9.076844453811645508e-01,9.076423048973083496e-01,9.076001644134521484e-01,9.075580239295959473e-01,9.075159430503845215e-01,9.074738025665283203e-01,9.074317216873168945e-01,9.073895812034606934e-01,5.042181015014648438e-01,4.969075024127960205e-01,4.898058176040649414e-01,4.838789105415344238e-01,4.806708395481109619e-01,4.775049984455108643e-01,4.743805527687072754e-01,4.712967276573181152e-01,4.682501852512359619e-01
8.635300993919372559e-01,8.634920120239257812e-01,8.634538650512695312e-01,8.634157180786132812e-01,8.633775115013122559e-01,8.633394241333007812e-01,8.633012771606445312e-01,8.632631897926330566e-01,8.632250428199768066e-01,8.631869554519653320e-01,8.631488680839538574e-01,8.631107807159423828e-01,8.630726337432861328e-01,8.630345463752746582e-01,8.629964590072631836e-01,8.629583716392517090e-01,8.629202842712402344e-01,8.628822565078735352e-01,8.628441691398620605e-01,8.628060817718505859e-01,8.627679944038391113e-01,7.168650031089782715e-01,7.099921107292175293e-01,7.055528163909912109e-01,7.006880044937133789e-01,6.948145031929016113e-01,6.861593723297119141e-01,6.821748018264770508e-01,6.814090609550476074e-01,6.823869943618774414e-01,6.911435723304748535e-01,8.623494505882263184e-01,8.623114228248596191e-01,8.622733950614929199e-01,8.622353672981262207e-01,8.621973991394042969e-01,8.621593713760375977e-01,8.621212840080261230e-01,8.620832562446594238e-01,8.620452284812927246e-01,8.620072603225708008e-01,8.619692325592041016e-01,8.619312644004821777e-01,8.618932366371154785e-01,8.618552684783935547e-01,8.618173003196716309e-01,8.617792725563049316e-01,8.617413043975830078e-01,8.617033362388610840e-01,8.616653680801391602e-01,8.616273999214172363e-01,8.615894317626953125e-01,8.615514636039733887e-01,8.615134954452514648e-01,8.614755868911743164e-01,8.614376187324523926e-01,8.613996505737304688e-01,8.613617420196533203e-01,8.613237738609313965e-01,8.612858057022094727e-01,8.612478971481323242e-01,8.612099885940551758e-01,8.611720204353332520e-01,8.611341118812561035e-01,8.610962033271789551e-01,8.610582947731018066e-01,8.610203862190246582e-01,8.609824180603027344e-01,8.609445095062255859e-01,8.609066605567932129e-01,8.608686327934265137e-01,5.081844329833984375e-01,4.995573461055755615e-01,4.923802614212036133e-01,4.854064881801605225e-01,4.819135069847106934e-01,4.787313342094421387e-01,4.755908846855163574e-01,4.724913537502288818e-01,4.693064987659454346e-01
8.212931156158447266e-01,8.212586045265197754e-01,8.212240934371948242e-01,8.211896419525146484e-01,8.211551308631896973e-01,8.211206197738647461e-01,8.210861682891845703e-01,8.210517168045043945e-01,8.210172057151794434e-01,8.209827542304992676e-01,8.209483027458190918e-01,8.209137320518493652e-01,8.208792805671691895e-01,8.208448290824890137e-01,8.208103775978088379e-01,8.207759261131286621e-01,8.207414746284484863e-01,8.207070231437683105e-01,8.206725716590881348e-01,8.206381201744079590e-01,8.206036686897277832e-01,8.205692768096923828e-01,8.205348253250122070e-01,8.205003738403320312e-01,8.204659819602966309e-01,8.204315304756164551e-01,6.898702979087829590e-01,6.766381859779357910e-01,6.736807823181152344e-01,6.734191179275512695e-01,6.755062341690063477e-01,6.919423341751098633e-01,7.388747334480285645e-01,8.201562762260437012e-01,8.201218247413635254e-01,8.200874328613281250e-01,8.200530409812927246e-01,8.200186491012573242e-01,8.199842572212219238e-01,8.199499249458312988e-01,8.199155330657958984e-01,8.198811411857604980e-01,8.198467493057250977e-01,8.198124170303344727e-01,8.197779655456542969e-01,8.197435736656188965e-01,8.197092413902282715e-01,8.196748495101928711e-01,8.196405172348022461e-01,8.196061253547668457e-01,8.195717930793762207e-01,8.195374608039855957e-01,8.195030689239501953e-01,8.194687366485595703e-01,8.194344043731689453e-01,8.194000720977783203e-01,8.193657398223876953e-01,8.193314075469970703e-01,8.192970752716064453e-01,8.192627429962158203e-01,8.192284107208251953e-01,8.191940784454345703e-01,8.191597461700439453e-01,8.191254734992980957e-01,8.190911412239074707e-01,8.190568089485168457e-01,8.190225362777709961e-01,8.189882040023803711e-01,8.189539313316345215e-01,8.189195990562438965e-01,8.188853263854980469e-01,8.188510537147521973e-01,8.188167810440063477e-01,5.214595794677734375e-01,5.109562277793884277e-01,4.831625819206237793e-01,4.799639880657196045e-01,4.768074154853820801e-01,4.736920595169067383e-01,4.706171751022338867e-01
7.829952239990234375e-01,7.829638719558715820e-01,7.829325199127197266e-01,7.829011678695678711e-01,7.828698158264160156e-01,7.828384637832641602e-01,7.828071117401123047e-01,7.827757596969604492e-01,7.827444672584533691e-01,7.827131152153015137e-01,7.826817631721496582e-01,7.826504707336425781e-01,7.826191186904907227e-01,7.825878262519836426e-01,7.825564742088317871e-01,7.825251817703247070e-01,7.824938893318176270e-01,7.824625372886657715e-01,7.824311852455139160e-01,7.823998332023620605e-01,7.823685407638549805e-01,7.823372483253479004e-01,7.823059558868408203e-01,7.822746634483337402e-01,7.822433710098266602e-01,7.822120785713195801e-01,7.821807861328125000e-01,6.734352111816406250e-01,6.678426861763000488e-01,6.669011712074279785e-01,6.676259636878967285e-01,6.687174439430236816e-01,6.728781461715698242e-01,6.881613135337829590e-01,7.819305658340454102e-01,7.818992733955383301e-01,7.818680405616760254e-01,7.818367481231689453e-01,7.818055152893066406e-01,7.817742228507995605e-01,7.817429900169372559e-01,7.817117571830749512e-01,7.816804647445678711e-01,7.816492319107055664e-01,7.816179990768432617e-01,7.815867662429809570e-01,7.815555334091186523e-01,7.815242409706115723e-01,7.814930081367492676e-01,7.814617753028869629e-01,7.814305424690246582e-01,7.813993692398071289e-01,7.813680171966552734e-01,7.813368439674377441e-01,7.813056111335754395e-01,7.812743782997131348e-01,7.812431454658508301e-01,7.812119722366333008e-01,7.811807394027709961e-01,7.811495661735534668e-01,7.811183333396911621e-01,7.810871601104736328e-01,7.810559272766113281e-01,7.810247540473937988e-01,7.809935212135314941e-01,7.809623479843139648e-01,7.809311747550964355e-01,7.808999419212341309e-01,7.808687686920166016e-01,7.808375954627990723e-01,7.808064222335815430e-01,7.807752490043640137e-01,7.807440757751464844e-01,5.212740302085876465e-01,5.122986435890197754e-01,5.058072209358215332e-01,4.972515404224395752e-01,4.914935827255249023e-01,4.875211119651794434e-01,4.834721386432647705e-01
7.481099367141723633e-01,7.480812668800354004e-01,7.480526566505432129e-01,7.480240464210510254e-01,7.479954361915588379e-01,7.479668259620666504e-01,7.479382157325744629e-01,7.479096055030822754e-01,7.478809952735900879e-01,7.478523850440979004e-01,7.478238344192504883e-01,7.477952241897583008e-01,7.477666139602661133e-01,7.477380037307739258e-01,7.477094531059265137e-01,7.476808428764343262e-01,7.476522326469421387e-01,7.476236820220947266e-01,7.475950717926025391e-01,7.475665211677551270e-01,7.475379109382629395e-01,7.475093603134155273e-01,7.474807500839233398e-01,7.474521994590759277e-01,7.474236488342285156e-01,7.473950386047363281e-01,7.473664283752441406e-01,7.473378777503967285e-01,6.652512550354003906e-01,6.622852683067321777e-01,6.615553498268127441e-01,6.606007218360900879e-01,6.592565178871154785e-01,6.612469553947448730e-01,6.820078492164611816e-01,7.471094131469726562e-01,7.470808625221252441e-01,7.470523118972778320e-01,7.470238208770751953e-01,7.469952702522277832e-01,7.469667196273803711e-01,7.469381690025329590e-01,7.469096779823303223e-01,7.468811273574829102e-01,7.468525767326354980e-01,7.468240857124328613e-01,7.467955350875854492e-01,7.467670440673828125e-01,7.467384934425354004e-01,7.467100024223327637e-01,7.466814517974853516e-01,7.466529607772827148e-01,7.466244697570800781e-01,7.465959787368774414e-01,7.465674281120300293e-01,7.465389370918273926e-01,7.465104460716247559e-01,7.464819550514221191e-01,7.464534640312194824e-01,7.464248538017272949e-01,7.463963627815246582e-01,7.463679313659667969e-01,7.463394403457641602e-01,7.463109493255615234e-01,7.462824583053588867e-01,7.462539672851562500e-01,7.462254762649536133e-01,7.461969852447509766e-01,7.461685538291931152e-01,7.461400628089904785e-01,7.461115717887878418e-01,7.460831403732299805e-01,7.460546493530273438e-01,5.214725136756896973e-01,5.137323141098022461e-01,5.076225399971008301e-01,4.993523657321929932e-01,4.926213026046752930e-01,4.886734783649444580e-01,4.846927523612976074e-01
7.162005901336669922e-01,7.161743640899658203e-01,7.161481380462646484e-01,7.161218523979187012e-01,7.160956859588623047e-01,7.160694599151611328e-01,7.160432338714599609e-01,7.160170078277587891e-01,7.159907817840576172e-01,7.159645557403564453e-01,7.159383296966552734e-01,7.159121036529541016e-01,7.158859372138977051e-01,7.158597111701965332e-01,7.158334851264953613e-01,7.158073186874389648e-01,7.157810926437377930e-01,7.157549262046813965e-01,7.157287001609802246e-01,7.157025337219238281e-01,7.156763076782226562e-01,7.156501412391662598e-01,7.156239151954650879e-01,7.155977487564086914e-01,7.155715227127075195e-01,7.155453562736511230e-01,7.155191898345947266e-01,7.154930233955383301e-01,6.633818149566650391e-01,6.616706252098083496e-01,6.593130230903625488e-01,6.564434170722961426e-01,6.529334783554077148e-01,6.516152620315551758e-01,6.527006030082702637e-01,6.555942893028259277e-01,7.152574062347412109e-01,7.152312397956848145e-01,7.152050733566284180e-01,7.151789069175720215e-01,7.151527404785156250e-01,7.151266336441040039e-01,7.151004672050476074e-01,7.150743007659912109e-01,7.150481343269348145e-01,7.150220274925231934e-01,7.149958610534667969e-01,7.149696946144104004e-01,7.149435877799987793e-01,7.149174213409423828e-01,7.148913145065307617e-01,7.148651480674743652e-01,7.148390412330627441e-01,7.148128747940063477e-01,7.147867679595947266e-01,7.147606611251831055e-01,7.147344946861267090e-01,7.147083878517150879e-01,7.146822810173034668e-01,7.146561741828918457e-01,7.146300077438354492e-01,7.146039009094238281e-01,7.145777940750122070e-01,7.145516872406005859e-01,7.145255804061889648e-01,7.144994735717773438e-01,7.144733071327209473e-01,7.144472002983093262e-01,7.144210934638977051e-01,7.143949866294860840e-01,7.143688797950744629e-01,7.143427729606628418e-01,7.143167257308959961e-01,5.231955051422119141e-01,5.150381326675415039e-01,5.078155994415283203e-01,5.019050836563110352e-01,4.937823712825775146e-01,4.898019731044769287e-01,4.859004318714141846e-01
6.869019865989685059e-01,6.868779063224792480e-01,6.868537664413452148e-01,6.868296265602111816e-01,6.868054866790771484e-01,6.867814064025878906e-01,6.867572665214538574e-01,6.867330670356750488e-01,6.867089867591857910e-01,6.866848468780517578e-01,6.866607666015625000e-01,6.866366267204284668e-01,6.866125464439392090e-01,6.865884065628051758e-01,6.865643262863159180e-01,6.865401864051818848e-01,6.865161061286926270e-01,6.864919662475585938e-01,6.864678859710693359e-01,6.864438056945800781e-01,6.864196658134460449e-01,6.863955855369567871e-01,6.863715052604675293e-01,6.863474249839782715e-01,6.863233447074890137e-01,6.862992644309997559e-01,6.862751245498657227e-01,6.862510442733764648e-01,6.862269639968872070e-01,6.862028837203979492e-01,6.861788034439086914e-01,6.861547231674194336e-01,6.513417363166809082e-01,6.492139101028442383e-01,6.482749581336975098e-01,6.555575132369995117e-01,6.860343813896179199e-01,6.860103011131286621e-01,6.859862208366394043e-01,6.859622001647949219e-01,6.859380602836608887e-01,6.859139800071716309e-01,6.858899593353271484e-01,6.858658790588378906e-01,6.858417987823486328e-01,6.858177781105041504e-01,6.857936978340148926e-01,6.857696771621704102e-01,6.857455968856811523e-01,6.857215762138366699e-01,6.856974959373474121e-01,6.856734752655029297e-01,6.856494545936584473e-01,6.856253743171691895e-01,6.856013536453247070e-01,6.855773329734802246e-01,6.855532526969909668e-01,6.855292320251464844e-01,6.855052113533020020e-01,6.854811906814575195e-01,6.854571700096130371e-01,6.854330897331237793e-01,6.854090690612792969e-01,6.853850483894348145e-01,6.853610277175903320e-01,6.853370070457458496e-01,6.853129863739013672e-01,6.852889657020568848e-01,6.852649450302124023e-01,6.852409839630126953e-01,6.852169632911682129e-01,6.851929426193237305e-01,6.851689219474792480e-01,5.245712399482727051e-01,5.160567760467529297e-01,5.087287425994873047e-01,5.021305084228515625e-01,4.950005114078521729e-01,4.909726977348327637e-01,4.870229661464691162e-01
6.599063277244567871e-01,6.598840355873107910e-01,6.598617434501647949e-01,6.598395109176635742e-01,6.598172187805175781e-01,6.597949862480163574e-01,6.597726941108703613e-01,6.597504615783691406e-01,6.597281694412231445e-01,6.597059369087219238e-01,6.596837043762207031e-01,6.596614122390747070e-01,6.596391797065734863e-01,6.596168875694274902e-01,6.595945954322814941e-01,6.595723628997802734e-01,6.595501303672790527e-01,6.595278978347778320e-01,6.595056056976318359e-01,6.594833731651306152e-01,6.594611406326293945e-01,6.594389081001281738e-01,6.594166755676269531e-01,6.593944430351257324e-01,6.593722105026245117e-01,6.593499779701232910e-01,6.593277454376220703e-01,6.593055129051208496e-01,6.592832803726196289e-01,6.592610478401184082e-01,6.592388153076171875e-01,6.592165827751159668e-01,6.591943502426147461e-01,6.591721177101135254e-01,6.591499447822570801e-01,6.591277122497558594e-01,6.591054797172546387e-01,6.590832471847534180e-01,6.590610742568969727e-01,6.590388417243957520e-01,6.590166091918945312e-01,6.589944362640380859e-01,6.589722037315368652e-01,6.589500308036804199e-01,6.589277982711791992e-01,6.589056253433227539e-01,6.588833928108215332e-01,6.588611602783203125e-01,6.588389277458190918e-01,6.588167548179626465e-01,6.587945818901062012e-01,6.587723493576049805e-01,6.587501764297485352e-01,6.587280035018920898e-01,6.587057709693908691e-01,6.586835980415344238e-01,6.586614251136779785e-01,6.586391925811767578e-01,6.586170196533203125e-01,6.585948467254638672e-01,6.585726737976074219e-01,6.585505008697509766e-01,6.585283279418945312e-01,6.585061550140380859e-01,6.584839820861816406e-01,6.584618091583251953e-01,6.584396362304687500e-01,6.584174633026123047e-01,6.583952903747558594e-01,6.583731174468994141e-01,6.583509445190429688e-01,6.583287715911865234e-01,6.583065986633300781e-01,5.259334444999694824e-01,5.163669586181640625e-01,5.095505714416503906e-01,5.029588937759399414e-01,4.967947006225585938e-01,4.921712875366210938e-01,4.881947934627532959e-01
6.349522471427917480e-01,6.349316239356994629e-01,6.349110007286071777e-01,6.348903775215148926e-01,6.348697543144226074e-01,6.348491311073303223e-01,6.348285675048828125e-01,6.348079442977905273e-01,6.347873210906982422e-01,6.347666978836059570e-01,6.347461342811584473e-01,6.347255110740661621e-01,6.347048878669738770e-01,6.346843242645263672e-01,6.346637010574340820e-01,6.346431374549865723e-01,6.346225142478942871e-01,6.346018910408020020e-01,6.345813274383544922e-01,6.345607042312622070e-01,6.345401406288146973e-01,6.345195174217224121e-01,6.344988942146301270e-01,6.344783306121826172e-01,6.344577074050903320e-01,6.344371438026428223e-01,6.344165802001953125e-01,6.343959569931030273e-01,6.343753933906555176e-01,6.343548297882080078e-01,6.343342661857604980e-01,6.343136429786682129e-01,6.342930793762207031e-01,6.342725157737731934e-01,6.342519521713256836e-01,6.342313885688781738e-01,6.342108249664306641e-01,6.341902613639831543e-01,6.341696381568908691e-01,6.341490745544433594e-01,6.341285109519958496e-01,6.341079473495483398e-01,6.340873837471008301e-01,6.340668201446533203e-01,6.340463161468505859e-01,6.340257525444030762e-01,6.340051889419555664e-01,6.339846253395080566e-01,6.339640617370605469e-01,6.339434981346130371e-01,6.339229345321655273e-01,6.339024305343627930e-01,6.338818669319152832e-01,6.338613033294677734e-01,6.338407397270202637e-01,6.338201761245727539e-01,6.337996125221252441e-01,6.337791085243225098e-01,6.337585449218750000e-01,6.337379813194274902e-01,6.337174773216247559e-01,6.336969137191772461e-01,6.336764097213745117e-01,6.336558461189270020e-01,6.336352825164794922e-01,6.336147785186767578e-01,6.335942745208740234e-01,6.335737109184265137e-01,6.335532069206237793e-01,6.335326433181762695e-01,6.335121393203735352e-01,6.334916353225708008e-01,6.334710717201232910e-01,5.263034105300903320e-01,5.163268446922302246e-01,5.093600749969482422e-01,5.033558011054992676e-01,4.986072182655334473e-01,4.930422008037567139e-01,4.890952408313751221e-01
6.118167042732238770e-01,6.117975711822509766e-01,6.117783784866333008e-01,6.117592453956604004e-01,6.117401123046875000e-01,6.117209792137145996e-01,6.117018461227416992e-01,6.116827130317687988e-01,6.116635799407958984e-01,6.116444468498229980e-01,6.116253137588500977e-01,6.116061806678771973e-01,6.115870475769042969e-01,6.115679144859313965e-01,6.115487813949584961e-01,6.115296483039855957e-01,6.115105748176574707e-01,6.114914417266845703e-01,6.114723086357116699e-01,6.114531755447387695e-01,6.114340424537658691e-01,6.114149689674377441e-01,6.113958358764648438e-01,6.113767027854919434e-01,6.113575696945190430e-01,6.113384962081909180e-01,6.113193631172180176e-01,6.113002896308898926e-01,6.112810969352722168e-01,6.112620234489440918e-01,6.112428903579711914e-01,6.112237572669982910e-01,6.112046837806701660e-01,6.111855506896972656e-01,6.111664772033691406e-01,6.111473441123962402e-01,6.111282706260681152e-01,6.111091971397399902e-01,6.110900640487670898e-01,6.110709905624389648e-01,6.110518574714660645e-01,6.110327839851379395e-01,6.110137104988098145e-01,6.109945774078369141e-01,6.109755039215087891e-01,6.109564304351806641e-01,6.109372973442077637e-01,6.109182238578796387e-01,6.108991503715515137e-01,6.108800768852233887e-01,6.108610033988952637e-01,6.108418703079223633e-01,6.108227968215942383e-01,6.108037233352661133e-01,6.107846498489379883e-01,6.107655763626098633e-01,6.107465028762817383e-01,6.107274293899536133e-01,6.107083559036254883e-01,6.106892824172973633e-01,6.106702089309692383e-01,6.106511354446411133e-01,6.106320023536682129e-01,6.106129288673400879e-01,6.105939149856567383e-01,6.105748414993286133e-01,6.105557680130004883e-01,6.105366945266723633e-01,6.105176210403442383e-01,6.104985475540161133e-01,6.104795336723327637e-01,6.104604601860046387e-01,6.104413866996765137e-01,5.264427661895751953e-01,5.161406397819519043e-01,5.094837546348571777e-01,5.039674043655395508e-01,4.989498853683471680e-01,4.940316975116729736e-01,4.899621903896331787e-01
5.903078317642211914e-01,5.902900099754333496e-01,5.902721881866455078e-01,5.902543663978576660e-01,5.902365446090698242e-01,5.902187228202819824e-01,5.902009010314941406e-01,5.901830792427062988e-01,5.901652574539184570e-01,5.901474356651306152e-01,5.901296734809875488e-01,5.901118516921997070e-01,5.900940299034118652e-01,5.900762081146240234e-01,5.900584459304809570e-01,5.900406241416931152e-01,5.900228023529052734e-01,5.900049805641174316e-01,5.899872183799743652e-01,5.899693965911865234e-01,5.899516344070434570e-01,5.899338126182556152e-01,5.899159908294677734e-01,5.898982286453247070e-01,5.898804068565368652e-01,5.898626446723937988e-01,5.898448228836059570e-01,5.898270606994628906e-01,5.898092389106750488e-01,5.897914767265319824e-01,5.897737145423889160e-01,5.897558927536010742e-01,5.897381305694580078e-01,5.897203087806701660e-01,5.897025465965270996e-01,5.896847844123840332e-01,5.896669626235961914e-01,5.896491408348083496e-01,5.896313786506652832e-01,5.896136164665222168e-01,5.895957946777343750e-01,5.895780324935913086e-01,5.895602703094482422e-01,5.895425081253051758e-01,5.895246863365173340e-01,5.895069241523742676e-01,5.894891619682312012e-01,5.894713997840881348e-01,5.894536375999450684e-01,5.894358754158020020e-01,5.894181132316589355e-01,5.894003510475158691e-01,5.893825888633728027e-01,5.893647670745849609e-01,5.893470048904418945e-01,5.893292427062988281e-01,5.893114805221557617e-01,5.892937779426574707e-01,5.892760157585144043e-01,5.892582535743713379e-01,5.892404913902282715e-01,5.892227292060852051e-01,5.892049670219421387e-01,5.891872048377990723e-01,5.891694426536560059e-01,5.891516804695129395e-01,5.891339778900146484e-01,5.891162157058715820e-01,5.890984535217285156e-01,5.890806913375854492e-01,5.890629291534423828e-01,5.890451669692993164e-01,5.890274643898010254e-01,5.890097022056579590e-01,5.176449418067932129e-01,5.099913477897644043e-01,5.038912296295166016e-01,4.992565810680389404e-01,4.948396086692810059e-01,4.907527267932891846e-01
