5.000000000000000000e+00,5.000000000000000000e+00,5.000000000000000000e+00,5.000000000000000000e+00,5.000000000000000000e+00,5.000000000000000000e+00,5.000000000000000000e+00,5.000000000000000000e+00,5.000000000000000000e+00,5.000000000000000000e+00,5.000000000000000000e+00,5.000000000000000000e+00,5.000000000000000000e+00,5.000000000000000000e+00,5.000000000000000000e+00,5.000000000000000000e+00,5.000000000000000000e+00,5.000000000000000000e+00,5.000000000000000000e+00,5.000000000000000000e+00,5.000000000000000000e+00,5.000000000000000000e+00,5.000000000000000000e+00,5.000000000000000000e+00,5.000000000000000000e+00,5.000000000000000000e+00,5.000000000000000000e+00,5.000000000000000000e+00,5.000000000000000000e+00,5.000000000000000000e+00,5.000000000000000000e+00,5.000000000000000000e+00,5.000000000000000000e+00,5.000000000000000000e+00,5.000000000000000000e+00,5.000000000000000000e+00,5.000000000000000000e+00,5.000000000000000000e+00,5.000000000000000000e+00,5.000000000000000000e+00,5.000000000000000000e+00,5.000000000000000000e+00,5.000000000000000000e+00,5.000000000000000000e+00,5.000000000000000000e+00,5.000000000000000000e+00,5.000000000000000000e+00,5.000000000000000000e+00,5.000000000000000000e+00,5.000000000000000000e+00,5.000000000000000000e+00,5.000000000000000000e+00,5.000000000000000000e+00,5.000000000000000000e+00,4.993374347686767578e+00,4.828067779541015625e+00,4.673372268676757812e+00,4.528301239013671875e+00,4.391964912414550781e+00,4.263598918914794922e+00,4.142522811889648438e+00,4.028133869171142578e+00,3.919892311096191406e+00,3.817316055297851562e+00,3.719970941543579102e+00,3.627467393875122070e+00,3.539452552795410156e+00,3.455607891082763672e+00,3.375643253326416016e+00,3.299295663833618164e+00,3.226325750350952148e+00,3.156513452529907227e+00,3.089658498764038086e+00,3.025576591491699219e+00,2.964099168777465820e+00,2.905070304870605469e+00,2.848346471786499023e+00,2.793795347213745117e+00,2.741294384002685547e+00,2.690730333328247070e+00
5.000000000000000000e+00,5.000000000000000000e+00,5.000000000000000000e+00,5.000000000000000000e+00,5.000000000000000000e+00,5.000000000000000000e+00,5.000000000000000000e+00,5.000000000000000000e+00,5.000000000000000000e+00,5.000000000000000000e+00,5.000000000000000000e+00,5.000000000000000000e+00,5.000000000000000000e+00,5.000000000000000000e+00,5.000000000000000000e+00,5.000000000000000000e+00,5.000000000000000000e+00,5.000000000000000000e+00,5.000000000000000000e+00,5.000000000000000000e+00,5.000000000000000000e+00,5.000000000000000000e+00,5.000000000000000000e+00,5.000000000000000000e+00,5.000000000000000000e+00,5.000000000000000000e+00,5.000000000000000000e+00,5.000000000000000000e+00,5.000000000000000000e+00,5.000000000000000000e+00,5.000000000000000000e+00,5.000000000000000000e+00,4.762063026428222656e+00,4.743521213531494141e+00,5.000000000000000000e+00,5.000000000000000000e+00,5.000000000000000000e+00,5.000000000000000000e+00,5.000000000000000000e+00,5.000000000000000000e+00,5.000000000000000000e+00,5.000000000000000000e+00,5.000000000000000000e+00,5.000000000000000000e+00,5.000000000000000000e+00,5.000000000000000000e+00,5.000000000000000000e+00,5.000000000000000000e+00,5.000000000000000000e+00,5.000000000000000000e+00,5.000000000000000000e+00,5.000000000000000000e+00,5.000000000000000000e+00,5.000000000000000000e+00,4.993440628051757812e+00,4.828168869018554688e+00,4.673487186431884766e+00,4.528409004211425781e+00,4.392066478729248047e+00,4.263694286346435547e+00,4.142612934112548828e+00,4.028219223022460938e+00,3.919973373413085938e+00,3.817392826080322266e+00,3.720043420791625977e+00,3.627536535263061523e+00,3.539518356323242188e+00,3.455670356750488281e+00,3.375703096389770508e+00,3.299353122711181641e+00,3.226380586624145508e+00,3.156565904617309570e+00,3.089708805084228516e+00,3.025624752044677734e+00,2.964145183563232422e+00,2.905114412307739258e+00,2.848388910293579102e+00,2.793836355209350586e+00,2.741333961486816406e+00,2.690768480300903320e+00
5.000000000000000000e+00,5.000000000000000000e+00,5.000000000000000000e+00,5.000000000000000000e+00,5.000000000000000000e+00,5.000000000000000000e+00,5.000000000000000000e+00,5.000000000000000000e+00,5.000000000000000000e+00,5.000000000000000000e+00,5.000000000000000000e+00,5.000000000000000000e+00,5.000000000000000000e+00,5.000000000000000000e+00,5.000000000000000000e+00,5.000000000000000000e+00,5.000000000000000000e+00,5.000000000000000000e+00,5.000000000000000000e+00,5.000000000000000000e+00,5.000000000000000000e+00,5.000000000000000000e+00,5.000000000000000000e+00,5.000000000000000000e+00,5.000000000000000000e+00,5.000000000000000000e+00,5.000000000000000000e+00,5.000000000000000000e+00,5.000000000000000000e+00,5.000000000000000000e+00,5.000000000000000000e+00,5.000000000000000000e+00,4.779720783233642578e+00,4.739923000335693359e+00,5.000000000000000000e+00,5.000000000000000000e+00,5.000000000000000000e+00,5.000000000000000000e+00,5.000000000000000000e+00,5.000000000000000000e+00,5.000000000000000000e+00,5.000000000000000000e+00,5.000000000000000000e+00,5.000000000000000000e+00,5.000000000000000000e+00,5.000000000000000000e+00,5.000000000000000000e+00,5.000000000000000000e+00,5.000000000000000000e+00,5.000000000000000000e+00,5.000000000000000000e+00,5.000000000000000000e+00,5.000000000000000000e+00,5.000000000000000000e+00,4.993571758270263672e+00,4.828291416168212891e+00,4.673602104187011719e+00,4.528516769409179688e+00,4.392167568206787109e+00,4.263790130615234375e+00,4.142703533172607422e+00,4.028304576873779297e+00,3.920053958892822266e+00,3.817469358444213867e+00,3.720116615295410156e+00,3.627605915069580078e+00,3.539584398269653320e+00,3.455733060836791992e+00,3.375762939453125000e+00,3.299410343170166016e+00,3.226435184478759766e+00,3.156618118286132812e+00,3.089758872985839844e+00,3.025672912597656250e+00,2.964191436767578125e+00,2.905158996582031250e+00,2.848431587219238281e+00,2.793877124786376953e+00,2.741373300552368164e+00,2.690806627273559570e+00
5.000000000000000000e+00,5.000000000000000000e+00,5.000000000000000000e+00,5.000000000000000000e+00,5.000000000000000000e+00,5.000000000000000000e+00,5.000000000000000000e+00,5.000000000000000000e+00,5.000000000000000000e+00,5.000000000000000000e+00,5.000000000000000000e+00,5.000000000000000000e+00,5.000000000000000000e+00,5.000000000000000000e+00,5.000000000000000000e+00,5.000000000000000000e+00,5.000000000000000000e+00,5.000000000000000000e+00,5.000000000000000000e+00,5.000000000000000000e+00,5.000000000000000000e+00,5.000000000000000000e+00,5.000000000000000000e+00,5.000000000000000000e+00,5.000000000000000000e+00,5.000000000000000000e+00,5.000000000000000000e+00,5.000000000000000000e+00,5.000000000000000000e+00,5.000000000000000000e+00,5.000000000000000000e+00,5.000000000000000000e+00,4.846495151519775391e+00,4.782173633575439453e+00,5.000000000000000000e+00,5.000000000000000000e+00,5.000000000000000000e+00,5.000000000000000000e+00,5.000000000000000000e+00,5.000000000000000000e+00,5.000000000000000000e+00,5.000000000000000000e+00,5.000000000000000000e+00,5.000000000000000000e+00,5.000000000000000000e+00,5.000000000000000000e+00,5.000000000000000000e+00,5.000000000000000000e+00,5.000000000000000000e+00,5.000000000000000000e+00,5.000000000000000000e+00,5.000000000000000000e+00,5.000000000000000000e+00,5.000000000000000000e+00,4.993702888488769531e+00,4.828414440155029297e+00,4.673717021942138672e+00,4.528624534606933594e+00,4.392269134521484375e+00,4.263885498046875000e+00,4.142793655395507812e+00,4.028389930725097656e+00,3.920134544372558594e+00,3.817545652389526367e+00,3.720189094543457031e+00,3.627674818038940430e+00,3.539649963378906250e+00,3.455796003341674805e+00,3.375823020935058594e+00,3.299467802047729492e+00,3.226490020751953125e+00,3.156670570373535156e+00,3.089808940887451172e+00,3.025721073150634766e+00,2.964237689971923828e+00,2.905203342437744141e+00,2.848474264144897461e+00,2.793918371200561523e+00,2.741413116455078125e+00,2.690844774246215820e+00
5.000000000000000000e+00,5.000000000000000000e+00,5.000000000000000000e+00,5.000000000000000000e+00,5.000000000000000000e+00,5.000000000000000000e+00,5.000000000000000000e+00,5.000000000000000000e+00,5.000000000000000000e+00,5.000000000000000000e+00,5.000000000000000000e+00,5.000000000000000000e+00,5.000000000000000000e+00,5.000000000000000000e+00,5.000000000000000000e+00,5.000000000000000000e+00,5.000000000000000000e+00,5.000000000000000000e+00,5.000000000000000000e+00,5.000000000000000000e+00,5.000000000000000000e+00,5.000000000000000000e+00,5.000000000000000000e+00,5.000000000000000000e+00,5.000000000000000000e+00,5.000000000000000000e+00,5.000000000000000000e+00,5.000000000000000000e+00,5.000000000000000000e+00,5.000000000000000000e+00,4.716712951660156250e+00,4.743098735809326172e+00,4.749350547790527344e+00,4.773604393005371094e+00,4.836514472961425781e+00,4.879454612731933594e+00,5.000000000000000000e+00,5.000000000000000000e+00,5.000000000000000000e+00,5.000000000000000000e+00,5.000000000000000000e+00,5.000000000000000000e+00,5.000000000000000000e+00,5.000000000000000000e+00,5.000000000000000000e+00,5.000000000000000000e+00,5.000000000000000000e+00,5.000000000000000000e+00,5.000000000000000000e+00,5.000000000000000000e+00,5.000000000000000000e+00,5.000000000000000000e+00,5.000000000000000000e+00,5.000000000000000000e+00,4.993834018707275391e+00,4.828536987304687500e+00,4.673831462860107422e+00,4.528732299804687500e+00,4.392370700836181641e+00,4.263981342315673828e+00,4.142883777618408203e+00,4.028474807739257812e+00,3.920215845108032227e+00,3.817622661590576172e+00,3.720262050628662109e+00,3.627743959426879883e+00,3.539715766906738281e+00,3.455858707427978516e+00,3.375882863998413086e+00,3.299524784088134766e+00,3.226544618606567383e+00,3.156723022460937500e+00,3.089859247207641602e+00,3.025769233703613281e+00,2.964283704757690430e+00,2.905247449874877930e+00,2.848516941070556641e+00,2.793959379196166992e+00,2.741452455520629883e+00,2.690882682800292969e+00
5.000000000000000000e+00,5.000000000000000000e+00,5.000000000000000000e+00,5.000000000000000000e+00,5.000000000000000000e+00,5.000000000000000000e+00,5.000000000000000000e+00,5.000000000000000000e+00,5.000000000000000000e+00,5.000000000000000000e+00,5.000000000000000000e+00,5.000000000000000000e+00,5.000000000000000000e+00,5.000000000000000000e+00,5.000000000000000000e+00,5.000000000000000000e+00,5.000000000000000000e+00,5.000000000000000000e+00,5.000000000000000000e+00,5.000000000000000000e+00,5.000000000000000000e+00,5.000000000000000000e+00,5.000000000000000000e+00,5.000000000000000000e+00,5.000000000000000000e+00,5.000000000000000000e+00,5.000000000000000000e+00,5.000000000000000000e+00,5.000000000000000000e+00,5.000000000000000000e+00,4.723224163055419922e+00,4.728572845458984375e+00,4.705906867980957031e+00,4.729943752288818359e+00,4.775027275085449219e+00,4.895761966705322266e+00,5.000000000000000000e+00,5.000000000000000000e+00,5.000000000000000000e+00,5.000000000000000000e+00,5.000000000000000000e+00,5.000000000000000000e+00,5.000000000000000000e+00,5.000000000000000000e+00,5.000000000000000000e+00,5.000000000000000000e+00,5.000000000000000000e+00,5.000000000000000000e+00,5.000000000000000000e+00,5.000000000000000000e+00,5.000000000000000000e+00,5.000000000000000000e+00,5.000000000000000000e+00,5.000000000000000000e+00,4.993965148925781250e+00,4.828659057617187500e+00,4.673946380615234375e+00,4.528840065002441406e+00,4.392472267150878906e+00,4.264076709747314453e+00,4.142973899841308594e+00,4.028560161590576172e+00,3.920296430587768555e+00,3.817698955535888672e+00,3.720334768295288086e+00,3.627813339233398438e+00,3.539781808853149414e+00,3.455921649932861328e+00,3.375942945480346680e+00,3.299582004547119141e+00,3.226599216461181641e+00,3.156775236129760742e+00,3.089909315109252930e+00,3.025817394256591797e+00,2.964329957962036133e+00,2.905292034149169922e+00,2.848559617996215820e+00,2.794000387191772461e+00,2.741491794586181641e+00,2.690920829772949219e+00
5.000000000000000000e+00,5.000000000000000000e+00,5.000000000000000000e+00,5.000000000000000000e+00,5.000000000000000000e+00,5.000000000000000000e+00,5.000000000000000000e+00,5.000000000000000000e+00,5.000000000000000000e+00,5.000000000000000000e+00,5.000000000000000000e+00,5.000000000000000000e+00,5.000000000000000000e+00,5.000000000000000000e+00,5.000000000000000000e+00,5.000000000000000000e+00,5.000000000000000000e+00,5.000000000000000000e+00,5.000000000000000000e+00,5.000000000000000000e+00,5.000000000000000000e+00,5.000000000000000000e+00,5.000000000000000000e+00,5.000000000000000000e+00,5.000000000000000000e+00,5.000000000000000000e+00,5.000000000000000000e+00,5.000000000000000000e+00,5.000000000000000000e+00,5.000000000000000000e+00,4.730921745300292969e+00,4.760661125183105469e+00,4.716819763183593750e+00,4.724541187286376953e+00,4.788983821868896484e+00,4.909937858581542969e+00,5.000000000000000000e+00,5.000000000000000000e+00,5.000000000000000000e+00,5.000000000000000000e+00,5.000000000000000000e+00,5.000000000000000000e+00,5.000000000000000000e+00,5.000000000000000000e+00,5.000000000000000000e+00,5.000000000000000000e+00,5.000000000000000000e+00,5.000000000000000000e+00,5.000000000000000000e+00,5.000000000000000000e+00,5.000000000000000000e+00,5.000000000000000000e+00,5.000000000000000000e+00,5.000000000000000000e+00,4.994100093841552734e+00,4.828784942626953125e+00,4.674063682556152344e+00,4.528949260711669922e+00,4.392574310302734375e+00,4.264172077178955078e+00,4.143064022064208984e+00,4.028645515441894531e+00,3.920377492904663086e+00,3.817775487899780273e+00,3.720407247543334961e+00,3.627882242202758789e+00,3.539847612380981445e+00,3.455984354019165039e+00,3.376002788543701172e+00,3.299639463424682617e+00,3.226654291152954102e+00,3.156827926635742188e+00,3.089959383010864258e+00,3.025865316390991211e+00,2.964376211166381836e+00,2.905336380004882812e+00,2.848602294921875000e+00,2.794041395187377930e+00,2.741531610488891602e+00,2.690958976745605469e+00
5.000000000000000000e+00,5.000000000000000000e+00,5.000000000000000000e+00,5.000000000000000000e+00,5.000000000000000000e+00,5.000000000000000000e+00,5.000000000000000000e+00,5.000000000000000000e+00,5.000000000000000000e+00,5.000000000000000000e+00,5.000000000000000000e+00,5.000000000000000000e+00,5.000000000000000000e+00,5.000000000000000000e+00,5.000000000000000000e+00,5.000000000000000000e+00,5.000000000000000000e+00,5.000000000000000000e+00,5.000000000000000000e+00,5.000000000000000000e+00,5.000000000000000000e+00,5.000000000000000000e+00,5.000000000000000000e+00,5.000000000000000000e+00,5.000000000000000000e+00,5.000000000000000000e+00,5.000000000000000000e+00,5.000000000000000000e+00,5.000000000000000000e+00,5.000000000000000000e+00,4.726233482360839844e+00,4.765041828155517578e+00,4.717842102050781250e+00,4.725694179534912109e+00,4.781311511993408203e+00,4.919718742370605469e+00,5.000000000000000000e+00,5.000000000000000000e+00,5.000000000000000000e+00,5.000000000000000000e+00,5.000000000000000000e+00,5.000000000000000000e+00,5.000000000000000000e+00,5.000000000000000000e+00,5.000000000000000000e+00,5.000000000000000000e+00,5.000000000000000000e+00,5.000000000000000000e+00,5.000000000000000000e+00,5.000000000000000000e+00,5.000000000000000000e+00,5.000000000000000000e+00,5.000000000000000000e+00,5.000000000000000000e+00,4.994237899780273438e+00,4.828913688659667969e+00,4.674184322357177734e+00,4.529062747955322266e+00,4.392681121826171875e+00,4.264272689819335938e+00,4.143158435821533203e+00,4.028734207153320312e+00,3.920460700988769531e+00,3.817854166030883789e+00,3.720481634140014648e+00,3.627952575683593750e+00,3.539914131164550781e+00,3.456047058105468750e+00,3.376062393188476562e+00,3.299696445465087891e+00,3.226708889007568359e+00,3.156880140304565430e+00,3.090009689331054688e+00,3.025913715362548828e+00,2.964422464370727539e+00,2.905380964279174805e+00,2.848644733428955078e+00,2.794082403182983398e+00,2.741570949554443359e+00,2.690996885299682617e+00
5.000000000000000000e+00,5.000000000000000000e+00,5.000000000000000000e+00,5.000000000000000000e+00,5.000000000000000000e+00,5.000000000000000000e+00,5.000000000000000000e+00,5.000000000000000000e+00,5.000000000000000000e+00,5.000000000000000000e+00,5.000000000000000000e+00,5.000000000000000000e+00,5.000000000000000000e+00,5.000000000000000000e+00,5.000000000000000000e+00,5.000000000000000000e+00,5.000000000000000000e+00,5.000000000000000000e+00,5.000000000000000000e+00,5.000000000000000000e+00,5.000000000000000000e+00,5.000000000000000000e+00,5.000000000000000000e+00,5.000000000000000000e+00,5.000000000000000000e+00,5.000000000000000000e+00,5.000000000000000000e+00,5.000000000000000000e+00,5.000000000000000000e+00,5.000000000000000000e+00,4.711755275726318359e+00,4.763712882995605469e+00,4.701566696166992188e+00,4.721346378326416016e+00,4.765292167663574219e+00,4.945103168487548828e+00,5.000000000000000000e+00,5.000000000000000000e+00,5.000000000000000000e+00,5.000000000000000000e+00,5.000000000000000000e+00,5.000000000000000000e+00,5.000000000000000000e+00,5.000000000000000000e+00,5.000000000000000000e+00,5.000000000000000000e+00,5.000000000000000000e+00,5.000000000000000000e+00,5.000000000000000000e+00,5.000000000000000000e+00,5.000000000000000000e+00,5.000000000000000000e+00,5.000000000000000000e+00,5.000000000000000000e+00,4.994375705718994141e+00,4.829042911529541016e+00,4.674304962158203125e+00,4.529176235198974609e+00,4.392787456512451172e+00,4.264373302459716797e+00,4.143253326416015625e+00,4.028823852539062500e+00,3.920545578002929688e+00,3.817934989929199219e+00,3.720558166503906250e+00,3.628025054931640625e+00,3.539983272552490234e+00,3.456113100051879883e+00,3.376125335693359375e+00,3.299756050109863281e+00,3.226765155792236328e+00,3.156933784484863281e+00,3.090060949325561523e+00,3.025962591171264648e+00,2.964468955993652344e+00,2.905425071716308594e+00,2.848687648773193359e+00,2.794123649597167969e+00,2.741610527038574219e+00,2.691034793853759766e+00
5.000000000000000000e+00,5.000000000000000000e+00,5.000000000000000000e+00,5.000000000000000000e+00,5.000000000000000000e+00,5.000000000000000000e+00,5.000000000000000000e+00,5.000000000000000000e+00,5.000000000000000000e+00,5.000000000000000000e+00,5.000000000000000000e+00,5.000000000000000000e+00,5.000000000000000000e+00,5.000000000000000000e+00,5.000000000000000000e+00,5.000000000000000000e+00,5.000000000000000000e+00,5.000000000000000000e+00,5.000000000000000000e+00,5.000000000000000000e+00,5.000000000000000000e+00,5.000000000000000000e+00,5.000000000000000000e+00,5.000000000000000000e+00,5.000000000000000000e+00,5.000000000000000000e+00,5.000000000000000000e+00,5.000000000000000000e+00,5.000000000000000000e+00,5.000000000000000000e+00,4.654994487762451172e+00,4.748405933380126953e+00,4.720711231231689453e+00,4.735498905181884766e+00,4.802254676818847656e+00,4.928911209106445312e+00,5.000000000000000000e+00,5.000000000000000000e+00,5.000000000000000000e+00,5.000000000000000000e+00,5.000000000000000000e+00,5.000000000000000000e+00,5.000000000000000000e+00,5.000000000000000000e+00,5.000000000000000000e+00,5.000000000000000000e+00,5.000000000000000000e+00,5.000000000000000000e+00,5.000000000000000000e+00,5.000000000000000000e+00,5.000000000000000000e+00,5.000000000000000000e+00,5.000000000000000000e+00,5.000000000000000000e+00,4.994513988494873047e+00,4.829171657562255859e+00,4.674425601959228516e+00,4.529289722442626953e+00,4.392894268035888672e+00,4.264473915100097656e+00,4.143348217010498047e+00,4.028913497924804688e+00,3.920630693435668945e+00,3.818015336990356445e+00,3.720634698867797852e+00,3.628098011016845703e+00,3.540052652359008789e+00,3.456179141998291016e+00,3.376188039779663086e+00,3.299816131591796875e+00,3.226823091506958008e+00,3.156989097595214844e+00,3.090113639831542969e+00,3.026012897491455078e+00,2.964517593383789062e+00,2.905472040176391602e+00,2.848732233047485352e+00,2.794166088104248047e+00,2.741651296615600586e+00,2.691074132919311523e+00
5.000000000000000000e+00,5.000000000000000000e+00,5.000000000000000000e+00,5.000000000000000000e+00,5.000000000000000000e+00,5.000000000000000000e+00,5.000000000000000000e+00,5.000000000000000000e+00,5.000000000000000000e+00,5.000000000000000000e+00,5.000000000000000000e+00,5.000000000000000000e+00,5.000000000000000000e+00,5.000000000000000000e+00,5.000000000000000000e+00,5.000000000000000000e+00,5.000000000000000000e+00,5.000000000000000000e+00,5.000000000000000000e+00,5.000000000000000000e+00,5.000000000000000000e+00,5.000000000000000000e+00,5.000000000000000000e+00,5.000000000000000000e+00,5.000000000000000000e+00,5.000000000000000000e+00,5.000000000000000000e+00,5.000000000000000000e+00,5.000000000000000000e+00,5.000000000000000000e+00,4.610403060913085938e+00,4.743990898132324219e+00,4.742514610290527344e+00,4.728456497192382812e+00,4.709626197814941406e+00,4.909162044525146484e+00,5.000000000000000000e+00,5.000000000000000000e+00,5.000000000000000000e+00,5.000000000000000000e+00,5.000000000000000000e+00,5.000000000000000000e+00,5.000000000000000000e+00,5.000000000000000000e+00,5.000000000000000000e+00,5.000000000000000000e+00,5.000000000000000000e+00,5.000000000000000000e+00,5.000000000000000000e+00,5.000000000000000000e+00,5.000000000000000000e+00,5.000000000000000000e+00,5.000000000000000000e+00,5.000000000000000000e+00,4.994651794433593750e+00,4.829300403594970703e+00,4.674546718597412109e+00,4.529402732849121094e+00,4.393000602722167969e+00,4.264574527740478516e+00,4.143443107604980469e+00,4.029003620147705078e+00,3.920715570449829102e+00,3.818096160888671875e+00,3.720711231231689453e+00,3.628170728683471680e+00,3.540121793746948242e+00,3.456245183944702148e+00,3.376251220703125000e+00,3.299876451492309570e+00,3.226880311965942383e+00,3.157044172286987305e+00,3.090166568756103516e+00,3.026063680648803711e+00,2.964565992355346680e+00,2.905518531799316406e+00,2.848777055740356445e+00,2.794209480285644531e+00,2.741693019866943359e+00,2.691114187240600586e+00
5.000000000000000000e+00,5.000000000000000000e+00,5.000000000000000000e+00,5.000000000000000000e+00,5.000000000000000000e+00,5.000000000000000000e+00,5.000000000000000000e+00,5.000000000000000000e+00,5.000000000000000000e+00,5.000000000000000000e+00,5.000000000000000000e+00,5.000000000000000000e+00,5.000000000000000000e+00,5.000000000000000000e+00,5.000000000000000000e+00,5.000000000000000000e+00,5.000000000000000000e+00,5.000000000000000000e+00,5.000000000000000000e+00,5.000000000000000000e+00,5.000000000000000000e+00,5.000000000000000000e+00,5.000000000000000000e+00,5.000000000000000000e+00,5.000000000000000000e+00,5.000000000000000000e+00,5.000000000000000000e+00,5.000000000000000000e+00,5.000000000000000000e+00,5.000000000000000000e+00,4.549741744995117188e+00,4.541539669036865234e+00,4.746760368347167969e+00,4.711717128753662109e+00,4.659732341766357422e+00,4.901448726654052734e+00,5.000000000000000000e+00,5.000000000000000000e+00,5.000000000000000000e+00,5.000000000000000000e+00,5.000000000000000000e+00,5.000000000000000000e+00,5.000000000000000000e+00,5.000000000000000000e+00,5.000000000000000000e+00,5.000000000000000000e+00,5.000000000000000000e+00,5.000000000000000000e+00,5.000000000000000000e+00,5.000000000000000000e+00,5.000000000000000000e+00,5.000000000000000000e+00,5.000000000000000000e+00,5.000000000000000000e+00,4.994789600372314453e+00,4.829429626464843750e+00,4.674667358398437500e+00,4.529516220092773438e+00,4.393107414245605469e+00,4.264675140380859375e+00,4.143537998199462891e+00,4.029093265533447266e+00,3.920800685882568359e+00,3.818176507949829102e+00,3.720787763595581055e+00,3.628243684768676758e+00,3.540191173553466797e+00,3.456311225891113281e+00,3.376314163208007812e+00,3.299936532974243164e+00,3.226938247680664062e+00,3.157099246978759766e+00,3.090219259262084961e+00,3.026114225387573242e+00,2.964614629745483398e+00,2.905565261840820312e+00,2.848821878433227539e+00,2.794252395629882812e+00,2.741734504699707031e+00,2.691154241561889648e+00
5.000000000000000000e+00,5.000000000000000000e+00,5.000000000000000000e+00,5.000000000000000000e+00,5.000000000000000000e+00,5.000000000000000000e+00,5.000000000000000000e+00,5.000000000000000000e+00,5.000000000000000000e+00,5.000000000000000000e+00,5.000000000000000000e+00,5.000000000000000000e+00,5.000000000000000000e+00,5.000000000000000000e+00,5.000000000000000000e+00,5.000000000000000000e+00,5.000000000000000000e+00,5.000000000000000000e+00,5.000000000000000000e+00,5.000000000000000000e+00,5.000000000000000000e+00,5.000000000000000000e+00,5.000000000000000000e+00,5.000000000000000000e+00,5.000000000000000000e+00,5.000000000000000000e+00,5.000000000000000000e+00,5.000000000000000000e+00,5.000000000000000000e+00,5.000000000000000000e+00,4.516607284545898438e+00,4.783533573150634766e+00,4.775482177734375000e+00,4.706724643707275391e+00,4.628259181976318359e+00,5.000000000000000000e+00,5.000000000000000000e+00,5.000000000000000000e+00,5.000000000000000000e+00,5.000000000000000000e+00,5.000000000000000000e+00,5.000000000000000000e+00,5.000000000000000000e+00,5.000000000000000000e+00,5.000000000000000000e+00,5.000000000000000000e+00,5.000000000000000000e+00,5.000000000000000000e+00,5.000000000000000000e+00,5.000000000000000000e+00,5.000000000000000000e+00,5.000000000000000000e+00,5.000000000000000000e+00,5.000000000000000000e+00,4.994927406311035156e+00,4.829557895660400391e+00,4.674787998199462891e+00,4.529629707336425781e+00,4.393214225769042969e+00,4.264775276184082031e+00,4.143632888793945312e+00,4.029182910919189453e+00,3.920885562896728516e+00,3.818257331848144531e+00,3.720864295959472656e+00,3.628316164016723633e+00,3.540260314941406250e+00,3.456377267837524414e+00,3.376377344131469727e+00,3.299996614456176758e+00,3.226995468139648438e+00,3.157154321670532227e+00,3.090272188186645508e+00,3.026165008544921875e+00,2.964663267135620117e+00,2.905611753463745117e+00,2.848866701126098633e+00,2.794295787811279297e+00,2.741775989532470703e+00,2.691194057464599609e+00
5.000000000000000000e+00,5.000000000000000000e+00,5.000000000000000000e+00,5.000000000000000000e+00,5.000000000000000000e+00,5.000000000000000000e+00,5.000000000000000000e+00,5.000000000000000000e+00,5.000000000000000000e+00,5.000000000000000000e+00,5.000000000000000000e+00,5.000000000000000000e+00,5.000000000000000000e+00,5.000000000000000000e+00,5.000000000000000000e+00,5.000000000000000000e+00,5.000000000000000000e+00,5.000000000000000000e+00,5.000000000000000000e+00,5.000000000000000000e+00,5.000000000000000000e+00,5.000000000000000000e+00,5.000000000000000000e+00,5.000000000000000000e+00,5.000000000000000000e+00,5.000000000000000000e+00,5.000000000000000000e+00,5.000000000000000000e+00,5.000000000000000000e+00,5.000000000000000000e+00,5.000000000000000000e+00,4.852124214172363281e+00,4.809185028076171875e+00,5.000000000000000000e+00,4.590759754180908203e+00,5.000000000000000000e+00,5.000000000000000000e+00,5.000000000000000000e+00,5.000000000000000000e+00,5.000000000000000000e+00,5.000000000000000000e+00,5.000000000000000000e+00,5.000000000000000000e+00,5.000000000000000000e+00,5.000000000000000000e+00,5.000000000000000000e+00,5.000000000000000000e+00,5.000000000000000000e+00,5.000000000000000000e+00,5.000000000000000000e+00,5.000000000000000000e+00,5.000000000000000000e+00,5.000000000000000000e+00,5.000000000000000000e+00,4.995065689086914062e+00,4.829687118530273438e+00,4.674909114837646484e+00,4.529743194580078125e+00,4.393321037292480469e+00,4.264875888824462891e+00,4.143727779388427734e+00,4.029272556304931641e+00,3.920970201492309570e+00,3.818337678909301758e+00,3.720940828323364258e+00,3.628389120101928711e+00,3.540329694747924805e+00,3.456443309783935547e+00,3.376440286636352539e+00,3.300056934356689453e+00,3.227053165435791016e+00,3.157209157943725586e+00,3.090324878692626953e+00,3.026215553283691406e+00,2.964711904525756836e+00,2.905658721923828125e+00,2.848911523818969727e+00,2.794338703155517578e+00,2.741817712783813477e+00,2.691234350204467773e+00
5.000000000000000000e+00,5.000000000000000000e+00,5.000000000000000000e+00,5.000000000000000000e+00,5.000000000000000000e+00,5.000000000000000000e+00,5.000000000000000000e+00,5.000000000000000000e+00,5.000000000000000000e+00,5.000000000000000000e+00,5.000000000000000000e+00,5.000000000000000000e+00,5.000000000000000000e+00,5.000000000000000000e+00,5.000000000000000000e+00,5.000000000000000000e+00,5.000000000000000000e+00,5.000000000000000000e+00,5.000000000000000000e+00,5.000000000000000000e+00,5.000000000000000000e+00,5.000000000000000000e+00,5.000000000000000000e+00,5.000000000000000000e+00,5.000000000000000000e+00,5.000000000000000000e+00,5.000000000000000000e+00,5.000000000000000000e+00,5.000000000000000000e+00,5.000000000000000000e+00,5.000000000000000000e+00,5.000000000000000000e+00,4.838805198669433594e+00,5.000000000000000000e+00,4.586370944976806641e+00,5.000000000000000000e+00,5.000000000000000000e+00,5.000000000000000000e+00,5.000000000000000000e+00,5.000000000000000000e+00,5.000000000000000000e+00,5.000000000000000000e+00,5.000000000000000000e+00,5.000000000000000000e+00,5.000000000000000000e+00,5.000000000000000000e+00,5.000000000000000000e+00,5.000000000000000000e+00,5.000000000000000000e+00,5.000000000000000000e+00,5.000000000000000000e+00,5.000000000000000000e+00,5.000000000000000000e+00,5.000000000000000000e+00,4.995203495025634766e+00,4.829815864562988281e+00,4.675029754638671875e+00,4.529856204986572266e+00,4.393427371978759766e+00,4.264976501464843750e+00,4.143822669982910156e+00,4.029362678527832031e+00,3.921055555343627930e+00,3.818418502807617188e+00,3.721017122268676758e+00,3.628461837768554688e+00,3.540398836135864258e+00,3.456509351730346680e+00,3.376503467559814453e+00,3.300117015838623047e+00,3.227110624313354492e+00,3.157264471054077148e+00,3.090377807617187500e+00,3.026265859603881836e+00,2.964760303497314453e+00,2.905705213546752930e+00,2.848956584930419922e+00,2.794382095336914062e+00,2.741858959197998047e+00,2.691274166107177734e+00
5.000000000000000000e+00,5.000000000000000000e+00,5.000000000000000000e+00,5.000000000000000000e+00,5.000000000000000000e+00,5.000000000000000000e+00,5.000000000000000000e+00,5.000000000000000000e+00,5.000000000000000000e+00,5.000000000000000000e+00,5.000000000000000000e+00,5.000000000000000000e+00,5.000000000000000000e+00,5.000000000000000000e+00,5.000000000000000000e+00,5.000000000000000000e+00,5.000000000000000000e+00,5.000000000000000000e+00,5.000000000000000000e+00,5.000000000000000000e+00,5.000000000000000000e+00,5.000000000000000000e+00,5.000000000000000000e+00,5.000000000000000000e+00,5.000000000000000000e+00,5.000000000000000000e+00,5.000000000000000000e+00,5.000000000000000000e+00,5.000000000000000000e+00,5.000000000000000000e+00,5.000000000000000000e+00,4.949467658996582031e+00,4.895719051361083984e+00,5.000000000000000000e+00,4.609273910522460938e+00,5.000000000000000000e+00,5.000000000000000000e+00,5.000000000000000000e+00,5.000000000000000000e+00,5.000000000000000000e+00,5.000000000000000000e+00,5.000000000000000000e+00,5.000000000000000000e+00,5.000000000000000000e+00,5.000000000000000000e+00,5.000000000000000000e+00,5.000000000000000000e+00,5.000000000000000000e+00,5.000000000000000000e+00,5.000000000000000000e+00,5.000000000000000000e+00,5.000000000000000000e+00,5.000000000000000000e+00,5.000000000000000000e+00,4.995341300964355469e+00,4.829945087432861328e+00,4.675150394439697266e+00,4.529969692230224609e+00,4.393534183502197266e+00,4.265077114105224609e+00,4.143917560577392578e+00,4.029452323913574219e+00,3.921140193939208984e+00,3.818498849868774414e+00,3.721093893051147461e+00,3.628534793853759766e+00,3.540467977523803711e+00,3.456575393676757812e+00,3.376566410064697266e+00,3.300177335739135742e+00,3.227168321609497070e+00,3.157319545745849609e+00,3.090430498123168945e+00,3.026316642761230469e+00,2.964809179306030273e+00,2.905751943588256836e+00,2.849001169204711914e+00,2.794425249099731445e+00,2.741900682449340820e+00,2.691314458847045898e+00
5.000000000000000000e+00,5.000000000000000000e+00,5.000000000000000000e+00,5.000000000000000000e+00,5.000000000000000000e+00,5.000000000000000000e+00,5.000000000000000000e+00,5.000000000000000000e+00,5.000000000000000000e+00,5.000000000000000000e+00,5.000000000000000000e+00,5.000000000000000000e+00,5.000000000000000000e+00,5.000000000000000000e+00,5.000000000000000000e+00,5.000000000000000000e+00,5.000000000000000000e+00,5.000000000000000000e+00,5.000000000000000000e+00,5.000000000000000000e+00,5.000000000000000000e+00,5.000000000000000000e+00,5.000000000000000000e+00,5.000000000000000000e+00,5.000000000000000000e+00,5.000000000000000000e+00,5.000000000000000000e+00,5.000000000000000000e+00,5.000000000000000000e+00,5.000000000000000000e+00,5.000000000000000000e+00,4.998961448669433594e+00,4.990342140197753906e+00,5.000000000000000000e+00,4.599365711212158203e+00,5.000000000000000000e+00,5.000000000000000000e+00,5.000000000000000000e+00,5.000000000000000000e+00,5.000000000000000000e+00,5.000000000000000000e+00,5.000000000000000000e+00,5.000000000000000000e+00,5.000000000000000000e+00,5.000000000000000000e+00,5.000000000000000000e+00,5.000000000000000000e+00,5.000000000000000000e+00,5.000000000000000000e+00,5.000000000000000000e+00,5.000000000000000000e+00,5.000000000000000000e+00,5.000000000000000000e+00,5.000000000000000000e+00,4.995479106903076172e+00,4.830073833465576172e+00,4.675271511077880859e+00,4.530083179473876953e+00,4.393640995025634766e+00,4.265177249908447266e+00,4.144012451171875000e+00,4.029541969299316406e+00,3.921225547790527344e+00,3.818579673767089844e+00,3.721170186996459961e+00,3.628607273101806641e+00,3.540537595748901367e+00,3.456641435623168945e+00,3.376629114151000977e+00,3.300237417221069336e+00,3.227225780487060547e+00,3.157374620437622070e+00,3.090483427047729492e+00,3.026367187500000000e+00,2.964857578277587891e+00,2.905798673629760742e+00,2.849046230316162109e+00,2.794468402862548828e+00,2.741942167282104492e+00,2.691354274749755859e+00
5.000000000000000000e+00,5.000000000000000000e+00,5.000000000000000000e+00,5.000000000000000000e+00,5.000000000000000000e+00,5.000000000000000000e+00,5.000000000000000000e+00,5.000000000000000000e+00,5.000000000000000000e+00,5.000000000000000000e+00,5.000000000000000000e+00,5.000000000000000000e+00,5.000000000000000000e+00,5.000000000000000000e+00,5.000000000000000000e+00,5.000000000000000000e+00,5.000000000000000000e+00,5.000000000000000000e+00,5.000000000000000000e+00,5.000000000000000000e+00,5.000000000000000000e+00,5.000000000000000000e+00,5.000000000000000000e+00,5.000000000000000000e+00,5.000000000000000000e+00,5.000000000000000000e+00,5.000000000000000000e+00,5.000000000000000000e+00,5.000000000000000000e+00,5.000000000000000000e+00,5.000000000000000000e+00,5.000000000000000000e+00,5.000000000000000000e+00,5.000000000000000000e+00,4.586952686309814453e+00,5.000000000000000000e+00,5.000000000000000000e+00,5.000000000000000000e+00,5.000000000000000000e+00,5.000000000000000000e+00,5.000000000000000000e+00,5.000000000000000000e+00,5.000000000000000000e+00,5.000000000000000000e+00,5.000000000000000000e+00,5.000000000000000000e+00,5.000000000000000000e+00,5.000000000000000000e+00,5.000000000000000000e+00,5.000000000000000000e+00,5.000000000000000000e+00,5.000000000000000000e+00,5.000000000000000000e+00,5.000000000000000000e+00,4.995616912841796875e+00,4.830203056335449219e+00,4.675392150878906250e+00,4.530196666717529297e+00,4.393747806549072266e+00,4.265277862548828125e+00,4.144107818603515625e+00,4.029631614685058594e+00,3.921310186386108398e+00,3.818660020828247070e+00,3.721246957778930664e+00,3.628680229187011719e+00,3.540606498718261719e+00,3.456707477569580078e+00,3.376692295074462891e+00,3.300297737121582031e+00,3.227283477783203125e+00,3.157429695129394531e+00,3.090536117553710938e+00,3.026417970657348633e+00,2.964906215667724609e+00,2.905845165252685547e+00,2.849091053009033203e+00,2.794511556625366211e+00,2.741983890533447266e+00,2.691394567489624023e+00
5.000000000000000000e+00,5.000000000000000000e+00,5.000000000000000000e+00,5.000000000000000000e+00,5.000000000000000000e+00,5.000000000000000000e+00,5.000000000000000000e+00,5.000000000000000000e+00,5.000000000000000000e+00,5.000000000000000000e+00,5.000000000000000000e+00,5.000000000000000000e+00,5.000000000000000000e+00,5.000000000000000000e+00,5.000000000000000000e+00,5.000000000000000000e+00,5.000000000000000000e+00,5.000000000000000000e+00,5.000000000000000000e+00,5.000000000000000000e+00,5.000000000000000000e+00,5.000000000000000000e+00,5.000000000000000000e+00,5.000000000000000000e+00,5.000000000000000000e+00,5.000000000000000000e+00,5.000000000000000000e+00,5.000000000000000000e+00,5.000000000000000000e+00,5.000000000000000000e+00,5.000000000000000000e+00,5.000000000000000000e+00,5.000000000000000000e+00,5.000000000000000000e+00,4.579745769500732422e+00,5.000000000000000000e+00,5.000000000000000000e+00,5.000000000000000000e+00,5.000000000000000000e+00,5.000000000000000000e+00,5.000000000000000000e+00,5.000000000000000000e+00,5.000000000000000000e+00,5.000000000000000000e+00,5.000000000000000000e+00,5.000000000000000000e+00,5.000000000000000000e+00,5.000000000000000000e+00,5.000000000000000000e+00,5.000000000000000000e+00,5.000000000000000000e+00,5.000000000000000000e+00,5.000000000000000000e+00,5.000000000000000000e+00,4.995754718780517578e+00,4.830331802368164062e+00,4.675513267517089844e+00,4.530310153961181641e+00,4.393854618072509766e+00,4.265378475189208984e+00,4.144202709197998047e+00,4.029721260070800781e+00,3.921395540237426758e+00,3.818740844726562500e+00,3.721323251724243164e+00,3.628752946853637695e+00,3.540676116943359375e+00,3.456773757934570312e+00,3.376755237579345703e+00,3.300357818603515625e+00,3.227340936660766602e+00,3.157485008239746094e+00,3.090589046478271484e+00,3.026468515396118164e+00,2.964954853057861328e+00,2.905891895294189453e+00,2.849136114120483398e+00,2.794554471969604492e+00,2.742025375366210938e+00,2.691434383392333984e+00
5.000000000000000000e+00,5.000000000000000000e+00,5.000000000000000000e+00,5.000000000000000000e+00,5.000000000000000000e+00,5.000000000000000000e+00,5.000000000000000000e+00,5.000000000000000000e+00,5.000000000000000000e+00,5.000000000000000000e+00,5.000000000000000000e+00,5.000000000000000000e+00,5.000000000000000000e+00,5.000000000000000000e+00,5.000000000000000000e+00,5.000000000000000000e+00,5.000000000000000000e+00,5.000000000000000000e+00,5.000000000000000000e+00,5.000000000000000000e+00,5.000000000000000000e+00,5.000000000000000000e+00,5.000000000000000000e+00,5.000000000000000000e+00,5.000000000000000000e+00,5.000000000000000000e+00,5.000000000000000000e+00,5.000000000000000000e+00,5.000000000000000000e+00,5.000000000000000000e+00,5.000000000000000000e+00,5.000000000000000000e+00,5.000000000000000000e+00,5.000000000000000000e+00,4.587142944335937500e+00,5.000000000000000000e+00,5.000000000000000000e+00,5.000000000000000000e+00,5.000000000000000000e+00,5.000000000000000000e+00,5.000000000000000000e+00,5.000000000000000000e+00,5.000000000000000000e+00,5.000000000000000000e+00,5.000000000000000000e+00,5.000000000000000000e+00,5.000000000000000000e+00,5.000000000000000000e+00,5.000000000000000000e+00,5.000000000000000000e+00,5.000000000000000000e+00,5.000000000000000000e+00,5.000000000000000000e+00,5.000000000000000000e+00,4.995892524719238281e+00,4.830461025238037109e+00,4.675633907318115234e+00,4.530423641204833984e+00,4.393960952758789062e+00,4.265479087829589844e+00,4.144297599792480469e+00,4.029810905456542969e+00,3.921480178833007812e+00,3.818821430206298828e+00,3.721400022506713867e+00,3.628825902938842773e+00,3.540745258331298828e+00,3.456839561462402344e+00,3.376818418502807617e+00,3.300418376922607422e+00,3.227398395538330078e+00,3.157539844512939453e+00,3.090641736984252930e+00,3.026519298553466797e+00,2.965003490447998047e+00,2.905938386917114258e+00,2.849180698394775391e+00,2.794597864151000977e+00,2.742067098617553711e+00,2.691474437713623047e+00
4.871521949768066406e+00,4.870309352874755859e+00,4.869096755981445312e+00,4.867885589599609375e+00,4.866674423217773438e+00,4.865464210510253906e+00,4.864254474639892578e+00,4.863045215606689453e+00,4.861836910247802734e+00,4.860629081726074219e+00,4.859421730041503906e+00,4.858214855194091797e+00,4.857008934020996094e+00,4.855803489685058594e+00,4.854598045349121094e+00,4.853394031524658203e+00,4.852190494537353516e+00,4.850987434387207031e+00,4.849784851074218750e+00,4.848582744598388672e+00,4.847381591796875000e+00,4.846180915832519531e+00,4.844980716705322266e+00,4.843780994415283203e+00,4.842582225799560547e+00,4.841383934020996094e+00,4.840185642242431641e+00,4.838988780975341797e+00,4.837791919708251953e+00,4.836596012115478516e+00,4.835400581359863281e+00,4.834205627441406250e+00,4.833011627197265625e+00,4.831818103790283203e+00,4.830624580383300781e+00,4.829432487487792969e+00,4.828240394592285156e+00,4.827049255371093750e+00,4.825858592987060547e+00,4.824668407440185547e+00,4.823479175567626953e+00,4.822289943695068359e+00,4.821101665496826172e+00,4.819913864135742188e+00,4.818726539611816406e+00,4.817539691925048828e+00,4.816353797912597656e+00,4.815168380737304688e+00,4.813983917236328125e+00,4.812799453735351562e+00,4.811615467071533203e+00,4.810432434082031250e+00,4.809250354766845703e+00,4.808067798614501953e+00,4.806886672973632812e+00,4.805706024169921875e+00,4.675754547119140625e+00,4.530537128448486328e+00,4.394067764282226562e+00,4.265579700469970703e+00,4.144392490386962891e+00,4.029901027679443359e+00,3.921565532684326172e+00,3.818901777267456055e+00,3.721476316452026367e+00,3.628898620605468750e+00,3.540814638137817383e+00,3.456905841827392578e+00,3.376881361007690430e+00,3.300478458404541016e+00,3.227456092834472656e+00,3.157595157623291016e+00,3.090694189071655273e+00,3.026569843292236328e+00,2.965051889419555664e+00,2.905985355377197266e+00,2.849225759506225586e+00,2.794640779495239258e+00,2.742108345031738281e+00,2.691514492034912109e+00
3.776058673858642578e+00,3.775329589843750000e+00,3.774601221084594727e+00,3.773873329162597656e+00,3.773145437240600586e+00,3.772418022155761719e+00,3.771690607070922852e+00,3.770963668823242188e+00,3.770237207412719727e+00,3.769510269165039062e+00,3.768784284591674805e+00,3.768058300018310547e+00,3.767332792282104492e+00,3.766607522964477539e+00,3.765882492065429688e+00,3.765157938003540039e+00,3.764433383941650391e+00,3.763708829879760742e+00,3.762984991073608398e+00,3.762261390686035156e+00,3.761538028717041016e+00,3.760815143585205078e+00,3.760092258453369141e+00,3.759369850158691406e+00,3.758647680282592773e+00,3.757925271987915039e+00,3.757203578948974609e+00,3.756482124328613281e+00,3.755761146545410156e+00,3.755040407180786133e+00,3.754319667816162109e+00,3.753599405288696289e+00,3.752879381179809570e+00,3.752159357070922852e+00,3.751439809799194336e+00,3.750720739364624023e+00,3.750001907348632812e+00,3.749283313751220703e+00,3.748564958572387695e+00,3.747846841812133789e+00,3.747128725051879883e+00,3.746411085128784180e+00,3.745693922042846680e+00,3.744976997375488281e+00,3.744260311126708984e+00,3.743543863296508789e+00,3.742827653884887695e+00,3.742111921310424805e+00,3.741395950317382812e+00,3.740680456161499023e+00,3.739965438842773438e+00,3.739250659942626953e+00,3.738536357879638672e+00,3.737822055816650391e+00,3.737107992172241211e+00,3.736394405364990234e+00,3.735680580139160156e+00,3.734967470169067383e+00,3.734254598617553711e+00,3.733541965484619141e+00,3.732829809188842773e+00,3.732117652893066406e+00,3.731405973434448242e+00,3.730694293975830078e+00,3.721553087234497070e+00,3.628971099853515625e+00,3.540883779525756836e+00,3.456971645355224609e+00,3.376944541931152344e+00,3.300538778305053711e+00,3.227513551712036133e+00,3.157650232315063477e+00,3.090747356414794922e+00,3.026620626449584961e+00,2.965100526809692383e+00,2.906031847000122070e+00,2.849270582199096680e+00,2.794684171676635742e+00,2.742150068283081055e+00,2.691554546356201172e+00
3.082821607589721680e+00,3.082335948944091797e+00,3.081850528717041016e+00,3.081365108489990234e+00,3.080879926681518555e+00,3.080394744873046875e+00,3.079909801483154297e+00,3.079425096511840820e+00,3.078940153121948242e+00,3.078455924987792969e+00,3.077971458435058594e+00,3.077487468719482422e+00,3.077003479003906250e+00,3.076519489288330078e+00,3.076035737991333008e+00,3.075552225112915039e+00,3.075068712234497070e+00,3.074585437774658203e+00,3.074102401733398438e+00,3.073619365692138672e+00,3.073136568069458008e+00,3.072654008865356445e+00,3.072171449661254883e+00,3.071689128875732422e+00,3.071206808090209961e+00,3.070724725723266602e+00,3.070242881774902344e+00,3.069761037826538086e+00,3.069279432296752930e+00,3.068798065185546875e+00,3.068316936492919922e+00,3.067835807800292969e+00,3.067354440689086914e+00,3.066873788833618164e+00,3.066393136978149414e+00,3.065912485122680664e+00,3.065432310104370117e+00,3.064952135086059570e+00,3.064471960067749023e+00,3.063992023468017578e+00,3.063512086868286133e+00,3.063032388687133789e+00,3.062552928924560547e+00,3.062073707580566406e+00,3.061594486236572266e+00,3.061115503311157227e+00,3.060636758804321289e+00,3.060157537460327148e+00,3.059679031372070312e+00,3.059200763702392578e+00,3.058722496032714844e+00,3.058244228363037109e+00,3.057766437530517578e+00,3.057288408279418945e+00,3.056810855865478516e+00,3.056333065032958984e+00,3.055855751037597656e+00,3.055378437042236328e+00,3.054901361465454102e+00,3.054424524307250977e+00,3.053947687149047852e+00,3.053471088409423828e+00,3.052994728088378906e+00,3.052518129348754883e+00,3.052041769027709961e+00,3.051565885543823242e+00,3.051090002059936523e+00,3.050614118576049805e+00,3.050138711929321289e+00,3.049663305282592773e+00,3.049187898635864258e+00,3.048712491989135742e+00,3.048237562179565430e+00,3.026671171188354492e+00,2.965149164199829102e+00,2.906078577041625977e+00,2.849315643310546875e+00,2.794727325439453125e+00,2.742191553115844727e+00,2.691594600677490234e+00
2.604642152786254883e+00,2.604295492172241211e+00,2.603948831558227539e+00,2.603602170944213867e+00,2.603255748748779297e+00,2.602909564971923828e+00,2.602563381195068359e+00,2.602216958999633789e+00,2.601870775222778320e+00,2.601524829864501953e+00,2.601179122924804688e+00,2.600833177566528320e+00,2.600487709045410156e+00,2.600142002105712891e+00,2.599796533584594727e+00,2.599450826644897461e+00,2.599105596542358398e+00,2.598760366439819336e+00,2.598415136337280273e+00,2.598070144653320312e+00,2.597725152969360352e+00,2.597380399703979492e+00,2.597035646438598633e+00,2.596690654754638672e+00,2.596346139907836914e+00,2.596001625061035156e+00,2.595657110214233398e+00,2.595312833786010742e+00,2.594968557357788086e+00,2.594624519348144531e+00,2.594280481338500977e+00,2.593936443328857422e+00,2.593592405319213867e+00,2.593248605728149414e+00,2.592905044555664062e+00,2.592561483383178711e+00,2.592217922210693359e+00,2.591874599456787109e+00,2.591531276702880859e+00,2.591187953948974609e+00,2.590844631195068359e+00,2.590501785278320312e+00,2.590158700942993164e+00,2.589815855026245117e+00,2.589473009109497070e+00,2.589130401611328125e+00,2.588787555694580078e+00,2.588445186614990234e+00,2.588102817535400391e+00,2.587760448455810547e+00,2.587418317794799805e+00,2.587076187133789062e+00,2.586734056472778320e+00,2.586392164230346680e+00,2.586050033569335938e+00,2.585708379745483398e+00,2.585366725921630859e+00,2.585025072097778320e+00,2.584683656692504883e+00,2.584342241287231445e+00,2.584000825881958008e+00,2.583659648895263672e+00,2.583318233489990234e+00,2.582977294921875000e+00,2.582636356353759766e+00,2.582295417785644531e+00,2.581954717636108398e+00,2.581614017486572266e+00,2.581273317337036133e+00,2.580932855606079102e+00,2.580592393875122070e+00,2.580251932144165039e+00,2.579911708831787109e+00,2.579571485519409180e+00,2.579231500625610352e+00,2.578891515731811523e+00,2.578551769256591797e+00,2.578211784362792969e+00,2.577872037887573242e+00,2.577532291412353516e+00
2.254884719848632812e+00,2.254624843597412109e+00,2.254365205764770508e+00,2.254105329513549805e+00,2.253845691680908203e+00,2.253586053848266602e+00,2.253326416015625000e+00,2.253067016601562500e+00,2.252807617187500000e+00,2.252548217773437500e+00,2.252288818359375000e+00,2.252029657363891602e+00,2.251770496368408203e+00,2.251511335372924805e+00,2.251252174377441406e+00,2.250993013381958008e+00,2.250734090805053711e+00,2.250475168228149414e+00,2.250216484069824219e+00,2.249957561492919922e+00,2.249698877334594727e+00,2.249440193176269531e+00,2.249181509017944336e+00,2.248923063278198242e+00,2.248664617538452148e+00,2.248406171798706055e+00,2.248147726058959961e+00,2.247889518737792969e+00,2.247631311416625977e+00,2.247373104095458984e+00,2.247114896774291992e+00,2.246856689453125000e+00,2.246598720550537109e+00,2.246340751647949219e+00,2.246083021163940430e+00,2.245825052261352539e+00,2.245567321777343750e+00,2.245309591293334961e+00,2.245051860809326172e+00,2.244794368743896484e+00,2.244536638259887695e+00,2.244279384613037109e+00,2.244021892547607422e+00,2.243764638900756836e+00,2.243507146835327148e+00,2.243249893188476562e+00,2.242992639541625977e+00,2.242735624313354492e+00,2.242478609085083008e+00,2.242221593856811523e+00,2.241964578628540039e+00,2.241707801818847656e+00,2.241450786590576172e+00,2.241194009780883789e+00,2.240937232971191406e+00,2.240680694580078125e+00,2.240424156188964844e+00,2.240167617797851562e+00,2.239911079406738281e+00,2.239654779434204102e+00,2.239398241043090820e+00,2.239141941070556641e+00,2.238885641098022461e+00,2.238629579544067383e+00,2.238373279571533203e+00,2.238117218017578125e+00,2.237861394882202148e+00,2.237605333328247070e+00,2.237349510192871094e+00,2.237093448638916016e+00,2.236837863922119141e+00,2.236582040786743164e+00,2.236326456069946289e+00,2.236070871353149414e+00,2.235815286636352539e+00,2.235559940338134766e+00,2.235304355621337891e+00,2.235049009323120117e+00,2.234793663024902344e+00,2.234538316726684570e+00
1.987944006919860840e+00,1.987741231918334961e+00,1.987538695335388184e+00,1.987336277961730957e+00,1.987133622169494629e+00,1.986931204795837402e+00,1.986728787422180176e+00,1.986526489257812500e+00,1.986325025558471680e+00,1.986123204231262207e+00,1.985921740531921387e+00,1.985720038414001465e+00,1.985518693923950195e+00,1.985317111015319824e+00,1.985115528106689453e+00,1.984914302825927734e+00,1.984712839126586914e+00,1.984511613845825195e+00,1.984310269355773926e+00,1.984109163284301758e+00,1.983907818794250488e+00,1.983706593513488770e+00,1.983505606651306152e+00,1.983304381370544434e+00,1.983103513717651367e+00,1.982902407646179199e+00,1.982701539993286133e+00,1.982500553131103516e+00,1.982299804687500000e+00,1.982098817825317383e+00,1.981897950172424316e+00,1.981697320938110352e+00,1.981496572494506836e+00,1.981295943260192871e+00,1.981095314025878906e+00,1.980894804000854492e+00,1.980694174766540527e+00,1.980493545532226562e+00,1.980293154716491699e+00,1.980092644691467285e+00,1.979892373085021973e+00,1.979691982269287109e+00,1.979491829872131348e+00,1.979291439056396484e+00,1.979091048240661621e+00,1.978891015052795410e+00,1.978690743446350098e+00,1.978490829467773438e+00,1.978290677070617676e+00,1.978090763092041016e+00,1.977890610694885254e+00,1.977690815925598145e+00,1.977490782737731934e+00,1.977290868759155273e+00,1.977091193199157715e+00,1.976891279220581055e+00,1.976691603660583496e+00,1.976491808891296387e+00,1.976292371749877930e+00,1.976092576980590820e+00,1.975892901420593262e+00,1.975693464279174805e+00,1.975493907928466797e+00,1.975294589996337891e+00,1.975095033645629883e+00,1.974895834922790527e+00,1.974696397781372070e+00,1.974497199058532715e+00,1.974297881126403809e+00,1.974098443984985352e+00,1.973899483680725098e+00,1.973700165748596191e+00,1.973501205444335938e+00,1.973302125930786133e+00,1.973103165626525879e+00,1.972904086112976074e+00,1.972705125808715820e+00,1.972506284713745117e+00,1.972307324409484863e+00,1.972108721733093262e+00
1.777516126632690430e+00,1.777354240417480469e+00,1.777192115783691406e+00,1.777030229568481445e+00,1.776868343353271484e+00,1.776706576347351074e+00,1.776544570922851562e+00,1.776382803916931152e+00,1.776221036911010742e+00,1.776059150695800781e+00,1.775897502899169922e+00,1.775735855102539062e+00,1.775574088096618652e+00,1.775412440299987793e+00,1.775250911712646484e+00,1.775089502334594727e+00,1.774928569793701172e+00,1.774767518043518066e+00,1.774606585502624512e+00,1.774445533752441406e+00,1.774284601211547852e+00,1.774123787879943848e+00,1.773962855339050293e+00,1.773802042007446289e+00,1.773641228675842285e+00,1.773480534553527832e+00,1.773319721221923828e+00,1.773159027099609375e+00,1.772998332977294922e+00,1.772837519645690918e+00,1.772677063941955566e+00,1.772516369819641113e+00,1.772355794906616211e+00,1.772195219993591309e+00,1.772034764289855957e+00,1.771874189376831055e+00,1.771713614463806152e+00,1.771553397178649902e+00,1.771392822265625000e+00,1.771232604980468750e+00,1.771072149276733398e+00,1.770911931991577148e+00,1.770751595497131348e+00,1.770591259002685547e+00,1.770431041717529297e+00,1.770270824432373047e+00,1.770110726356506348e+00,1.769950509071350098e+00,1.769790530204772949e+00,1.769630312919616699e+00,1.769470334053039551e+00,1.769310235977172852e+00,1.769150137901306152e+00,1.768990278244018555e+00,1.768830299377441406e+00,1.768670439720153809e+00,1.768510580062866211e+00,1.768350720405578613e+00,1.768190860748291016e+00,1.768031001091003418e+00,1.767871379852294922e+00,1.767711520195007324e+00,1.767551898956298828e+00,1.767392158508300781e+00,1.767232537269592285e+00,1.767072916030883789e+00,1.766913414001464844e+00,1.766753792762756348e+00,1.766594171524047852e+00,1.766434788703918457e+00,1.766275167465209961e+00,1.766115784645080566e+00,1.765956282615661621e+00,1.765797019004821777e+00,1.765637636184692383e+00,1.765478253364562988e+00,1.765318989753723145e+00,1.765159726142883301e+00,1.765000581741333008e+00,1.764841198921203613e+00
1.607372760772705078e+00,1.607240080833435059e+00,1.607107758522033691e+00,1.606975317001342773e+00,1.606842875480651855e+00,1.606710433959960938e+00,1.606578111648559570e+00,1.606445670127868652e+00,1.606313467025756836e+00,1.606181144714355469e+00,1.606048822402954102e+00,1.605916619300842285e+00,1.605784416198730469e+00,1.605652093887329102e+00,1.605519890785217285e+00,1.605387806892395020e+00,1.605255603790283203e+00,1.605123519897460938e+00,1.604991436004638672e+00,1.604859232902526855e+00,1.604727268218994141e+00,1.604595303535461426e+00,1.604463219642639160e+00,1.604331612586975098e+00,1.604200124740600586e+00,1.604068517684936523e+00,1.603937149047851562e+00,1.603805541992187500e+00,1.603674054145812988e+00,1.603542685508728027e+00,1.603411197662353516e+00,1.603279948234558105e+00,1.603148460388183594e+00,1.603017210960388184e+00,1.602885723114013672e+00,1.602754354476928711e+00,1.602623224258422852e+00,1.602491855621337891e+00,1.602360725402832031e+00,1.602229356765747070e+00,1.602098226547241211e+00,1.601966977119445801e+00,1.601835727691650391e+00,1.601704716682434082e+00,1.601573586463928223e+00,1.601442575454711914e+00,1.601311326026916504e+00,1.601180434226989746e+00,1.601049304008483887e+00,1.600918412208557129e+00,1.600787281990051270e+00,1.600656270980834961e+00,1.600525379180908203e+00,1.600394487380981445e+00,1.600263595581054688e+00,1.600132703781127930e+00,1.600001931190490723e+00,1.599870920181274414e+00,1.599740028381347656e+00,1.599609375000000000e+00,1.599478483200073242e+00,1.599347829818725586e+00,1.599217057228088379e+00,1.599086403846740723e+00,1.598955631256103516e+00,1.598825097084045410e+00,1.598694324493408203e+00,1.598563671112060547e+00,1.598433136940002441e+00,1.598302483558654785e+00,1.598171949386596680e+00,1.598041415214538574e+00,1.597910881042480469e+00,1.597780346870422363e+00,1.597649812698364258e+00,1.597519397735595703e+00,1.597388982772827148e+00,1.597258567810058594e+00,1.597128152847290039e+00,1.596997857093811035e+00
1.466955900192260742e+00,1.466845512390136719e+00,1.466735124588012695e+00,1.466624855995178223e+00,1.466514587402343750e+00,1.466404318809509277e+00,1.466294050216674805e+00,1.466183900833129883e+00,1.466073513031005859e+00,1.465963363647460938e+00,1.465853214263916016e+00,1.465742945671081543e+00,1.465632796287536621e+00,1.465522766113281250e+00,1.465412497520446777e+00,1.465302467346191406e+00,1.465192317962646484e+00,1.465082168579101562e+00,1.464972138404846191e+00,1.464862227439880371e+00,1.464752197265625000e+00,1.464642047882080078e+00,1.464532136917114258e+00,1.464422225952148438e+00,1.464312195777893066e+00,1.464202284812927246e+00,1.464092373847961426e+00,1.463982343673706055e+00,1.463872551918029785e+00,1.463762640953063965e+00,1.463652968406677246e+00,1.463543415069580078e+00,1.463433980941772461e+00,1.463324546813964844e+00,1.463214993476867676e+00,1.463105678558349609e+00,1.462996125221252441e+00,1.462886810302734375e+00,1.462777376174926758e+00,1.462668180465698242e+00,1.462558746337890625e+00,1.462449312210083008e+00,1.462340116500854492e+00,1.462230801582336426e+00,1.462121605873107910e+00,1.462012171745300293e+00,1.461903095245361328e+00,1.461793780326843262e+00,1.461684584617614746e+00,1.461575388908386230e+00,1.461466193199157715e+00,1.461356997489929199e+00,1.461247801780700684e+00,1.461138725280761719e+00,1.461029648780822754e+00,1.460920572280883789e+00,1.460811376571655273e+00,1.460702300071716309e+00,1.460593342781066895e+00,1.460484266281127930e+00,1.460375308990478516e+00,1.460266232490539551e+00,1.460157275199890137e+00,1.460048317909240723e+00,1.459939360618591309e+00,1.459830403327941895e+00,1.459721446037292480e+00,1.459612607955932617e+00,1.459503650665283203e+00,1.459394812583923340e+00,1.459285974502563477e+00,1.459177136421203613e+00,1.459068298339843750e+00,1.458959460258483887e+00,1.458850741386413574e+00,1.458741903305053711e+00,1.458633184432983398e+00,1.458524346351623535e+00,1.458415746688842773e+00,1.458306908607482910e+00
1.349101066589355469e+00,1.349007725715637207e+00,1.348914504051208496e+00,1.348821163177490234e+00,1.348727822303771973e+00,1.348634600639343262e+00,1.348541259765625000e+00,1.348448038101196289e+00,1.348354935646057129e+00,1.348261713981628418e+00,1.348168373107910156e+00,1.348075270652770996e+00,1.347982168197631836e+00,1.347888827323913574e+00,1.347795724868774414e+00,1.347702622413635254e+00,1.347609400749206543e+00,1.347516298294067383e+00,1.347423315048217773e+00,1.347330093383789062e+00,1.347237110137939453e+00,1.347144126892089844e+00,1.347050905227661133e+00,1.346957921981811523e+00,1.346864938735961914e+00,1.346771836280822754e+00,1.346678853034973145e+00,1.346585988998413086e+00,1.346492886543273926e+00,1.346399903297424316e+00,1.346307039260864258e+00,1.346214056015014648e+00,1.346121191978454590e+00,1.346028208732604980e+00,1.345935225486755371e+00,1.345842480659484863e+00,1.345749616622924805e+00,1.345656633377075195e+00,1.345564126968383789e+00,1.345471620559692383e+00,1.345378994941711426e+00,1.345286607742309570e+00,1.345193982124328613e+00,1.345101594924926758e+00,1.345009088516235352e+00,1.344916701316833496e+00,1.344824194908142090e+00,1.344731807708740234e+00,1.344639301300048828e+00,1.344546794891357422e+00,1.344454526901245117e+00,1.344362020492553711e+00,1.344269752502441406e+00,1.344177365303039551e+00,1.344085097312927246e+00,1.343992710113525391e+00,1.343900322914123535e+00,1.343808054924011230e+00,1.343715667724609375e+00,1.343623518943786621e+00,1.343531131744384766e+00,1.343438982963562012e+00,1.343346714973449707e+00,1.343254446983337402e+00,1.343162178993225098e+00,1.343069911003112793e+00,1.342977762222290039e+00,1.342885613441467285e+00,1.342793464660644531e+00,1.342701315879821777e+00,1.342609167098999023e+00,1.342517018318176270e+00,1.342424869537353516e+00,1.342332839965820312e+00,1.342240691184997559e+00,1.342148661613464355e+00,1.342056512832641602e+00,1.341964483261108398e+00,1.341872453689575195e+00,1.341780304908752441e+00
1.248775005340576172e+00,1.248695135116577148e+00,1.248615026473999023e+00,1.248535156250000000e+00,1.248455286026000977e+00,1.248375296592712402e+00,1.248295426368713379e+00,1.248215556144714355e+00,1.248135566711425781e+00,1.248055696487426758e+00,1.247975826263427734e+00,1.247895956039428711e+00,1.247816085815429688e+00,1.247736334800720215e+00,1.247656464576721191e+00,1.247576594352722168e+00,1.247496843338012695e+00,1.247416973114013672e+00,1.247337222099304199e+00,1.247257471084594727e+00,1.247177720069885254e+00,1.247097969055175781e+00,1.247018218040466309e+00,1.246938467025756836e+00,1.246858716011047363e+00,1.246779084205627441e+00,1.246699213981628418e+00,1.246619582176208496e+00,1.246539950370788574e+00,1.246460199356079102e+00,1.246380567550659180e+00,1.246300935745239258e+00,1.246221184730529785e+00,1.246141672134399414e+00,1.246062040328979492e+00,1.245982408523559570e+00,1.245902776718139648e+00,1.245823264122009277e+00,1.245743632316589355e+00,1.245664000511169434e+00,1.245584487915039062e+00,1.245504975318908691e+00,1.245425343513488770e+00,1.245345830917358398e+00,1.245266318321228027e+00,1.245186924934387207e+00,1.245107650756835938e+00,1.245028376579284668e+00,1.244949102401733398e+00,1.244869947433471680e+00,1.244790673255920410e+00,1.244711518287658691e+00,1.244632363319396973e+00,1.244553208351135254e+00,1.244474053382873535e+00,1.244394779205322266e+00,1.244315743446350098e+00,1.244236588478088379e+00,1.244157433509826660e+00,1.244078278541564941e+00,1.243999242782592773e+00,1.243920087814331055e+00,1.243841052055358887e+00,1.243762016296386719e+00,1.243682861328125000e+00,1.243603825569152832e+00,1.243524789810180664e+00,1.243445754051208496e+00,1.243366718292236328e+00,1.243287801742553711e+00,1.243208765983581543e+00,1.243129730224609375e+00,1.243050694465637207e+00,1.242971777915954590e+00,1.242892861366271973e+00,1.242813825607299805e+00,1.242734909057617188e+00,1.242655992507934570e+00,1.242576956748962402e+00,1.242498159408569336e+00
1.162337541580200195e+00,1.162268280982971191e+00,1.162199020385742188e+00,1.162129759788513184e+00,1.162060499191284180e+00,1.161991357803344727e+00,1.161921977996826172e+00,1.161852836608886719e+00,1.161783576011657715e+00,1.161714315414428711e+00,1.161645174026489258e+00,1.161576032638549805e+00,1.161506772041320801e+00,1.161437630653381348e+00,1.161368489265441895e+00,1.161299228668212891e+00,1.161230206489562988e+00,1.161161065101623535e+00,1.161091804504394531e+00,1.161022782325744629e+00,1.160953640937805176e+00,1.160884618759155273e+00,1.160815358161926270e+00,1.160746335983276367e+00,1.160677313804626465e+00,1.160608172416687012e+00,1.160539150238037109e+00,1.160470008850097656e+00,1.160400986671447754e+00,1.160331964492797852e+00,1.160262942314147949e+00,1.160193800926208496e+00,1.160124778747558594e+00,1.160055875778198242e+00,1.159986734390258789e+00,1.159917831420898438e+00,1.159848809242248535e+00,1.159779787063598633e+00,1.159710884094238281e+00,1.159641981124877930e+00,1.159572958946228027e+00,1.159504055976867676e+00,1.159435033798217773e+00,1.159366130828857422e+00,1.159297227859497070e+00,1.159228324890136719e+00,1.159159302711486816e+00,1.159090518951416016e+00,1.159021615982055664e+00,1.158952713012695312e+00,1.158883810043334961e+00,1.158815026283264160e+00,1.158746123313903809e+00,1.158677458763122559e+00,1.158608794212341309e+00,1.158540248870849609e+00,1.158471584320068359e+00,1.158403038978576660e+00,1.158334374427795410e+00,1.158265829086303711e+00,1.158197283744812012e+00,1.158128738403320312e+00,1.158060193061828613e+00,1.157991647720336914e+00,1.157923102378845215e+00,1.157854557037353516e+00,1.157786011695861816e+00,1.157717466354370117e+00,1.157649040222167969e+00,1.157580494880676270e+00,1.157511949539184570e+00,1.157443523406982422e+00,1.157375097274780273e+00,1.157306671142578125e+00,1.157238125801086426e+00,1.157169699668884277e+00,1.157101273536682129e+00,1.157032847404479980e+00,1.156964421272277832e+00,1.156895995140075684e+00
1.087091565132141113e+00,1.087030887603759766e+00,1.086970329284667969e+00,1.086909770965576172e+00,1.086849093437194824e+00,1.086788535118103027e+00,1.086728096008300781e+00,1.086667418479919434e+00,1.086606860160827637e+00,1.086546421051025391e+00,1.086485743522644043e+00,1.086425304412841797e+00,1.086364746093750000e+00,1.086304306983947754e+00,1.086243748664855957e+00,1.086183309555053711e+00,1.086122751235961914e+00,1.086062312126159668e+00,1.086001753807067871e+00,1.085941314697265625e+00,1.085880875587463379e+00,1.085820436477661133e+00,1.085759997367858887e+00,1.085699439048767090e+00,1.085638999938964844e+00,1.085578680038452148e+00,1.085518121719360352e+00,1.085457801818847656e+00,1.085397362709045410e+00,1.085336923599243164e+00,1.085276603698730469e+00,1.085216164588928223e+00,1.085155725479125977e+00,1.085095405578613281e+00,1.085035085678100586e+00,1.084974646568298340e+00,1.084914326667785645e+00,1.084854006767272949e+00,1.084793567657470703e+00,1.084733247756958008e+00,1.084672927856445312e+00,1.084612488746643066e+00,1.084552288055419922e+00,1.084491968154907227e+00,1.084431648254394531e+00,1.084371328353881836e+00,1.084311008453369141e+00,1.084250807762145996e+00,1.084190487861633301e+00,1.084130167961120605e+00,1.084069967269897461e+00,1.084009647369384766e+00,1.083949446678161621e+00,1.083889245986938477e+00,1.083828926086425781e+00,1.083768725395202637e+00,1.083708524703979492e+00,1.083648204803466797e+00,1.083588004112243652e+00,1.083527803421020508e+00,1.083467721939086914e+00,1.083407640457153320e+00,1.083347678184509277e+00,1.083287715911865234e+00,1.083227634429931641e+00,1.083167791366577148e+00,1.083107709884643555e+00,1.083047866821289062e+00,1.082987785339355469e+00,1.082927823066711426e+00,1.082867980003356934e+00,1.082808017730712891e+00,1.082748055458068848e+00,1.082688093185424805e+00,1.082628250122070312e+00,1.082568287849426270e+00,1.082508444786071777e+00,1.082448601722717285e+00,1.082388639450073242e+00,1.082328796386718750e+00
1.020995497703552246e+00,1.020942091941833496e+00,1.020888566970825195e+00,1.020835161209106445e+00,1.020781755447387695e+00,1.020728349685668945e+00,1.020674824714660645e+00,1.020621418952941895e+00,1.020568013191223145e+00,1.020514607429504395e+00,1.020461201667785645e+00,1.020407795906066895e+00,1.020354390144348145e+00,1.020300984382629395e+00,1.020247697830200195e+00,1.020194292068481445e+00,1.020140886306762695e+00,1.020087599754333496e+00,1.020034193992614746e+00,1.019980788230895996e+00,1.019927501678466797e+00,1.019874095916748047e+00,1.019820809364318848e+00,1.019767522811889648e+00,1.019714117050170898e+00,1.019660830497741699e+00,1.019607543945312500e+00,1.019554257392883301e+00,1.019500970840454102e+00,1.019447684288024902e+00,1.019394278526306152e+00,1.019341111183166504e+00,1.019287824630737305e+00,1.019234538078308105e+00,1.019181251525878906e+00,1.019127964973449707e+00,1.019074678421020508e+00,1.019021511077880859e+00,1.018968224525451660e+00,1.018915057182312012e+00,1.018861770629882812e+00,1.018808484077453613e+00,1.018755316734313965e+00,1.018702030181884766e+00,1.018648862838745117e+00,1.018595695495605469e+00,1.018542408943176270e+00,1.018489241600036621e+00,1.018436074256896973e+00,1.018382906913757324e+00,1.018329739570617676e+00,1.018276572227478027e+00,1.018223404884338379e+00,1.018170237541198730e+00,1.018117070198059082e+00,1.018063902854919434e+00,1.018010735511779785e+00,1.017957687377929688e+00,1.017904520034790039e+00,1.017851352691650391e+00,1.017798304557800293e+00,1.017745137214660645e+00,1.017691969871520996e+00,1.017638921737670898e+00,1.017585754394531250e+00,1.017532706260681152e+00,1.017479658126831055e+00,1.017426490783691406e+00,1.017373442649841309e+00,1.017320632934570312e+00,1.017267704010009766e+00,1.017214894294738770e+00,1.017161965370178223e+00,1.017109036445617676e+00,1.017056226730346680e+00,1.017003297805786133e+00,1.016950488090515137e+00,1.016897559165954590e+00,1.016844749450683594e+00,1.016791820526123047e+00
9.624762535095214844e-01,9.624286890029907227e-01,9.623811841011047363e-01,9.623336791992187500e-01,9.622862339019775391e-01,9.622387886047363281e-01,9.621912837028503418e-01,9.621437191963195801e-01,9.620962738990783691e-01,9.620488286018371582e-01,9.620013833045959473e-01,9.619539976119995117e-01,9.619065523147583008e-01,9.618589878082275391e-01,9.618116021156311035e-01,9.617641568183898926e-01,9.617167711257934570e-01,9.616693854331970215e-01,9.616219401359558105e-01,9.615744352340698242e-01,9.615270495414733887e-01,9.614796638488769531e-01,9.614322781562805176e-01,9.613848924636840820e-01,9.613375067710876465e-01,9.612901806831359863e-01,9.612426757812500000e-01,9.611952900886535645e-01,9.611479640007019043e-01,9.611006379127502441e-01,9.610532522201538086e-01,9.610059261322021484e-01,9.609584808349609375e-01,9.609111547470092773e-01,9.608638286590576172e-01,9.608165025711059570e-01,9.607691764831542969e-01,9.607218503952026367e-01,9.606744050979614258e-01,9.606271386146545410e-01,9.605798125267028809e-01,9.605325460433959961e-01,9.604852199554443359e-01,9.604379534721374512e-01,9.603905677795410156e-01,9.603433012962341309e-01,9.602960348129272461e-01,9.602487683296203613e-01,9.602015018463134766e-01,9.601542353630065918e-01,9.601068496704101562e-01,9.600595831871032715e-01,9.600123763084411621e-01,9.599651098251342773e-01,9.599179029464721680e-01,9.598706364631652832e-01,9.598233103752136230e-01,9.597761034965515137e-01,9.597288966178894043e-01,9.596816897392272949e-01,9.596344828605651855e-01,9.595872759819030762e-01,9.595400691032409668e-01,9.594927430152893066e-01,9.594455361366271973e-01,9.593983888626098633e-01,9.593511819839477539e-01,9.593040347099304199e-01,9.592568278312683105e-01,9.592095613479614258e-01,9.591624140739440918e-01,9.591152667999267578e-01,9.590681195259094238e-01,9.590209722518920898e-01,9.589738249778747559e-01,9.589265584945678711e-01,9.588795304298400879e-01,9.588326215744018555e-01,9.587855935096740723e-01,9.587386250495910645e-01
9.103014469146728516e-01,9.102589488029479980e-01,9.102163910865783691e-01,9.101739525794982910e-01,9.101314544677734375e-01,9.100890159606933594e-01,9.100465774536132812e-01,9.100040793418884277e-01,9.099615812301635742e-01,9.099190831184387207e-01,9.098766446113586426e-01,9.098342657089233398e-01,9.097918272018432617e-01,9.097493886947631836e-01,9.097069501876831055e-01,9.096644520759582520e-01,9.096220135688781738e-01,9.095796346664428711e-01,9.095371961593627930e-01,9.094948172569274902e-01,9.094523787498474121e-01,9.094099402427673340e-01,9.093675017356872559e-01,9.093251228332519531e-01,9.092827439308166504e-01,9.092403650283813477e-01,9.091979861259460449e-01,9.091555476188659668e-01,9.091131687164306641e-01,9.090707898139953613e-01,9.090284109115600586e-01,9.089860916137695312e-01,9.089437127113342285e-01,9.089012742042541504e-01,9.088589549064636230e-01,9.088165760040283203e-01,9.087742567062377930e-01,9.087319374084472656e-01,9.086896181106567383e-01,9.086471796035766602e-01,9.086048603057861328e-01,9.085625410079956055e-01,9.085202217102050781e-01,9.084779024124145508e-01,9.084356427192687988e-01,9.083932042121887207e-01,9.083509445190429688e-01,9.083086252212524414e-01,9.082663655281066895e-01,9.082240462303161621e-01,9.081817865371704102e-01,9.081395268440246582e-01,9.080971479415893555e-01,9.080548882484436035e-01,9.080125689506530762e-01,9.079703092575073242e-01,9.079280495643615723e-01,9.078858494758605957e-01,9.078434705734252930e-01,9.078012108802795410e-01,9.077590107917785645e-01,9.077167510986328125e-01,9.076744914054870605e-01,9.076322913169860840e-01,9.075899720191955566e-01,9.075477719306945801e-01,9.075055122375488281e-01,9.074633121490478516e-01,9.074211120605468750e-01,9.073789119720458984e-01,9.073365926742553711e-01,9.072943925857543945e-01,9.072521924972534180e-01,9.072099924087524414e-01,9.071678519248962402e-01,9.071256518363952637e-01,9.070833921432495117e-01,9.070411920547485352e-01,9.069990515708923340e-01,9.069568514823913574e-01
8.634924292564392090e-01,8.634542226791381836e-01,8.634160161018371582e-01,8.633778095245361328e-01,8.633394837379455566e-01,8.633012771606445312e-01,8.632630705833435059e-01,8.632248640060424805e-01,8.631867170333862305e-01,8.631485104560852051e-01,8.631102442741394043e-01,8.630720376968383789e-01,8.630338311195373535e-01,8.629956841468811035e-01,8.629574775695800781e-01,8.629193305969238281e-01,8.628810644149780273e-01,8.628429174423217773e-01,8.628047704696655273e-01,8.627666234970092773e-01,8.627284169197082520e-01,8.626902699470520020e-01,8.626520633697509766e-01,8.626139163970947266e-01,8.625757694244384766e-01,8.625376224517822266e-01,8.624994754791259766e-01,8.624613881111145020e-01,8.624231219291687012e-01,8.623850345611572266e-01,8.623468875885009766e-01,8.623088002204895020e-01,8.622706532478332520e-01,8.622325658798217773e-01,8.621943593025207520e-01,8.621562719345092773e-01,8.621181845664978027e-01,8.620800375938415527e-01,8.620419502258300781e-01,8.620038628578186035e-01,8.619657754898071289e-01,8.619276285171508789e-01,8.618895411491394043e-01,8.618514537811279297e-01,8.618133664131164551e-01,8.617753386497497559e-01,8.617372512817382812e-01,8.616991043090820312e-01,8.616610169410705566e-01,8.616229891777038574e-01,8.615849018096923828e-01,8.615468740463256836e-01,8.615088462829589844e-01,8.614706993103027344e-01,8.614326715469360352e-01,8.613946437835693359e-01,8.613565564155578613e-01,8.613185286521911621e-01,8.612805008888244629e-01,8.612424135208129883e-01,8.612043857574462891e-01,8.611663579940795898e-01,8.611283898353576660e-01,8.610903620719909668e-01,8.610523343086242676e-01,8.610142469406127930e-01,8.609762787818908691e-01,8.609382510185241699e-01,8.609002828598022461e-01,8.608622550964355469e-01,8.608242869377136230e-01,8.607861995697021484e-01,8.607482314109802246e-01,8.607102632522583008e-01,8.606722950935363770e-01,8.606343269348144531e-01,8.605963587760925293e-01,8.605583906173706055e-01,8.605203628540039062e-01,8.604823946952819824e-01
8.212619423866271973e-01,8.212273716926574707e-01,8.211928009986877441e-01,8.211582899093627930e-01,8.211237192153930664e-01,8.210890889167785645e-01,8.210545182228088379e-01,8.210199475288391113e-01,8.209853768348693848e-01,8.209508657455444336e-01,8.209162950515747070e-01,8.208816647529602051e-01,8.208471536636352539e-01,8.208125829696655273e-01,8.207780718803405762e-01,8.207435607910156250e-01,8.207090497016906738e-01,8.206744194030761719e-01,8.206399083137512207e-01,8.206053972244262695e-01,8.205708861351013184e-01,8.205363154411315918e-01,8.205018639564514160e-01,8.204672336578369141e-01,8.204327225685119629e-01,8.203982710838317871e-01,8.203637599945068359e-01,8.203292489051818848e-01,8.202947378158569336e-01,8.202602863311767578e-01,8.202257156372070312e-01,8.201912045478820801e-01,8.201567530632019043e-01,8.201222419738769531e-01,8.200877904891967773e-01,8.200532793998718262e-01,8.200187683105468750e-01,8.199842572212219238e-01,8.199498057365417480e-01,8.199153542518615723e-01,8.198809027671813965e-01,8.198464512825012207e-01,8.198119401931762695e-01,8.197774887084960938e-01,8.197430372238159180e-01,8.197085857391357422e-01,8.196741342544555664e-01,8.196396827697753906e-01,8.196051716804504395e-01,8.195707201957702637e-01,8.195363283157348633e-01,8.195018768310546875e-01,8.194674849510192871e-01,8.194330334663391113e-01,8.193985223770141602e-01,8.193641304969787598e-01,8.193297386169433594e-01,8.192952871322631836e-01,8.192608952522277832e-01,8.192265033721923828e-01,8.191919922828674316e-01,8.191576004028320312e-01,8.191232085227966309e-01,8.190888166427612305e-01,8.190544247627258301e-01,8.190200328826904297e-01,8.189856410026550293e-01,8.189511895179748535e-01,8.189168572425842285e-01,8.188824653625488281e-01,8.188480734825134277e-01,8.188137412071228027e-01,8.187793493270874023e-01,8.187448978424072266e-01,8.187105655670166016e-01,8.186761736869812012e-01,8.186418414115905762e-01,8.186074495315551758e-01,8.185731172561645508e-01,8.185387253761291504e-01
7.829696536064147949e-01,7.829381823539733887e-01,7.829067707061767578e-01,7.828753590583801270e-01,7.828439474105834961e-01,7.828125357627868652e-01,7.827810645103454590e-01,7.827496528625488281e-01,7.827182412147521973e-01,7.826868295669555664e-01,7.826554179191589355e-01,7.826240062713623047e-01,7.825925350189208984e-01,7.825611829757690430e-01,7.825297713279724121e-01,7.824984192848205566e-01,7.824670076370239258e-01,7.824355959892272949e-01,7.824042439460754395e-01,7.823727726936340332e-01,7.823414206504821777e-01,7.823100090026855469e-01,7.822786569595336914e-01,7.822473049163818359e-01,7.822159528732299805e-01,7.821844816207885742e-01,7.821531295776367188e-01,7.821217775344848633e-01,7.820904254913330078e-01,7.820590734481811523e-01,7.820277214050292969e-01,7.819963097572326660e-01,7.819649577140808105e-01,7.819336056709289551e-01,7.819022536277770996e-01,7.818709015846252441e-01,7.818396091461181641e-01,7.818081974983215332e-01,7.817768454551696777e-01,7.817455530166625977e-01,7.817142009735107422e-01,7.816829085350036621e-01,7.816515564918518066e-01,7.816201448440551758e-01,7.815888524055480957e-01,7.815575599670410156e-01,7.815262079238891602e-01,7.814949154853820801e-01,7.814636230468750000e-01,7.814322710037231445e-01,7.814009189605712891e-01,7.813696265220642090e-01,7.813383340835571289e-01,7.813070416450500488e-01,7.812757492065429688e-01,7.812444567680358887e-01,7.812131047248840332e-01,7.811818122863769531e-01,7.811505794525146484e-01,7.811192870140075684e-01,7.810879945755004883e-01,7.810567617416381836e-01,7.810254096984863281e-01,7.809941172599792480e-01,7.809628844261169434e-01,7.809315919876098633e-01,7.809003591537475586e-01,7.808690667152404785e-01,7.808377742767333984e-01,7.808064818382263184e-01,7.807752490043640137e-01,7.807440161705017090e-01,7.807127237319946289e-01,7.806814908981323242e-01,7.806501984596252441e-01,7.806189656257629395e-01,7.805877327919006348e-01,7.805564999580383301e-01,7.805252671241760254e-01,7.804940342903137207e-01
7.480890750885009766e-01,7.480603456497192383e-01,7.480316758155822754e-01,7.480030059814453125e-01,7.479742765426635742e-01,7.479456067085266113e-01,7.479169368743896484e-01,7.478882670402526855e-01,7.478595376014709473e-01,7.478308677673339844e-01,7.478021979331970215e-01,7.477735280990600586e-01,7.477448582649230957e-01,7.477162480354309082e-01,7.476875185966491699e-01,7.476588487625122070e-01,7.476301789283752441e-01,7.476015686988830566e-01,7.475728988647460938e-01,7.475442290306091309e-01,7.475155591964721680e-01,7.474868893623352051e-01,7.474582791328430176e-01,7.474296092987060547e-01,7.474009990692138672e-01,7.473723292350769043e-01,7.473436594009399414e-01,7.473149895668029785e-01,7.472863793373107910e-01,7.472577691078186035e-01,7.472291588783264160e-01,7.472005486488342285e-01,7.471718192100524902e-01,7.471432089805603027e-01,7.471145987510681152e-01,7.470859885215759277e-01,7.470573782920837402e-01,7.470287680625915527e-01,7.470000982284545898e-01,7.469714879989624023e-01,7.469428777694702148e-01,7.469143271446228027e-01,7.468857169151306152e-01,7.468571066856384277e-01,7.468285560607910156e-01,7.467998862266540527e-01,7.467712759971618652e-01,7.467427253723144531e-01,7.467141151428222656e-01,7.466855645179748535e-01,7.466569542884826660e-01,7.466282844543457031e-01,7.465997338294982910e-01,7.465711832046508789e-01,7.465425729751586914e-01,7.465140223503112793e-01,7.464854717254638672e-01,7.464568614959716797e-01,7.464282512664794922e-01,7.463997006416320801e-01,7.463711500167846680e-01,7.463425993919372559e-01,7.463140487670898438e-01,7.462854385375976562e-01,7.462568879127502441e-01,7.462283372879028320e-01,7.461997866630554199e-01,7.461712360382080078e-01,7.461427450180053711e-01,7.461141347885131836e-01,7.460855841636657715e-01,7.460570335388183594e-01,7.460285425186157227e-01,7.459999918937683105e-01,7.459714412689208984e-01,7.459428906440734863e-01,7.459143400192260742e-01,7.458858489990234375e-01,7.458572983741760254e-01,7.458288073539733887e-01
7.161837816238403320e-01,7.161574363708496094e-01,7.161311507225036621e-01,7.161048054695129395e-01,7.160785198211669922e-01,7.160522341728210449e-01,7.160259485244750977e-01,7.159997224807739258e-01,7.159734368324279785e-01,7.159470915794372559e-01,7.159208059310913086e-01,7.158945202827453613e-01,7.158682942390441895e-01,7.158420085906982422e-01,7.158157229423522949e-01,7.157893776893615723e-01,7.157631516456604004e-01,7.157368659973144531e-01,7.157106399536132812e-01,7.156843543052673340e-01,7.156581282615661621e-01,7.156317830085754395e-01,7.156055569648742676e-01,7.155793309211730957e-01,7.155530452728271484e-01,7.155268192291259766e-01,7.155005931854248047e-01,7.154742479324340820e-01,7.154480218887329102e-01,7.154217958450317383e-01,7.153955698013305664e-01,7.153693437576293945e-01,7.153431177139282227e-01,7.153168320655822754e-01,7.152905464172363281e-01,7.152643203735351562e-01,7.152380943298339844e-01,7.152119278907775879e-01,7.151857018470764160e-01,7.151594758033752441e-01,7.151331901550292969e-01,7.151069641113281250e-01,7.150807380676269531e-01,7.150545716285705566e-01,7.150283455848693848e-01,7.150021195411682129e-01,7.149758934974670410e-01,7.149496674537658691e-01,7.149234414100646973e-01,7.148972749710083008e-01,7.148710489273071289e-01,7.148448824882507324e-01,7.148186564445495605e-01,7.147924304008483887e-01,7.147662639617919922e-01,7.147400379180908203e-01,7.147138714790344238e-01,7.146877050399780273e-01,7.146614193916320801e-01,7.146352529525756836e-01,7.146090865135192871e-01,7.145829200744628906e-01,7.145567536354064941e-01,7.145305871963500977e-01,7.145043611526489258e-01,7.144781947135925293e-01,7.144520282745361328e-01,7.144258618354797363e-01,7.143996953964233398e-01,7.143735289573669434e-01,7.143473625183105469e-01,7.143211364746093750e-01,7.142949700355529785e-01,7.142688632011413574e-01,7.142426967620849609e-01,7.142165303230285645e-01,7.141903638839721680e-01,7.141641974449157715e-01,7.141380310058593750e-01,7.141119241714477539e-01
6.868885755538940430e-01,6.868643760681152344e-01,6.868401765823364258e-01,6.868160367012023926e-01,6.867917776107788086e-01,6.867676377296447754e-01,6.867434382438659668e-01,6.867192387580871582e-01,6.866950988769531250e-01,6.866708993911743164e-01,6.866466999053955078e-01,6.866225004196166992e-01,6.865983605384826660e-01,6.865742206573486328e-01,6.865500211715698242e-01,6.865258812904357910e-01,6.865016818046569824e-01,6.864774823188781738e-01,6.864533424377441406e-01,6.864292025566101074e-01,6.864050626754760742e-01,6.863808631896972656e-01,6.863567233085632324e-01,6.863325238227844238e-01,6.863083839416503906e-01,6.862842440605163574e-01,6.862601041793823242e-01,6.862359642982482910e-01,6.862118244171142578e-01,6.861876249313354492e-01,6.861634850502014160e-01,6.861393451690673828e-01,6.861152052879333496e-01,6.860911250114440918e-01,6.860669851303100586e-01,6.860427856445312500e-01,6.860186457633972168e-01,6.859945654869079590e-01,6.859704256057739258e-01,6.859462857246398926e-01,6.859222054481506348e-01,6.858980059623718262e-01,6.858738660812377930e-01,6.858497858047485352e-01,6.858256459236145020e-01,6.858015656471252441e-01,6.857774257659912109e-01,6.857532858848571777e-01,6.857292056083679199e-01,6.857050657272338867e-01,6.856809854507446289e-01,6.856569051742553711e-01,6.856327652931213379e-01,6.856086254119873047e-01,6.855845451354980469e-01,6.855604648590087891e-01,6.855363249778747559e-01,6.855122447013854980e-01,6.854881644248962402e-01,6.854640841484069824e-01,6.854399442672729492e-01,6.854158639907836914e-01,6.853917837142944336e-01,6.853677034378051758e-01,6.853436231613159180e-01,6.853195428848266602e-01,6.852954030036926270e-01,6.852713823318481445e-01,6.852473020553588867e-01,6.852232217788696289e-01,6.851991415023803711e-01,6.851750612258911133e-01,6.851509809494018555e-01,6.851269006729125977e-01,6.851028203964233398e-01,6.850787997245788574e-01,6.850547194480895996e-01,6.850306391716003418e-01,6.850065588951110840e-01,6.849824786186218262e-01
6.598958373069763184e-01,6.598734855651855469e-01,6.598511934280395508e-01,6.598288416862487793e-01,6.598065495491027832e-01,6.597841978073120117e-01,6.597618460655212402e-01,6.597395539283752441e-01,6.597172617912292480e-01,6.596949100494384766e-01,6.596726179122924805e-01,6.596503257751464844e-01,6.596279740333557129e-01,6.596056818962097168e-01,6.595833301544189453e-01,6.595610380172729492e-01,6.595387458801269531e-01,6.595164537429809570e-01,6.594941020011901855e-01,6.594718098640441895e-01,6.594495177268981934e-01,6.594272255897521973e-01,6.594049334526062012e-01,6.593826413154602051e-01,6.593603491783142090e-01,6.593380570411682129e-01,6.593157649040222168e-01,6.592934727668762207e-01,6.592711806297302246e-01,6.592489480972290039e-01,6.592265963554382324e-01,6.592043042182922363e-01,6.591820120811462402e-01,6.591597795486450195e-01,6.591374874114990234e-01,6.591152548789978027e-01,6.590929031372070312e-01,6.590706110000610352e-01,6.590483784675598145e-01,6.590260863304138184e-01,6.590038537979125977e-01,6.589815616607666016e-01,6.589592695236206055e-01,6.589370369911193848e-01,6.589147448539733887e-01,6.588925123214721680e-01,6.588702797889709473e-01,6.588479876518249512e-01,6.588257551193237305e-01,6.588034629821777344e-01,6.587812304496765137e-01,6.587589383125305176e-01,6.587367057800292969e-01,6.587144732475280762e-01,6.586922407150268555e-01,6.586699485778808594e-01,6.586477160453796387e-01,6.586254835128784180e-01,6.586032509803771973e-01,6.585810184478759766e-01,6.585587859153747559e-01,6.585364937782287598e-01,6.585142612457275391e-01,6.584920287132263184e-01,6.584697961807250977e-01,6.584475636482238770e-01,6.584253311157226562e-01,6.584030985832214355e-01,6.583808660507202148e-01,6.583586335182189941e-01,6.583364009857177734e-01,6.583142280578613281e-01,6.582919955253601074e-01,6.582697033882141113e-01,6.582475304603576660e-01,6.582252979278564453e-01,6.582030653953552246e-01,6.581808924674987793e-01,6.581586599349975586e-01,6.581364870071411133e-01
6.349443793296813965e-01,6.349236369132995605e-01,6.349029541015625000e-01,6.348823308944702148e-01,6.348616480827331543e-01,6.348409652709960938e-01,6.348203420639038086e-01,6.347996592521667480e-01,6.347789764404296875e-01,6.347582936286926270e-01,6.347376704216003418e-01,6.347169876098632812e-01,6.346963644027709961e-01,6.346756815910339355e-01,6.346549987792968750e-01,6.346343755722045898e-01,6.346137523651123047e-01,6.345930695533752441e-01,6.345724463462829590e-01,6.345517635345458984e-01,6.345311403274536133e-01,6.345104575157165527e-01,6.344898343086242676e-01,6.344692111015319824e-01,6.344485878944396973e-01,6.344279050827026367e-01,6.344072818756103516e-01,6.343866586685180664e-01,6.343659758567810059e-01,6.343453526496887207e-01,6.343247294425964355e-01,6.343041062355041504e-01,6.342834234237670898e-01,6.342628598213195801e-01,6.342422366142272949e-01,6.342216134071350098e-01,6.342009902000427246e-01,6.341803669929504395e-01,6.341596841812133789e-01,6.341390609741210938e-01,6.341184377670288086e-01,6.340978741645812988e-01,6.340772509574890137e-01,6.340566277503967285e-01,6.340360045433044434e-01,6.340153813362121582e-01,6.339947581291198730e-01,6.339741945266723633e-01,6.339535713195800781e-01,6.339329481124877930e-01,6.339123249053955078e-01,6.338917016983032227e-01,6.338711380958557129e-01,6.338505148887634277e-01,6.338299512863159180e-01,6.338093280792236328e-01,6.337887048721313477e-01,6.337681412696838379e-01,6.337475180625915527e-01,6.337269544601440430e-01,6.337063312530517578e-01,6.336857676506042480e-01,6.336651444435119629e-01,6.336445212364196777e-01,6.336239576339721680e-01,6.336033940315246582e-01,6.335828304290771484e-01,6.335622668266296387e-01,6.335415840148925781e-01,6.335210204124450684e-01,6.335004568099975586e-01,6.334798932075500488e-01,6.334593296051025391e-01,6.334387660026550293e-01,6.334182024002075195e-01,6.333975791931152344e-01,6.333770155906677246e-01,6.333564519882202148e-01,6.333358883857727051e-01,6.333153247833251953e-01
6.118110418319702148e-01,6.117918491363525391e-01,6.117725968360900879e-01,6.117534041404724121e-01,6.117342114448547363e-01,6.117150783538818359e-01,6.116958856582641602e-01,6.116766929626464844e-01,6.116575002670288086e-01,6.116383075714111328e-01,6.116191148757934570e-01,6.115999221801757812e-01,6.115807890892028809e-01,6.115615963935852051e-01,6.115424036979675293e-01,6.115232110023498535e-01,6.115040183067321777e-01,6.114848852157592773e-01,6.114656925201416016e-01,6.114465594291687012e-01,6.114273667335510254e-01,6.114081740379333496e-01,6.113890409469604492e-01,6.113698482513427734e-01,6.113507151603698730e-01,6.113315224647521973e-01,6.113123893737792969e-01,6.112931966781616211e-01,6.112740039825439453e-01,6.112548708915710449e-01,6.112357378005981445e-01,6.112165451049804688e-01,6.111974120140075684e-01,6.111782193183898926e-01,6.111590862274169922e-01,6.111399531364440918e-01,6.111207604408264160e-01,6.111016273498535156e-01,6.110824942588806152e-01,6.110633015632629395e-01,6.110441684722900391e-01,6.110250353813171387e-01,6.110059022903442383e-01,6.109867691993713379e-01,6.109676361083984375e-01,6.109484434127807617e-01,6.109293103218078613e-01,6.109101772308349609e-01,6.108910441398620605e-01,6.108719110488891602e-01,6.108527779579162598e-01,6.108336448669433594e-01,6.108145117759704590e-01,6.107953786849975586e-01,6.107762455940246582e-01,6.107571125030517578e-01,6.107380390167236328e-01,6.107189059257507324e-01,6.106997132301330566e-01,6.106806397438049316e-01,6.106615066528320312e-01,6.106423735618591309e-01,6.106232404708862305e-01,6.106041669845581055e-01,6.105849742889404297e-01,6.105659008026123047e-01,6.105467677116394043e-01,6.105276942253112793e-01,6.105085611343383789e-01,6.104894876480102539e-01,6.104702949523925781e-01,6.104512214660644531e-01,6.104320883750915527e-01,6.104130148887634277e-01,6.103938817977905273e-01,6.103748083114624023e-01,6.103556752204895020e-01,6.103366017341613770e-01,6.103174686431884766e-01,6.102983951568603516e-01
5.903040766716003418e-01,5.902861952781677246e-01,5.902683138847351074e-01,5.902504324913024902e-01,5.902326107025146484e-01,5.902147293090820312e-01,5.901968479156494141e-01,5.901790261268615723e-01,5.901611447334289551e-01,5.901433229446411133e-01,5.901254415512084961e-01,5.901075601577758789e-01,5.900897383689880371e-01,5.900718569755554199e-01,5.900540351867675781e-01,5.900361537933349609e-01,5.900182723999023438e-01,5.900004506111145020e-01,5.899826288223266602e-01,5.899647474288940430e-01,5.899469256401062012e-01,5.899291038513183594e-01,5.899112224578857422e-01,5.898933410644531250e-01,5.898755192756652832e-01,5.898576974868774414e-01,5.898398756980895996e-01,5.898220539093017578e-01,5.898041725158691406e-01,5.897863507270812988e-01,5.897685289382934570e-01,5.897506475448608398e-01,5.897328257560729980e-01,5.897150039672851562e-01,5.896971225738525391e-01,5.896793007850646973e-01,5.896614789962768555e-01,5.896436572074890137e-01,5.896258354187011719e-01,5.896080136299133301e-01,5.895901918411254883e-01,5.895723700523376465e-01,5.895545482635498047e-01,5.895367264747619629e-01,5.895189046859741211e-01,5.895010828971862793e-01,5.894832611083984375e-01,5.894654393196105957e-01,5.894476175308227539e-01,5.894297957420349121e-01,5.894120335578918457e-01,5.893942117691040039e-01,5.893763899803161621e-01,5.893585681915283203e-01,5.893407464027404785e-01,5.893229246139526367e-01,5.893051624298095703e-01,5.892873406410217285e-01,5.892695188522338867e-01,5.892516970634460449e-01,5.892338752746582031e-01,5.892161130905151367e-01,5.891982913017272949e-01,5.891805291175842285e-01,5.891627073287963867e-01,5.891448855400085449e-01,5.891270637512207031e-01,5.891093015670776367e-01,5.890915393829345703e-01,5.890737175941467285e-01,5.890559554100036621e-01,5.890381336212158203e-01,5.890203118324279785e-01,5.890025496482849121e-01,5.889847278594970703e-01,5.889669656753540039e-01,5.889492034912109375e-01,5.889313817024230957e-01,5.889136195182800293e-01,5.888957977294921875e-01
5.702578425407409668e-01,5.702411532402038574e-01,5.702245235443115234e-01,5.702078342437744141e-01,5.701911449432373047e-01,5.701744556427001953e-01,5.701578259468078613e-01,5.701411366462707520e-01,5.701245069503784180e-01,5.701078176498413086e-01,5.700911879539489746e-01,5.700744390487670898e-01,5.700578093528747559e-01,5.700411200523376465e-01,5.700244903564453125e-01,5.700078606605529785e-01,5.699911713600158691e-01,5.699744820594787598e-01,5.699578523635864258e-01,5.699411630630493164e-01,5.699245333671569824e-01,5.699079036712646484e-01,5.698912143707275391e-01,5.698745250701904297e-01,5.698578953742980957e-01,5.698412656784057617e-01,5.698246359825134277e-01,5.698079466819763184e-01,5.697913169860839844e-01,5.697746276855468750e-01,5.697579979896545410e-01,5.697413682937622070e-01,5.697247385978698730e-01,5.697081089019775391e-01,5.696914196014404297e-01,5.696747899055480957e-01,5.696581602096557617e-01,5.696415305137634277e-01,5.696248412132263184e-01,5.696082115173339844e-01,5.695915818214416504e-01,5.695749521255493164e-01,5.695583224296569824e-01,5.695416927337646484e-01,5.695250630378723145e-01,5.695084333419799805e-01,5.694918036460876465e-01,5.694751739501953125e-01,5.694584846496582031e-01,5.694419145584106445e-01,5.694252848625183105e-01,5.694086551666259766e-01,5.693920254707336426e-01,5.693753957748413086e-01,5.693587660789489746e-01,5.693421363830566406e-01,5.693255066871643066e-01,5.693088769912719727e-01,5.692923069000244141e-01,5.692756772041320801e-01,5.692590475082397461e-01,5.692424178123474121e-01,5.692257881164550781e-01,5.692092180252075195e-01,5.691925883293151855e-01,5.691759586334228516e-01,5.691593289375305176e-01,5.691427588462829590e-01,5.691261291503906250e-01,5.691094994544982910e-01,5.690929293632507324e-01,5.690762996673583984e-01,5.690597295761108398e-01,5.690430998802185059e-01,5.690264701843261719e-01,5.690099000930786133e-01,5.689932703971862793e-01,5.689767003059387207e-01,5.689601302146911621e-01,5.689435005187988281e-01
