3.095409393310546875e+00,3.173582553863525391e+00,3.255806446075439453e+00,3.342404603958129883e+00,3.433734655380249023e+00,3.530196905136108398e+00,3.632234811782836914e+00,3.740346908569335938e+00,3.855093002319335938e+00,3.977101564407348633e+00,4.107080936431884766e+00,4.245837688446044922e+00,4.394298076629638672e+00,4.553517341613769531e+00,4.724708557128906250e+00,4.909274101257324219e+00,5.000000000000000000e+00,5.000000000000000000e+00,5.000000000000000000e+00,5.000000000000000000e+00,5.000000000000000000e+00,5.000000000000000000e+00,5.000000000000000000e+00,5.000000000000000000e+00,5.000000000000000000e+00,5.000000000000000000e+00,5.000000000000000000e+00,5.000000000000000000e+00,5.000000000000000000e+00,5.000000000000000000e+00,1.456369876861572266e+00,1.435719609260559082e+00,1.428893566131591797e+00,1.563460469245910645e+00,1.569082260131835938e+00,1.574932217597961426e+00,1.594193100929260254e+00,1.658479809761047363e+00,1.624415993690490723e+00,1.606059193611145020e+00,1.587872385978698730e+00,1.589380383491516113e+00,1.597359538078308105e+00,5.000000000000000000e+00,5.000000000000000000e+00,5.000000000000000000e+00,5.000000000000000000e+00,5.000000000000000000e+00,5.000000000000000000e+00,5.000000000000000000e+00,5.000000000000000000e+00,5.000000000000000000e+00,5.000000000000000000e+00,5.000000000000000000e+00,5.000000000000000000e+00,5.000000000000000000e+00,5.000000000000000000e+00,5.000000000000000000e+00,5.000000000000000000e+00,5.000000000000000000e+00,5.000000000000000000e+00,5.000000000000000000e+00,5.000000000000000000e+00,5.000000000000000000e+00,5.000000000000000000e+00,5.000000000000000000e+00,5.000000000000000000e+00,5.000000000000000000e+00,5.000000000000000000e+00,5.000000000000000000e+00,4.859469413757324219e+00,4.699625492095947266e+00,4.549962997436523438e+00,4.409537792205810547e+00,4.277521610260009766e+00,4.153180122375488281e+00,4.035863399505615234e+00,3.924992561340332031e+00,3.820050001144409180e+00,3.720573186874389648e+00
3.095344066619873047e+00,3.173513650894165039e+00,3.255734205245971680e+00,3.342328071594238281e+00,3.433654069900512695e+00,3.530111312866210938e+00,3.632144451141357422e+00,3.740251541137695312e+00,3.854990959167480469e+00,3.976993560791015625e+00,4.106970310211181641e+00,4.245724678039550781e+00,4.394176959991455078e+00,4.553387165069580078e+00,4.724568367004394531e+00,4.909122943878173828e+00,5.000000000000000000e+00,5.000000000000000000e+00,5.000000000000000000e+00,5.000000000000000000e+00,5.000000000000000000e+00,5.000000000000000000e+00,5.000000000000000000e+00,5.000000000000000000e+00,5.000000000000000000e+00,5.000000000000000000e+00,5.000000000000000000e+00,5.000000000000000000e+00,5.000000000000000000e+00,5.000000000000000000e+00,1.469141960144042969e+00,1.434929966926574707e+00,1.584373116493225098e+00,1.411154150962829590e+00,1.572524428367614746e+00,1.578400135040283203e+00,1.599958300590515137e+00,1.665822267532348633e+00,1.627794265747070312e+00,1.604525089263916016e+00,1.586332678794860840e+00,1.575370430946350098e+00,1.584343910217285156e+00,1.593075394630432129e+00,5.000000000000000000e+00,5.000000000000000000e+00,5.000000000000000000e+00,5.000000000000000000e+00,5.000000000000000000e+00,5.000000000000000000e+00,5.000000000000000000e+00,5.000000000000000000e+00,5.000000000000000000e+00,5.000000000000000000e+00,5.000000000000000000e+00,5.000000000000000000e+00,5.000000000000000000e+00,5.000000000000000000e+00,5.000000000000000000e+00,5.000000000000000000e+00,5.000000000000000000e+00,5.000000000000000000e+00,5.000000000000000000e+00,5.000000000000000000e+00,5.000000000000000000e+00,5.000000000000000000e+00,5.000000000000000000e+00,5.000000000000000000e+00,5.000000000000000000e+00,5.000000000000000000e+00,4.859599113464355469e+00,4.699747562408447266e+00,4.550076961517333984e+00,4.409645080566406250e+00,4.277622222900390625e+00,4.153275012969970703e+00,4.035952568054199219e+00,3.925077199935913086e+00,3.820130348205566406e+00,3.720649480819702148e+00
3.095278263092041016e+00,3.173444509506225586e+00,3.255661487579345703e+00,3.342251300811767578e+00,3.433573484420776367e+00,3.530025959014892578e+00,3.632054328918457031e+00,3.740155696868896484e+00,3.854889154434204102e+00,3.976885080337524414e+00,4.106854915618896484e+00,4.245606422424316406e+00,4.394055843353271484e+00,4.553256988525390625e+00,4.724427700042724609e+00,4.908971309661865234e+00,5.000000000000000000e+00,5.000000000000000000e+00,5.000000000000000000e+00,5.000000000000000000e+00,5.000000000000000000e+00,5.000000000000000000e+00,5.000000000000000000e+00,5.000000000000000000e+00,5.000000000000000000e+00,5.000000000000000000e+00,5.000000000000000000e+00,5.000000000000000000e+00,5.000000000000000000e+00,5.000000000000000000e+00,1.458084821701049805e+00,1.436999201774597168e+00,1.417394042015075684e+00,1.572071909904479980e+00,1.576494216918945312e+00,1.581883311271667480e+00,1.605765700340270996e+00,1.672461748123168945e+00,1.633211016654968262e+00,1.602994084358215332e+00,1.584795951843261719e+00,1.566323637962341309e+00,1.571344852447509766e+00,1.580669164657592773e+00,5.000000000000000000e+00,5.000000000000000000e+00,5.000000000000000000e+00,5.000000000000000000e+00,5.000000000000000000e+00,5.000000000000000000e+00,5.000000000000000000e+00,5.000000000000000000e+00,5.000000000000000000e+00,5.000000000000000000e+00,5.000000000000000000e+00,5.000000000000000000e+00,5.000000000000000000e+00,5.000000000000000000e+00,5.000000000000000000e+00,5.000000000000000000e+00,5.000000000000000000e+00,5.000000000000000000e+00,5.000000000000000000e+00,5.000000000000000000e+00,5.000000000000000000e+00,5.000000000000000000e+00,5.000000000000000000e+00,5.000000000000000000e+00,5.000000000000000000e+00,5.000000000000000000e+00,4.859729290008544922e+00,4.699868679046630859e+00,4.550190448760986328e+00,4.409751892089843750e+00,4.277722835540771484e+00,4.153369903564453125e+00,4.036042213439941406e+00,3.925162076950073242e+00,3.820210456848144531e+00,3.720725297927856445e+00
3.095212697982788086e+00,3.173375844955444336e+00,3.255588769912719727e+00,3.342175245285034180e+00,3.433492660522460938e+00,3.529940605163574219e+00,3.631963968276977539e+00,3.740059614181518555e+00,3.854787826538085938e+00,3.976776599884033203e+00,4.106739521026611328e+00,4.245483398437500000e+00,4.393929481506347656e+00,4.553126811981201172e+00,4.724287986755371094e+00,4.908819675445556641e+00,5.000000000000000000e+00,5.000000000000000000e+00,5.000000000000000000e+00,5.000000000000000000e+00,5.000000000000000000e+00,5.000000000000000000e+00,5.000000000000000000e+00,5.000000000000000000e+00,5.000000000000000000e+00,5.000000000000000000e+00,5.000000000000000000e+00,5.000000000000000000e+00,5.000000000000000000e+00,5.000000000000000000e+00,5.000000000000000000e+00,1.641202569007873535e+00,1.602451324462890625e+00,1.576413273811340332e+00,1.580860018730163574e+00,1.585382103919982910e+00,1.610909461975097656e+00,5.000000000000000000e+00,1.641497850418090820e+00,1.601897597312927246e+00,1.582059502601623535e+00,1.562791824340820312e+00,1.556462287902832031e+00,1.568438768386840820e+00,1.599508881568908691e+00,5.000000000000000000e+00,5.000000000000000000e+00,5.000000000000000000e+00,5.000000000000000000e+00,5.000000000000000000e+00,5.000000000000000000e+00,5.000000000000000000e+00,5.000000000000000000e+00,5.000000000000000000e+00,5.000000000000000000e+00,5.000000000000000000e+00,5.000000000000000000e+00,5.000000000000000000e+00,5.000000000000000000e+00,5.000000000000000000e+00,5.000000000000000000e+00,5.000000000000000000e+00,5.000000000000000000e+00,5.000000000000000000e+00,5.000000000000000000e+00,5.000000000000000000e+00,5.000000000000000000e+00,5.000000000000000000e+00,5.000000000000000000e+00,5.000000000000000000e+00,4.859858989715576172e+00,4.699990272521972656e+00,4.550304412841796875e+00,4.409859180450439453e+00,4.277823448181152344e+00,4.153464794158935547e+00,4.036132335662841797e+00,3.925246477127075195e+00,3.820290803909301758e+00,3.720801591873168945e+00
3.095147132873535156e+00,3.173306941986083984e+00,3.255516290664672852e+00,3.342098712921142578e+00,3.433411836624145508e+00,3.529855489730834961e+00,3.631873369216918945e+00,3.739964246749877930e+00,3.854686021804809570e+00,3.976668357849121094e+00,4.106623649597167969e+00,4.245359897613525391e+00,4.393797397613525391e+00,4.552991390228271484e+00,4.724147319793701172e+00,4.908668518066406250e+00,5.000000000000000000e+00,5.000000000000000000e+00,5.000000000000000000e+00,5.000000000000000000e+00,5.000000000000000000e+00,5.000000000000000000e+00,5.000000000000000000e+00,5.000000000000000000e+00,5.000000000000000000e+00,5.000000000000000000e+00,5.000000000000000000e+00,5.000000000000000000e+00,5.000000000000000000e+00,5.000000000000000000e+00,5.000000000000000000e+00,1.653376698493957520e+00,1.611637115478515625e+00,1.584086656570434570e+00,1.584691286087036133e+00,1.589574813842773438e+00,1.613699793815612793e+00,5.000000000000000000e+00,5.000000000000000000e+00,1.610808968544006348e+00,1.578456640243530273e+00,1.559519410133361816e+00,1.547850012779235840e+00,1.553087949752807617e+00,1.565543413162231445e+00,5.000000000000000000e+00,5.000000000000000000e+00,5.000000000000000000e+00,5.000000000000000000e+00,5.000000000000000000e+00,5.000000000000000000e+00,5.000000000000000000e+00,5.000000000000000000e+00,5.000000000000000000e+00,5.000000000000000000e+00,5.000000000000000000e+00,5.000000000000000000e+00,5.000000000000000000e+00,5.000000000000000000e+00,5.000000000000000000e+00,5.000000000000000000e+00,5.000000000000000000e+00,5.000000000000000000e+00,5.000000000000000000e+00,5.000000000000000000e+00,5.000000000000000000e+00,5.000000000000000000e+00,5.000000000000000000e+00,5.000000000000000000e+00,5.000000000000000000e+00,4.859988689422607422e+00,4.700111865997314453e+00,4.550418853759765625e+00,4.409965991973876953e+00,4.277924537658691406e+00,4.153559684753417969e+00,4.036221981048583984e+00,3.925331592559814453e+00,3.820371389389038086e+00,3.720877647399902344e+00
3.095052957534790039e+00,3.173223972320556641e+00,3.255443811416625977e+00,3.342021942138671875e+00,3.433331489562988281e+00,3.529770135879516602e+00,3.631783008575439453e+00,3.739868402481079102e+00,3.854583978652954102e+00,3.976560354232788086e+00,4.106508255004882812e+00,4.245236396789550781e+00,4.393665313720703125e+00,4.552849769592285156e+00,4.724001884460449219e+00,4.908517360687255859e+00,5.000000000000000000e+00,5.000000000000000000e+00,5.000000000000000000e+00,5.000000000000000000e+00,5.000000000000000000e+00,5.000000000000000000e+00,5.000000000000000000e+00,5.000000000000000000e+00,5.000000000000000000e+00,5.000000000000000000e+00,5.000000000000000000e+00,5.000000000000000000e+00,5.000000000000000000e+00,5.000000000000000000e+00,5.000000000000000000e+00,1.665649294853210449e+00,1.621853590011596680e+00,1.593955874443054199e+00,1.586163759231567383e+00,1.591056227684020996e+00,1.616820931434631348e+00,5.000000000000000000e+00,5.000000000000000000e+00,1.620123624801635742e+00,1.578728079795837402e+00,1.556265950202941895e+00,1.544644832611083984e+00,1.535434961318969727e+00,1.549728274345397949e+00,5.000000000000000000e+00,5.000000000000000000e+00,5.000000000000000000e+00,5.000000000000000000e+00,5.000000000000000000e+00,5.000000000000000000e+00,5.000000000000000000e+00,5.000000000000000000e+00,5.000000000000000000e+00,5.000000000000000000e+00,5.000000000000000000e+00,5.000000000000000000e+00,5.000000000000000000e+00,5.000000000000000000e+00,5.000000000000000000e+00,5.000000000000000000e+00,5.000000000000000000e+00,5.000000000000000000e+00,5.000000000000000000e+00,5.000000000000000000e+00,5.000000000000000000e+00,5.000000000000000000e+00,5.000000000000000000e+00,5.000000000000000000e+00,5.000000000000000000e+00,4.860118865966796875e+00,4.700233459472656250e+00,4.550532341003417969e+00,4.410072803497314453e+00,4.278025150299072266e+00,4.153654575347900391e+00,4.036311149597167969e+00,3.925415992736816406e+00,3.820451498031616211e+00,3.720953941345214844e+00
3.094954013824462891e+00,3.173119783401489258e+00,3.255336761474609375e+00,3.341927289962768555e+00,3.433250188827514648e+00,3.529684782028198242e+00,3.631693124771118164e+00,3.739772558212280273e+00,3.854482650756835938e+00,3.976452112197875977e+00,4.106393337249755859e+00,4.245112895965576172e+00,4.393533229827880859e+00,4.552707672119140625e+00,4.723849296569824219e+00,4.908360481262207031e+00,5.000000000000000000e+00,5.000000000000000000e+00,5.000000000000000000e+00,5.000000000000000000e+00,5.000000000000000000e+00,5.000000000000000000e+00,5.000000000000000000e+00,5.000000000000000000e+00,5.000000000000000000e+00,5.000000000000000000e+00,5.000000000000000000e+00,5.000000000000000000e+00,5.000000000000000000e+00,5.000000000000000000e+00,5.000000000000000000e+00,5.000000000000000000e+00,1.635833978652954102e+00,1.603844046592712402e+00,1.589032292366027832e+00,1.592540621757507324e+00,1.620028376579284668e+00,5.000000000000000000e+00,5.000000000000000000e+00,5.000000000000000000e+00,1.592690706253051758e+00,1.553025841712951660e+00,1.541358113288879395e+00,1.530650138854980469e+00,1.538165926933288574e+00,1.553268671035766602e+00,5.000000000000000000e+00,5.000000000000000000e+00,5.000000000000000000e+00,5.000000000000000000e+00,5.000000000000000000e+00,5.000000000000000000e+00,5.000000000000000000e+00,5.000000000000000000e+00,5.000000000000000000e+00,5.000000000000000000e+00,5.000000000000000000e+00,5.000000000000000000e+00,5.000000000000000000e+00,5.000000000000000000e+00,5.000000000000000000e+00,5.000000000000000000e+00,5.000000000000000000e+00,5.000000000000000000e+00,5.000000000000000000e+00,5.000000000000000000e+00,5.000000000000000000e+00,5.000000000000000000e+00,5.000000000000000000e+00,5.000000000000000000e+00,4.860249042510986328e+00,4.700354576110839844e+00,4.550646305084228516e+00,4.410179615020751953e+00,4.278125762939453125e+00,4.153749465942382812e+00,4.036400794982910156e+00,3.925500869750976562e+00,3.820531845092773438e+00,3.721030235290527344e+00
3.094854831695556641e+00,3.173015832901000977e+00,3.255227088928222656e+00,3.341811656951904297e+00,3.433128356933593750e+00,3.529575586318969727e+00,3.631598711013793945e+00,3.739677190780639648e+00,3.854380846023559570e+00,3.976343631744384766e+00,4.106277465820312500e+00,4.244989871978759766e+00,4.393401145935058594e+00,4.552565574645996094e+00,4.723696708679199219e+00,4.908195495605468750e+00,5.000000000000000000e+00,5.000000000000000000e+00,5.000000000000000000e+00,5.000000000000000000e+00,5.000000000000000000e+00,5.000000000000000000e+00,5.000000000000000000e+00,5.000000000000000000e+00,5.000000000000000000e+00,5.000000000000000000e+00,5.000000000000000000e+00,5.000000000000000000e+00,5.000000000000000000e+00,5.000000000000000000e+00,5.000000000000000000e+00,5.000000000000000000e+00,1.649615645408630371e+00,1.613813996315002441e+00,1.594350457191467285e+00,1.594027519226074219e+00,1.622277975082397461e+00,5.000000000000000000e+00,5.000000000000000000e+00,5.000000000000000000e+00,1.615711092948913574e+00,1.560957670211791992e+00,1.538886666297912598e+00,1.529644846916198730e+00,1.530229687690734863e+00,1.546429038047790527e+00,5.000000000000000000e+00,5.000000000000000000e+00,5.000000000000000000e+00,5.000000000000000000e+00,5.000000000000000000e+00,5.000000000000000000e+00,5.000000000000000000e+00,5.000000000000000000e+00,5.000000000000000000e+00,5.000000000000000000e+00,5.000000000000000000e+00,5.000000000000000000e+00,5.000000000000000000e+00,5.000000000000000000e+00,5.000000000000000000e+00,5.000000000000000000e+00,5.000000000000000000e+00,5.000000000000000000e+00,5.000000000000000000e+00,5.000000000000000000e+00,5.000000000000000000e+00,5.000000000000000000e+00,5.000000000000000000e+00,5.000000000000000000e+00,4.860378742218017578e+00,4.700476646423339844e+00,4.550760269165039062e+00,4.410286903381347656e+00,4.278226375579833984e+00,4.153844356536865234e+00,4.036490440368652344e+00,3.925585985183715820e+00,3.820611953735351562e+00,3.721106290817260742e+00
3.094785928726196289e+00,3.172926902770996094e+00,3.255117654800415039e+00,3.341696262359619141e+00,3.433006525039672852e+00,3.529446840286254883e+00,3.631462335586547852e+00,3.739550352096557617e+00,3.854270696640014648e+00,3.976235628128051758e+00,4.106162071228027344e+00,4.244866371154785156e+00,4.393269062042236328e+00,4.552423954010009766e+00,4.723543643951416016e+00,4.908030509948730469e+00,5.000000000000000000e+00,5.000000000000000000e+00,5.000000000000000000e+00,5.000000000000000000e+00,5.000000000000000000e+00,5.000000000000000000e+00,5.000000000000000000e+00,5.000000000000000000e+00,5.000000000000000000e+00,5.000000000000000000e+00,5.000000000000000000e+00,5.000000000000000000e+00,5.000000000000000000e+00,5.000000000000000000e+00,5.000000000000000000e+00,5.000000000000000000e+00,1.659490942955017090e+00,1.623908758163452148e+00,1.599704265594482422e+00,1.596709251403808594e+00,1.621886372566223145e+00,5.000000000000000000e+00,5.000000000000000000e+00,5.000000000000000000e+00,5.000000000000000000e+00,1.569219827651977539e+00,1.543877601623535156e+00,1.533375740051269531e+00,1.536499857902526855e+00,1.551456451416015625e+00,5.000000000000000000e+00,5.000000000000000000e+00,5.000000000000000000e+00,5.000000000000000000e+00,5.000000000000000000e+00,5.000000000000000000e+00,5.000000000000000000e+00,5.000000000000000000e+00,5.000000000000000000e+00,5.000000000000000000e+00,5.000000000000000000e+00,5.000000000000000000e+00,5.000000000000000000e+00,5.000000000000000000e+00,5.000000000000000000e+00,5.000000000000000000e+00,5.000000000000000000e+00,5.000000000000000000e+00,5.000000000000000000e+00,5.000000000000000000e+00,5.000000000000000000e+00,5.000000000000000000e+00,5.000000000000000000e+00,5.000000000000000000e+00,4.860508918762207031e+00,4.700598239898681641e+00,4.550874233245849609e+00,4.410394191741943359e+00,4.278326988220214844e+00,4.153939247131347656e+00,4.036580085754394531e+00,3.925670385360717773e+00,3.820692300796508789e+00,3.721182584762573242e+00
3.094719886779785156e+00,3.172857999801635742e+00,3.255043745040893555e+00,3.341600656509399414e+00,3.432886362075805664e+00,3.529317855834960938e+00,3.631325960159301758e+00,3.739405870437622070e+00,3.854116916656494141e+00,3.976088285446166992e+00,4.106032371520996094e+00,4.244742870330810547e+00,4.393136978149414062e+00,4.552281856536865234e+00,4.723391056060791016e+00,4.907865524291992188e+00,5.000000000000000000e+00,5.000000000000000000e+00,5.000000000000000000e+00,5.000000000000000000e+00,5.000000000000000000e+00,5.000000000000000000e+00,5.000000000000000000e+00,5.000000000000000000e+00,5.000000000000000000e+00,5.000000000000000000e+00,5.000000000000000000e+00,5.000000000000000000e+00,5.000000000000000000e+00,5.000000000000000000e+00,5.000000000000000000e+00,5.000000000000000000e+00,1.670175909996032715e+00,1.634340286254882812e+00,1.605990767478942871e+00,1.601268649101257324e+00,1.624639749526977539e+00,5.000000000000000000e+00,5.000000000000000000e+00,5.000000000000000000e+00,5.000000000000000000e+00,1.566154718399047852e+00,1.554792642593383789e+00,1.541951417922973633e+00,1.550648212432861328e+00,1.564430713653564453e+00,5.000000000000000000e+00,5.000000000000000000e+00,5.000000000000000000e+00,5.000000000000000000e+00,5.000000000000000000e+00,5.000000000000000000e+00,5.000000000000000000e+00,5.000000000000000000e+00,5.000000000000000000e+00,5.000000000000000000e+00,5.000000000000000000e+00,5.000000000000000000e+00,5.000000000000000000e+00,5.000000000000000000e+00,5.000000000000000000e+00,5.000000000000000000e+00,5.000000000000000000e+00,5.000000000000000000e+00,5.000000000000000000e+00,5.000000000000000000e+00,5.000000000000000000e+00,5.000000000000000000e+00,5.000000000000000000e+00,5.000000000000000000e+00,4.860638618469238281e+00,4.700719356536865234e+00,4.550988197326660156e+00,4.410501003265380859e+00,4.278427600860595703e+00,4.154034137725830078e+00,4.036669731140136719e+00,3.925755500793457031e+00,3.820772886276245117e+00,3.721258401870727539e+00
3.094654321670532227e+00,3.172788619995117188e+00,3.254971027374267578e+00,3.341523885726928711e+00,3.432805538177490234e+00,3.529214382171630859e+00,3.631195068359375000e+00,3.739261150360107422e+00,3.853963375091552734e+00,3.975924730300903320e+00,4.105857849121093750e+00,4.244570255279541016e+00,4.392982959747314453e+00,4.552140235900878906e+00,4.723237991333007812e+00,4.907700538635253906e+00,5.000000000000000000e+00,5.000000000000000000e+00,5.000000000000000000e+00,5.000000000000000000e+00,5.000000000000000000e+00,5.000000000000000000e+00,5.000000000000000000e+00,5.000000000000000000e+00,5.000000000000000000e+00,5.000000000000000000e+00,5.000000000000000000e+00,5.000000000000000000e+00,5.000000000000000000e+00,5.000000000000000000e+00,5.000000000000000000e+00,5.000000000000000000e+00,1.676472067832946777e+00,1.642193555831909180e+00,1.615802884101867676e+00,1.607615113258361816e+00,1.633834719657897949e+00,5.000000000000000000e+00,5.000000000000000000e+00,5.000000000000000000e+00,1.622601628303527832e+00,1.578686594963073730e+00,1.564409971237182617e+00,1.559091448783874512e+00,1.568099975585937500e+00,5.000000000000000000e+00,5.000000000000000000e+00,5.000000000000000000e+00,5.000000000000000000e+00,5.000000000000000000e+00,5.000000000000000000e+00,5.000000000000000000e+00,5.000000000000000000e+00,5.000000000000000000e+00,5.000000000000000000e+00,5.000000000000000000e+00,5.000000000000000000e+00,5.000000000000000000e+00,5.000000000000000000e+00,5.000000000000000000e+00,5.000000000000000000e+00,5.000000000000000000e+00,5.000000000000000000e+00,5.000000000000000000e+00,5.000000000000000000e+00,5.000000000000000000e+00,5.000000000000000000e+00,5.000000000000000000e+00,5.000000000000000000e+00,5.000000000000000000e+00,4.860768318176269531e+00,4.700840950012207031e+00,4.551102161407470703e+00,4.410607814788818359e+00,4.278528690338134766e+00,4.154129028320312500e+00,4.036759376525878906e+00,3.925839900970458984e+00,3.820852994918823242e+00,3.721334934234619141e+00
3.094588518142700195e+00,3.172719717025756836e+00,3.254898548126220703e+00,3.341447353363037109e+00,3.432724475860595703e+00,3.529129028320312500e+00,3.631104230880737305e+00,3.739148616790771484e+00,3.853819608688354492e+00,3.975761175155639648e+00,4.105683803558349609e+00,4.244383811950683594e+00,4.392783164978027344e+00,4.551935672760009766e+00,4.723054409027099609e+00,4.907536029815673828e+00,5.000000000000000000e+00,5.000000000000000000e+00,5.000000000000000000e+00,5.000000000000000000e+00,5.000000000000000000e+00,5.000000000000000000e+00,5.000000000000000000e+00,5.000000000000000000e+00,5.000000000000000000e+00,5.000000000000000000e+00,5.000000000000000000e+00,5.000000000000000000e+00,5.000000000000000000e+00,5.000000000000000000e+00,5.000000000000000000e+00,5.000000000000000000e+00,1.674170017242431641e+00,1.644443273544311523e+00,1.630612373352050781e+00,1.620008707046508789e+00,1.663504004478454590e+00,5.000000000000000000e+00,5.000000000000000000e+00,5.000000000000000000e+00,1.605744600296020508e+00,1.588178038597106934e+00,1.574756979942321777e+00,1.576616764068603516e+00,1.585948944091796875e+00,5.000000000000000000e+00,5.000000000000000000e+00,5.000000000000000000e+00,5.000000000000000000e+00,5.000000000000000000e+00,5.000000000000000000e+00,5.000000000000000000e+00,5.000000000000000000e+00,5.000000000000000000e+00,5.000000000000000000e+00,5.000000000000000000e+00,5.000000000000000000e+00,5.000000000000000000e+00,5.000000000000000000e+00,5.000000000000000000e+00,5.000000000000000000e+00,5.000000000000000000e+00,5.000000000000000000e+00,5.000000000000000000e+00,5.000000000000000000e+00,5.000000000000000000e+00,5.000000000000000000e+00,5.000000000000000000e+00,5.000000000000000000e+00,5.000000000000000000e+00,4.860898971557617188e+00,4.700962543487548828e+00,4.551216125488281250e+00,4.410715103149414062e+00,4.278629302978515625e+00,4.154223918914794922e+00,4.036849021911621094e+00,3.925924777984619141e+00,3.820933341979980469e+00,3.721411705017089844e+00
3.094522714614868164e+00,3.172650575637817383e+00,3.254825592041015625e+00,3.341370820999145508e+00,3.432643651962280273e+00,3.529043674468994141e+00,3.631013870239257812e+00,3.739052534103393555e+00,3.853717803955078125e+00,3.975637912750244141e+00,4.105525016784667969e+00,4.244197845458984375e+00,4.392583847045898438e+00,4.551721572875976562e+00,4.722823619842529297e+00,4.907291889190673828e+00,5.000000000000000000e+00,5.000000000000000000e+00,5.000000000000000000e+00,5.000000000000000000e+00,5.000000000000000000e+00,5.000000000000000000e+00,5.000000000000000000e+00,5.000000000000000000e+00,5.000000000000000000e+00,5.000000000000000000e+00,5.000000000000000000e+00,5.000000000000000000e+00,5.000000000000000000e+00,5.000000000000000000e+00,5.000000000000000000e+00,5.000000000000000000e+00,1.671488404273986816e+00,1.651955366134643555e+00,1.648620963096618652e+00,1.652406930923461914e+00,5.000000000000000000e+00,5.000000000000000000e+00,5.000000000000000000e+00,5.000000000000000000e+00,1.611373186111450195e+00,1.593712806701660156e+00,1.591744065284729004e+00,1.594540596008300781e+00,5.000000000000000000e+00,5.000000000000000000e+00,5.000000000000000000e+00,5.000000000000000000e+00,5.000000000000000000e+00,5.000000000000000000e+00,5.000000000000000000e+00,5.000000000000000000e+00,5.000000000000000000e+00,5.000000000000000000e+00,5.000000000000000000e+00,5.000000000000000000e+00,5.000000000000000000e+00,5.000000000000000000e+00,5.000000000000000000e+00,5.000000000000000000e+00,5.000000000000000000e+00,5.000000000000000000e+00,5.000000000000000000e+00,5.000000000000000000e+00,5.000000000000000000e+00,5.000000000000000000e+00,5.000000000000000000e+00,5.000000000000000000e+00,5.000000000000000000e+00,5.000000000000000000e+00,4.861028671264648438e+00,4.701084136962890625e+00,4.551329612731933594e+00,4.410821914672851562e+00,4.278729915618896484e+00,4.154318809509277344e+00,4.036938667297363281e+00,3.926012277603149414e+00,3.821018695831298828e+00,3.721494913101196289e+00
3.094456911087036133e+00,3.172581434249877930e+00,3.254752874374389648e+00,3.341293811798095703e+00,3.432563066482543945e+00,3.528957843780517578e+00,3.630923509597778320e+00,3.738956689834594727e+00,3.853615999221801758e+00,3.975529432296752930e+00,4.105409145355224609e+00,4.244061470031738281e+00,4.392406940460205078e+00,4.551507472991943359e+00,4.722592830657958984e+00,4.907042980194091797e+00,5.000000000000000000e+00,5.000000000000000000e+00,5.000000000000000000e+00,5.000000000000000000e+00,5.000000000000000000e+00,5.000000000000000000e+00,5.000000000000000000e+00,5.000000000000000000e+00,5.000000000000000000e+00,5.000000000000000000e+00,5.000000000000000000e+00,5.000000000000000000e+00,5.000000000000000000e+00,5.000000000000000000e+00,5.000000000000000000e+00,1.718838930130004883e+00,1.677935242652893066e+00,1.664009809494018555e+00,1.666181802749633789e+00,1.704046726226806641e+00,5.000000000000000000e+00,5.000000000000000000e+00,5.000000000000000000e+00,5.000000000000000000e+00,1.614463686943054199e+00,1.597155928611755371e+00,1.598914623260498047e+00,1.603770017623901367e+00,5.000000000000000000e+00,5.000000000000000000e+00,5.000000000000000000e+00,5.000000000000000000e+00,5.000000000000000000e+00,5.000000000000000000e+00,5.000000000000000000e+00,5.000000000000000000e+00,5.000000000000000000e+00,5.000000000000000000e+00,5.000000000000000000e+00,5.000000000000000000e+00,5.000000000000000000e+00,5.000000000000000000e+00,5.000000000000000000e+00,5.000000000000000000e+00,5.000000000000000000e+00,5.000000000000000000e+00,5.000000000000000000e+00,5.000000000000000000e+00,5.000000000000000000e+00,5.000000000000000000e+00,5.000000000000000000e+00,5.000000000000000000e+00,5.000000000000000000e+00,5.000000000000000000e+00,4.861158847808837891e+00,4.701205730438232422e+00,4.551443576812744141e+00,4.410929203033447266e+00,4.278832435607910156e+00,4.154419422149658203e+00,4.037036418914794922e+00,3.926105022430419922e+00,3.821106672286987305e+00,3.721577882766723633e+00
3.094391107559204102e+00,3.172512292861938477e+00,3.254679918289184570e+00,3.341217279434204102e+00,3.432481765747070312e+00,3.528872489929199219e+00,3.630832910537719727e+00,3.738860845565795898e+00,3.853513717651367188e+00,3.975421190261840820e+00,4.105293750762939453e+00,4.243937969207763672e+00,4.392274856567382812e+00,4.551356315612792969e+00,4.722394466400146484e+00,4.906793594360351562e+00,5.000000000000000000e+00,5.000000000000000000e+00,5.000000000000000000e+00,5.000000000000000000e+00,5.000000000000000000e+00,5.000000000000000000e+00,5.000000000000000000e+00,5.000000000000000000e+00,5.000000000000000000e+00,5.000000000000000000e+00,5.000000000000000000e+00,5.000000000000000000e+00,5.000000000000000000e+00,5.000000000000000000e+00,5.000000000000000000e+00,1.719770431518554688e+00,1.688804984092712402e+00,1.679573535919189453e+00,1.682404875755310059e+00,5.000000000000000000e+00,5.000000000000000000e+00,5.000000000000000000e+00,5.000000000000000000e+00,1.670687556266784668e+00,1.617566227912902832e+00,1.601087450981140137e+00,1.606150269508361816e+00,1.611049652099609375e+00,5.000000000000000000e+00,5.000000000000000000e+00,5.000000000000000000e+00,5.000000000000000000e+00,5.000000000000000000e+00,5.000000000000000000e+00,5.000000000000000000e+00,5.000000000000000000e+00,5.000000000000000000e+00,5.000000000000000000e+00,5.000000000000000000e+00,5.000000000000000000e+00,5.000000000000000000e+00,5.000000000000000000e+00,5.000000000000000000e+00,5.000000000000000000e+00,5.000000000000000000e+00,5.000000000000000000e+00,5.000000000000000000e+00,5.000000000000000000e+00,5.000000000000000000e+00,5.000000000000000000e+00,5.000000000000000000e+00,5.000000000000000000e+00,5.000000000000000000e+00,5.000000000000000000e+00,4.861288547515869141e+00,4.701328277587890625e+00,4.551562786102294922e+00,4.411044120788574219e+00,4.278942584991455078e+00,4.154522895812988281e+00,4.037134170532226562e+00,3.926197767257690430e+00,3.821194410324096680e+00,3.721661329269409180e+00
3.094325542449951172e+00,3.172443151473999023e+00,3.254607439041137695e+00,3.341140508651733398e+00,3.432401180267333984e+00,3.528786897659301758e+00,3.630742549896240234e+00,3.738764524459838867e+00,3.853411912918090820e+00,3.975312471389770508e+00,4.105177879333496094e+00,4.243814468383789062e+00,4.392142295837402344e+00,4.551214218139648438e+00,4.722241401672363281e+00,4.906624317169189453e+00,5.000000000000000000e+00,5.000000000000000000e+00,5.000000000000000000e+00,5.000000000000000000e+00,5.000000000000000000e+00,5.000000000000000000e+00,5.000000000000000000e+00,5.000000000000000000e+00,5.000000000000000000e+00,5.000000000000000000e+00,5.000000000000000000e+00,5.000000000000000000e+00,5.000000000000000000e+00,5.000000000000000000e+00,5.000000000000000000e+00,1.727981209754943848e+00,1.699125647544860840e+00,1.688481450080871582e+00,1.691342949867248535e+00,5.000000000000000000e+00,5.000000000000000000e+00,5.000000000000000000e+00,5.000000000000000000e+00,1.669621586799621582e+00,1.620905280113220215e+00,1.606113553047180176e+00,1.612973690032958984e+00,1.618395566940307617e+00,5.000000000000000000e+00,5.000000000000000000e+00,5.000000000000000000e+00,5.000000000000000000e+00,5.000000000000000000e+00,5.000000000000000000e+00,5.000000000000000000e+00,5.000000000000000000e+00,5.000000000000000000e+00,5.000000000000000000e+00,5.000000000000000000e+00,5.000000000000000000e+00,5.000000000000000000e+00,5.000000000000000000e+00,5.000000000000000000e+00,5.000000000000000000e+00,5.000000000000000000e+00,5.000000000000000000e+00,5.000000000000000000e+00,5.000000000000000000e+00,5.000000000000000000e+00,5.000000000000000000e+00,5.000000000000000000e+00,5.000000000000000000e+00,5.000000000000000000e+00,5.000000000000000000e+00,4.861427307128906250e+00,4.701461315155029297e+00,4.551687240600585938e+00,4.411161422729492188e+00,4.279052734375000000e+00,4.154626369476318359e+00,4.037232398986816406e+00,3.926290035247802734e+00,3.821281909942626953e+00,3.721744775772094727e+00
3.094259738922119141e+00,3.172374010086059570e+00,3.254534721374511719e+00,3.341063976287841797e+00,3.432320117950439453e+00,3.528701543807983398e+00,3.630651712417602539e+00,3.738668680191040039e+00,3.853309631347656250e+00,3.975203990936279297e+00,4.105062007904052734e+00,4.243690967559814453e+00,4.392009735107421875e+00,4.551072120666503906e+00,4.722088336944580078e+00,4.906458854675292969e+00,5.000000000000000000e+00,5.000000000000000000e+00,5.000000000000000000e+00,5.000000000000000000e+00,5.000000000000000000e+00,5.000000000000000000e+00,5.000000000000000000e+00,5.000000000000000000e+00,5.000000000000000000e+00,5.000000000000000000e+00,5.000000000000000000e+00,5.000000000000000000e+00,5.000000000000000000e+00,5.000000000000000000e+00,5.000000000000000000e+00,1.736270666122436523e+00,1.709710836410522461e+00,1.698471307754516602e+00,1.702749967575073242e+00,5.000000000000000000e+00,5.000000000000000000e+00,5.000000000000000000e+00,5.000000000000000000e+00,1.668655753135681152e+00,1.624955058097839355e+00,1.612876296043395996e+00,1.619794607162475586e+00,5.000000000000000000e+00,5.000000000000000000e+00,5.000000000000000000e+00,5.000000000000000000e+00,5.000000000000000000e+00,5.000000000000000000e+00,5.000000000000000000e+00,5.000000000000000000e+00,5.000000000000000000e+00,5.000000000000000000e+00,5.000000000000000000e+00,5.000000000000000000e+00,5.000000000000000000e+00,5.000000000000000000e+00,5.000000000000000000e+00,5.000000000000000000e+00,5.000000000000000000e+00,5.000000000000000000e+00,5.000000000000000000e+00,5.000000000000000000e+00,5.000000000000000000e+00,5.000000000000000000e+00,5.000000000000000000e+00,5.000000000000000000e+00,5.000000000000000000e+00,5.000000000000000000e+00,5.000000000000000000e+00,4.861569404602050781e+00,4.701593875885009766e+00,4.551811695098876953e+00,4.411278247833251953e+00,4.279162406921386719e+00,4.154730319976806641e+00,4.037330150604248047e+00,3.926383018493652344e+00,3.821369886398315430e+00,3.721827745437622070e+00
3.094193935394287109e+00,3.172305107116699219e+00,3.254461765289306641e+00,3.340987443923950195e+00,3.432239294052124023e+00,3.528616189956665039e+00,3.630561351776123047e+00,3.738572597503662109e+00,3.853207826614379883e+00,3.975095272064208984e+00,4.104946136474609375e+00,4.243566989898681641e+00,4.391877174377441406e+00,4.550929546356201172e+00,4.721935272216796875e+00,4.906293869018554688e+00,5.000000000000000000e+00,5.000000000000000000e+00,5.000000000000000000e+00,5.000000000000000000e+00,5.000000000000000000e+00,5.000000000000000000e+00,5.000000000000000000e+00,5.000000000000000000e+00,5.000000000000000000e+00,5.000000000000000000e+00,5.000000000000000000e+00,5.000000000000000000e+00,5.000000000000000000e+00,5.000000000000000000e+00,5.000000000000000000e+00,1.744640111923217773e+00,1.720584273338317871e+00,1.708952307701110840e+00,1.720868706703186035e+00,5.000000000000000000e+00,5.000000000000000000e+00,5.000000000000000000e+00,5.000000000000000000e+00,1.668835878372192383e+00,1.630942225456237793e+00,1.620187520980834961e+00,1.626936078071594238e+00,5.000000000000000000e+00,5.000000000000000000e+00,5.000000000000000000e+00,5.000000000000000000e+00,5.000000000000000000e+00,5.000000000000000000e+00,5.000000000000000000e+00,5.000000000000000000e+00,5.000000000000000000e+00,5.000000000000000000e+00,5.000000000000000000e+00,5.000000000000000000e+00,5.000000000000000000e+00,5.000000000000000000e+00,5.000000000000000000e+00,5.000000000000000000e+00,5.000000000000000000e+00,5.000000000000000000e+00,5.000000000000000000e+00,5.000000000000000000e+00,5.000000000000000000e+00,5.000000000000000000e+00,5.000000000000000000e+00,5.000000000000000000e+00,5.000000000000000000e+00,5.000000000000000000e+00,5.000000000000000000e+00,4.861711025238037109e+00,4.701726913452148438e+00,4.551936149597167969e+00,4.411395072937011719e+00,4.279273033142089844e+00,4.154834270477294922e+00,4.037428379058837891e+00,3.926475763320922852e+00,3.821457862854003906e+00,3.721911191940307617e+00
3.094128370285034180e+00,3.172235727310180664e+00,3.254389286041259766e+00,3.340910673141479492e+00,3.432158470153808594e+00,3.528530359268188477e+00,3.630470991134643555e+00,3.738476753234863281e+00,3.853106260299682617e+00,3.974987030029296875e+00,4.104830741882324219e+00,4.243443489074707031e+00,4.391744613647460938e+00,4.550787448883056641e+00,4.721781730651855469e+00,4.906128406524658203e+00,5.000000000000000000e+00,5.000000000000000000e+00,5.000000000000000000e+00,5.000000000000000000e+00,5.000000000000000000e+00,5.000000000000000000e+00,5.000000000000000000e+00,5.000000000000000000e+00,5.000000000000000000e+00,5.000000000000000000e+00,5.000000000000000000e+00,5.000000000000000000e+00,5.000000000000000000e+00,5.000000000000000000e+00,5.000000000000000000e+00,1.751117587089538574e+00,1.731597185134887695e+00,1.719563603401184082e+00,1.736903071403503418e+00,5.000000000000000000e+00,5.000000000000000000e+00,5.000000000000000000e+00,5.000000000000000000e+00,1.669016242027282715e+00,1.637305140495300293e+00,1.627972602844238281e+00,1.634786248207092285e+00,5.000000000000000000e+00,5.000000000000000000e+00,5.000000000000000000e+00,5.000000000000000000e+00,5.000000000000000000e+00,5.000000000000000000e+00,5.000000000000000000e+00,5.000000000000000000e+00,5.000000000000000000e+00,5.000000000000000000e+00,5.000000000000000000e+00,5.000000000000000000e+00,5.000000000000000000e+00,5.000000000000000000e+00,5.000000000000000000e+00,5.000000000000000000e+00,5.000000000000000000e+00,5.000000000000000000e+00,5.000000000000000000e+00,5.000000000000000000e+00,5.000000000000000000e+00,5.000000000000000000e+00,5.000000000000000000e+00,5.000000000000000000e+00,5.000000000000000000e+00,5.000000000000000000e+00,5.000000000000000000e+00,4.861853599548339844e+00,4.701859951019287109e+00,4.552060604095458984e+00,4.411512374877929688e+00,4.279382705688476562e+00,4.154937744140625000e+00,4.037526130676269531e+00,3.926568031311035156e+00,3.821545124053955078e+00,3.721994161605834961e+00
3.094062328338623047e+00,3.172166824340820312e+00,3.254316329956054688e+00,3.340834140777587891e+00,3.432077407836914062e+00,3.528445005416870117e+00,3.630380392074584961e+00,3.738380908966064453e+00,3.853003978729248047e+00,3.974878787994384766e+00,4.104714870452880859e+00,4.243319988250732422e+00,4.391612529754638672e+00,4.550645351409912109e+00,4.721628665924072266e+00,4.905962944030761719e+00,5.000000000000000000e+00,5.000000000000000000e+00,5.000000000000000000e+00,5.000000000000000000e+00,5.000000000000000000e+00,5.000000000000000000e+00,5.000000000000000000e+00,5.000000000000000000e+00,5.000000000000000000e+00,5.000000000000000000e+00,5.000000000000000000e+00,5.000000000000000000e+00,5.000000000000000000e+00,5.000000000000000000e+00,5.000000000000000000e+00,1.764547824859619141e+00,1.743921637535095215e+00,1.735333323478698730e+00,1.756020307540893555e+00,5.000000000000000000e+00,5.000000000000000000e+00,5.000000000000000000e+00,5.000000000000000000e+00,1.669196486473083496e+00,1.643544673919677734e+00,1.635832905769348145e+00,1.662534236907958984e+00,5.000000000000000000e+00,5.000000000000000000e+00,5.000000000000000000e+00,5.000000000000000000e+00,5.000000000000000000e+00,5.000000000000000000e+00,5.000000000000000000e+00,5.000000000000000000e+00,5.000000000000000000e+00,5.000000000000000000e+00,5.000000000000000000e+00,5.000000000000000000e+00,5.000000000000000000e+00,5.000000000000000000e+00,5.000000000000000000e+00,5.000000000000000000e+00,5.000000000000000000e+00,5.000000000000000000e+00,5.000000000000000000e+00,5.000000000000000000e+00,5.000000000000000000e+00,5.000000000000000000e+00,5.000000000000000000e+00,5.000000000000000000e+00,5.000000000000000000e+00,5.000000000000000000e+00,5.000000000000000000e+00,4.861995220184326172e+00,4.701992511749267578e+00,4.552185535430908203e+00,4.411629199981689453e+00,4.279492855072021484e+00,4.155041694641113281e+00,4.037624359130859375e+00,3.926661014556884766e+00,3.821633100509643555e+00,3.722077369689941406e+00
3.093996763229370117e+00,3.172097444534301758e+00,3.254243850708007812e+00,3.340757369995117188e+00,3.431996583938598633e+00,3.528359413146972656e+00,3.630290031433105469e+00,3.738284826278686523e+00,3.852902173995971680e+00,3.974769830703735352e+00,4.104599475860595703e+00,4.243196010589599609e+00,4.391479969024658203e+00,4.550503253936767578e+00,4.721476078033447266e+00,4.854350566864013672e+00,4.853154659271240234e+00,4.851959228515625000e+00,4.850764274597167969e+00,4.849570274353027344e+00,4.848376274108886719e+00,4.847183227539062500e+00,4.845990657806396484e+00,4.844799041748046875e+00,4.843607425689697266e+00,4.842416763305664062e+00,4.841226577758789062e+00,4.840036869049072266e+00,4.838848114013671875e+00,4.837659358978271484e+00,4.836471557617187500e+00,1.778185606002807617e+00,1.756563544273376465e+00,1.749521613121032715e+00,1.775563001632690430e+00,4.830541133880615234e+00,4.829356670379638672e+00,4.828173160552978516e+00,4.826990127563476562e+00,1.669376730918884277e+00,1.649741649627685547e+00,1.643769383430480957e+00,4.822263240814208984e+00,4.821082592010498047e+00,4.819902896881103516e+00,4.818724155426025391e+00,4.817545413970947266e+00,4.816367626190185547e+00,4.815189838409423828e+00,4.814013004302978516e+00,4.812836647033691406e+00,4.811661243438720703e+00,4.810485839843750000e+00,4.809311389923095703e+00,4.808137416839599609e+00,4.806964397430419922e+00,4.805791378021240234e+00,4.804619312286376953e+00,4.803447723388671875e+00,4.802276611328125000e+00,4.801105976104736328e+00,4.799936294555664062e+00,4.798766613006591797e+00,4.797597885131835938e+00,4.796429634094238281e+00,4.795261859893798828e+00,4.794095039367675781e+00,4.792928695678710938e+00,4.791762351989746094e+00,4.790596961975097656e+00,4.789432525634765625e+00,4.702125549316406250e+00,4.552309989929199219e+00,4.411746025085449219e+00,4.279603004455566406e+00,4.155145645141601562e+00,4.037722110748291016e+00,3.926753282546997070e+00,3.821721076965332031e+00,3.722160816192626953e+00
3.093931198120117188e+00,3.172028541564941406e+00,3.254171133041381836e+00,3.340680837631225586e+00,3.431915521621704102e+00,3.528274059295654297e+00,3.630199193954467773e+00,3.738188982009887695e+00,3.770773887634277344e+00,3.770052433013916016e+00,3.769331216812133789e+00,3.768609762191772461e+00,3.767889022827148438e+00,3.767168283462524414e+00,3.766448259353637695e+00,3.765727996826171875e+00,3.765008449554443359e+00,3.764288425445556641e+00,3.763569593429565430e+00,3.762850284576416016e+00,3.762131929397583008e+00,3.761413335800170898e+00,3.760695219039916992e+00,3.759977340698242188e+00,3.759259939193725586e+00,3.758542299270629883e+00,3.757825374603271484e+00,3.757108449935913086e+00,3.756392240524291992e+00,3.755675792694091797e+00,3.754960060119628906e+00,1.792035818099975586e+00,1.769620418548583984e+00,1.762533187866210938e+00,3.752099037170410156e+00,3.751384496688842773e+00,3.750669956207275391e+00,3.749956130981445312e+00,3.749242067337036133e+00,1.674311757087707520e+00,1.655985713005065918e+00,1.651783347129821777e+00,3.746389865875244141e+00,3.745677471160888672e+00,3.744965314865112305e+00,3.744253635406494141e+00,3.743541717529296875e+00,3.742830514907836914e+00,3.742119312286376953e+00,3.741408824920654297e+00,3.740698099136352539e+00,3.739988088607788086e+00,3.739277839660644531e+00,3.738568305969238281e+00,3.737858772277832031e+00,3.737149715423583984e+00,3.736440658569335938e+00,3.735732078552246094e+00,3.735023498535156250e+00,3.734315633773803711e+00,3.733607530593872070e+00,3.732900381088256836e+00,3.732192754745483398e+00,3.731485843658447266e+00,3.730778932571411133e+00,3.730072736740112305e+00,3.729366302490234375e+00,3.728660583496093750e+00,3.727954626083374023e+00,3.727249383926391602e+00,3.726543903350830078e+00,3.725839376449584961e+00,3.725134372711181641e+00,3.724430322647094727e+00,3.723726034164428711e+00,3.723022460937500000e+00,3.722318649291992188e+00,3.721615552902221680e+00,3.720912218093872070e+00,3.720209836959838867e+00
3.083150386810302734e+00,3.082668066024780273e+00,3.082185506820678711e+00,3.081703424453735352e+00,3.081221580505371094e+00,3.080739498138427734e+00,3.080257892608642578e+00,3.079776287078857422e+00,3.079294919967651367e+00,3.078813791275024414e+00,3.078332424163818359e+00,3.077851533889770508e+00,3.077370405197143555e+00,3.076889991760253906e+00,3.076409578323364258e+00,3.075929164886474609e+00,3.075448751449584961e+00,3.074968814849853516e+00,3.074488639831542969e+00,3.074009180068969727e+00,3.073529243469238281e+00,3.073049783706665039e+00,3.072570323944091797e+00,3.072091341018676758e+00,3.071612119674682617e+00,3.071133375167846680e+00,3.070654392242431641e+00,3.070175886154174805e+00,3.069697380065917969e+00,3.069219112396240234e+00,3.068740844726562500e+00,3.068263053894042969e+00,1.782872796058654785e+00,1.775739550590515137e+00,3.066829681396484375e+00,3.066352367401123047e+00,3.065875053405761719e+00,3.065397977828979492e+00,3.064920902252197266e+00,1.685899615287780762e+00,1.670832633972167969e+00,3.063491106033325195e+00,3.063014507293701172e+00,3.062538385391235352e+00,3.062062263488769531e+00,3.061586380004882812e+00,3.061110496520996094e+00,3.060634851455688477e+00,3.060159206390380859e+00,3.059684038162231445e+00,3.059208869934082031e+00,3.058733940124511719e+00,3.058258771896362305e+00,3.057784080505371094e+00,3.057309389114379883e+00,3.056835174560546875e+00,3.056360721588134766e+00,3.055886507034301758e+00,3.055412769317626953e+00,3.054938554763793945e+00,3.054465055465698242e+00,3.053991317749023438e+00,3.053518056869506836e+00,3.053044557571411133e+00,3.052571535110473633e+00,3.052098512649536133e+00,3.051625728607177734e+00,3.051152944564819336e+00,3.050680398941040039e+00,3.050207853317260742e+00,3.049735784530639648e+00,3.049263477325439453e+00,3.048791646957397461e+00,3.048319816589355469e+00,3.047848224639892578e+00,3.047376632690429688e+00,3.046905279159545898e+00,3.046433925628662109e+00,3.045963048934936523e+00,3.045491933822631836e+00
2.604874134063720703e+00,2.604529619216918945e+00,2.604185342788696289e+00,2.603841304779052734e+00,2.603497028350830078e+00,2.603152990341186523e+00,2.602808952331542969e+00,2.602465152740478516e+00,2.602121591567993164e+00,2.601777791976928711e+00,2.601434230804443359e+00,2.601090669631958008e+00,2.600747108459472656e+00,2.600404024124145508e+00,2.600060701370239258e+00,2.599717617034912109e+00,2.599374532699584961e+00,2.599031448364257812e+00,2.598688602447509766e+00,2.598345756530761719e+00,2.598003149032592773e+00,2.597660541534423828e+00,2.597317934036254883e+00,2.596975564956665039e+00,2.596633195877075195e+00,2.596291065216064453e+00,2.595948696136474609e+00,2.595606803894042969e+00,2.595264673233032227e+00,2.594923019409179688e+00,2.594580888748168945e+00,2.594239473342895508e+00,1.802368760108947754e+00,1.800083041191101074e+00,2.593214750289916992e+00,2.592873334884643555e+00,2.592532157897949219e+00,2.592190980911254883e+00,1.725229740142822266e+00,1.686914205551147461e+00,1.665087580680847168e+00,1.655938744544982910e+00,2.590486526489257812e+00,2.590145826339721680e+00,2.589805364608764648e+00,2.589464664459228516e+00,2.589124441146850586e+00,2.588783979415893555e+00,2.588443994522094727e+00,2.588103771209716797e+00,2.587763786315917969e+00,2.587423801422119141e+00,2.587084054946899414e+00,2.586744308471679688e+00,2.586404800415039062e+00,2.586065053939819336e+00,2.585725784301757812e+00,2.585386276245117188e+00,2.585047006607055664e+00,2.584707736968994141e+00,2.584368705749511719e+00,2.584029436111450195e+00,2.583690643310546875e+00,2.583351850509643555e+00,2.583013057708740234e+00,2.582674264907836914e+00,2.582335710525512695e+00,2.581997156143188477e+00,2.581658840179443359e+00,2.581320524215698242e+00,2.580982446670532227e+00,2.580644130706787109e+00,2.580306053161621094e+00,2.579967975616455078e+00,2.579630374908447266e+00,2.579292297363281250e+00,2.578954696655273438e+00,2.578617334365844727e+00,2.578279733657836914e+00,2.577942371368408203e+00
2.255056619644165039e+00,2.254798412322998047e+00,2.254540443420410156e+00,2.254282474517822266e+00,2.254024505615234375e+00,2.253766775131225586e+00,2.253508806228637695e+00,2.253251075744628906e+00,2.252993345260620117e+00,2.252735614776611328e+00,2.252478122711181641e+00,2.252220630645751953e+00,2.251963138580322266e+00,2.251705646514892578e+00,2.251448392868041992e+00,2.251191139221191406e+00,2.250933647155761719e+00,2.250676631927490234e+00,2.250419378280639648e+00,2.250162363052368164e+00,2.249905347824096680e+00,2.249648332595825195e+00,2.249391555786132812e+00,2.249134778976440430e+00,2.248878002166748047e+00,2.248621225357055664e+00,2.248364686965942383e+00,2.248107910156250000e+00,2.247851610183715820e+00,2.247595071792602539e+00,2.247338533401489258e+00,1.861896276473999023e+00,1.795355677604675293e+00,1.776780486106872559e+00,1.777096271514892578e+00,2.246057271957397461e+00,2.245801210403442383e+00,2.245545148849487305e+00,1.724806666374206543e+00,1.692178249359130859e+00,1.664052367210388184e+00,1.636510252952575684e+00,1.631284713745117188e+00,2.244010210037231445e+00,2.243754625320434570e+00,2.243499040603637695e+00,2.243243455886840820e+00,2.242988109588623047e+00,2.242732763290405273e+00,2.242477416992187500e+00,2.242222070693969727e+00,2.241966724395751953e+00,2.241711854934692383e+00,2.241456508636474609e+00,2.241201639175415039e+00,2.240946769714355469e+00,2.240691661834716797e+00,2.240437030792236328e+00,2.240182161331176758e+00,2.239927291870117188e+00,2.239672660827636719e+00,2.239418029785156250e+00,2.239163398742675781e+00,2.238909006118774414e+00,2.238654375076293945e+00,2.238400220870971680e+00,2.238145589828491211e+00,2.237891435623168945e+00,2.237637281417846680e+00,2.237383127212524414e+00,2.237128973007202148e+00,2.236874818801879883e+00,2.236620903015136719e+00,2.236366987228393555e+00,2.236113071441650391e+00,2.235859394073486328e+00,2.235605478286743164e+00,2.235351800918579102e+00,2.235098123550415039e+00,2.234844446182250977e+00
1.988071680068969727e+00,1.987870931625366211e+00,1.987670302391052246e+00,1.987469911575317383e+00,1.987269401550292969e+00,1.987068891525268555e+00,1.986868619918823242e+00,1.986668109893798828e+00,1.986467719078063965e+00,1.986267566680908203e+00,1.986067295074462891e+00,1.985867023468017578e+00,1.985666751861572266e+00,1.985466718673706055e+00,1.985266566276550293e+00,1.985066533088684082e+00,1.984866619110107422e+00,1.984666585922241211e+00,1.984466552734375000e+00,1.984266757965087891e+00,1.984066843986511230e+00,1.983867049217224121e+00,1.983667135238647461e+00,1.983467578887939453e+00,1.983267784118652344e+00,1.983068108558654785e+00,1.982868671417236328e+00,1.982668995857238770e+00,1.982469439506530762e+00,1.982270121574401855e+00,1.982070565223693848e+00,1.981871008872985840e+00,1.783154249191284180e+00,1.754414796829223633e+00,1.748710751533508301e+00,1.753082275390625000e+00,1.980874657630920410e+00,1.980675458908081055e+00,1.980476260185241699e+00,1.980277299880981445e+00,1.980078220367431641e+00,1.629611372947692871e+00,1.606833338737487793e+00,1.594515681266784668e+00,1.620784640312194824e+00,1.979083418846130371e+00,1.978884458541870117e+00,1.978685855865478516e+00,1.978487014770507812e+00,1.978288292884826660e+00,1.978089570999145508e+00,1.977891087532043457e+00,1.977692484855651855e+00,1.977493882179260254e+00,1.977295279502868652e+00,1.977097034454345703e+00,1.976898431777954102e+00,1.976700067520141602e+00,1.976501584053039551e+00,1.976303458213806152e+00,1.976105213165283203e+00,1.975906848907470703e+00,1.975708603858947754e+00,1.975510597229003906e+00,1.975312471389770508e+00,1.975114345550537109e+00,1.974916219711303711e+00,1.974718451499938965e+00,1.974520444869995117e+00,1.974322438240051270e+00,1.974124550819396973e+00,1.973926901817321777e+00,1.973729014396667480e+00,1.973531126976013184e+00,1.973333358764648438e+00,1.973135948181152344e+00,1.972938179969787598e+00,1.972740530967712402e+00,1.972543001174926758e+00,1.972345590591430664e+00
1.777613162994384766e+00,1.777452707290649414e+00,1.777292251586914062e+00,1.777132034301757812e+00,1.776971697807312012e+00,1.776811361312866211e+00,1.776651024818420410e+00,1.776490926742553711e+00,1.776330709457397461e+00,1.776170492172241211e+00,1.776010513305664062e+00,1.775850296020507812e+00,1.775690197944641113e+00,1.775530219078063965e+00,1.775370121002197266e+00,1.775210142135620117e+00,1.775050163269042969e+00,1.774890303611755371e+00,1.774730324745178223e+00,1.774570345878601074e+00,1.774410724639892578e+00,1.774250745773315430e+00,1.774091005325317383e+00,1.773931264877319336e+00,1.773771524429321289e+00,1.773611783981323242e+00,1.773452043533325195e+00,1.773292541503906250e+00,1.773132801055908203e+00,1.772973179817199707e+00,1.772813796997070312e+00,1.772654175758361816e+00,1.772494554519653320e+00,1.733308315277099609e+00,1.726185798645019531e+00,1.713015437126159668e+00,1.721223592758178711e+00,1.771697521209716797e+00,1.771538138389587402e+00,1.771378993988037109e+00,1.771219730377197266e+00,1.771060347557067871e+00,1.606414675712585449e+00,1.581023812294006348e+00,1.569296002388000488e+00,1.770423650741577148e+00,1.770264506340026855e+00,1.770105481147766113e+00,1.769946455955505371e+00,1.769787311553955078e+00,1.769628286361694336e+00,1.769469499588012695e+00,1.769310474395751953e+00,1.769151449203491211e+00,1.768992543220520020e+00,1.768833875656127930e+00,1.768674969673156738e+00,1.768516063690185547e+00,1.768357515335083008e+00,1.768198728561401367e+00,1.768039941787719727e+00,1.767881155014038086e+00,1.767722725868225098e+00,1.767564058303833008e+00,1.767405390739440918e+00,1.767246723175048828e+00,1.767088294029235840e+00,1.766929745674133301e+00,1.766771197319030762e+00,1.766612768173217773e+00,1.766454458236694336e+00,1.766296029090881348e+00,1.766137599945068359e+00,1.765979170799255371e+00,1.765820980072021484e+00,1.765662670135498047e+00,1.765504479408264160e+00,1.765346169471740723e+00,1.765188097953796387e+00,1.765029907226562500e+00
1.607447504997253418e+00,1.607316493988037109e+00,1.607185363769531250e+00,1.607054114341735840e+00,1.606923222541809082e+00,1.606792092323303223e+00,1.606660962104797363e+00,1.606530070304870605e+00,1.606398940086364746e+00,1.606267929077148438e+00,1.606136918067932129e+00,1.606006026268005371e+00,1.605875134468078613e+00,1.605744123458862305e+00,1.605613350868225098e+00,1.605482459068298340e+00,1.605351567268371582e+00,1.605220913887023926e+00,1.605090022087097168e+00,1.604959249496459961e+00,1.604828357696533203e+00,1.604697823524475098e+00,1.604567050933837891e+00,1.604436278343200684e+00,1.604305744171142578e+00,1.604174971580505371e+00,1.604044318199157715e+00,1.603913784027099609e+00,1.603783249855041504e+00,1.603652596473693848e+00,1.603522062301635742e+00,1.603391647338867188e+00,1.603260993957519531e+00,1.603130578994750977e+00,1.603000164031982422e+00,1.602869749069213867e+00,1.602739214897155762e+00,1.602608919143676758e+00,1.602478504180908203e+00,1.602348089218139648e+00,1.602217912673950195e+00,1.602087497711181641e+00,1.601957321166992188e+00,1.601827025413513184e+00,1.601696729660034180e+00,1.601566553115844727e+00,1.601436376571655273e+00,1.601306200027465820e+00,1.601176023483276367e+00,1.601045846939086914e+00,1.600915789604187012e+00,1.600785613059997559e+00,1.600655555725097656e+00,1.600525379180908203e+00,1.600395441055297852e+00,1.600265383720397949e+00,1.600135445594787598e+00,1.600005388259887695e+00,1.599875450134277344e+00,1.599745512008666992e+00,1.599615573883056641e+00,1.599485635757446289e+00,1.599355936050415039e+00,1.599225997924804688e+00,1.599096179008483887e+00,1.598966240882873535e+00,1.598836660385131836e+00,1.598706841468811035e+00,1.598577022552490234e+00,1.598447322845458984e+00,1.598317623138427734e+00,1.598187923431396484e+00,1.598058223724365234e+00,1.597928643226623535e+00,1.597799062728881836e+00,1.597669482231140137e+00,1.597539782524108887e+00,1.597410440444946289e+00,1.597280859947204590e+00,1.597151279449462891e+00
1.467014789581298828e+00,1.466905593872070312e+00,1.466796278953552246e+00,1.466687083244323730e+00,1.466577887535095215e+00,1.466468691825866699e+00,1.466359496116638184e+00,1.466250300407409668e+00,1.466141343116760254e+00,1.466032147407531738e+00,1.465922951698303223e+00,1.465813994407653809e+00,1.465704917907714844e+00,1.465595841407775879e+00,1.465486764907836914e+00,1.465377807617187500e+00,1.465268731117248535e+00,1.465159773826599121e+00,1.465050816535949707e+00,1.464941859245300293e+00,1.464832901954650879e+00,1.464724063873291016e+00,1.464615106582641602e+00,1.464506149291992188e+00,1.464397311210632324e+00,1.464288473129272461e+00,1.464179635047912598e+00,1.464070796966552734e+00,1.463962078094482422e+00,1.463853240013122559e+00,1.463744401931762695e+00,1.463635683059692383e+00,1.463526964187622070e+00,1.463418245315551758e+00,1.463309526443481445e+00,1.463200807571411133e+00,1.463092088699340820e+00,1.462983369827270508e+00,1.462874889373779297e+00,1.462766170501708984e+00,1.462657570838928223e+00,1.462549090385437012e+00,1.462440371513366699e+00,1.462331771850585938e+00,1.462223410606384277e+00,1.462114810943603516e+00,1.462006211280822754e+00,1.461897850036621094e+00,1.461789369583129883e+00,1.461680769920349121e+00,1.461572408676147461e+00,1.461463928222656250e+00,1.461355566978454590e+00,1.461247086524963379e+00,1.461138725280761719e+00,1.461030364036560059e+00,1.460922002792358398e+00,1.460813760757446289e+00,1.460705399513244629e+00,1.460597038269042969e+00,1.460488677024841309e+00,1.460380554199218750e+00,1.460272192955017090e+00,1.460163950920104980e+00,1.460055708885192871e+00,1.459947586059570312e+00,1.459839344024658203e+00,1.459731101989746094e+00,1.459622859954833984e+00,1.459514856338500977e+00,1.459406614303588867e+00,1.459298491477966309e+00,1.459190368652343750e+00,1.459082365036010742e+00,1.458974242210388184e+00,1.458866119384765625e+00,1.458758115768432617e+00,1.458650231361389160e+00,1.458542108535766602e+00,1.458434104919433594e+00
1.349147915840148926e+00,1.349055528640747070e+00,1.348963141441345215e+00,1.348870754241943359e+00,1.348778367042541504e+00,1.348686099052429199e+00,1.348593711853027344e+00,1.348501443862915039e+00,1.348409056663513184e+00,1.348316907882690430e+00,1.348224520683288574e+00,1.348132252693176270e+00,1.348040103912353516e+00,1.347947835922241211e+00,1.347855567932128906e+00,1.347763419151306152e+00,1.347671151161193848e+00,1.347578883171081543e+00,1.347486734390258789e+00,1.347394585609436035e+00,1.347302436828613281e+00,1.347210288047790527e+00,1.347118258476257324e+00,1.347026109695434570e+00,1.346933960914611816e+00,1.346841931343078613e+00,1.346749782562255859e+00,1.346657752990722656e+00,1.346565723419189453e+00,1.346473693847656250e+00,1.346381545066833496e+00,1.346289515495300293e+00,1.346197605133056641e+00,1.346105575561523438e+00,1.346013545989990234e+00,1.345921635627746582e+00,1.345829725265502930e+00,1.345737695693969727e+00,1.345645904541015625e+00,1.345553874969482422e+00,1.345461964607238770e+00,1.345370054244995117e+00,1.345278263092041016e+00,1.345186352729797363e+00,1.345094442367553711e+00,1.345002651214599609e+00,1.344910860061645508e+00,1.344818949699401855e+00,1.344727277755737305e+00,1.344635367393493652e+00,1.344543576240539551e+00,1.344451785087585449e+00,1.344360113143920898e+00,1.344268441200256348e+00,1.344176650047302246e+00,1.344084978103637695e+00,1.343993186950683594e+00,1.343901634216308594e+00,1.343809843063354492e+00,1.343718171119689941e+00,1.343626499176025391e+00,1.343534946441650391e+00,1.343443274497985840e+00,1.343351602554321289e+00,1.343259930610656738e+00,1.343168497085571289e+00,1.343076825141906738e+00,1.342985272407531738e+00,1.342893600463867188e+00,1.342802166938781738e+00,1.342710614204406738e+00,1.342619061470031738e+00,1.342527508735656738e+00,1.342436075210571289e+00,1.342344641685485840e+00,1.342253088951110840e+00,1.342161655426025391e+00,1.342070221900939941e+00,1.341978788375854492e+00,1.341887354850769043e+00
1.248812556266784668e+00,1.248733401298522949e+00,1.248654246330261230e+00,1.248575091361999512e+00,1.248495936393737793e+00,1.248416781425476074e+00,1.248337745666503906e+00,1.248258590698242188e+00,1.248179435729980469e+00,1.248100519180297852e+00,1.248021364212036133e+00,1.247942328453063965e+00,1.247863173484802246e+00,1.247784256935119629e+00,1.247705101966857910e+00,1.247626066207885742e+00,1.247547149658203125e+00,1.247468113899230957e+00,1.247389078140258789e+00,1.247310161590576172e+00,1.247231125831604004e+00,1.247152209281921387e+00,1.247073292732238770e+00,1.246994256973266602e+00,1.246915340423583984e+00,1.246836423873901367e+00,1.246757507324218750e+00,1.246678590774536133e+00,1.246599674224853516e+00,1.246520876884460449e+00,1.246441960334777832e+00,1.246363043785095215e+00,1.246284246444702148e+00,1.246205449104309082e+00,1.246126532554626465e+00,1.246047735214233398e+00,1.245968937873840332e+00,1.245890140533447266e+00,1.245811223983764648e+00,1.245732545852661133e+00,1.245653748512268066e+00,1.245574951171875000e+00,1.245496273040771484e+00,1.245417475700378418e+00,1.245338797569274902e+00,1.245260000228881836e+00,1.245181322097778320e+00,1.245102643966674805e+00,1.245023846626281738e+00,1.244945287704467773e+00,1.244866609573364258e+00,1.244787812232971191e+00,1.244709253311157227e+00,1.244630575180053711e+00,1.244551897048950195e+00,1.244473218917846680e+00,1.244394779205322266e+00,1.244316220283508301e+00,1.244237542152404785e+00,1.244158983230590820e+00,1.244080424308776855e+00,1.244001865386962891e+00,1.243923306465148926e+00,1.243844747543334961e+00,1.243766188621520996e+00,1.243687629699707031e+00,1.243609070777893066e+00,1.243530631065368652e+00,1.243452191352844238e+00,1.243373632431030273e+00,1.243295192718505859e+00,1.243216633796691895e+00,1.243138313293457031e+00,1.243059754371643066e+00,1.242981314659118652e+00,1.242902874946594238e+00,1.242824554443359375e+00,1.242746114730834961e+00,1.242667675018310547e+00,1.242589235305786133e+00
1.162367939949035645e+00,1.162299275398254395e+00,1.162230730056762695e+00,1.162162184715270996e+00,1.162093639373779297e+00,1.162025094032287598e+00,1.161956429481506348e+00,1.161888003349304199e+00,1.161819458007812500e+00,1.161750912666320801e+00,1.161682486534118652e+00,1.161613941192626953e+00,1.161545395851135254e+00,1.161476969718933105e+00,1.161408424377441406e+00,1.161339998245239258e+00,1.161271572113037109e+00,1.161203026771545410e+00,1.161134600639343262e+00,1.161066174507141113e+00,1.160997748374938965e+00,1.160929322242736816e+00,1.160860896110534668e+00,1.160792469978332520e+00,1.160724043846130371e+00,1.160655617713928223e+00,1.160587310791015625e+00,1.160519003868103027e+00,1.160450577735900879e+00,1.160382151603698730e+00,1.160313844680786133e+00,1.160245537757873535e+00,1.160177111625671387e+00,1.160108923912048340e+00,1.160040497779846191e+00,1.159972190856933594e+00,1.159904003143310547e+00,1.159835577011108398e+00,1.159767270088195801e+00,1.159698963165283203e+00,1.159630775451660156e+00,1.159562468528747559e+00,1.159494280815124512e+00,1.159426093101501465e+00,1.159357786178588867e+00,1.159289479255676270e+00,1.159221291542053223e+00,1.159153103828430176e+00,1.159084916114807129e+00,1.159016609191894531e+00,1.158948540687561035e+00,1.158880352973937988e+00,1.158812165260314941e+00,1.158743977546691895e+00,1.158675789833068848e+00,1.158607602119445801e+00,1.158539533615112305e+00,1.158471345901489258e+00,1.158403277397155762e+00,1.158335208892822266e+00,1.158267021179199219e+00,1.158198952674865723e+00,1.158130884170532227e+00,1.158062815666198730e+00,1.157994747161865234e+00,1.157926678657531738e+00,1.157858610153198242e+00,1.157790541648864746e+00,1.157722592353820801e+00,1.157654523849487305e+00,1.157586455345153809e+00,1.157518386840820312e+00,1.157450437545776367e+00,1.157382369041442871e+00,1.157314419746398926e+00,1.157246351242065430e+00,1.157178401947021484e+00,1.157110452651977539e+00,1.157042503356933594e+00,1.156974554061889648e+00
1.087116003036499023e+00,1.087056040763854980e+00,1.086996078491210938e+00,1.086936116218566895e+00,1.086876153945922852e+00,1.086816191673278809e+00,1.086756229400634766e+00,1.086696267127990723e+00,1.086636304855346680e+00,1.086576342582702637e+00,1.086516499519348145e+00,1.086456537246704102e+00,1.086396574974060059e+00,1.086336612701416016e+00,1.086276769638061523e+00,1.086216926574707031e+00,1.086156964302062988e+00,1.086097121238708496e+00,1.086037278175354004e+00,1.085977315902709961e+00,1.085917472839355469e+00,1.085857629776000977e+00,1.085797786712646484e+00,1.085737943649291992e+00,1.085678100585937500e+00,1.085618257522583008e+00,1.085558414459228516e+00,1.085498690605163574e+00,1.085438847541809082e+00,1.085379004478454590e+00,1.085319280624389648e+00,1.085259437561035156e+00,1.085199594497680664e+00,1.085139870643615723e+00,1.085080146789550781e+00,1.085020303726196289e+00,1.084960579872131348e+00,1.084900856018066406e+00,1.084841012954711914e+00,1.084781289100646973e+00,1.084721565246582031e+00,1.084661841392517090e+00,1.084602117538452148e+00,1.084542393684387207e+00,1.084482669830322266e+00,1.084422945976257324e+00,1.084363222122192383e+00,1.084303617477416992e+00,1.084243893623352051e+00,1.084184169769287109e+00,1.084124565124511719e+00,1.084064960479736328e+00,1.084005236625671387e+00,1.083945631980895996e+00,1.083886027336120605e+00,1.083826303482055664e+00,1.083766698837280273e+00,1.083707094192504883e+00,1.083647489547729492e+00,1.083587884902954102e+00,1.083528280258178711e+00,1.083468675613403320e+00,1.083409070968627930e+00,1.083349466323852539e+00,1.083289861679077148e+00,1.083230376243591309e+00,1.083170771598815918e+00,1.083111286163330078e+00,1.083051681518554688e+00,1.082992196083068848e+00,1.082932591438293457e+00,1.082873106002807617e+00,1.082813620567321777e+00,1.082754015922546387e+00,1.082694530487060547e+00,1.082635045051574707e+00,1.082575559616088867e+00,1.082515954971313477e+00,1.082456469535827637e+00,1.082397103309631348e+00
1.021015405654907227e+00,1.020962595939636230e+00,1.020909547805786133e+00,1.020856738090515137e+00,1.020803809165954590e+00,1.020750880241394043e+00,1.020697951316833496e+00,1.020645141601562500e+00,1.020592212677001953e+00,1.020539402961730957e+00,1.020486474037170410e+00,1.020433664321899414e+00,1.020380735397338867e+00,1.020327925682067871e+00,1.020275115966796875e+00,1.020222187042236328e+00,1.020169377326965332e+00,1.020116567611694336e+00,1.020063757896423340e+00,1.020010948181152344e+00,1.019958138465881348e+00,1.019905328750610352e+00,1.019852519035339355e+00,1.019799709320068359e+00,1.019746899604797363e+00,1.019694089889526367e+00,1.019641280174255371e+00,1.019588589668273926e+00,1.019535779953002930e+00,1.019482970237731934e+00,1.019430279731750488e+00,1.019377589225769043e+00,1.019324779510498047e+00,1.019271969795227051e+00,1.019219279289245605e+00,1.019166588783264160e+00,1.019113779067993164e+00,1.019061088562011719e+00,1.019008398056030273e+00,1.018955707550048828e+00,1.018902897834777832e+00,1.018850326538085938e+00,1.018797636032104492e+00,1.018744826316833496e+00,1.018692255020141602e+00,1.018639564514160156e+00,1.018586874008178711e+00,1.018534183502197266e+00,1.018481492996215820e+00,1.018428921699523926e+00,1.018376231193542480e+00,1.018323540687561035e+00,1.018270969390869141e+00,1.018218278884887695e+00,1.018165707588195801e+00,1.018113017082214355e+00,1.018060445785522461e+00,1.018007874488830566e+00,1.017955183982849121e+00,1.017902612686157227e+00,1.017850041389465332e+00,1.017797470092773438e+00,1.017744898796081543e+00,1.017692208290100098e+00,1.017639756202697754e+00,1.017587065696716309e+00,1.017534494400024414e+00,1.017482042312622070e+00,1.017429471015930176e+00,1.017376899719238281e+00,1.017324328422546387e+00,1.017271876335144043e+00,1.017219305038452148e+00,1.017166852951049805e+00,1.017114281654357910e+00,1.017061829566955566e+00,1.017009258270263672e+00,1.016956686973571777e+00,1.016904234886169434e+00,1.016851782798767090e+00
9.624924063682556152e-01,9.624453186988830566e-01,9.623984098434448242e-01,9.623513817787170410e-01,9.623043537139892578e-01,9.622573256492614746e-01,9.622102975845336914e-01,9.621632695198059082e-01,9.621163606643676758e-01,9.620693922042846680e-01,9.620223641395568848e-01,9.619753956794738770e-01,9.619283676147460938e-01,9.618813991546630859e-01,9.618344306945800781e-01,9.617875218391418457e-01,9.617405533790588379e-01,9.616935849189758301e-01,9.616466164588928223e-01,9.615997076034545898e-01,9.615527391433715820e-01,9.615057706832885742e-01,9.614589214324951172e-01,9.614120125770568848e-01,9.613650441169738770e-01,9.613181352615356445e-01,9.612712264060974121e-01,9.612242579460144043e-01,9.611774682998657227e-01,9.611305594444274902e-01,9.610836505889892578e-01,9.610367417335510254e-01,9.609898328781127930e-01,9.609429240226745605e-01,9.608960747718811035e-01,9.608492851257324219e-01,9.608023762702941895e-01,9.607555270195007324e-01,9.607086777687072754e-01,9.606617689132690430e-01,9.606149196624755859e-01,9.605681896209716797e-01,9.605213403701782227e-01,9.604744911193847656e-01,9.604276418685913086e-01,9.603807926177978516e-01,9.603339433670043945e-01,9.602870941162109375e-01,9.602403640747070312e-01,9.601935744285583496e-01,9.601467251777648926e-01,9.600999355316162109e-01,9.600531458854675293e-01,9.600062966346740723e-01,9.599595069885253906e-01,9.599128365516662598e-01,9.598660469055175781e-01,9.598192572593688965e-01,9.597724676132202148e-01,9.597256779670715332e-01,9.596789479255676270e-01,9.596322774887084961e-01,9.595854878425598145e-01,9.595387578010559082e-01,9.594919681549072266e-01,9.594452381134033203e-01,9.593985080718994141e-01,9.593517780303955078e-01,9.593051075935363770e-01,9.592583775520324707e-01,9.592116475105285645e-01,9.591649174690246582e-01,9.591182470321655273e-01,9.590715169906616211e-01,9.590247869491577148e-01,9.589781761169433594e-01,9.589315056800842285e-01,9.588847756385803223e-01,9.588381052017211914e-01,9.587915539741516113e-01
9.103145599365234375e-01,9.102724790573120117e-01,9.102303981781005859e-01,9.101883769035339355e-01,9.101462960243225098e-01,9.101042151451110840e-01,9.100622534751892090e-01,9.100201725959777832e-01,9.099781513214111328e-01,9.099360704421997070e-01,9.098940491676330566e-01,9.098520278930664062e-01,9.098100662231445312e-01,9.097680449485778809e-01,9.097260236740112305e-01,9.096839427947998047e-01,9.096419215202331543e-01,9.095999598503112793e-01,9.095579385757446289e-01,9.095159769058227539e-01,9.094740152359008789e-01,9.094319939613342285e-01,9.093899726867675781e-01,9.093480110168457031e-01,9.093059897422790527e-01,9.092640280723571777e-01,9.092221260070800781e-01,9.091801643371582031e-01,9.091382026672363281e-01,9.090961813926696777e-01,9.090542197227478027e-01,9.090122580528259277e-01,9.089704155921936035e-01,9.089284539222717285e-01,9.088864922523498535e-01,9.088445305824279785e-01,9.088026285171508789e-01,9.087606668472290039e-01,9.087187647819519043e-01,9.086769223213195801e-01,9.086349606513977051e-01,9.085930585861206055e-01,9.085510969161987305e-01,9.085091948509216309e-01,9.084672927856445312e-01,9.084255099296569824e-01,9.083835482597351074e-01,9.083417057991027832e-01,9.082998037338256836e-01,9.082579016685485840e-01,9.082159996032714844e-01,9.081740975379943848e-01,9.081323146820068359e-01,9.080904722213745117e-01,9.080485701560974121e-01,9.080066680908203125e-01,9.079648256301879883e-01,9.079229831695556641e-01,9.078811407089233398e-01,9.078393578529357910e-01,9.077975153923034668e-01,9.077556729316711426e-01,9.077137708663940430e-01,9.076719880104064941e-01,9.076301455497741699e-01,9.075884222984313965e-01,9.075465798377990723e-01,9.075047373771667480e-01,9.074628949165344238e-01,9.074211120605468750e-01,9.073792695999145508e-01,9.073374867439270020e-01,9.072957634925842285e-01,9.072539806365966797e-01,9.072121977806091309e-01,9.071703553199768066e-01,9.071285724639892578e-01,9.070867896080017090e-01,9.070450067520141602e-01,9.070033431053161621e-01
8.635030388832092285e-01,8.634651303291320801e-01,8.634272813796997070e-01,8.633895516395568848e-01,8.633516430854797363e-01,8.633137941360473633e-01,8.632759451866149902e-01,8.632380962371826172e-01,8.632003068923950195e-01,8.631624579429626465e-01,8.631247282028198242e-01,8.630868792533874512e-01,8.630490303039550781e-01,8.630112409591674805e-01,8.629733920097351074e-01,8.629356026649475098e-01,8.628978729248046875e-01,8.628600239753723145e-01,8.628222346305847168e-01,8.627844452857971191e-01,8.627466559410095215e-01,8.627088069915771484e-01,8.626710176467895508e-01,8.626333475112915039e-01,8.625955581665039062e-01,8.625577688217163086e-01,8.625199794769287109e-01,8.624821901321411133e-01,8.624444007873535156e-01,8.624067306518554688e-01,8.623690009117126465e-01,8.623312115669250488e-01,8.622934222221374512e-01,8.622556924819946289e-01,8.622179627418518066e-01,8.621801733970642090e-01,8.621425032615661621e-01,8.621047735214233398e-01,8.620670437812805176e-01,8.620293140411376953e-01,8.619915843009948730e-01,8.619538545608520508e-01,8.619161248207092285e-01,8.618784546852111816e-01,8.618407249450683594e-01,8.618030548095703125e-01,8.617653250694274902e-01,8.617275953292846680e-01,8.616898655891418457e-01,8.616522550582885742e-01,8.616145849227905273e-01,8.615768551826477051e-01,8.615391850471496582e-01,8.615014553070068359e-01,8.614637851715087891e-01,8.614261150360107422e-01,8.613885045051574707e-01,8.613508343696594238e-01,8.613131642341613770e-01,8.612754940986633301e-01,8.612378239631652832e-01,8.612001538276672363e-01,8.611624836921691895e-01,8.611249327659606934e-01,8.610872626304626465e-01,8.610495924949645996e-01,8.610119819641113281e-01,8.609743118286132812e-01,8.609367012977600098e-01,8.608991503715515137e-01,8.608614802360534668e-01,8.608238697052001953e-01,8.607861995697021484e-01,8.607485890388488770e-01,8.607109785079956055e-01,8.606733679771423340e-01,8.606358170509338379e-01,8.605982065200805664e-01,8.605605959892272949e-01,8.605229854583740234e-01
8.212704658508300781e-01,8.212362527847290039e-01,8.212019801139831543e-01,8.211677670478820801e-01,8.211334943771362305e-01,8.210992813110351562e-01,8.210650086402893066e-01,8.210308551788330078e-01,8.209966421127319336e-01,8.209624290466308594e-01,8.209282159805297852e-01,8.208940029144287109e-01,8.208597302436828613e-01,8.208255171775817871e-01,8.207914233207702637e-01,8.207572102546691895e-01,8.207229971885681152e-01,8.206887841224670410e-01,8.206545710563659668e-01,8.206203579902648926e-01,8.205862641334533691e-01,8.205520510673522949e-01,8.205178976058959961e-01,8.204836845397949219e-01,8.204495310783386230e-01,8.204153180122375488e-01,8.203811645507812500e-01,8.203470706939697266e-01,8.203128576278686523e-01,8.202787041664123535e-01,8.202445507049560547e-01,8.202103972434997559e-01,8.201762437820434570e-01,8.201421499252319336e-01,8.201079964637756348e-01,8.200738430023193359e-01,8.200396895408630371e-01,8.200055360794067383e-01,8.199713826179504395e-01,8.199372291564941406e-01,8.199031949043273926e-01,8.198690414428710938e-01,8.198348879814147949e-01,8.198007941246032715e-01,8.197666406631469727e-01,8.197325468063354492e-01,8.196983933448791504e-01,8.196643590927124023e-01,8.196302652359008789e-01,8.195961117744445801e-01,8.195620179176330566e-01,8.195279240608215332e-01,8.194938302040100098e-01,8.194597959518432617e-01,8.194257020950317383e-01,8.193916082382202148e-01,8.193575143814086914e-01,8.193234205245971680e-01,8.192893266677856445e-01,8.192552328109741211e-01,8.192211985588073730e-01,8.191871643066406250e-01,8.191530704498291016e-01,8.191189765930175781e-01,8.190848827362060547e-01,8.190508484840393066e-01,8.190167546272277832e-01,8.189827799797058105e-01,8.189487457275390625e-01,8.189146518707275391e-01,8.188806176185607910e-01,8.188465833663940430e-01,8.188124895095825195e-01,8.187785744667053223e-01,8.187444806098937988e-01,8.187104463577270508e-01,8.186764121055603027e-01,8.186423778533935547e-01,8.186083436012268066e-01,8.185743093490600586e-01
7.829763293266296387e-01,7.829452157020568848e-01,7.829141020774841309e-01,7.828829288482666016e-01,7.828519344329833984e-01,7.828207612037658691e-01,7.827896475791931152e-01,7.827585339546203613e-01,7.827274203300476074e-01,7.826963067054748535e-01,7.826651930809020996e-01,7.826341986656188965e-01,7.826030850410461426e-01,7.825719714164733887e-01,7.825408577919006348e-01,7.825098037719726562e-01,7.824786901473999023e-01,7.824476361274719238e-01,7.824165821075439453e-01,7.823854684829711914e-01,7.823544144630432129e-01,7.823233008384704590e-01,7.822922468185424805e-01,7.822611331939697266e-01,7.822301387786865234e-01,7.821990847587585449e-01,7.821680307388305664e-01,7.821369171142578125e-01,7.821058630943298340e-01,7.820748090744018555e-01,7.820437550544738770e-01,7.820127606391906738e-01,7.819817066192626953e-01,7.819506525993347168e-01,7.819195985794067383e-01,7.818885445594787598e-01,7.818575501441955566e-01,7.818265557289123535e-01,7.817955017089843750e-01,7.817644476890563965e-01,7.817334532737731934e-01,7.817023992538452148e-01,7.816714048385620117e-01,7.816403508186340332e-01,7.816094160079956055e-01,7.815783619880676270e-01,7.815473675727844238e-01,7.815163135528564453e-01,7.814853191375732422e-01,7.814543247222900391e-01,7.814232707023620605e-01,7.813923358917236328e-01,7.813613414764404297e-01,7.813303470611572266e-01,7.812993526458740234e-01,7.812683582305908203e-01,7.812373638153076172e-01,7.812064290046691895e-01,7.811754345893859863e-01,7.811444401741027832e-01,7.811134457588195801e-01,7.810824513435363770e-01,7.810515165328979492e-01,7.810205221176147461e-01,7.809895873069763184e-01,7.809586524963378906e-01,7.809276580810546875e-01,7.808967232704162598e-01,7.808657288551330566e-01,7.808347940444946289e-01,7.808038592338562012e-01,7.807729244232177734e-01,7.807419896125793457e-01,7.807109951972961426e-01,7.806800603866577148e-01,7.806491255760192871e-01,7.806181907653808594e-01,7.805873155593872070e-01,7.805563211441040039e-01,7.805253863334655762e-01
7.480942606925964355e-01,7.480658292770385742e-01,7.480374574661254883e-01,7.480090260505676270e-01,7.479806542396545410e-01,7.479522228240966797e-01,7.479237914085388184e-01,7.478954195976257324e-01,7.478670477867126465e-01,7.478386759757995605e-01,7.478103041648864746e-01,7.477818727493286133e-01,7.477535009384155273e-01,7.477250695228576660e-01,7.476966977119445801e-01,7.476683855056762695e-01,7.476400136947631836e-01,7.476115822792053223e-01,7.475832104682922363e-01,7.475548386573791504e-01,7.475264668464660645e-01,7.474981546401977539e-01,7.474697828292846680e-01,7.474414110183715820e-01,7.474130392074584961e-01,7.473846673965454102e-01,7.473562955856323242e-01,7.473279237747192383e-01,7.472996115684509277e-01,7.472712993621826172e-01,7.472429275512695312e-01,7.472145557403564453e-01,7.471862435340881348e-01,7.471578717231750488e-01,7.471294999122619629e-01,7.471012473106384277e-01,7.470728754997253418e-01,7.470445632934570312e-01,7.470161914825439453e-01,7.469878792762756348e-01,7.469595074653625488e-01,7.469312548637390137e-01,7.469029426574707031e-01,7.468746304512023926e-01,7.468462586402893066e-01,7.468179464340209961e-01,7.467896342277526855e-01,7.467613220214843750e-01,7.467330694198608398e-01,7.467047572135925293e-01,7.466764450073242188e-01,7.466481328010559082e-01,7.466198205947875977e-01,7.465915083885192871e-01,7.465631961822509766e-01,7.465349435806274414e-01,7.465066313743591309e-01,7.464783787727355957e-01,7.464500665664672852e-01,7.464217543601989746e-01,7.463934421539306641e-01,7.463652491569519043e-01,7.463369369506835938e-01,7.463086843490600586e-01,7.462803721427917480e-01,7.462521195411682129e-01,7.462238073348999023e-01,7.461955547332763672e-01,7.461673617362976074e-01,7.461390495300292969e-01,7.461107969284057617e-01,7.460825443267822266e-01,7.460542321205139160e-01,7.460259795188903809e-01,7.459977865219116211e-01,7.459695339202880859e-01,7.459412813186645508e-01,7.459130287170410156e-01,7.458847761154174805e-01,7.458565235137939453e-01
7.161876559257507324e-01,7.161616086959838867e-01,7.161355614662170410e-01,7.161095142364501953e-01,7.160834670066833496e-01,7.160575389862060547e-01,7.160314917564392090e-01,7.160054445266723633e-01,7.159793972969055176e-01,7.159533500671386719e-01,7.159273624420166016e-01,7.159013152122497559e-01,7.158753275871276855e-01,7.158493399620056152e-01,7.158232927322387695e-01,7.157973051071166992e-01,7.157712578773498535e-01,7.157452702522277832e-01,7.157192230224609375e-01,7.156932950019836426e-01,7.156672477722167969e-01,7.156412601470947266e-01,7.156152725219726562e-01,7.155892252922058105e-01,7.155632376670837402e-01,7.155373096466064453e-01,7.155113220214843750e-01,7.154853343963623047e-01,7.154592871665954590e-01,7.154332995414733887e-01,7.154073119163513184e-01,7.153813242912292480e-01,7.153553962707519531e-01,7.153294086456298828e-01,7.153034210205078125e-01,7.152774333953857422e-01,7.152515053749084473e-01,7.152255177497863770e-01,7.151995301246643066e-01,7.151736021041870117e-01,7.151476144790649414e-01,7.151216864585876465e-01,7.150956988334655762e-01,7.150697112083435059e-01,7.150437831878662109e-01,7.150178551673889160e-01,7.149919271469116211e-01,7.149659395217895508e-01,7.149400115013122559e-01,7.149140238761901855e-01,7.148880958557128906e-01,7.148621082305908203e-01,7.148362398147583008e-01,7.148102521896362305e-01,7.147843241691589355e-01,7.147583961486816406e-01,7.147324681282043457e-01,7.147064805030822754e-01,7.146806120872497559e-01,7.146546840667724609e-01,7.146287560462951660e-01,7.146028280258178711e-01,7.145769000053405762e-01,7.145509719848632812e-01,7.145250439643859863e-01,7.144991755485534668e-01,7.144732475280761719e-01,7.144473195075988770e-01,7.144213914871215820e-01,7.143954634666442871e-01,7.143695354461669922e-01,7.143436670303344727e-01,7.143177986145019531e-01,7.142918705940246582e-01,7.142660021781921387e-01,7.142400741577148438e-01,7.142141461372375488e-01,7.141882777214050293e-01,7.141624093055725098e-01,7.141365408897399902e-01
6.868913769721984863e-01,6.868674159049987793e-01,6.868434548377990723e-01,6.868195533752441406e-01,6.867955923080444336e-01,6.867716312408447266e-01,6.867477297782897949e-01,6.867237687110900879e-01,6.866998076438903809e-01,6.866759061813354492e-01,6.866519451141357422e-01,6.866280436515808105e-01,6.866040825843811035e-01,6.865801215171813965e-01,6.865562200546264648e-01,6.865322589874267578e-01,6.865084171295166016e-01,6.864844560623168945e-01,6.864605545997619629e-01,6.864365935325622559e-01,6.864126920700073242e-01,6.863887310028076172e-01,6.863648295402526855e-01,6.863409280776977539e-01,6.863170266151428223e-01,6.862931251525878906e-01,6.862692236900329590e-01,6.862452626228332520e-01,6.862213611602783203e-01,6.861975193023681641e-01,6.861736178398132324e-01,6.861497163772583008e-01,6.861257553100585938e-01,6.861018538475036621e-01,6.860779523849487305e-01,6.860540509223937988e-01,6.860302090644836426e-01,6.860063076019287109e-01,6.859824061393737793e-01,6.859585046768188477e-01,6.859346032142639160e-01,6.859107613563537598e-01,6.858868598937988281e-01,6.858630180358886719e-01,6.858391165733337402e-01,6.858152151107788086e-01,6.857913732528686523e-01,6.857674717903137207e-01,6.857435703277587891e-01,6.857197880744934082e-01,6.856958866119384766e-01,6.856719851493835449e-01,6.856481432914733887e-01,6.856242418289184570e-01,6.856003999710083008e-01,6.855764985084533691e-01,6.855527162551879883e-01,6.855288743972778320e-01,6.855049729347229004e-01,6.854811310768127441e-01,6.854572296142578125e-01,6.854333877563476562e-01,6.854096055030822754e-01,6.853857636451721191e-01,6.853618621826171875e-01,6.853380203247070312e-01,6.853141784667968750e-01,6.852903366088867188e-01,6.852664947509765625e-01,6.852427124977111816e-01,6.852188706398010254e-01,6.851950287818908691e-01,6.851711869239807129e-01,6.851473450660705566e-01,6.851235032081604004e-01,6.850996613502502441e-01,6.850758790969848633e-01,6.850520372390747070e-01,6.850281953811645508e-01,6.850043535232543945e-01
6.598977446556091309e-01,6.598756313323974609e-01,6.598535180091857910e-01,6.598314046859741211e-01,6.598092913627624512e-01,6.597871780395507812e-01,6.597650647163391113e-01,6.597430109977722168e-01,6.597208976745605469e-01,6.596988439559936523e-01,6.596767306327819824e-01,6.596546173095703125e-01,6.596325039863586426e-01,6.596105098724365234e-01,6.595883965492248535e-01,6.595662832260131836e-01,6.595442295074462891e-01,6.595221161842346191e-01,6.595000028610229492e-01,6.594779491424560547e-01,6.594558954238891602e-01,6.594338417053222656e-01,6.594117283821105957e-01,6.593896746635437012e-01,6.593675613403320312e-01,6.593455076217651367e-01,6.593234539031982422e-01,6.593014001846313477e-01,6.592793464660644531e-01,6.592572331428527832e-01,6.592351794242858887e-01,6.592131257057189941e-01,6.591910719871520996e-01,6.591690182685852051e-01,6.591469645500183105e-01,6.591249108314514160e-01,6.591028571128845215e-01,6.590808033943176270e-01,6.590587496757507324e-01,6.590366959571838379e-01,6.590146422386169434e-01,6.589925885200500488e-01,6.589705348014831543e-01,6.589484810829162598e-01,6.589264869689941406e-01,6.589044332504272461e-01,6.588824391365051270e-01,6.588603854179382324e-01,6.588383316993713379e-01,6.588162779808044434e-01,6.587942242622375488e-01,6.587722301483154297e-01,6.587501764297485352e-01,6.587281823158264160e-01,6.587061285972595215e-01,6.586841344833374023e-01,6.586620807647705078e-01,6.586400270462036133e-01,6.586180329322814941e-01,6.585959792137145996e-01,6.585739850997924805e-01,6.585519909858703613e-01,6.585299372673034668e-01,6.585079431533813477e-01,6.584859490394592285e-01,6.584638953208923340e-01,6.584419608116149902e-01,6.584199070930480957e-01,6.583979129791259766e-01,6.583759188652038574e-01,6.583538651466369629e-01,6.583318710327148438e-01,6.583098769187927246e-01,6.582878828048706055e-01,6.582658886909484863e-01,6.582438945770263672e-01,6.582219004631042480e-01,6.581999063491821289e-01,6.581779122352600098e-01,6.581559181213378906e-01
6.349453926086425781e-01,6.349249482154846191e-01,6.349044442176818848e-01,6.348839998245239258e-01,6.348635554313659668e-01,6.348431110382080078e-01,6.348226666450500488e-01,6.348021626472473145e-01,6.347817182540893555e-01,6.347612738609313965e-01,6.347407698631286621e-01,6.347203850746154785e-01,6.346999406814575195e-01,6.346794366836547852e-01,6.346589922904968262e-01,6.346385478973388672e-01,6.346181035041809082e-01,6.345977187156677246e-01,6.345772147178649902e-01,6.345567703247070312e-01,6.345363259315490723e-01,6.345158815383911133e-01,6.344954371452331543e-01,6.344749927520751953e-01,6.344546079635620117e-01,6.344341635704040527e-01,6.344137191772460938e-01,6.343932747840881348e-01,6.343728899955749512e-01,6.343524456024169922e-01,6.343320012092590332e-01,6.343116164207458496e-01,6.342911720275878906e-01,6.342707276344299316e-01,6.342503428459167480e-01,6.342298984527587891e-01,6.342094540596008301e-01,6.341890692710876465e-01,6.341686844825744629e-01,6.341482400894165039e-01,6.341277956962585449e-01,6.341074109077453613e-01,6.340869665145874023e-01,6.340665817260742188e-01,6.340461969375610352e-01,6.340257525444030762e-01,6.340053677558898926e-01,6.339849233627319336e-01,6.339645385742187500e-01,6.339441537857055664e-01,6.339237689971923828e-01,6.339033842086791992e-01,6.338829398155212402e-01,6.338625550270080566e-01,6.338421702384948730e-01,6.338217258453369141e-01,6.338013410568237305e-01,6.337810158729553223e-01,6.337606310844421387e-01,6.337401866912841797e-01,6.337198019027709961e-01,6.336994171142578125e-01,6.336790323257446289e-01,6.336586475372314453e-01,6.336382627487182617e-01,6.336178779602050781e-01,6.335974931716918945e-01,6.335771083831787109e-01,6.335567235946655273e-01,6.335363388061523438e-01,6.335160136222839355e-01,6.334956288337707520e-01,6.334752440452575684e-01,6.334548592567443848e-01,6.334344744682312012e-01,6.334141492843627930e-01,6.333937644958496094e-01,6.333734393119812012e-01,6.333530545234680176e-01,6.333326697349548340e-01
6.118113994598388672e-01,6.117923855781555176e-01,6.117734313011169434e-01,6.117544174194335938e-01,6.117354035377502441e-01,6.117163896560668945e-01,6.116973757743835449e-01,6.116783618927001953e-01,6.116594076156616211e-01,6.116404533386230469e-01,6.116214394569396973e-01,6.116024255752563477e-01,6.115834712982177734e-01,6.115644574165344238e-01,6.115454435348510742e-01,6.115264892578125000e-01,6.115075349807739258e-01,6.114885210990905762e-01,6.114695668220520020e-01,6.114505529403686523e-01,6.114315986633300781e-01,6.114126443862915039e-01,6.113936305046081543e-01,6.113746762275695801e-01,6.113556623458862305e-01,6.113367080688476562e-01,6.113177537918090820e-01,6.112987399101257324e-01,6.112798452377319336e-01,6.112608313560485840e-01,6.112418770790100098e-01,6.112229228019714355e-01,6.112039089202880859e-01,6.111849546432495117e-01,6.111660003662109375e-01,6.111470460891723633e-01,6.111280918121337891e-01,6.111091375350952148e-01,6.110901832580566406e-01,6.110711693763732910e-01,6.110522150993347168e-01,6.110333204269409180e-01,6.110143661499023438e-01,6.109954118728637695e-01,6.109764575958251953e-01,6.109575033187866211e-01,6.109385490417480469e-01,6.109195947647094727e-01,6.109006404876708984e-01,6.108816862106323242e-01,6.108627915382385254e-01,6.108438372611999512e-01,6.108248829841613770e-01,6.108059287071228027e-01,6.107870340347290039e-01,6.107680797576904297e-01,6.107491254806518555e-01,6.107301712036132812e-01,6.107112169265747070e-01,6.106923222541809082e-01,6.106733679771423340e-01,6.106544733047485352e-01,6.106355190277099609e-01,6.106166243553161621e-01,6.105976700782775879e-01,6.105787158012390137e-01,6.105598211288452148e-01,6.105408668518066406e-01,6.105219721794128418e-01,6.105030775070190430e-01,6.104841232299804688e-01,6.104652285575866699e-01,6.104462742805480957e-01,6.104273796081542969e-01,6.104084849357604980e-01,6.103895306587219238e-01,6.103706359863281250e-01,6.103517413139343262e-01,6.103327870368957520e-01,6.103138923645019531e-01
5.903038382530212402e-01,5.902861356735229492e-01,5.902684926986694336e-01,5.902507901191711426e-01,5.902330875396728516e-01,5.902154445648193359e-01,5.901977419853210449e-01,5.901800394058227539e-01,5.901623368263244629e-01,5.901446938514709473e-01,5.901269912719726562e-01,5.901092886924743652e-01,5.900916457176208496e-01,5.900740027427673340e-01,5.900563001632690430e-01,5.900385975837707520e-01,5.900209546089172363e-01,5.900032520294189453e-01,5.899856090545654297e-01,5.899679660797119141e-01,5.899502635002136230e-01,5.899326205253601074e-01,5.899149179458618164e-01,5.898972749710083008e-01,5.898795723915100098e-01,5.898619294166564941e-01,5.898442864418029785e-01,5.898266434669494629e-01,5.898090004920959473e-01,5.897912979125976562e-01,5.897736549377441406e-01,5.897559523582458496e-01,5.897383689880371094e-01,5.897207260131835938e-01,5.897030234336853027e-01,5.896853804588317871e-01,5.896677374839782715e-01,5.896500349044799805e-01,5.896324515342712402e-01,5.896148085594177246e-01,5.895971655845642090e-01,5.895794630050659180e-01,5.895618200302124023e-01,5.895441770553588867e-01,5.895265340805053711e-01,5.895089507102966309e-01,5.894913077354431152e-01,5.894736647605895996e-01,5.894559621810913086e-01,5.894383192062377930e-01,5.894206762313842773e-01,5.894030332565307617e-01,5.893854498863220215e-01,5.893678069114685059e-01,5.893501639366149902e-01,5.893325209617614746e-01,5.893148779869079590e-01,5.892972946166992188e-01,5.892796516418457031e-01,5.892620682716369629e-01,5.892444252967834473e-01,5.892267823219299316e-01,5.892091393470764160e-01,5.891914963722229004e-01,5.891739130020141602e-01,5.891563296318054199e-01,5.891386866569519043e-01,5.891210436820983887e-01,5.891034007072448730e-01,5.890858173370361328e-01,5.890681743621826172e-01,5.890505909919738770e-01,5.890329480171203613e-01,5.890153646469116211e-01,5.889977216720581055e-01,5.889801383018493652e-01,5.889624953269958496e-01,5.889449119567871094e-01,5.889273285865783691e-01,5.889096856117248535e-01
5.702571272850036621e-01,5.702406167984008789e-01,5.702241063117980957e-01,5.702075958251953125e-01,5.701910853385925293e-01,5.701745748519897461e-01,5.701580643653869629e-01,5.701415538787841797e-01,5.701250433921813965e-01,5.701085925102233887e-01,5.700920820236206055e-01,5.700755715370178223e-01,5.700590610504150391e-01,5.700425505638122559e-01,5.700260996818542480e-01,5.700095891952514648e-01,5.699931383132934570e-01,5.699766278266906738e-01,5.699601173400878906e-01,5.699436068534851074e-01,5.699270963668823242e-01,5.699106454849243164e-01,5.698941946029663086e-01,5.698776841163635254e-01,5.698611736297607422e-01,5.698447227478027344e-01,5.698282122611999512e-01,5.698117017745971680e-01,5.697952508926391602e-01,5.697788000106811523e-01,5.697622895240783691e-01,5.697458386421203613e-01,5.697293281555175781e-01,5.697128176689147949e-01,5.696963667869567871e-01,5.696798563003540039e-01,5.696634650230407715e-01,5.696469545364379883e-01,5.696305036544799805e-01,5.696139931678771973e-01,5.695975422859191895e-01,5.695810317993164062e-01,5.695645809173583984e-01,5.695481300354003906e-01,5.695316791534423828e-01,5.695151686668395996e-01,5.694987177848815918e-01,5.694822669029235840e-01,5.694657564163208008e-01,5.694493651390075684e-01,5.694328546524047852e-01,5.694164037704467773e-01,5.693999528884887695e-01,5.693835020065307617e-01,5.693670511245727539e-01,5.693505406379699707e-01,5.693341493606567383e-01,5.693176984786987305e-01,5.693012475967407227e-01,5.692847371101379395e-01,5.692682862281799316e-01,5.692518353462219238e-01,5.692354440689086914e-01,5.692189931869506836e-01,5.692025423049926758e-01,5.691860914230346680e-01,5.691696405410766602e-01,5.691531896591186523e-01,5.691367387771606445e-01,5.691202878952026367e-01,5.691038370132446289e-01,5.690873861312866211e-01,5.690709352493286133e-01,5.690544843673706055e-01,5.690380930900573730e-01,5.690216422080993652e-01,5.690051913261413574e-01,5.689888000488281250e-01,5.689723491668701172e-01,5.689558982849121094e-01
