4.509116172790527344e+00,4.647734642028808594e+00,4.795146465301513672e+00,4.952215671539306641e+00,5.000000000000000000e+00,5.000000000000000000e+00,5.000000000000000000e+00,5.000000000000000000e+00,5.000000000000000000e+00,5.000000000000000000e+00,5.000000000000000000e+00,5.000000000000000000e+00,5.000000000000000000e+00,5.000000000000000000e+00,5.000000000000000000e+00,5.000000000000000000e+00,5.000000000000000000e+00,5.000000000000000000e+00,5.000000000000000000e+00,5.000000000000000000e+00,5.000000000000000000e+00,5.000000000000000000e+00,5.000000000000000000e+00,4.042956352233886719e+00,4.079934597015380859e+00,5.000000000000000000e+00,5.000000000000000000e+00,5.000000000000000000e+00,5.000000000000000000e+00,5.000000000000000000e+00,5.000000000000000000e+00,5.000000000000000000e+00,5.000000000000000000e+00,5.000000000000000000e+00,5.000000000000000000e+00,5.000000000000000000e+00,5.000000000000000000e+00,5.000000000000000000e+00,5.000000000000000000e+00,5.000000000000000000e+00,5.000000000000000000e+00,5.000000000000000000e+00,5.000000000000000000e+00,5.000000000000000000e+00,5.000000000000000000e+00,5.000000000000000000e+00,5.000000000000000000e+00,5.000000000000000000e+00,5.000000000000000000e+00,5.000000000000000000e+00,5.000000000000000000e+00,5.000000000000000000e+00,5.000000000000000000e+00,5.000000000000000000e+00,5.000000000000000000e+00,5.000000000000000000e+00,5.000000000000000000e+00,5.000000000000000000e+00,4.852638721466064453e+00,4.662119865417480469e+00,4.486024856567382812e+00,4.322747707366943359e+00,4.170939445495605469e+00,4.029431343078613281e+00,3.897210836410522461e+00,3.773391485214233398e+00,3.657197952270507812e+00,3.547946214675903320e+00,3.445032596588134766e+00,3.347921133041381836e+00,3.256134510040283203e+00,3.169245958328247070e+00,3.086874246597290039e+00,3.008676052093505859e+00,2.934341907501220703e+00,2.863592386245727539e+00,2.796174049377441406e+00,2.731857061386108398e+00,2.670432567596435547e+00,2.611709594726562500e+00
4.509017944335937500e+00,4.647630691528320312e+00,4.795035839080810547e+00,4.952096939086914062e+00,5.000000000000000000e+00,5.000000000000000000e+00,5.000000000000000000e+00,5.000000000000000000e+00,5.000000000000000000e+00,5.000000000000000000e+00,5.000000000000000000e+00,5.000000000000000000e+00,5.000000000000000000e+00,5.000000000000000000e+00,5.000000000000000000e+00,5.000000000000000000e+00,5.000000000000000000e+00,5.000000000000000000e+00,5.000000000000000000e+00,5.000000000000000000e+00,5.000000000000000000e+00,5.000000000000000000e+00,5.000000000000000000e+00,4.029654026031494141e+00,4.072197437286376953e+00,5.000000000000000000e+00,5.000000000000000000e+00,5.000000000000000000e+00,5.000000000000000000e+00,5.000000000000000000e+00,5.000000000000000000e+00,5.000000000000000000e+00,5.000000000000000000e+00,5.000000000000000000e+00,5.000000000000000000e+00,5.000000000000000000e+00,5.000000000000000000e+00,5.000000000000000000e+00,5.000000000000000000e+00,5.000000000000000000e+00,5.000000000000000000e+00,5.000000000000000000e+00,5.000000000000000000e+00,5.000000000000000000e+00,5.000000000000000000e+00,5.000000000000000000e+00,5.000000000000000000e+00,5.000000000000000000e+00,5.000000000000000000e+00,5.000000000000000000e+00,5.000000000000000000e+00,5.000000000000000000e+00,5.000000000000000000e+00,5.000000000000000000e+00,5.000000000000000000e+00,5.000000000000000000e+00,5.000000000000000000e+00,5.000000000000000000e+00,4.852768421173095703e+00,4.662270545959472656e+00,4.486164569854736328e+00,4.322877407073974609e+00,4.171060085296630859e+00,4.029544353485107422e+00,3.897316217422485352e+00,3.773490428924560547e+00,3.657290697097778320e+00,3.548033714294433594e+00,3.445115089416503906e+00,3.347998857498168945e+00,3.256207942962646484e+00,3.169315814971923828e+00,3.086940765380859375e+00,3.008739233016967773e+00,2.934401750564575195e+00,2.863649368286132812e+00,2.796228170394897461e+00,2.731909036636352539e+00,2.670482158660888672e+00,2.611757040023803711e+00
4.508919715881347656e+00,4.647526264190673828e+00,4.794924736022949219e+00,4.951978683471679688e+00,5.000000000000000000e+00,5.000000000000000000e+00,5.000000000000000000e+00,5.000000000000000000e+00,5.000000000000000000e+00,5.000000000000000000e+00,5.000000000000000000e+00,5.000000000000000000e+00,5.000000000000000000e+00,5.000000000000000000e+00,5.000000000000000000e+00,5.000000000000000000e+00,5.000000000000000000e+00,5.000000000000000000e+00,5.000000000000000000e+00,5.000000000000000000e+00,5.000000000000000000e+00,5.000000000000000000e+00,5.000000000000000000e+00,4.020507812500000000e+00,4.076751708984375000e+00,5.000000000000000000e+00,5.000000000000000000e+00,5.000000000000000000e+00,5.000000000000000000e+00,5.000000000000000000e+00,5.000000000000000000e+00,5.000000000000000000e+00,5.000000000000000000e+00,5.000000000000000000e+00,5.000000000000000000e+00,5.000000000000000000e+00,5.000000000000000000e+00,5.000000000000000000e+00,5.000000000000000000e+00,5.000000000000000000e+00,5.000000000000000000e+00,5.000000000000000000e+00,5.000000000000000000e+00,5.000000000000000000e+00,5.000000000000000000e+00,5.000000000000000000e+00,5.000000000000000000e+00,5.000000000000000000e+00,5.000000000000000000e+00,5.000000000000000000e+00,5.000000000000000000e+00,5.000000000000000000e+00,5.000000000000000000e+00,5.000000000000000000e+00,5.000000000000000000e+00,5.000000000000000000e+00,5.000000000000000000e+00,5.000000000000000000e+00,4.852931976318359375e+00,4.662421703338623047e+00,4.486304283142089844e+00,4.323007583618164062e+00,4.171181201934814453e+00,4.029657363891601562e+00,3.897421836853027344e+00,3.773589372634887695e+00,3.657383680343627930e+00,3.548121213912963867e+00,3.445197343826293945e+00,3.348076820373535156e+00,3.256281614303588867e+00,3.169385671615600586e+00,3.087007045745849609e+00,3.008802175521850586e+00,2.934461832046508789e+00,2.863706350326538086e+00,2.796282768249511719e+00,2.731960773468017578e+00,2.670531749725341797e+00,2.611804246902465820e+00
4.508821487426757812e+00,4.647421836853027344e+00,4.794813632965087891e+00,4.951860427856445312e+00,5.000000000000000000e+00,5.000000000000000000e+00,5.000000000000000000e+00,5.000000000000000000e+00,5.000000000000000000e+00,5.000000000000000000e+00,5.000000000000000000e+00,5.000000000000000000e+00,5.000000000000000000e+00,5.000000000000000000e+00,5.000000000000000000e+00,5.000000000000000000e+00,5.000000000000000000e+00,5.000000000000000000e+00,5.000000000000000000e+00,5.000000000000000000e+00,3.976615905761718750e+00,3.972172260284423828e+00,3.987153530120849609e+00,4.010143280029296875e+00,4.041336536407470703e+00,5.000000000000000000e+00,5.000000000000000000e+00,5.000000000000000000e+00,5.000000000000000000e+00,5.000000000000000000e+00,5.000000000000000000e+00,5.000000000000000000e+00,5.000000000000000000e+00,5.000000000000000000e+00,5.000000000000000000e+00,5.000000000000000000e+00,5.000000000000000000e+00,5.000000000000000000e+00,5.000000000000000000e+00,5.000000000000000000e+00,5.000000000000000000e+00,5.000000000000000000e+00,5.000000000000000000e+00,5.000000000000000000e+00,5.000000000000000000e+00,5.000000000000000000e+00,5.000000000000000000e+00,5.000000000000000000e+00,5.000000000000000000e+00,5.000000000000000000e+00,5.000000000000000000e+00,5.000000000000000000e+00,5.000000000000000000e+00,5.000000000000000000e+00,5.000000000000000000e+00,5.000000000000000000e+00,5.000000000000000000e+00,5.000000000000000000e+00,4.853095531463623047e+00,4.662572860717773438e+00,4.486443996429443359e+00,4.323137283325195312e+00,4.171302318572998047e+00,4.029769897460937500e+00,3.897527217864990234e+00,3.773688077926635742e+00,3.657476663589477539e+00,3.548208475112915039e+00,3.445279836654663086e+00,3.348154544830322266e+00,3.256355285644531250e+00,3.169455289840698242e+00,3.087073087692260742e+00,3.008865118026733398e+00,2.934521675109863281e+00,2.863763332366943359e+00,2.796337127685546875e+00,2.732012987136840820e+00,2.670581340789794922e+00,2.611851930618286133e+00
4.508723735809326172e+00,4.647317886352539062e+00,4.794702529907226562e+00,4.951742172241210938e+00,5.000000000000000000e+00,5.000000000000000000e+00,5.000000000000000000e+00,5.000000000000000000e+00,5.000000000000000000e+00,5.000000000000000000e+00,5.000000000000000000e+00,5.000000000000000000e+00,5.000000000000000000e+00,5.000000000000000000e+00,5.000000000000000000e+00,5.000000000000000000e+00,5.000000000000000000e+00,5.000000000000000000e+00,5.000000000000000000e+00,5.000000000000000000e+00,3.954425573348999023e+00,3.959914207458496094e+00,3.961274147033691406e+00,3.976775884628295898e+00,4.000592231750488281e+00,4.031542301177978516e+00,4.071630001068115234e+00,5.000000000000000000e+00,5.000000000000000000e+00,5.000000000000000000e+00,5.000000000000000000e+00,5.000000000000000000e+00,5.000000000000000000e+00,5.000000000000000000e+00,5.000000000000000000e+00,5.000000000000000000e+00,5.000000000000000000e+00,5.000000000000000000e+00,5.000000000000000000e+00,5.000000000000000000e+00,5.000000000000000000e+00,5.000000000000000000e+00,5.000000000000000000e+00,5.000000000000000000e+00,5.000000000000000000e+00,5.000000000000000000e+00,5.000000000000000000e+00,5.000000000000000000e+00,5.000000000000000000e+00,5.000000000000000000e+00,5.000000000000000000e+00,5.000000000000000000e+00,5.000000000000000000e+00,5.000000000000000000e+00,5.000000000000000000e+00,5.000000000000000000e+00,5.000000000000000000e+00,5.000000000000000000e+00,4.853259563446044922e+00,4.662724018096923828e+00,4.486584186553955078e+00,4.323267459869384766e+00,4.171422958374023438e+00,4.029882907867431641e+00,3.897633314132690430e+00,3.773787498474121094e+00,3.657569885253906250e+00,3.548295974731445312e+00,3.445362329483032227e+00,3.348232507705688477e+00,3.256428956985473633e+00,3.169525146484375000e+00,3.087139368057250977e+00,3.008927822113037109e+00,2.934581518173217773e+00,2.863820314407348633e+00,2.796391487121582031e+00,2.732064723968505859e+00,2.670630931854248047e+00,2.611899137496948242e+00
4.508625507354736328e+00,4.647213935852050781e+00,4.794591426849365234e+00,4.951623916625976562e+00,5.000000000000000000e+00,5.000000000000000000e+00,5.000000000000000000e+00,5.000000000000000000e+00,5.000000000000000000e+00,5.000000000000000000e+00,5.000000000000000000e+00,5.000000000000000000e+00,5.000000000000000000e+00,5.000000000000000000e+00,5.000000000000000000e+00,5.000000000000000000e+00,5.000000000000000000e+00,5.000000000000000000e+00,5.000000000000000000e+00,5.000000000000000000e+00,3.944789171218872070e+00,3.979436874389648438e+00,3.966712236404418945e+00,3.981927156448364258e+00,3.998354911804199219e+00,4.024276256561279297e+00,4.074009418487548828e+00,4.135720252990722656e+00,5.000000000000000000e+00,5.000000000000000000e+00,5.000000000000000000e+00,5.000000000000000000e+00,5.000000000000000000e+00,5.000000000000000000e+00,5.000000000000000000e+00,5.000000000000000000e+00,5.000000000000000000e+00,5.000000000000000000e+00,5.000000000000000000e+00,5.000000000000000000e+00,5.000000000000000000e+00,5.000000000000000000e+00,5.000000000000000000e+00,5.000000000000000000e+00,5.000000000000000000e+00,5.000000000000000000e+00,5.000000000000000000e+00,5.000000000000000000e+00,5.000000000000000000e+00,5.000000000000000000e+00,5.000000000000000000e+00,5.000000000000000000e+00,5.000000000000000000e+00,5.000000000000000000e+00,5.000000000000000000e+00,5.000000000000000000e+00,5.000000000000000000e+00,5.000000000000000000e+00,4.853423118591308594e+00,4.662875175476074219e+00,4.486723899841308594e+00,4.323397159576416016e+00,4.171543598175048828e+00,4.029995441436767578e+00,3.897738695144653320e+00,3.773886442184448242e+00,3.657662868499755859e+00,3.548383712768554688e+00,3.445445060729980469e+00,3.348310470581054688e+00,3.256502628326416016e+00,3.169595003128051758e+00,3.087205410003662109e+00,3.008990764617919922e+00,2.934641122817993164e+00,2.863877296447753906e+00,2.796445608139038086e+00,2.732116460800170898e+00,2.670680522918701172e+00,2.611946582794189453e+00
4.508527278900146484e+00,4.647109508514404297e+00,4.794480800628662109e+00,4.951505661010742188e+00,5.000000000000000000e+00,5.000000000000000000e+00,5.000000000000000000e+00,5.000000000000000000e+00,5.000000000000000000e+00,5.000000000000000000e+00,5.000000000000000000e+00,5.000000000000000000e+00,5.000000000000000000e+00,5.000000000000000000e+00,5.000000000000000000e+00,5.000000000000000000e+00,5.000000000000000000e+00,5.000000000000000000e+00,5.000000000000000000e+00,5.000000000000000000e+00,3.941871404647827148e+00,3.995580673217773438e+00,3.980535745620727539e+00,3.993612527847290039e+00,4.012763500213623047e+00,4.040310859680175781e+00,4.096820354461669922e+00,5.000000000000000000e+00,5.000000000000000000e+00,5.000000000000000000e+00,5.000000000000000000e+00,5.000000000000000000e+00,5.000000000000000000e+00,5.000000000000000000e+00,5.000000000000000000e+00,5.000000000000000000e+00,5.000000000000000000e+00,5.000000000000000000e+00,5.000000000000000000e+00,5.000000000000000000e+00,5.000000000000000000e+00,5.000000000000000000e+00,5.000000000000000000e+00,5.000000000000000000e+00,5.000000000000000000e+00,5.000000000000000000e+00,5.000000000000000000e+00,5.000000000000000000e+00,5.000000000000000000e+00,5.000000000000000000e+00,5.000000000000000000e+00,5.000000000000000000e+00,5.000000000000000000e+00,5.000000000000000000e+00,5.000000000000000000e+00,5.000000000000000000e+00,5.000000000000000000e+00,5.000000000000000000e+00,4.853586673736572266e+00,4.663026332855224609e+00,4.486864089965820312e+00,4.323527336120605469e+00,4.171664714813232422e+00,4.030108928680419922e+00,3.897844314575195312e+00,3.773985385894775391e+00,3.657755613327026367e+00,3.548471212387084961e+00,3.445527553558349609e+00,3.348388433456420898e+00,3.256576538085937500e+00,3.169665098190307617e+00,3.087271928787231445e+00,3.009053707122802734e+00,2.934700965881347656e+00,2.863934278488159180e+00,2.796499967575073242e+00,2.732168436050415039e+00,2.670730113983154297e+00,2.611994028091430664e+00
4.508429050445556641e+00,4.647005081176757812e+00,4.794369697570800781e+00,4.951387405395507812e+00,5.000000000000000000e+00,5.000000000000000000e+00,5.000000000000000000e+00,5.000000000000000000e+00,5.000000000000000000e+00,5.000000000000000000e+00,5.000000000000000000e+00,5.000000000000000000e+00,5.000000000000000000e+00,5.000000000000000000e+00,5.000000000000000000e+00,5.000000000000000000e+00,5.000000000000000000e+00,5.000000000000000000e+00,5.000000000000000000e+00,5.000000000000000000e+00,3.937523841857910156e+00,3.986324548721313477e+00,4.008465766906738281e+00,4.024051666259765625e+00,4.038046836853027344e+00,4.066603660583496094e+00,4.105484008789062500e+00,5.000000000000000000e+00,5.000000000000000000e+00,5.000000000000000000e+00,5.000000000000000000e+00,5.000000000000000000e+00,5.000000000000000000e+00,5.000000000000000000e+00,5.000000000000000000e+00,5.000000000000000000e+00,5.000000000000000000e+00,5.000000000000000000e+00,5.000000000000000000e+00,5.000000000000000000e+00,5.000000000000000000e+00,5.000000000000000000e+00,5.000000000000000000e+00,5.000000000000000000e+00,5.000000000000000000e+00,5.000000000000000000e+00,5.000000000000000000e+00,5.000000000000000000e+00,5.000000000000000000e+00,5.000000000000000000e+00,5.000000000000000000e+00,5.000000000000000000e+00,5.000000000000000000e+00,5.000000000000000000e+00,5.000000000000000000e+00,5.000000000000000000e+00,5.000000000000000000e+00,5.000000000000000000e+00,4.853770256042480469e+00,4.663190841674804688e+00,4.487011909484863281e+00,4.323660373687744141e+00,4.171785831451416016e+00,4.030221462249755859e+00,3.897949695587158203e+00,3.774084091186523438e+00,3.657848596572875977e+00,3.548558712005615234e+00,3.445610046386718750e+00,3.348466396331787109e+00,3.256650209426879883e+00,3.169734716415405273e+00,3.087338209152221680e+00,3.009116888046264648e+00,2.934761047363281250e+00,2.863991498947143555e+00,2.796554327011108398e+00,2.732220172882080078e+00,2.670779466629028320e+00,2.612041473388671875e+00
4.508331298828125000e+00,4.646901130676269531e+00,4.794259071350097656e+00,4.951268672943115234e+00,5.000000000000000000e+00,5.000000000000000000e+00,5.000000000000000000e+00,5.000000000000000000e+00,5.000000000000000000e+00,5.000000000000000000e+00,5.000000000000000000e+00,5.000000000000000000e+00,5.000000000000000000e+00,5.000000000000000000e+00,5.000000000000000000e+00,5.000000000000000000e+00,5.000000000000000000e+00,5.000000000000000000e+00,5.000000000000000000e+00,5.000000000000000000e+00,3.933448076248168945e+00,3.970415592193603516e+00,4.009632587432861328e+00,4.018315315246582031e+00,4.033871173858642578e+00,4.073097229003906250e+00,4.114243984222412109e+00,5.000000000000000000e+00,5.000000000000000000e+00,5.000000000000000000e+00,5.000000000000000000e+00,5.000000000000000000e+00,5.000000000000000000e+00,5.000000000000000000e+00,5.000000000000000000e+00,5.000000000000000000e+00,5.000000000000000000e+00,5.000000000000000000e+00,5.000000000000000000e+00,5.000000000000000000e+00,5.000000000000000000e+00,5.000000000000000000e+00,5.000000000000000000e+00,5.000000000000000000e+00,5.000000000000000000e+00,5.000000000000000000e+00,5.000000000000000000e+00,5.000000000000000000e+00,5.000000000000000000e+00,5.000000000000000000e+00,5.000000000000000000e+00,5.000000000000000000e+00,5.000000000000000000e+00,5.000000000000000000e+00,5.000000000000000000e+00,5.000000000000000000e+00,5.000000000000000000e+00,5.000000000000000000e+00,4.853967189788818359e+00,4.663372516632080078e+00,4.487180233001708984e+00,4.323816776275634766e+00,4.171930789947509766e+00,4.030353069305419922e+00,3.898069620132446289e+00,3.774193286895751953e+00,3.657948255538940430e+00,3.548649787902832031e+00,3.445693016052246094e+00,3.348544120788574219e+00,3.256723880767822266e+00,3.169804573059082031e+00,3.087404251098632812e+00,3.009179592132568359e+00,2.934820890426635742e+00,2.864048480987548828e+00,2.796608924865722656e+00,2.732272148132324219e+00,2.670829296112060547e+00,2.612088680267333984e+00
4.508233070373535156e+00,4.646796703338623047e+00,4.794147968292236328e+00,4.951150417327880859e+00,5.000000000000000000e+00,5.000000000000000000e+00,5.000000000000000000e+00,5.000000000000000000e+00,5.000000000000000000e+00,5.000000000000000000e+00,5.000000000000000000e+00,5.000000000000000000e+00,5.000000000000000000e+00,5.000000000000000000e+00,5.000000000000000000e+00,5.000000000000000000e+00,5.000000000000000000e+00,5.000000000000000000e+00,5.000000000000000000e+00,5.000000000000000000e+00,3.944342374801635742e+00,3.984138488769531250e+00,3.991509675979614258e+00,3.995497703552246094e+00,4.009236335754394531e+00,4.051732540130615234e+00,4.124114036560058594e+00,5.000000000000000000e+00,5.000000000000000000e+00,5.000000000000000000e+00,5.000000000000000000e+00,5.000000000000000000e+00,5.000000000000000000e+00,5.000000000000000000e+00,5.000000000000000000e+00,5.000000000000000000e+00,5.000000000000000000e+00,5.000000000000000000e+00,5.000000000000000000e+00,5.000000000000000000e+00,5.000000000000000000e+00,5.000000000000000000e+00,5.000000000000000000e+00,5.000000000000000000e+00,5.000000000000000000e+00,5.000000000000000000e+00,5.000000000000000000e+00,5.000000000000000000e+00,5.000000000000000000e+00,5.000000000000000000e+00,5.000000000000000000e+00,5.000000000000000000e+00,5.000000000000000000e+00,5.000000000000000000e+00,5.000000000000000000e+00,5.000000000000000000e+00,5.000000000000000000e+00,5.000000000000000000e+00,4.854164123535156250e+00,4.663554191589355469e+00,4.487348556518554688e+00,4.323973178863525391e+00,4.172076225280761719e+00,4.030488967895507812e+00,3.898196458816528320e+00,3.774312496185302734e+00,3.658060312271118164e+00,3.548754930496215820e+00,3.445792436599731445e+00,3.348636150360107422e+00,3.256808519363403320e+00,3.169882774353027344e+00,3.087476253509521484e+00,3.009246110916137695e+00,2.934881925582885742e+00,2.864105463027954102e+00,2.796663045883178711e+00,2.732324123382568359e+00,2.670878887176513672e+00,2.612136363983154297e+00
4.508134841918945312e+00,4.646692276000976562e+00,4.794037342071533203e+00,4.951032161712646484e+00,5.000000000000000000e+00,5.000000000000000000e+00,5.000000000000000000e+00,5.000000000000000000e+00,5.000000000000000000e+00,5.000000000000000000e+00,5.000000000000000000e+00,5.000000000000000000e+00,5.000000000000000000e+00,5.000000000000000000e+00,5.000000000000000000e+00,5.000000000000000000e+00,5.000000000000000000e+00,5.000000000000000000e+00,5.000000000000000000e+00,5.000000000000000000e+00,3.964251041412353516e+00,5.000000000000000000e+00,3.976058483123779297e+00,3.989577770233154297e+00,3.995083570480346680e+00,4.026666164398193359e+00,4.168960094451904297e+00,5.000000000000000000e+00,5.000000000000000000e+00,5.000000000000000000e+00,5.000000000000000000e+00,5.000000000000000000e+00,5.000000000000000000e+00,5.000000000000000000e+00,5.000000000000000000e+00,5.000000000000000000e+00,5.000000000000000000e+00,5.000000000000000000e+00,5.000000000000000000e+00,5.000000000000000000e+00,5.000000000000000000e+00,5.000000000000000000e+00,5.000000000000000000e+00,5.000000000000000000e+00,5.000000000000000000e+00,5.000000000000000000e+00,5.000000000000000000e+00,5.000000000000000000e+00,5.000000000000000000e+00,5.000000000000000000e+00,5.000000000000000000e+00,5.000000000000000000e+00,5.000000000000000000e+00,5.000000000000000000e+00,5.000000000000000000e+00,5.000000000000000000e+00,5.000000000000000000e+00,5.000000000000000000e+00,4.854361534118652344e+00,4.663736343383789062e+00,4.487516880035400391e+00,4.324129581451416016e+00,4.172221660614013672e+00,4.030624866485595703e+00,3.898323774337768555e+00,3.774431943893432617e+00,3.658171892166137695e+00,3.548860311508178711e+00,3.445891618728637695e+00,3.348729848861694336e+00,3.256897449493408203e+00,3.169966459274291992e+00,3.087555885314941406e+00,3.009321689605712891e+00,2.934954166412353516e+00,2.864173650741577148e+00,2.796726226806640625e+00,2.732382774353027344e+00,2.670933246612548828e+00,2.612186908721923828e+00
4.508037090301513672e+00,4.646588325500488281e+00,4.793926239013671875e+00,4.950913906097412109e+00,5.000000000000000000e+00,5.000000000000000000e+00,5.000000000000000000e+00,5.000000000000000000e+00,5.000000000000000000e+00,5.000000000000000000e+00,5.000000000000000000e+00,5.000000000000000000e+00,5.000000000000000000e+00,5.000000000000000000e+00,5.000000000000000000e+00,5.000000000000000000e+00,5.000000000000000000e+00,5.000000000000000000e+00,5.000000000000000000e+00,5.000000000000000000e+00,3.976532220840454102e+00,5.000000000000000000e+00,3.990352392196655273e+00,4.007408618927001953e+00,3.999784708023071289e+00,4.026323318481445312e+00,4.233295440673828125e+00,5.000000000000000000e+00,5.000000000000000000e+00,5.000000000000000000e+00,5.000000000000000000e+00,5.000000000000000000e+00,5.000000000000000000e+00,5.000000000000000000e+00,5.000000000000000000e+00,5.000000000000000000e+00,5.000000000000000000e+00,5.000000000000000000e+00,5.000000000000000000e+00,5.000000000000000000e+00,5.000000000000000000e+00,5.000000000000000000e+00,5.000000000000000000e+00,5.000000000000000000e+00,5.000000000000000000e+00,5.000000000000000000e+00,5.000000000000000000e+00,5.000000000000000000e+00,5.000000000000000000e+00,5.000000000000000000e+00,5.000000000000000000e+00,5.000000000000000000e+00,5.000000000000000000e+00,5.000000000000000000e+00,5.000000000000000000e+00,5.000000000000000000e+00,5.000000000000000000e+00,5.000000000000000000e+00,4.854558467864990234e+00,4.663918495178222656e+00,4.487685203552246094e+00,4.324285984039306641e+00,4.172367572784423828e+00,4.030760765075683594e+00,3.898451089859008789e+00,3.774550676345825195e+00,3.658283948898315430e+00,3.548965454101562500e+00,3.445991039276123047e+00,3.348823785781860352e+00,3.256985902786254883e+00,3.170050621032714844e+00,3.087635517120361328e+00,3.009397506713867188e+00,2.935026168823242188e+00,2.864242076873779297e+00,2.796791791915893555e+00,2.732445240020751953e+00,2.670993089675903320e+00,2.612244129180908203e+00
4.507938861846923828e+00,4.646483898162841797e+00,4.793815135955810547e+00,4.950795650482177734e+00,5.000000000000000000e+00,5.000000000000000000e+00,5.000000000000000000e+00,5.000000000000000000e+00,5.000000000000000000e+00,5.000000000000000000e+00,5.000000000000000000e+00,5.000000000000000000e+00,5.000000000000000000e+00,5.000000000000000000e+00,5.000000000000000000e+00,5.000000000000000000e+00,5.000000000000000000e+00,5.000000000000000000e+00,5.000000000000000000e+00,5.000000000000000000e+00,3.990975856781005859e+00,5.000000000000000000e+00,4.038095474243164062e+00,4.070984363555908203e+00,4.015046119689941406e+00,4.033463478088378906e+00,4.330564022064208984e+00,5.000000000000000000e+00,5.000000000000000000e+00,5.000000000000000000e+00,5.000000000000000000e+00,5.000000000000000000e+00,5.000000000000000000e+00,5.000000000000000000e+00,5.000000000000000000e+00,5.000000000000000000e+00,5.000000000000000000e+00,5.000000000000000000e+00,5.000000000000000000e+00,5.000000000000000000e+00,5.000000000000000000e+00,5.000000000000000000e+00,5.000000000000000000e+00,5.000000000000000000e+00,5.000000000000000000e+00,5.000000000000000000e+00,5.000000000000000000e+00,5.000000000000000000e+00,5.000000000000000000e+00,5.000000000000000000e+00,5.000000000000000000e+00,5.000000000000000000e+00,5.000000000000000000e+00,5.000000000000000000e+00,5.000000000000000000e+00,5.000000000000000000e+00,5.000000000000000000e+00,5.000000000000000000e+00,4.854755401611328125e+00,4.664100170135498047e+00,4.487853527069091797e+00,4.324442386627197266e+00,4.172513008117675781e+00,4.030896663665771484e+00,3.898577928543090820e+00,3.774670124053955078e+00,3.658396005630493164e+00,3.549071073532104492e+00,3.446090459823608398e+00,3.348917484283447266e+00,3.257074832916259766e+00,3.170134544372558594e+00,3.087715387344360352e+00,3.009473323822021484e+00,2.935098171234130859e+00,2.864310741424560547e+00,2.796857118606567383e+00,2.732507705688476562e+00,2.671052694320678711e+00,2.612301111221313477e+00
4.507840633392333984e+00,4.646379947662353516e+00,4.793704032897949219e+00,4.950677394866943359e+00,5.000000000000000000e+00,5.000000000000000000e+00,5.000000000000000000e+00,5.000000000000000000e+00,5.000000000000000000e+00,5.000000000000000000e+00,5.000000000000000000e+00,5.000000000000000000e+00,5.000000000000000000e+00,5.000000000000000000e+00,5.000000000000000000e+00,5.000000000000000000e+00,5.000000000000000000e+00,5.000000000000000000e+00,5.000000000000000000e+00,5.000000000000000000e+00,4.061748981475830078e+00,5.000000000000000000e+00,4.114352226257324219e+00,4.151610851287841797e+00,3.997900009155273438e+00,4.023568630218505859e+00,4.396132946014404297e+00,4.345380306243896484e+00,5.000000000000000000e+00,5.000000000000000000e+00,5.000000000000000000e+00,5.000000000000000000e+00,5.000000000000000000e+00,5.000000000000000000e+00,5.000000000000000000e+00,5.000000000000000000e+00,5.000000000000000000e+00,5.000000000000000000e+00,5.000000000000000000e+00,5.000000000000000000e+00,5.000000000000000000e+00,5.000000000000000000e+00,5.000000000000000000e+00,5.000000000000000000e+00,5.000000000000000000e+00,5.000000000000000000e+00,5.000000000000000000e+00,5.000000000000000000e+00,5.000000000000000000e+00,5.000000000000000000e+00,5.000000000000000000e+00,5.000000000000000000e+00,5.000000000000000000e+00,5.000000000000000000e+00,5.000000000000000000e+00,5.000000000000000000e+00,5.000000000000000000e+00,5.000000000000000000e+00,4.854952812194824219e+00,4.664282321929931641e+00,4.488022327423095703e+00,4.324598789215087891e+00,4.172658443450927734e+00,4.031032562255859375e+00,3.898705244064331055e+00,3.774789333343505859e+00,3.658507823944091797e+00,3.549176454544067383e+00,3.446189641952514648e+00,3.349011421203613281e+00,3.257163524627685547e+00,3.170218706130981445e+00,3.087795257568359375e+00,3.009548902511596680e+00,2.935170412063598633e+00,2.864379405975341797e+00,2.796922683715820312e+00,2.732570171356201172e+00,2.671112298965454102e+00,2.612358331680297852e+00
4.507742404937744141e+00,4.646275997161865234e+00,4.793593406677246094e+00,4.950559139251708984e+00,5.000000000000000000e+00,5.000000000000000000e+00,5.000000000000000000e+00,5.000000000000000000e+00,5.000000000000000000e+00,5.000000000000000000e+00,5.000000000000000000e+00,5.000000000000000000e+00,5.000000000000000000e+00,5.000000000000000000e+00,5.000000000000000000e+00,5.000000000000000000e+00,5.000000000000000000e+00,5.000000000000000000e+00,5.000000000000000000e+00,5.000000000000000000e+00,5.000000000000000000e+00,5.000000000000000000e+00,4.160624027252197266e+00,4.195328235626220703e+00,3.980154037475585938e+00,4.013531684875488281e+00,5.000000000000000000e+00,5.000000000000000000e+00,5.000000000000000000e+00,5.000000000000000000e+00,5.000000000000000000e+00,5.000000000000000000e+00,5.000000000000000000e+00,5.000000000000000000e+00,5.000000000000000000e+00,5.000000000000000000e+00,5.000000000000000000e+00,5.000000000000000000e+00,5.000000000000000000e+00,5.000000000000000000e+00,5.000000000000000000e+00,5.000000000000000000e+00,5.000000000000000000e+00,5.000000000000000000e+00,5.000000000000000000e+00,5.000000000000000000e+00,5.000000000000000000e+00,5.000000000000000000e+00,5.000000000000000000e+00,5.000000000000000000e+00,5.000000000000000000e+00,5.000000000000000000e+00,5.000000000000000000e+00,5.000000000000000000e+00,5.000000000000000000e+00,5.000000000000000000e+00,5.000000000000000000e+00,5.000000000000000000e+00,4.855150222778320312e+00,4.664463996887207031e+00,4.488190650939941406e+00,4.324755191802978516e+00,4.172804355621337891e+00,4.031168460845947266e+00,3.898832559585571289e+00,3.774908304214477539e+00,3.658619880676269531e+00,3.549281597137451172e+00,3.446289062500000000e+00,3.349105358123779297e+00,3.257252216339111328e+00,3.170302867889404297e+00,3.087874889373779297e+00,3.009624719619750977e+00,2.935242414474487305e+00,2.864447832107543945e+00,2.796988010406494141e+00,2.732632398605346680e+00,2.671172142028808594e+00,2.612415313720703125e+00
4.507634639739990234e+00,4.646165370941162109e+00,4.793480873107910156e+00,4.950440883636474609e+00,5.000000000000000000e+00,5.000000000000000000e+00,5.000000000000000000e+00,5.000000000000000000e+00,5.000000000000000000e+00,5.000000000000000000e+00,5.000000000000000000e+00,5.000000000000000000e+00,5.000000000000000000e+00,5.000000000000000000e+00,5.000000000000000000e+00,5.000000000000000000e+00,5.000000000000000000e+00,5.000000000000000000e+00,5.000000000000000000e+00,5.000000000000000000e+00,5.000000000000000000e+00,5.000000000000000000e+00,4.206703662872314453e+00,4.254072189331054688e+00,3.966739416122436523e+00,4.005752563476562500e+00,5.000000000000000000e+00,5.000000000000000000e+00,5.000000000000000000e+00,5.000000000000000000e+00,5.000000000000000000e+00,5.000000000000000000e+00,5.000000000000000000e+00,5.000000000000000000e+00,5.000000000000000000e+00,5.000000000000000000e+00,5.000000000000000000e+00,5.000000000000000000e+00,5.000000000000000000e+00,5.000000000000000000e+00,5.000000000000000000e+00,5.000000000000000000e+00,5.000000000000000000e+00,5.000000000000000000e+00,5.000000000000000000e+00,5.000000000000000000e+00,5.000000000000000000e+00,5.000000000000000000e+00,5.000000000000000000e+00,5.000000000000000000e+00,5.000000000000000000e+00,5.000000000000000000e+00,5.000000000000000000e+00,5.000000000000000000e+00,5.000000000000000000e+00,5.000000000000000000e+00,5.000000000000000000e+00,5.000000000000000000e+00,4.855347156524658203e+00,4.664646148681640625e+00,4.488358974456787109e+00,4.324911594390869141e+00,4.172949790954589844e+00,4.031304359436035156e+00,3.898959398269653320e+00,3.775027751922607422e+00,3.658731698989868164e+00,3.549386978149414062e+00,3.446388483047485352e+00,3.349198818206787109e+00,3.257340908050537109e+00,3.170386791229248047e+00,3.087954759597778320e+00,3.009700536727905273e+00,2.935314416885375977e+00,2.864516735076904297e+00,2.797053337097167969e+00,2.732695102691650391e+00,2.671231746673583984e+00,2.612472295761108398e+00
4.507524490356445312e+00,4.646047592163085938e+00,4.793355464935302734e+00,4.950310230255126953e+00,5.000000000000000000e+00,5.000000000000000000e+00,5.000000000000000000e+00,5.000000000000000000e+00,5.000000000000000000e+00,5.000000000000000000e+00,5.000000000000000000e+00,5.000000000000000000e+00,5.000000000000000000e+00,5.000000000000000000e+00,5.000000000000000000e+00,5.000000000000000000e+00,5.000000000000000000e+00,5.000000000000000000e+00,5.000000000000000000e+00,5.000000000000000000e+00,5.000000000000000000e+00,5.000000000000000000e+00,4.229794502258300781e+00,4.292047977447509766e+00,3.916792869567871094e+00,5.000000000000000000e+00,5.000000000000000000e+00,5.000000000000000000e+00,5.000000000000000000e+00,5.000000000000000000e+00,5.000000000000000000e+00,5.000000000000000000e+00,5.000000000000000000e+00,5.000000000000000000e+00,5.000000000000000000e+00,5.000000000000000000e+00,5.000000000000000000e+00,5.000000000000000000e+00,5.000000000000000000e+00,5.000000000000000000e+00,5.000000000000000000e+00,5.000000000000000000e+00,5.000000000000000000e+00,5.000000000000000000e+00,5.000000000000000000e+00,5.000000000000000000e+00,5.000000000000000000e+00,5.000000000000000000e+00,5.000000000000000000e+00,5.000000000000000000e+00,5.000000000000000000e+00,5.000000000000000000e+00,5.000000000000000000e+00,5.000000000000000000e+00,5.000000000000000000e+00,5.000000000000000000e+00,5.000000000000000000e+00,5.000000000000000000e+00,4.855544090270996094e+00,4.664827823638916016e+00,4.488527774810791016e+00,4.325067996978759766e+00,4.173095703125000000e+00,4.031440258026123047e+00,3.899086713790893555e+00,3.775146484375000000e+00,3.658843755722045898e+00,3.549492597579956055e+00,3.446487665176391602e+00,3.349292755126953125e+00,3.257429599761962891e+00,3.170470952987670898e+00,3.088034391403198242e+00,3.009776115417480469e+00,2.935386419296264648e+00,2.864585161209106445e+00,2.797118902206420898e+00,2.732757568359375000e+00,2.671291351318359375e+00,2.612529516220092773e+00
4.507413387298583984e+00,4.645930290222167969e+00,4.793230533599853516e+00,4.950176239013671875e+00,5.000000000000000000e+00,5.000000000000000000e+00,5.000000000000000000e+00,5.000000000000000000e+00,5.000000000000000000e+00,5.000000000000000000e+00,5.000000000000000000e+00,5.000000000000000000e+00,5.000000000000000000e+00,5.000000000000000000e+00,5.000000000000000000e+00,5.000000000000000000e+00,5.000000000000000000e+00,5.000000000000000000e+00,5.000000000000000000e+00,5.000000000000000000e+00,5.000000000000000000e+00,5.000000000000000000e+00,4.225726604461669922e+00,4.292582988739013672e+00,3.868872165679931641e+00,3.948991537094116211e+00,5.000000000000000000e+00,5.000000000000000000e+00,5.000000000000000000e+00,5.000000000000000000e+00,5.000000000000000000e+00,5.000000000000000000e+00,5.000000000000000000e+00,5.000000000000000000e+00,5.000000000000000000e+00,5.000000000000000000e+00,5.000000000000000000e+00,5.000000000000000000e+00,5.000000000000000000e+00,5.000000000000000000e+00,5.000000000000000000e+00,5.000000000000000000e+00,5.000000000000000000e+00,5.000000000000000000e+00,5.000000000000000000e+00,5.000000000000000000e+00,5.000000000000000000e+00,5.000000000000000000e+00,5.000000000000000000e+00,5.000000000000000000e+00,5.000000000000000000e+00,5.000000000000000000e+00,5.000000000000000000e+00,5.000000000000000000e+00,5.000000000000000000e+00,5.000000000000000000e+00,5.000000000000000000e+00,5.000000000000000000e+00,4.855741024017333984e+00,4.665010452270507812e+00,4.488696575164794922e+00,4.325224399566650391e+00,4.173241138458251953e+00,4.031576156616210938e+00,3.899214029312133789e+00,3.775265932083129883e+00,3.658955812454223633e+00,3.549597740173339844e+00,3.446587085723876953e+00,3.349386692047119141e+00,3.257518291473388672e+00,3.170555114746093750e+00,3.088114023208618164e+00,3.009851932525634766e+00,2.935458421707153320e+00,2.864653825759887695e+00,2.797184467315673828e+00,2.732819795608520508e+00,2.671351194381713867e+00,2.612586498260498047e+00
4.507302761077880859e+00,4.645812988281250000e+00,4.793105125427246094e+00,4.950043201446533203e+00,5.000000000000000000e+00,5.000000000000000000e+00,5.000000000000000000e+00,5.000000000000000000e+00,5.000000000000000000e+00,5.000000000000000000e+00,5.000000000000000000e+00,5.000000000000000000e+00,5.000000000000000000e+00,5.000000000000000000e+00,5.000000000000000000e+00,5.000000000000000000e+00,5.000000000000000000e+00,5.000000000000000000e+00,5.000000000000000000e+00,5.000000000000000000e+00,5.000000000000000000e+00,5.000000000000000000e+00,4.235059261322021484e+00,5.000000000000000000e+00,3.828865051269531250e+00,5.000000000000000000e+00,5.000000000000000000e+00,5.000000000000000000e+00,5.000000000000000000e+00,5.000000000000000000e+00,5.000000000000000000e+00,5.000000000000000000e+00,5.000000000000000000e+00,5.000000000000000000e+00,5.000000000000000000e+00,5.000000000000000000e+00,5.000000000000000000e+00,5.000000000000000000e+00,5.000000000000000000e+00,5.000000000000000000e+00,5.000000000000000000e+00,5.000000000000000000e+00,5.000000000000000000e+00,5.000000000000000000e+00,5.000000000000000000e+00,5.000000000000000000e+00,5.000000000000000000e+00,5.000000000000000000e+00,5.000000000000000000e+00,5.000000000000000000e+00,5.000000000000000000e+00,5.000000000000000000e+00,5.000000000000000000e+00,5.000000000000000000e+00,5.000000000000000000e+00,5.000000000000000000e+00,5.000000000000000000e+00,5.000000000000000000e+00,4.855938911437988281e+00,4.665192127227783203e+00,4.488864898681640625e+00,4.325380802154541016e+00,4.173386573791503906e+00,4.031712055206298828e+00,3.899340867996215820e+00,3.775385379791259766e+00,3.659067630767822266e+00,3.549703359603881836e+00,3.446686744689941406e+00,3.349480390548706055e+00,3.257607221603393555e+00,3.170639038085937500e+00,3.088193893432617188e+00,3.009927988052368164e+00,2.935530662536621094e+00,2.864722490310668945e+00,2.797249794006347656e+00,2.732882499694824219e+00,2.671410560607910156e+00,2.612643718719482422e+00
4.507192134857177734e+00,4.645695209503173828e+00,4.792980194091796875e+00,4.949909687042236328e+00,5.000000000000000000e+00,5.000000000000000000e+00,5.000000000000000000e+00,5.000000000000000000e+00,5.000000000000000000e+00,5.000000000000000000e+00,5.000000000000000000e+00,5.000000000000000000e+00,5.000000000000000000e+00,5.000000000000000000e+00,5.000000000000000000e+00,5.000000000000000000e+00,5.000000000000000000e+00,5.000000000000000000e+00,5.000000000000000000e+00,5.000000000000000000e+00,5.000000000000000000e+00,5.000000000000000000e+00,4.248940467834472656e+00,5.000000000000000000e+00,3.798240184783935547e+00,5.000000000000000000e+00,5.000000000000000000e+00,5.000000000000000000e+00,5.000000000000000000e+00,5.000000000000000000e+00,5.000000000000000000e+00,5.000000000000000000e+00,5.000000000000000000e+00,5.000000000000000000e+00,5.000000000000000000e+00,5.000000000000000000e+00,5.000000000000000000e+00,5.000000000000000000e+00,5.000000000000000000e+00,5.000000000000000000e+00,5.000000000000000000e+00,5.000000000000000000e+00,5.000000000000000000e+00,5.000000000000000000e+00,5.000000000000000000e+00,5.000000000000000000e+00,5.000000000000000000e+00,5.000000000000000000e+00,5.000000000000000000e+00,5.000000000000000000e+00,5.000000000000000000e+00,5.000000000000000000e+00,5.000000000000000000e+00,5.000000000000000000e+00,5.000000000000000000e+00,5.000000000000000000e+00,5.000000000000000000e+00,5.000000000000000000e+00,4.856135845184326172e+00,4.665374279022216797e+00,4.489033222198486328e+00,4.325537681579589844e+00,4.173532485961914062e+00,4.031847953796386719e+00,3.899468183517456055e+00,3.775504350662231445e+00,3.659179687500000000e+00,3.549808740615844727e+00,3.446785688400268555e+00,3.349574327468872070e+00,3.257695674896240234e+00,3.170723199844360352e+00,3.088273763656616211e+00,3.010003566741943359e+00,2.935602664947509766e+00,2.864790916442871094e+00,2.797315359115600586e+00,2.732944965362548828e+00,2.671470403671264648e+00,2.612700700759887695e+00
4.507081508636474609e+00,4.645577907562255859e+00,4.792854785919189453e+00,4.949776172637939453e+00,5.000000000000000000e+00,5.000000000000000000e+00,5.000000000000000000e+00,5.000000000000000000e+00,5.000000000000000000e+00,5.000000000000000000e+00,5.000000000000000000e+00,5.000000000000000000e+00,5.000000000000000000e+00,5.000000000000000000e+00,5.000000000000000000e+00,5.000000000000000000e+00,5.000000000000000000e+00,5.000000000000000000e+00,5.000000000000000000e+00,5.000000000000000000e+00,5.000000000000000000e+00,5.000000000000000000e+00,4.265413761138916016e+00,5.000000000000000000e+00,3.771847248077392578e+00,5.000000000000000000e+00,5.000000000000000000e+00,5.000000000000000000e+00,5.000000000000000000e+00,5.000000000000000000e+00,5.000000000000000000e+00,5.000000000000000000e+00,5.000000000000000000e+00,5.000000000000000000e+00,5.000000000000000000e+00,5.000000000000000000e+00,5.000000000000000000e+00,5.000000000000000000e+00,5.000000000000000000e+00,5.000000000000000000e+00,5.000000000000000000e+00,5.000000000000000000e+00,5.000000000000000000e+00,5.000000000000000000e+00,5.000000000000000000e+00,5.000000000000000000e+00,5.000000000000000000e+00,5.000000000000000000e+00,5.000000000000000000e+00,5.000000000000000000e+00,5.000000000000000000e+00,5.000000000000000000e+00,5.000000000000000000e+00,5.000000000000000000e+00,5.000000000000000000e+00,5.000000000000000000e+00,5.000000000000000000e+00,5.000000000000000000e+00,4.856332778930664062e+00,4.665555953979492188e+00,4.489202022552490234e+00,4.325694084167480469e+00,4.173678398132324219e+00,4.031983852386474609e+00,3.899595022201538086e+00,3.775623559951782227e+00,3.659291744232177734e+00,3.549913883209228516e+00,3.446885347366333008e+00,3.349668025970458984e+00,3.257784605026245117e+00,3.170807361602783203e+00,3.088353395462036133e+00,3.010079383850097656e+00,2.935674667358398438e+00,2.864859819412231445e+00,2.797380685806274414e+00,2.733007431030273438e+00,2.671530246734619141e+00,2.612757682800292969e+00
4.507021427154541016e+00,4.645526885986328125e+00,4.792814731597900391e+00,4.949748516082763672e+00,5.000000000000000000e+00,5.000000000000000000e+00,5.000000000000000000e+00,5.000000000000000000e+00,5.000000000000000000e+00,5.000000000000000000e+00,5.000000000000000000e+00,5.000000000000000000e+00,5.000000000000000000e+00,5.000000000000000000e+00,5.000000000000000000e+00,5.000000000000000000e+00,5.000000000000000000e+00,5.000000000000000000e+00,5.000000000000000000e+00,5.000000000000000000e+00,5.000000000000000000e+00,5.000000000000000000e+00,4.310722827911376953e+00,5.000000000000000000e+00,3.775061607360839844e+00,5.000000000000000000e+00,5.000000000000000000e+00,5.000000000000000000e+00,5.000000000000000000e+00,5.000000000000000000e+00,5.000000000000000000e+00,5.000000000000000000e+00,5.000000000000000000e+00,5.000000000000000000e+00,5.000000000000000000e+00,5.000000000000000000e+00,5.000000000000000000e+00,5.000000000000000000e+00,5.000000000000000000e+00,5.000000000000000000e+00,5.000000000000000000e+00,5.000000000000000000e+00,5.000000000000000000e+00,5.000000000000000000e+00,5.000000000000000000e+00,5.000000000000000000e+00,5.000000000000000000e+00,5.000000000000000000e+00,5.000000000000000000e+00,5.000000000000000000e+00,5.000000000000000000e+00,5.000000000000000000e+00,5.000000000000000000e+00,5.000000000000000000e+00,5.000000000000000000e+00,5.000000000000000000e+00,5.000000000000000000e+00,5.000000000000000000e+00,4.856530666351318359e+00,4.665738582611083984e+00,4.489370346069335938e+00,4.325850486755371094e+00,4.173823833465576172e+00,4.032120227813720703e+00,3.899722337722778320e+00,3.775743007659912109e+00,3.659403562545776367e+00,3.550019502639770508e+00,3.446984291076660156e+00,3.349761962890625000e+00,3.257873535156250000e+00,3.170891284942626953e+00,3.088433265686035156e+00,3.010154962539672852e+00,2.935746908187866211e+00,2.864928483963012695e+00,2.797446012496948242e+00,2.733069896697998047e+00,2.671589851379394531e+00,2.612814903259277344e+00
4.507020473480224609e+00,4.645525932312011719e+00,4.792814254760742188e+00,4.872256755828857422e+00,4.871039867401123047e+00,4.869822978973388672e+00,4.868607044219970703e+00,4.867391586303710938e+00,4.866176605224609375e+00,4.864962577819824219e+00,4.863749027252197266e+00,4.862535953521728516e+00,4.861323356628417969e+00,4.860111713409423828e+00,4.858900547027587891e+00,4.857689857482910156e+00,4.856480121612548828e+00,4.855270385742187500e+00,4.854061603546142578e+00,4.852853775024414062e+00,4.851645946502685547e+00,4.850439071655273438e+00,4.316260337829589844e+00,4.848026752471923828e+00,3.762064218521118164e+00,4.845617294311523438e+00,4.844413280487060547e+00,4.843209743499755859e+00,4.842007160186767578e+00,4.840804576873779297e+00,4.839602947235107422e+00,4.838402271270751953e+00,4.837201595306396484e+00,4.836001873016357422e+00,4.834802627563476562e+00,4.833603858947753906e+00,4.832406044006347656e+00,4.831208705902099609e+00,4.830011844635009766e+00,4.828815460205078125e+00,4.827620029449462891e+00,4.826424598693847656e+00,4.825230598449707031e+00,4.824036598205566406e+00,4.822843074798583984e+00,4.821650505065917969e+00,4.820458412170410156e+00,4.819266796112060547e+00,4.818076133728027344e+00,4.816885471343994141e+00,4.815695762634277344e+00,4.814506530761718750e+00,4.813318252563476562e+00,4.812129974365234375e+00,4.810942649841308594e+00,4.809755802154541016e+00,4.808569431304931641e+00,4.807384014129638672e+00,4.806199073791503906e+00,4.665920257568359375e+00,4.489539146423339844e+00,4.326006889343261719e+00,4.173969745635986328e+00,4.032256126403808594e+00,3.899849891662597656e+00,3.775861978530883789e+00,3.659515619277954102e+00,3.550125122070312500e+00,3.447083950042724609e+00,3.349855899810791016e+00,3.257961988449096680e+00,3.170975446701049805e+00,3.088512897491455078e+00,3.010230779647827148e+00,2.935818910598754883e+00,2.864996910095214844e+00,2.797511577606201172e+00,2.733132123947143555e+00,2.671649456024169922e+00,2.612872123718261719e+00
3.778673887252807617e+00,3.777941703796386719e+00,3.777209758758544922e+00,3.776478290557861328e+00,3.775746822357177734e+00,3.775015830993652344e+00,3.774285078048706055e+00,3.773554563522338867e+00,3.772824287414550781e+00,3.772094249725341797e+00,3.771364688873291016e+00,3.770635366439819336e+00,3.769906282424926758e+00,3.769177436828613281e+00,3.768448829650878906e+00,3.767720699310302734e+00,3.766992807388305664e+00,3.766265153884887695e+00,3.765537738800048828e+00,3.764810562133789062e+00,3.764083623886108398e+00,3.763357162475585938e+00,3.762630939483642578e+00,3.761904954910278320e+00,3.761179208755493164e+00,3.760453939437866211e+00,3.759728670120239258e+00,3.759003877639770508e+00,3.758279323577880859e+00,3.757555007934570312e+00,3.756830930709838867e+00,3.756107091903686523e+00,3.755383729934692383e+00,3.754660367965698242e+00,3.753937482833862305e+00,3.753214836120605469e+00,3.752492427825927734e+00,3.751770496368408203e+00,3.751048564910888672e+00,3.750327110290527344e+00,3.749605894088745117e+00,3.748884916305541992e+00,3.748164176940917969e+00,3.747443675994873047e+00,3.746723651885986328e+00,3.746003627777099609e+00,3.745284080505371094e+00,3.744564771652221680e+00,3.743845701217651367e+00,3.743127107620239258e+00,3.742408514022827148e+00,3.741690397262573242e+00,3.740972518920898438e+00,3.740254878997802734e+00,3.739537477493286133e+00,3.738820314407348633e+00,3.738103628158569336e+00,3.737386941909790039e+00,3.736670732498168945e+00,3.735954761505126953e+00,3.735239028930664062e+00,3.734523534774780273e+00,3.733808279037475586e+00,3.733093500137329102e+00,3.732378721237182617e+00,3.731664419174194336e+00,3.659627914428710938e+00,3.550230264663696289e+00,3.447183370590209961e+00,3.349949598312377930e+00,3.258050918579101562e+00,3.171059608459472656e+00,3.088592767715454102e+00,3.010306835174560547e+00,2.935890913009643555e+00,2.865065813064575195e+00,2.797577142715454102e+00,2.733194828033447266e+00,2.671709299087524414e+00,2.612929105758666992e+00
3.084549903869628906e+00,3.084062099456787109e+00,3.083574295043945312e+00,3.083086729049682617e+00,3.082599401473999023e+00,3.082112073898315430e+00,3.081624746322631836e+00,3.081137895584106445e+00,3.080651044845581055e+00,3.080164432525634766e+00,3.079677820205688477e+00,3.079191446304321289e+00,3.078705310821533203e+00,3.078219175338745117e+00,3.077733278274536133e+00,3.077247381210327148e+00,3.076761960983276367e+00,3.076276302337646484e+00,3.075791120529174805e+00,3.075305938720703125e+00,3.074820995330810547e+00,3.074336051940917969e+00,3.073851346969604492e+00,3.073366880416870117e+00,3.072882413864135742e+00,3.072398185729980469e+00,3.071914196014404297e+00,3.071430206298828125e+00,3.070946455001831055e+00,3.070462703704833984e+00,3.069979429244995117e+00,3.069495916366577148e+00,3.069012880325317383e+00,3.068529844284057617e+00,3.068047046661376953e+00,3.067564249038696289e+00,3.067081689834594727e+00,3.066599369049072266e+00,3.066117048263549805e+00,3.065634965896606445e+00,3.065153121948242188e+00,3.064671277999877930e+00,3.064189672470092773e+00,3.063708066940307617e+00,3.063226699829101562e+00,3.062745571136474609e+00,3.062264442443847656e+00,3.061783552169799805e+00,3.061302900314331055e+00,3.060822248458862305e+00,3.060341835021972656e+00,3.059861660003662109e+00,3.059381246566772461e+00,3.058901071548461914e+00,3.058421373367309570e+00,3.057941675186157227e+00,3.057461977005004883e+00,3.056982755661010742e+00,3.056503534317016602e+00,3.056024312973022461e+00,3.055545330047607422e+00,3.055066585540771484e+00,3.054588079452514648e+00,3.054109573364257812e+00,3.053631067276000977e+00,3.053153038024902344e+00,3.052675008773803711e+00,3.052196979522705078e+00,3.051719188690185547e+00,3.051241636276245117e+00,3.050764322280883789e+00,3.050287008285522461e+00,3.049809932708740234e+00,3.010382413864135742e+00,2.935963153839111328e+00,2.865134477615356445e+00,2.797642469406127930e+00,2.733257293701171875e+00,2.671768903732299805e+00,2.612986326217651367e+00
2.605865001678466797e+00,2.605516910552978516e+00,2.605168819427490234e+00,2.604820728302001953e+00,2.604472637176513672e+00,2.604124784469604492e+00,2.603776931762695312e+00,2.603429317474365234e+00,2.603081703186035156e+00,2.602734327316284180e+00,2.602386951446533203e+00,2.602039575576782227e+00,2.601692438125610352e+00,2.601345300674438477e+00,2.600998163223266602e+00,2.600651264190673828e+00,2.600304365158081055e+00,2.599957704544067383e+00,2.599611043930053711e+00,2.599264383316040039e+00,2.598917961120605469e+00,2.598571538925170898e+00,2.598225116729736328e+00,2.597878932952880859e+00,2.597532987594604492e+00,2.597186803817749023e+00,2.596841096878051758e+00,2.596495151519775391e+00,2.596149444580078125e+00,2.595803737640380859e+00,2.595458269119262695e+00,2.595112800598144531e+00,2.594767332077026367e+00,2.594422101974487305e+00,2.594076871871948242e+00,2.593731880187988281e+00,2.593386888504028320e+00,2.593041896820068359e+00,2.592697143554687500e+00,2.592352390289306641e+00,2.592007637023925781e+00,2.591663122177124023e+00,2.591318607330322266e+00,2.590974330902099609e+00,2.590630054473876953e+00,2.590286016464233398e+00,2.589941740036010742e+00,2.589597940444946289e+00,2.589253902435302734e+00,2.588910102844238281e+00,2.588566303253173828e+00,2.588222742080688477e+00,2.587879180908203125e+00,2.587535858154296875e+00,2.587192535400390625e+00,2.586849212646484375e+00,2.586505889892578125e+00,2.586162805557250977e+00,2.585819959640502930e+00,2.585477113723754883e+00,2.585134267807006836e+00,2.584791421890258789e+00,2.584448814392089844e+00,2.584106445312500000e+00,2.583763837814331055e+00,2.583421468734741211e+00,2.583079338073730469e+00,2.582737207412719727e+00,2.582395076751708984e+00,2.582052946090698242e+00,2.581711053848266602e+00,2.581369400024414062e+00,2.581027507781982422e+00,2.580685853958129883e+00,2.580344438552856445e+00,2.580003023147583008e+00,2.579661607742309570e+00,2.579320430755615234e+00,2.578979253768920898e+00,2.578638076782226562e+00
2.255793333053588867e+00,2.255532264709472656e+00,2.255271434783935547e+00,2.255010604858398438e+00,2.254749774932861328e+00,2.254489183425903320e+00,2.254228591918945312e+00,2.253968000411987305e+00,2.253707408905029297e+00,2.253446817398071289e+00,2.253186464309692383e+00,2.252926111221313477e+00,2.252665758132934570e+00,2.252405643463134766e+00,2.252145290374755859e+00,2.251885175704956055e+00,2.251625299453735352e+00,2.251365184783935547e+00,2.251105308532714844e+00,2.250845432281494141e+00,2.250585556030273438e+00,2.250325918197631836e+00,2.250066041946411133e+00,2.249806404113769531e+00,2.249547004699707031e+00,2.249287366867065430e+00,2.249027967453002930e+00,2.248768568038940430e+00,2.248509168624877930e+00,2.248250007629394531e+00,2.247990608215332031e+00,2.247731447219848633e+00,2.247472524642944336e+00,2.247213363647460938e+00,2.246954441070556641e+00,2.246695518493652344e+00,2.246436595916748047e+00,2.246177911758422852e+00,2.245918989181518555e+00,2.245660305023193359e+00,2.245401620864868164e+00,2.245143175125122070e+00,2.244884729385375977e+00,2.244626283645629883e+00,2.244367837905883789e+00,2.244109630584716797e+00,2.243851184844970703e+00,2.243592977523803711e+00,2.243335008621215820e+00,2.243076801300048828e+00,2.242818832397460938e+00,2.242560863494873047e+00,2.242302894592285156e+00,2.242044925689697266e+00,2.241787195205688477e+00,2.241529464721679688e+00,2.241271734237670898e+00,2.241014242172241211e+00,2.240756750106811523e+00,2.240499258041381836e+00,2.240241765975952148e+00,2.239984273910522461e+00,2.239727020263671875e+00,2.239469766616821289e+00,2.239212512969970703e+00,2.238955497741699219e+00,2.238698244094848633e+00,2.238441228866577148e+00,2.238184452056884766e+00,2.237927436828613281e+00,2.237670660018920898e+00,2.237413883209228516e+00,2.237157106399536133e+00,2.236900329589843750e+00,2.236643791198730469e+00,2.236387252807617188e+00,2.236130714416503906e+00,2.235874414443969727e+00,2.235617876052856445e+00,2.235361576080322266e+00
1.988639593124389648e+00,1.988436937332153320e+00,1.988234043121337891e+00,1.988031387329101562e+00,1.987828612327575684e+00,1.987626075744628906e+00,1.987423300743103027e+00,1.987220883369445801e+00,1.987018227577209473e+00,1.986815929412841797e+00,1.986613392829895020e+00,1.986411094665527344e+00,1.986208558082580566e+00,1.986006379127502441e+00,1.985803961753845215e+00,1.985601902008056641e+00,1.985399603843688965e+00,1.985197544097900391e+00,1.984995365142822266e+00,1.984793424606323242e+00,1.984591245651245117e+00,1.984389305114746094e+00,1.984187245368957520e+00,1.983985424041748047e+00,1.983783483505249023e+00,1.983581781387329102e+00,1.983379840850830078e+00,1.983178257942199707e+00,1.982976436614990234e+00,1.982774972915649414e+00,1.982573151588439941e+00,1.982371687889099121e+00,1.982170104980468750e+00,1.981968641281127930e+00,1.981767058372497559e+00,1.981565833091735840e+00,1.981364369392395020e+00,1.981163144111633301e+00,1.980961680412292480e+00,1.980760574340820312e+00,1.980559229850769043e+00,1.980358242988586426e+00,1.980156898498535156e+00,1.979955911636352539e+00,1.979754805564880371e+00,1.979553937911987305e+00,1.979352831840515137e+00,1.979151964187622070e+00,1.978950977325439453e+00,1.978750228881835938e+00,1.978549361228942871e+00,1.978348731994628906e+00,1.978147864341735840e+00,1.977947354316711426e+00,1.977746605873107910e+00,1.977546095848083496e+00,1.977345347404479980e+00,1.977144956588745117e+00,1.976944327354431152e+00,1.976744055747985840e+00,1.976543545722961426e+00,1.976343274116516113e+00,1.976142883300781250e+00,1.975942730903625488e+00,1.975742340087890625e+00,1.975542306900024414e+00,1.975342035293579102e+00,1.975142002105712891e+00,1.974941849708557129e+00,1.974741935729980469e+00,1.974541783332824707e+00,1.974341988563537598e+00,1.974141955375671387e+00,1.973942160606384277e+00,1.973742246627807617e+00,1.973542571067810059e+00,1.973342657089233398e+00,1.973143100738525391e+00,1.972943305969238281e+00,1.972743868827819824e+00
1.778063654899597168e+00,1.777901411056518555e+00,1.777739286422729492e+00,1.777577161788940430e+00,1.777415275573730469e+00,1.777253150939941406e+00,1.777091264724731445e+00,1.776929140090942383e+00,1.776767373085021973e+00,1.776605367660522461e+00,1.776443600654602051e+00,1.776281595230102539e+00,1.776119947433471680e+00,1.775958061218261719e+00,1.775796413421630859e+00,1.775634527206420898e+00,1.775472998619079590e+00,1.775311231613159180e+00,1.775149703025817871e+00,1.774987936019897461e+00,1.774826407432556152e+00,1.774664878845214844e+00,1.774503350257873535e+00,1.774341821670532227e+00,1.774180412292480469e+00,1.774018883705139160e+00,1.773857593536376953e+00,1.773696184158325195e+00,1.773534893989562988e+00,1.773373484611511230e+00,1.773212313652038574e+00,1.773050904273986816e+00,1.772889852523803711e+00,1.772728562355041504e+00,1.772567391395568848e+00,1.772406220436096191e+00,1.772245168685913086e+00,1.772083997726440430e+00,1.771923065185546875e+00,1.771761894226074219e+00,1.771601080894470215e+00,1.771440029144287109e+00,1.771279096603393555e+00,1.771118164062500000e+00,1.770957350730895996e+00,1.770796418190002441e+00,1.770635724067687988e+00,1.770474791526794434e+00,1.770314097404479980e+00,1.770153284072875977e+00,1.769992709159851074e+00,1.769831895828247070e+00,1.769671440124511719e+00,1.769510746002197266e+00,1.769350171089172363e+00,1.769189596176147461e+00,1.769029140472412109e+00,1.768868565559387207e+00,1.768708109855651855e+00,1.768547654151916504e+00,1.768387317657470703e+00,1.768226861953735352e+00,1.768066525459289551e+00,1.767906188964843750e+00,1.767745971679687500e+00,1.767585635185241699e+00,1.767425417900085449e+00,1.767265200614929199e+00,1.767105102539062500e+00,1.766944885253906250e+00,1.766784787178039551e+00,1.766624689102172852e+00,1.766464710235595703e+00,1.766304612159729004e+00,1.766144633293151855e+00,1.765984535217285156e+00,1.765824794769287109e+00,1.765664696693420410e+00,1.765504956245422363e+00,1.765344977378845215e+00
1.607813000679016113e+00,1.607680439949035645e+00,1.607547760009765625e+00,1.607415318489074707e+00,1.607282757759094238e+00,1.607150316238403320e+00,1.607017874717712402e+00,1.606885433197021484e+00,1.606752991676330566e+00,1.606620669364929199e+00,1.606488227844238281e+00,1.606355905532836914e+00,1.606223464012145996e+00,1.606091260910034180e+00,1.605958819389343262e+00,1.605826735496520996e+00,1.605694293975830078e+00,1.605562210083007812e+00,1.605429887771606445e+00,1.605297803878784180e+00,1.605165600776672363e+00,1.605033516883850098e+00,1.604901313781738281e+00,1.604769349098205566e+00,1.604637145996093750e+00,1.604505181312561035e+00,1.604373097419738770e+00,1.604241132736206055e+00,1.604109048843383789e+00,1.603977203369140625e+00,1.603845119476318359e+00,1.603713274002075195e+00,1.603581309318542480e+00,1.603449463844299316e+00,1.603317618370056152e+00,1.603185772895812988e+00,1.603053927421569824e+00,1.602922201156616211e+00,1.602790355682373047e+00,1.602658748626708984e+00,1.602526903152465820e+00,1.602395296096801758e+00,1.602263450622558594e+00,1.602131962776184082e+00,1.602000236511230469e+00,1.601868629455566406e+00,1.601737022399902344e+00,1.601605534553527832e+00,1.601473808288574219e+00,1.601342439651489258e+00,1.601210832595825195e+00,1.601079463958740234e+00,1.600947856903076172e+00,1.600816488265991211e+00,1.600685000419616699e+00,1.600553631782531738e+00,1.600422263145446777e+00,1.600290894508361816e+00,1.600159525871276855e+00,1.600028276443481445e+00,1.599896907806396484e+00,1.599765658378601074e+00,1.599634289741516113e+00,1.599503159523010254e+00,1.599371910095214844e+00,1.599240779876708984e+00,1.599109530448913574e+00,1.598978519439697266e+00,1.598847270011901855e+00,1.598716259002685547e+00,1.598585128784179688e+00,1.598454117774963379e+00,1.598322987556457520e+00,1.598192095756530762e+00,1.598060965538024902e+00,1.597930073738098145e+00,1.597799062728881836e+00,1.597668170928955078e+00,1.597537279129028320e+00,1.597406387329101562e+00
1.467316627502441406e+00,1.467206120491027832e+00,1.467095851898193359e+00,1.466985344886779785e+00,1.466875076293945312e+00,1.466764688491821289e+00,1.466654419898986816e+00,1.466544032096862793e+00,1.466433763504028320e+00,1.466323375701904297e+00,1.466213226318359375e+00,1.466102838516235352e+00,1.465992689132690430e+00,1.465882420539855957e+00,1.465772271156311035e+00,1.465662002563476562e+00,1.465551853179931641e+00,1.465441703796386719e+00,1.465331554412841797e+00,1.465221405029296875e+00,1.465111374855041504e+00,1.465001225471496582e+00,1.464891195297241211e+00,1.464781045913696289e+00,1.464671134948730469e+00,1.464560985565185547e+00,1.464451074600219727e+00,1.464341044425964355e+00,1.464231133460998535e+00,1.464121103286743164e+00,1.464011192321777344e+00,1.463901281356811523e+00,1.463791370391845703e+00,1.463681459426879883e+00,1.463571667671203613e+00,1.463461756706237793e+00,1.463351964950561523e+00,1.463242053985595703e+00,1.463132262229919434e+00,1.463022470474243164e+00,1.462912797927856445e+00,1.462802886962890625e+00,1.462693214416503906e+00,1.462583422660827637e+00,1.462473869323730469e+00,1.462364077568054199e+00,1.462254405021667480e+00,1.462144732475280762e+00,1.462035179138183594e+00,1.461925506591796875e+00,1.461815953254699707e+00,1.461706280708312988e+00,1.461596727371215820e+00,1.461487174034118652e+00,1.461377620697021484e+00,1.461268067359924316e+00,1.461158633232116699e+00,1.461049079895019531e+00,1.460939645767211914e+00,1.460830092430114746e+00,1.460720777511596680e+00,1.460611224174499512e+00,1.460501909255981445e+00,1.460392475128173828e+00,1.460283160209655762e+00,1.460173726081848145e+00,1.460064411163330078e+00,1.459954977035522461e+00,1.459845781326293945e+00,1.459736466407775879e+00,1.459627151489257812e+00,1.459517836570739746e+00,1.459408640861511230e+00,1.459299445152282715e+00,1.459190249443054199e+00,1.459080934524536133e+00,1.458971858024597168e+00,1.458862662315368652e+00,1.458753585815429688e+00,1.458644390106201172e+00
1.349401116371154785e+00,1.349307775497436523e+00,1.349214315414428711e+00,1.349121093750000000e+00,1.349027633666992188e+00,1.348934292793273926e+00,1.348840951919555664e+00,1.348747730255126953e+00,1.348654389381408691e+00,1.348561167716979980e+00,1.348467826843261719e+00,1.348374605178833008e+00,1.348281264305114746e+00,1.348188161849975586e+00,1.348094820976257324e+00,1.348001718521118164e+00,1.347908496856689453e+00,1.347815394401550293e+00,1.347722172737121582e+00,1.347629070281982422e+00,1.347535848617553711e+00,1.347442746162414551e+00,1.347349643707275391e+00,1.347256541252136230e+00,1.347163438796997070e+00,1.347070455551147461e+00,1.346977353096008301e+00,1.346884250640869141e+00,1.346791267395019531e+00,1.346698284149169922e+00,1.346605181694030762e+00,1.346512198448181152e+00,1.346419215202331543e+00,1.346326231956481934e+00,1.346233248710632324e+00,1.346140384674072266e+00,1.346047401428222656e+00,1.345954537391662598e+00,1.345861554145812988e+00,1.345768690109252930e+00,1.345675706863403320e+00,1.345582962036132812e+00,1.345489978790283203e+00,1.345397233963012695e+00,1.345304369926452637e+00,1.345211625099182129e+00,1.345118761062622070e+00,1.345026016235351562e+00,1.344933152198791504e+00,1.344840407371520996e+00,1.344747662544250488e+00,1.344654917716979980e+00,1.344562172889709473e+00,1.344469428062438965e+00,1.344376683235168457e+00,1.344284057617187500e+00,1.344191312789916992e+00,1.344098687171936035e+00,1.344006061553955078e+00,1.343913435935974121e+00,1.343820691108703613e+00,1.343728184700012207e+00,1.343635559082031250e+00,1.343542933464050293e+00,1.343450307846069336e+00,1.343357801437377930e+00,1.343265295028686523e+00,1.343172788619995117e+00,1.343080163002014160e+00,1.342987656593322754e+00,1.342895150184631348e+00,1.342802762985229492e+00,1.342710137367248535e+00,1.342617750167846680e+00,1.342525243759155273e+00,1.342432856559753418e+00,1.342340469360351562e+00,1.342248082160949707e+00,1.342155575752258301e+00,1.342063307762145996e+00
1.249027609825134277e+00,1.248947620391845703e+00,1.248867630958557129e+00,1.248787641525268555e+00,1.248707771301269531e+00,1.248627662658691406e+00,1.248547792434692383e+00,1.248467803001403809e+00,1.248387932777404785e+00,1.248307943344116211e+00,1.248228073120117188e+00,1.248148083686828613e+00,1.248068213462829590e+00,1.247988343238830566e+00,1.247908473014831543e+00,1.247828602790832520e+00,1.247748732566833496e+00,1.247668862342834473e+00,1.247589111328125000e+00,1.247509241104125977e+00,1.247429490089416504e+00,1.247349619865417480e+00,1.247269868850708008e+00,1.247189998626708984e+00,1.247110247611999512e+00,1.247030496597290039e+00,1.246950745582580566e+00,1.246870994567871094e+00,1.246791243553161621e+00,1.246711492538452148e+00,1.246631860733032227e+00,1.246552109718322754e+00,1.246472477912902832e+00,1.246392726898193359e+00,1.246313095092773438e+00,1.246233344078063965e+00,1.246153712272644043e+00,1.246074080467224121e+00,1.245994448661804199e+00,1.245914816856384277e+00,1.245835185050964355e+00,1.245755553245544434e+00,1.245676040649414062e+00,1.245596408843994141e+00,1.245516896247863770e+00,1.245437264442443848e+00,1.245357751846313477e+00,1.245278239250183105e+00,1.245198726654052734e+00,1.245119094848632812e+00,1.245039701461791992e+00,1.244960188865661621e+00,1.244880557060241699e+00,1.244801163673400879e+00,1.244721651077270508e+00,1.244642257690429688e+00,1.244562745094299316e+00,1.244483351707458496e+00,1.244403839111328125e+00,1.244324445724487305e+00,1.244245052337646484e+00,1.244165658950805664e+00,1.244086265563964844e+00,1.244006872177124023e+00,1.243927478790283203e+00,1.243848204612731934e+00,1.243768811225891113e+00,1.243689537048339844e+00,1.243610143661499023e+00,1.243530869483947754e+00,1.243451476097106934e+00,1.243372201919555664e+00,1.243292927742004395e+00,1.243213653564453125e+00,1.243134379386901855e+00,1.243055224418640137e+00,1.242975831031799316e+00,1.242896676063537598e+00,1.242817401885986328e+00,1.242738246917724609e+00
1.162552714347839355e+00,1.162483334541320801e+00,1.162414073944091797e+00,1.162344694137573242e+00,1.162275433540344238e+00,1.162206172943115234e+00,1.162136912345886230e+00,1.162067651748657227e+00,1.161998391151428223e+00,1.161929130554199219e+00,1.161859869956970215e+00,1.161790609359741211e+00,1.161721467971801758e+00,1.161652207374572754e+00,1.161583065986633301e+00,1.161513805389404297e+00,1.161444664001464844e+00,1.161375403404235840e+00,1.161306262016296387e+00,1.161237120628356934e+00,1.161167979240417480e+00,1.161098718643188477e+00,1.161029696464538574e+00,1.160960435867309570e+00,1.160891413688659668e+00,1.160822272300720215e+00,1.160753130912780762e+00,1.160683989524841309e+00,1.160614967346191406e+00,1.160545825958251953e+00,1.160476803779602051e+00,1.160407662391662598e+00,1.160338640213012695e+00,1.160269618034362793e+00,1.160200595855712891e+00,1.160131454467773438e+00,1.160062551498413086e+00,1.159993410110473633e+00,1.159924507141113281e+00,1.159855484962463379e+00,1.159786462783813477e+00,1.159717440605163574e+00,1.159648537635803223e+00,1.159579515457153320e+00,1.159510612487792969e+00,1.159441590309143066e+00,1.159372687339782715e+00,1.159303665161132812e+00,1.159234762191772461e+00,1.159165859222412109e+00,1.159096956253051758e+00,1.159028053283691406e+00,1.158959150314331055e+00,1.158890247344970703e+00,1.158821344375610352e+00,1.158752441406250000e+00,1.158683657646179199e+00,1.158614754676818848e+00,1.158545970916748047e+00,1.158477067947387695e+00,1.158408284187316895e+00,1.158339500427246094e+00,1.158270716667175293e+00,1.158201813697814941e+00,1.158133029937744141e+00,1.158064246177673340e+00,1.157995462417602539e+00,1.157926678657531738e+00,1.157858014106750488e+00,1.157789230346679688e+00,1.157720446586608887e+00,1.157651662826538086e+00,1.157582998275756836e+00,1.157514214515686035e+00,1.157445549964904785e+00,1.157376766204833984e+00,1.157308101654052734e+00,1.157239437103271484e+00,1.157170772552490234e+00,1.157102108001708984e+00
1.087276339530944824e+00,1.087215662002563477e+00,1.087155103683471680e+00,1.087094426155090332e+00,1.087033867835998535e+00,1.086973309516906738e+00,1.086912631988525391e+00,1.086852073669433594e+00,1.086791515350341797e+00,1.086730957031250000e+00,1.086670279502868652e+00,1.086609840393066406e+00,1.086549162864685059e+00,1.086488723754882812e+00,1.086428165435791016e+00,1.086367607116699219e+00,1.086307048797607422e+00,1.086246609687805176e+00,1.086186051368713379e+00,1.086125493049621582e+00,1.086065053939819336e+00,1.086004495620727539e+00,1.085944056510925293e+00,1.085883617401123047e+00,1.085823059082031250e+00,1.085762619972229004e+00,1.085702180862426758e+00,1.085641741752624512e+00,1.085581183433532715e+00,1.085520863533020020e+00,1.085460424423217773e+00,1.085399985313415527e+00,1.085339546203613281e+00,1.085279107093811035e+00,1.085218667984008789e+00,1.085158348083496094e+00,1.085097908973693848e+00,1.085037589073181152e+00,1.084977149963378906e+00,1.084916830062866211e+00,1.084856390953063965e+00,1.084796071052551270e+00,1.084735631942749023e+00,1.084675312042236328e+00,1.084614992141723633e+00,1.084554672241210938e+00,1.084494352340698242e+00,1.084434032440185547e+00,1.084373712539672852e+00,1.084313392639160156e+00,1.084253072738647461e+00,1.084192872047424316e+00,1.084132552146911621e+00,1.084072232246398926e+00,1.084011912345886230e+00,1.083951711654663086e+00,1.083891391754150391e+00,1.083831191062927246e+00,1.083770990371704102e+00,1.083710789680480957e+00,1.083650469779968262e+00,1.083590269088745117e+00,1.083530068397521973e+00,1.083469867706298828e+00,1.083409667015075684e+00,1.083349466323852539e+00,1.083289265632629395e+00,1.083229064941406250e+00,1.083168864250183105e+00,1.083108663558959961e+00,1.083048462867736816e+00,1.082988381385803223e+00,1.082928180694580078e+00,1.082868099212646484e+00,1.082807898521423340e+00,1.082747817039489746e+00,1.082687616348266602e+00,1.082627534866333008e+00,1.082567453384399414e+00,1.082507371902465820e+00
1.021155595779418945e+00,1.021102070808410645e+00,1.021048665046691895e+00,1.020995140075683594e+00,1.020941734313964844e+00,1.020888209342956543e+00,1.020834803581237793e+00,1.020781278610229492e+00,1.020727872848510742e+00,1.020674467086791992e+00,1.020621061325073242e+00,1.020567655563354492e+00,1.020514249801635742e+00,1.020460724830627441e+00,1.020407438278198242e+00,1.020353913307189941e+00,1.020300626754760742e+00,1.020247220993041992e+00,1.020193815231323242e+00,1.020140409469604492e+00,1.020087122917175293e+00,1.020033717155456543e+00,1.019980311393737793e+00,1.019926905632019043e+00,1.019873619079589844e+00,1.019820213317871094e+00,1.019766926765441895e+00,1.019713640213012695e+00,1.019660234451293945e+00,1.019606947898864746e+00,1.019553661346435547e+00,1.019500255584716797e+00,1.019447088241577148e+00,1.019393682479858398e+00,1.019340395927429199e+00,1.019287109375000000e+00,1.019233822822570801e+00,1.019180536270141602e+00,1.019127368927001953e+00,1.019073963165283203e+00,1.019020795822143555e+00,1.018967509269714355e+00,1.018914222717285156e+00,1.018861055374145508e+00,1.018807768821716309e+00,1.018754482269287109e+00,1.018701314926147461e+00,1.018648028373718262e+00,1.018594861030578613e+00,1.018541693687438965e+00,1.018488526344299316e+00,1.018435239791870117e+00,1.018382072448730469e+00,1.018328905105590820e+00,1.018275737762451172e+00,1.018222451210021973e+00,1.018169403076171875e+00,1.018116116523742676e+00,1.018063068389892578e+00,1.018009781837463379e+00,1.017956733703613281e+00,1.017903566360473633e+00,1.017850399017333984e+00,1.017797231674194336e+00,1.017744183540344238e+00,1.017691016197204590e+00,1.017637968063354492e+00,1.017584800720214844e+00,1.017531752586364746e+00,1.017478585243225098e+00,1.017425537109375000e+00,1.017372369766235352e+00,1.017319321632385254e+00,1.017266273498535156e+00,1.017213225364685059e+00,1.017160058021545410e+00,1.017107009887695312e+00,1.017053961753845215e+00,1.017000913619995117e+00,1.016947865486145020e+00
9.626158475875854492e-01,9.625683426856994629e-01,9.625208973884582520e-01,9.624733924865722656e-01,9.624258279800415039e-01,9.623783230781555176e-01,9.623308181762695312e-01,9.622833728790283203e-01,9.622358083724975586e-01,9.621883034706115723e-01,9.621408581733703613e-01,9.620934128761291504e-01,9.620458483695983887e-01,9.619984626770019531e-01,9.619510173797607422e-01,9.619035720825195312e-01,9.618560075759887695e-01,9.618086218833923340e-01,9.617611765861511230e-01,9.617137908935546875e-01,9.616662859916687012e-01,9.616188406944274902e-01,9.615714550018310547e-01,9.615240693092346191e-01,9.614765644073486328e-01,9.614291787147521973e-01,9.613817930221557617e-01,9.613344669342041016e-01,9.612869620323181152e-01,9.612395763397216797e-01,9.611922502517700195e-01,9.611448645591735840e-01,9.610974192619323730e-01,9.610500931739807129e-01,9.610027074813842773e-01,9.609553813934326172e-01,9.609079360961914062e-01,9.608606100082397461e-01,9.608132839202880859e-01,9.607659578323364258e-01,9.607185721397399902e-01,9.606712460517883301e-01,9.606239199638366699e-01,9.605766534805297852e-01,9.605292081832885742e-01,9.604819416999816895e-01,9.604346752166748047e-01,9.603873491287231445e-01,9.603399634361267090e-01,9.602926969528198242e-01,9.602454304695129395e-01,9.601981639862060547e-01,9.601508378982543945e-01,9.601035714149475098e-01,9.600563049316406250e-01,9.600090980529785156e-01,9.599617123603820801e-01,9.599145054817199707e-01,9.598672389984130859e-01,9.598200321197509766e-01,9.597727060317993164e-01,9.597254991531372070e-01,9.596782922744750977e-01,9.596310853958129883e-01,9.595837593078613281e-01,9.595365524291992188e-01,9.594893455505371094e-01,9.594421386718750000e-01,9.593948721885681152e-01,9.593476653099060059e-01,9.593005180358886719e-01,9.592533111572265625e-01,9.592060446739196777e-01,9.591588973999023438e-01,9.591117501258850098e-01,9.590646028518676758e-01,9.590173363685607910e-01,9.589701890945434570e-01,9.589230418205261230e-01,9.588759541511535645e-01
9.104240536689758301e-01,9.103815555572509766e-01,9.103390574455261230e-01,9.102964997291564941e-01,9.102540016174316406e-01,9.102115631103515625e-01,9.101690649986267090e-01,9.101265072822570801e-01,9.100840687751770020e-01,9.100416302680969238e-01,9.099991917610168457e-01,9.099566340446472168e-01,9.099141955375671387e-01,9.098717570304870605e-01,9.098293185234069824e-01,9.097867608070373535e-01,9.097443222999572754e-01,9.097019433975219727e-01,9.096595048904418945e-01,9.096170067787170410e-01,9.095745682716369629e-01,9.095321893692016602e-01,9.094897508621215820e-01,9.094472527503967285e-01,9.094048738479614258e-01,9.093624949455261230e-01,9.093201160430908203e-01,9.092776179313659668e-01,9.092352390289306641e-01,9.091928601264953613e-01,9.091504812240600586e-01,9.091080427169799805e-01,9.090656638145446777e-01,9.090232849121093750e-01,9.089809656143188477e-01,9.089385271072387695e-01,9.088961482048034668e-01,9.088538289070129395e-01,9.088114500045776367e-01,9.087690114974975586e-01,9.087266921997070312e-01,9.086843729019165039e-01,9.086420536041259766e-01,9.085996150970458984e-01,9.085572957992553711e-01,9.085150361061096191e-01,9.084727168083190918e-01,9.084302783012390137e-01,9.083880186080932617e-01,9.083456993103027344e-01,9.083034396171569824e-01,9.082610011100769043e-01,9.082187414169311523e-01,9.081764817237854004e-01,9.081341624259948730e-01,9.080918431282043457e-01,9.080495834350585938e-01,9.080072641372680664e-01,9.079650044441223145e-01,9.079226851463317871e-01,9.078804254531860352e-01,9.078381657600402832e-01,9.077959060668945312e-01,9.077535867691040039e-01,9.077113270759582520e-01,9.076691269874572754e-01,9.076268672943115234e-01,9.075845479965209961e-01,9.075423479080200195e-01,9.075001478195190430e-01,9.074578881263732910e-01,9.074156284332275391e-01,9.073734283447265625e-01,9.073312282562255859e-01,9.072890281677246094e-01,9.072467088699340820e-01,9.072045087814331055e-01,9.071623086929321289e-01,9.071201682090759277e-01,9.070779085159301758e-01
8.636007308959960938e-01,8.635624647140502930e-01,8.635241985321044922e-01,8.634859323501586914e-01,8.634477257728576660e-01,8.634095191955566406e-01,8.633711934089660645e-01,8.633329868316650391e-01,8.632947802543640137e-01,8.632566332817077637e-01,8.632183074951171875e-01,8.631801009178161621e-01,8.631419539451599121e-01,8.631037473678588867e-01,8.630654811859130859e-01,8.630272746086120605e-01,8.629891276359558105e-01,8.629509210586547852e-01,8.629126548767089844e-01,8.628745079040527344e-01,8.628363609313964844e-01,8.627982139587402344e-01,8.627599477767944336e-01,8.627218008041381836e-01,8.626836538314819336e-01,8.626455068588256836e-01,8.626072406768798828e-01,8.625690937042236328e-01,8.625310063362121582e-01,8.624928593635559082e-01,8.624546527862548828e-01,8.624165058135986328e-01,8.623783588409423828e-01,8.623402714729309082e-01,8.623020648956298828e-01,8.622639179229736328e-01,8.622258305549621582e-01,8.621877431869506836e-01,8.621495366096496582e-01,8.621114492416381836e-01,8.620733022689819336e-01,8.620352149009704590e-01,8.619970679283142090e-01,8.619589805603027344e-01,8.619208931922912598e-01,8.618828058242797852e-01,8.618446588516235352e-01,8.618065714836120605e-01,8.617684841156005859e-01,8.617304563522338867e-01,8.616922497749328613e-01,8.616542220115661621e-01,8.616161346435546875e-01,8.615781068801879883e-01,8.615399599075317383e-01,8.615019321441650391e-01,8.614639043807983398e-01,8.614258170127868652e-01,8.613877296447753906e-01,8.613497018814086914e-01,8.613116741180419922e-01,8.612736463546752930e-01,8.612354993820190430e-01,8.611975312232971191e-01,8.611595034599304199e-01,8.611214756965637207e-01,8.610833883285522461e-01,8.610453605651855469e-01,8.610073924064636230e-01,8.609693646430969238e-01,8.609312772750854492e-01,8.608933091163635254e-01,8.608552813529968262e-01,8.608173131942749023e-01,8.607792258262634277e-01,8.607412576675415039e-01,8.607032895088195801e-01,8.606653213500976562e-01,8.606272339820861816e-01,8.605893254280090332e-01
8.213580846786499023e-01,8.213233947753906250e-01,8.212888240814208984e-01,8.212542533874511719e-01,8.212196826934814453e-01,8.211850523948669434e-01,8.211504817008972168e-01,8.211159110069274902e-01,8.210813403129577637e-01,8.210467100143432617e-01,8.210121393203735352e-01,8.209776282310485840e-01,8.209430575370788574e-01,8.209084272384643555e-01,8.208739161491394043e-01,8.208393454551696777e-01,8.208048343658447266e-01,8.207702040672302246e-01,8.207356929779052734e-01,8.207011222839355469e-01,8.206666111946105957e-01,8.206320405006408691e-01,8.205975294113159180e-01,8.205630183219909668e-01,8.205285072326660156e-01,8.204938769340515137e-01,8.204593658447265625e-01,8.204248547554016113e-01,8.203904032707214355e-01,8.203557729721069336e-01,8.203213214874267578e-01,8.202868103981018066e-01,8.202522993087768555e-01,8.202177286148071289e-01,8.201832771301269531e-01,8.201487660408020020e-01,8.201143145561218262e-01,8.200797438621520996e-01,8.200452923774719238e-01,8.200108408927917480e-01,8.199763298034667969e-01,8.199418187141418457e-01,8.199073672294616699e-01,8.198729157447814941e-01,8.198384642601013184e-01,8.198038935661315918e-01,8.197694420814514160e-01,8.197349905967712402e-01,8.197005391120910645e-01,8.196660280227661133e-01,8.196315765380859375e-01,8.195971846580505371e-01,8.195627331733703613e-01,8.195282220840454102e-01,8.194938302040100098e-01,8.194593787193298340e-01,8.194249868392944336e-01,8.193904757499694824e-01,8.193560242652893066e-01,8.193216323852539062e-01,8.192872405052185059e-01,8.192527294158935547e-01,8.192183375358581543e-01,8.191839456558227539e-01,8.191495537757873535e-01,8.191150426864624023e-01,8.190806508064270020e-01,8.190462589263916016e-01,8.190119266510009766e-01,8.189774155616760254e-01,8.189430832862854004e-01,8.189086914062500000e-01,8.188742995262145996e-01,8.188398480415344238e-01,8.188054561614990234e-01,8.187711238861083984e-01,8.187367320060729980e-01,8.187023401260375977e-01,8.186679482460021973e-01,8.186336159706115723e-01
7.830551862716674805e-01,7.830237746238708496e-01,7.829923629760742188e-01,7.829609513282775879e-01,7.829294204711914062e-01,7.828980088233947754e-01,7.828665971755981445e-01,7.828351855278015137e-01,7.828037142753601074e-01,7.827723026275634766e-01,7.827408909797668457e-01,7.827094793319702148e-01,7.826780080795288086e-01,7.826465964317321777e-01,7.826151847839355469e-01,7.825837731361389160e-01,7.825523614883422852e-01,7.825209498405456543e-01,7.824895381927490234e-01,7.824581861495971680e-01,7.824267148971557617e-01,7.823953628540039062e-01,7.823639512062072754e-01,7.823325991630554199e-01,7.823011279106140137e-01,7.822697758674621582e-01,7.822384238243103027e-01,7.822070121765136719e-01,7.821756005287170410e-01,7.821442484855651855e-01,7.821128964424133301e-01,7.820815443992614746e-01,7.820500731468200684e-01,7.820187211036682129e-01,7.819874286651611328e-01,7.819560766220092773e-01,7.819246649742126465e-01,7.818933129310607910e-01,7.818619608879089355e-01,7.818306088447570801e-01,7.817991971969604492e-01,7.817679047584533691e-01,7.817365527153015137e-01,7.817052602767944336e-01,7.816738486289978027e-01,7.816425561904907227e-01,7.816112041473388672e-01,7.815799117088317871e-01,7.815485000610351562e-01,7.815172076225280762e-01,7.814859151840209961e-01,7.814545631408691406e-01,7.814232110977172852e-01,7.813919186592102051e-01,7.813606262207031250e-01,7.813292741775512695e-01,7.812979817390441895e-01,7.812666893005371094e-01,7.812353968620300293e-01,7.812040448188781738e-01,7.811727523803710938e-01,7.811414599418640137e-01,7.811101675033569336e-01,7.810788154602050781e-01,7.810475826263427734e-01,7.810162901878356934e-01,7.809850573539733887e-01,7.809537053108215332e-01,7.809224128723144531e-01,7.808911800384521484e-01,7.808598875999450684e-01,7.808285951614379883e-01,7.807973623275756836e-01,7.807660698890686035e-01,7.807348370552062988e-01,7.807035446166992188e-01,7.806723117828369141e-01,7.806410193443298340e-01,7.806097865104675293e-01,7.805784940719604492e-01
7.481656074523925781e-01,7.481369376182556152e-01,7.481082081794738770e-01,7.480794787406921387e-01,7.480508089065551758e-01,7.480221390724182129e-01,7.479933500289916992e-01,7.479646801948547363e-01,7.479360103607177734e-01,7.479073405265808105e-01,7.478786110877990723e-01,7.478499412536621094e-01,7.478212714195251465e-01,7.477926015853881836e-01,7.477638721466064453e-01,7.477352023124694824e-01,7.477065324783325195e-01,7.476779222488403320e-01,7.476491928100585938e-01,7.476205229759216309e-01,7.475918531417846680e-01,7.475632429122924805e-01,7.475345134735107422e-01,7.475059032440185547e-01,7.474772334098815918e-01,7.474485635757446289e-01,7.474198937416076660e-01,7.473912835121154785e-01,7.473626136779785156e-01,7.473340034484863281e-01,7.473052740097045898e-01,7.472766637802124023e-01,7.472480535507202148e-01,7.472194433212280273e-01,7.471907138824462891e-01,7.471621036529541016e-01,7.471334934234619141e-01,7.471048831939697266e-01,7.470762133598327637e-01,7.470476031303405762e-01,7.470189929008483887e-01,7.469903826713562012e-01,7.469617128372192383e-01,7.469331026077270508e-01,7.469045519828796387e-01,7.468759417533874512e-01,7.468472719192504883e-01,7.468186616897583008e-01,7.467901110649108887e-01,7.467615008354187012e-01,7.467328310012817383e-01,7.467042803764343262e-01,7.466756701469421387e-01,7.466471195220947266e-01,7.466184496879577637e-01,7.465898990631103516e-01,7.465613484382629395e-01,7.465327382087707520e-01,7.465041279792785645e-01,7.464755773544311523e-01,7.464470267295837402e-01,7.464184165000915527e-01,7.463898062705993652e-01,7.463612556457519531e-01,7.463327050209045410e-01,7.463041543960571289e-01,7.462755441665649414e-01,7.462469935417175293e-01,7.462184429168701172e-01,7.461898922920227051e-01,7.461612820625305176e-01,7.461327314376831055e-01,7.461042404174804688e-01,7.460756897926330566e-01,7.460470795631408691e-01,7.460185885429382324e-01,7.459900379180908203e-01,7.459614872932434082e-01,7.459329366683959961e-01,7.459043860435485840e-01
7.162525057792663574e-01,7.162261009216308594e-01,7.161998152732849121e-01,7.161735296249389648e-01,7.161472439765930176e-01,7.161208987236022949e-01,7.160946130752563477e-01,7.160683274269104004e-01,7.160420417785644531e-01,7.160156965255737305e-01,7.159894108772277832e-01,7.159631252288818359e-01,7.159368991851806641e-01,7.159105539321899414e-01,7.158842682838439941e-01,7.158579826354980469e-01,7.158317565917968750e-01,7.158054113388061523e-01,7.157791256904602051e-01,7.157528996467590332e-01,7.157266139984130859e-01,7.157003283500671387e-01,7.156740427017211914e-01,7.156478166580200195e-01,7.156215310096740723e-01,7.155952453613281250e-01,7.155689597129821777e-01,7.155427336692810059e-01,7.155165076255798340e-01,7.154901623725891113e-01,7.154639363288879395e-01,7.154377102851867676e-01,7.154114842414855957e-01,7.153851985931396484e-01,7.153589725494384766e-01,7.153327465057373047e-01,7.153065204620361328e-01,7.152801752090454102e-01,7.152540087699890137e-01,7.152277827262878418e-01,7.152015566825866699e-01,7.151752710342407227e-01,7.151490449905395508e-01,7.151228189468383789e-01,7.150965929031372070e-01,7.150703668594360352e-01,7.150441408157348633e-01,7.150179147720336914e-01,7.149916887283325195e-01,7.149654626846313477e-01,7.149392366409301758e-01,7.149130702018737793e-01,7.148868441581726074e-01,7.148606181144714355e-01,7.148343920707702637e-01,7.148082256317138672e-01,7.147819995880126953e-01,7.147557735443115234e-01,7.147296071052551270e-01,7.147033810615539551e-01,7.146772146224975586e-01,7.146509885787963867e-01,7.146248221397399902e-01,7.145985960960388184e-01,7.145724296569824219e-01,7.145462036132812500e-01,7.145200371742248535e-01,7.144938707351684570e-01,7.144677042961120605e-01,7.144414782524108887e-01,7.144153118133544922e-01,7.143891453742980957e-01,7.143629789352416992e-01,7.143367528915405273e-01,7.143106460571289062e-01,7.142844796180725098e-01,7.142583131790161133e-01,7.142320871353149414e-01,7.142059803009033203e-01,7.141798138618469238e-01
6.869504451751708984e-01,6.869262456893920898e-01,6.869020462036132812e-01,6.868779063224792480e-01,6.868536472320556641e-01,6.868294477462768555e-01,6.868053078651428223e-01,6.867811083793640137e-01,6.867568492889404297e-01,6.867327094078063965e-01,6.867085099220275879e-01,6.866843700408935547e-01,6.866601109504699707e-01,6.866359710693359375e-01,6.866117715835571289e-01,6.865876317024230957e-01,6.865634322166442871e-01,6.865392327308654785e-01,6.865150928497314453e-01,6.864909529685974121e-01,6.864666938781738281e-01,6.864425539970397949e-01,6.864184141159057617e-01,6.863942742347717285e-01,6.863700747489929199e-01,6.863458752632141113e-01,6.863217353820800781e-01,6.862975955009460449e-01,6.862733960151672363e-01,6.862492561340332031e-01,6.862251162528991699e-01,6.862009763717651367e-01,6.861767768859863281e-01,6.861526370048522949e-01,6.861285567283630371e-01,6.861044168472290039e-01,6.860802173614501953e-01,6.860560774803161621e-01,6.860319375991821289e-01,6.860078573226928711e-01,6.859836578369140625e-01,6.859595179557800293e-01,6.859354376792907715e-01,6.859112977981567383e-01,6.858871579170227051e-01,6.858630180358886719e-01,6.858388781547546387e-01,6.858147978782653809e-01,6.857905983924865723e-01,6.857665181159973145e-01,6.857424378395080566e-01,6.857182979583740234e-01,6.856941580772399902e-01,6.856700778007507324e-01,6.856459379196166992e-01,6.856218576431274414e-01,6.855977177619934082e-01,6.855736374855041504e-01,6.855494976043701172e-01,6.855254173278808594e-01,6.855012774467468262e-01,6.854771971702575684e-01,6.854531168937683105e-01,6.854290366172790527e-01,6.854048967361450195e-01,6.853808164596557617e-01,6.853567361831665039e-01,6.853326559066772461e-01,6.853085160255432129e-01,6.852844357490539551e-01,6.852603554725646973e-01,6.852363348007202148e-01,6.852121949195861816e-01,6.851881146430969238e-01,6.851640343666076660e-01,6.851400136947631836e-01,6.851158738136291504e-01,6.850917935371398926e-01,6.850677728652954102e-01,6.850436925888061523e-01
6.599517464637756348e-01,6.599293947219848633e-01,6.599071025848388672e-01,6.598846912384033203e-01,6.598623991012573242e-01,6.598400473594665527e-01,6.598177552223205566e-01,6.597954034805297852e-01,6.597730517387390137e-01,6.597507596015930176e-01,6.597284674644470215e-01,6.597061157226562500e-01,6.596837639808654785e-01,6.596614718437194824e-01,6.596391797065734863e-01,6.596168279647827148e-01,6.595945358276367188e-01,6.595721840858459473e-01,6.595498919486999512e-01,6.595275402069091797e-01,6.595052480697631836e-01,6.594829559326171875e-01,6.594606637954711914e-01,6.594383120536804199e-01,6.594160199165344238e-01,6.593937277793884277e-01,6.593714952468872070e-01,6.593491435050964355e-01,6.593268513679504395e-01,6.593045592308044434e-01,6.592822670936584473e-01,6.592599749565124512e-01,6.592376828193664551e-01,6.592153906822204590e-01,6.591930985450744629e-01,6.591708064079284668e-01,6.591485142707824707e-01,6.591262817382812500e-01,6.591039896011352539e-01,6.590816974639892578e-01,6.590594053268432617e-01,6.590371131896972656e-01,6.590148806571960449e-01,6.589925885200500488e-01,6.589702963829040527e-01,6.589480638504028320e-01,6.589257717132568359e-01,6.589034795761108398e-01,6.588812470436096191e-01,6.588589549064636230e-01,6.588367223739624023e-01,6.588144302368164062e-01,6.587921977043151855e-01,6.587699055671691895e-01,6.587476730346679688e-01,6.587253808975219727e-01,6.587031483650207520e-01,6.586809158325195312e-01,6.586586833000183105e-01,6.586363911628723145e-01,6.586141586303710938e-01,6.585919260978698730e-01,6.585696935653686523e-01,6.585474014282226562e-01,6.585251688957214355e-01,6.585029363632202148e-01,6.584807038307189941e-01,6.584584116935729980e-01,6.584361791610717773e-01,6.584140062332153320e-01,6.583917737007141113e-01,6.583694815635681152e-01,6.583472490310668945e-01,6.583250761032104492e-01,6.583028435707092285e-01,6.582805514335632324e-01,6.582583785057067871e-01,6.582361459732055664e-01,6.582139134407043457e-01,6.581916809082031250e-01
6.349949836730957031e-01,6.349743008613586426e-01,6.349535584449768066e-01,6.349329352378845215e-01,6.349122524261474609e-01,6.348915696144104004e-01,6.348708868026733398e-01,6.348502039909362793e-01,6.348295807838439941e-01,6.348088979721069336e-01,6.347882151603698730e-01,6.347675323486328125e-01,6.347469091415405273e-01,6.347262263298034668e-01,6.347055435180664062e-01,6.346848607063293457e-01,6.346642374992370605e-01,6.346436142921447754e-01,6.346228718757629395e-01,6.346022486686706543e-01,6.345816254615783691e-01,6.345609426498413086e-01,6.345402598381042480e-01,6.345196366310119629e-01,6.344990134239196777e-01,6.344783902168273926e-01,6.344577074050903320e-01,6.344370841979980469e-01,6.344164013862609863e-01,6.343957781791687012e-01,6.343750953674316406e-01,6.343544721603393555e-01,6.343338489532470703e-01,6.343132257461547852e-01,6.342925429344177246e-01,6.342719197273254395e-01,6.342512965202331543e-01,6.342306733131408691e-01,6.342100501060485840e-01,6.341894268989562988e-01,6.341688036918640137e-01,6.341481804847717285e-01,6.341275572776794434e-01,6.341069340705871582e-01,6.340863108634948730e-01,6.340656876564025879e-01,6.340450644493103027e-01,6.340244412422180176e-01,6.340038180351257324e-01,6.339832544326782227e-01,6.339625716209411621e-01,6.339419484138488770e-01,6.339213848114013672e-01,6.339007616043090820e-01,6.338801383972167969e-01,6.338595151901245117e-01,6.338389515876770020e-01,6.338183283805847168e-01,6.337977051734924316e-01,6.337771415710449219e-01,6.337565183639526367e-01,6.337359547615051270e-01,6.337153315544128418e-01,6.336947083473205566e-01,6.336741447448730469e-01,6.336535215377807617e-01,6.336328983306884766e-01,6.336123347282409668e-01,6.335917711257934570e-01,6.335712075233459473e-01,6.335505843162536621e-01,6.335299611091613770e-01,6.335093975067138672e-01,6.334888339042663574e-01,6.334682106971740723e-01,6.334476470947265625e-01,6.334270834922790527e-01,6.334065198898315430e-01,6.333858966827392578e-01,6.333653330802917480e-01
6.118569970130920410e-01,6.118377447128295898e-01,6.118185520172119141e-01,6.117993593215942383e-01,6.117801666259765625e-01,6.117609739303588867e-01,6.117417812347412109e-01,6.117225885391235352e-01,6.117033958435058594e-01,6.116842031478881836e-01,6.116650104522705078e-01,6.116458177566528320e-01,6.116266846656799316e-01,6.116074323654174805e-01,6.115882396697998047e-01,6.115691065788269043e-01,6.115499138832092285e-01,6.115307211875915527e-01,6.115115284919738770e-01,6.114923954010009766e-01,6.114732027053833008e-01,6.114540100097656250e-01,6.114348173141479492e-01,6.114156842231750488e-01,6.113964915275573730e-01,6.113772988319396973e-01,6.113581061363220215e-01,6.113389730453491211e-01,6.113198399543762207e-01,6.113006472587585449e-01,6.112814545631408691e-01,6.112623214721679688e-01,6.112431287765502930e-01,6.112239360809326172e-01,6.112048029899597168e-01,6.111856698989868164e-01,6.111665368080139160e-01,6.111473441123962402e-01,6.111281514167785645e-01,6.111090183258056641e-01,6.110898852348327637e-01,6.110706925392150879e-01,6.110515594482421875e-01,6.110324263572692871e-01,6.110132932662963867e-01,6.109941005706787109e-01,6.109749674797058105e-01,6.109558343887329102e-01,6.109367012977600098e-01,6.109175086021423340e-01,6.108983755111694336e-01,6.108792424201965332e-01,6.108601093292236328e-01,6.108409762382507324e-01,6.108218431472778320e-01,6.108027100563049316e-01,6.107835769653320312e-01,6.107644438743591309e-01,6.107453107833862305e-01,6.107261776924133301e-01,6.107070446014404297e-01,6.106879115104675293e-01,6.106687784194946289e-01,6.106496453285217285e-01,6.106305718421936035e-01,6.106113791465759277e-01,6.105923056602478027e-01,6.105731725692749023e-01,6.105540394783020020e-01,6.105349063873291016e-01,6.105158329010009766e-01,6.104966998100280762e-01,6.104776263236999512e-01,6.104584336280822754e-01,6.104393601417541504e-01,6.104202270507812500e-01,6.104011535644531250e-01,6.103820204734802246e-01,6.103628873825073242e-01,6.103438138961791992e-01
