3.098170518875122070e+00,3.176751375198364258e+00,3.259421586990356445e+00,3.346509933471679688e+00,3.438380002975463867e+00,3.535436391830444336e+00,3.638131380081176758e+00,3.746970891952514648e+00,3.862522840499877930e+00,3.985450029373168945e+00,4.116459369659423828e+00,4.256374359130859375e+00,4.406135082244873047e+00,4.566819667816162109e+00,4.739666461944580078e+00,4.926112651824951172e+00,5.000000000000000000e+00,5.000000000000000000e+00,5.000000000000000000e+00,5.000000000000000000e+00,5.000000000000000000e+00,5.000000000000000000e+00,5.000000000000000000e+00,5.000000000000000000e+00,5.000000000000000000e+00,5.000000000000000000e+00,5.000000000000000000e+00,5.000000000000000000e+00,5.000000000000000000e+00,5.000000000000000000e+00,5.000000000000000000e+00,5.000000000000000000e+00,5.000000000000000000e+00,5.000000000000000000e+00,5.000000000000000000e+00,5.000000000000000000e+00,5.000000000000000000e+00,5.000000000000000000e+00,5.000000000000000000e+00,5.000000000000000000e+00,5.000000000000000000e+00,5.000000000000000000e+00,5.000000000000000000e+00,5.000000000000000000e+00,5.000000000000000000e+00,5.000000000000000000e+00,5.000000000000000000e+00,5.000000000000000000e+00,5.000000000000000000e+00,5.000000000000000000e+00,5.000000000000000000e+00,2.722414016723632812e+00,2.686392307281494141e+00,2.678247213363647461e+00,2.617840051651000977e+00,2.589786767959594727e+00,2.575138807296752930e+00,2.568428516387939453e+00,2.574616670608520508e+00,2.665345907211303711e+00,2.668478727340698242e+00,2.688915729522705078e+00,5.000000000000000000e+00,5.000000000000000000e+00,5.000000000000000000e+00,5.000000000000000000e+00,5.000000000000000000e+00,5.000000000000000000e+00,5.000000000000000000e+00,5.000000000000000000e+00,4.844810962677001953e+00,4.686343193054199219e+00,4.537914276123046875e+00,4.398598670959472656e+00,4.267581939697265625e+00,4.144145011901855469e+00,4.027647495269775391e+00,3.917521238327026367e+00,3.813256740570068359e+00,3.714398622512817383e+00
3.098104715347290039e+00,3.176682233810424805e+00,3.259349107742309570e+00,3.346433639526367188e+00,3.438299417495727539e+00,3.535350799560546875e+00,3.638040781021118164e+00,3.746874570846557617e+00,3.862421035766601562e+00,3.985320806503295898e+00,4.116320610046386719e+00,4.256226539611816406e+00,4.405976772308349609e+00,4.566648960113525391e+00,4.739483356475830078e+00,4.925914287567138672e+00,5.000000000000000000e+00,5.000000000000000000e+00,5.000000000000000000e+00,5.000000000000000000e+00,5.000000000000000000e+00,5.000000000000000000e+00,5.000000000000000000e+00,5.000000000000000000e+00,5.000000000000000000e+00,5.000000000000000000e+00,5.000000000000000000e+00,5.000000000000000000e+00,5.000000000000000000e+00,5.000000000000000000e+00,5.000000000000000000e+00,5.000000000000000000e+00,5.000000000000000000e+00,5.000000000000000000e+00,5.000000000000000000e+00,5.000000000000000000e+00,5.000000000000000000e+00,5.000000000000000000e+00,5.000000000000000000e+00,5.000000000000000000e+00,5.000000000000000000e+00,5.000000000000000000e+00,5.000000000000000000e+00,5.000000000000000000e+00,5.000000000000000000e+00,5.000000000000000000e+00,5.000000000000000000e+00,5.000000000000000000e+00,5.000000000000000000e+00,5.000000000000000000e+00,5.000000000000000000e+00,2.725822925567626953e+00,2.695415019989013672e+00,2.674919366836547852e+00,2.605117321014404297e+00,2.581169128417968750e+00,2.571648597717285156e+00,2.558286905288696289e+00,2.562794923782348633e+00,2.608153581619262695e+00,2.686720132827758789e+00,2.704093217849731445e+00,5.000000000000000000e+00,5.000000000000000000e+00,5.000000000000000000e+00,5.000000000000000000e+00,5.000000000000000000e+00,5.000000000000000000e+00,5.000000000000000000e+00,5.000000000000000000e+00,4.844936847686767578e+00,4.686461448669433594e+00,4.538024425506591797e+00,4.398702144622802734e+00,4.267679691314697266e+00,4.144237041473388672e+00,4.027734756469726562e+00,3.917603731155395508e+00,3.813334703445434570e+00,3.714472532272338867e+00
3.098039150238037109e+00,3.176613330841064453e+00,3.259276390075683594e+00,3.346356868743896484e+00,3.438218355178833008e+00,3.535265445709228516e+00,3.637950420379638672e+00,3.746778726577758789e+00,3.862319231033325195e+00,3.985211849212646484e+00,4.116182327270507812e+00,4.256078720092773438e+00,4.405818462371826172e+00,4.566478729248046875e+00,4.739299774169921875e+00,4.925716400146484375e+00,5.000000000000000000e+00,5.000000000000000000e+00,5.000000000000000000e+00,5.000000000000000000e+00,5.000000000000000000e+00,5.000000000000000000e+00,5.000000000000000000e+00,5.000000000000000000e+00,5.000000000000000000e+00,5.000000000000000000e+00,5.000000000000000000e+00,5.000000000000000000e+00,5.000000000000000000e+00,5.000000000000000000e+00,5.000000000000000000e+00,5.000000000000000000e+00,5.000000000000000000e+00,5.000000000000000000e+00,5.000000000000000000e+00,5.000000000000000000e+00,5.000000000000000000e+00,5.000000000000000000e+00,5.000000000000000000e+00,5.000000000000000000e+00,5.000000000000000000e+00,5.000000000000000000e+00,5.000000000000000000e+00,5.000000000000000000e+00,5.000000000000000000e+00,5.000000000000000000e+00,5.000000000000000000e+00,5.000000000000000000e+00,5.000000000000000000e+00,5.000000000000000000e+00,5.000000000000000000e+00,2.728498935699462891e+00,2.704229116439819336e+00,2.658275842666625977e+00,2.611943244934082031e+00,2.577845335006713867e+00,2.563375234603881836e+00,2.570114374160766602e+00,2.578587293624877930e+00,2.607050657272338867e+00,2.694204807281494141e+00,2.707800149917602539e+00,5.000000000000000000e+00,5.000000000000000000e+00,5.000000000000000000e+00,5.000000000000000000e+00,5.000000000000000000e+00,5.000000000000000000e+00,5.000000000000000000e+00,5.000000000000000000e+00,4.845062732696533203e+00,4.686579227447509766e+00,4.538135051727294922e+00,4.398806095123291016e+00,4.267777442932128906e+00,4.144329071044921875e+00,4.027821540832519531e+00,3.917685985565185547e+00,3.813413143157958984e+00,3.714546680450439453e+00
3.097973346710205078e+00,3.176544189453125000e+00,3.259203910827636719e+00,3.346280574798583984e+00,3.438137531280517578e+00,3.535180091857910156e+00,3.637859582901000977e+00,3.746682643890380859e+00,3.862216949462890625e+00,3.985103368759155273e+00,4.116066455841064453e+00,4.255930423736572266e+00,4.405659675598144531e+00,4.566308498382568359e+00,4.739116668701171875e+00,4.925518035888671875e+00,5.000000000000000000e+00,5.000000000000000000e+00,5.000000000000000000e+00,5.000000000000000000e+00,5.000000000000000000e+00,5.000000000000000000e+00,5.000000000000000000e+00,5.000000000000000000e+00,5.000000000000000000e+00,5.000000000000000000e+00,5.000000000000000000e+00,5.000000000000000000e+00,5.000000000000000000e+00,5.000000000000000000e+00,5.000000000000000000e+00,5.000000000000000000e+00,5.000000000000000000e+00,5.000000000000000000e+00,5.000000000000000000e+00,5.000000000000000000e+00,5.000000000000000000e+00,5.000000000000000000e+00,5.000000000000000000e+00,5.000000000000000000e+00,5.000000000000000000e+00,5.000000000000000000e+00,5.000000000000000000e+00,5.000000000000000000e+00,5.000000000000000000e+00,5.000000000000000000e+00,5.000000000000000000e+00,5.000000000000000000e+00,5.000000000000000000e+00,5.000000000000000000e+00,5.000000000000000000e+00,2.680697202682495117e+00,2.670992136001586914e+00,2.660141944885253906e+00,2.613431215286254883e+00,2.590263843536376953e+00,2.573676824569702148e+00,2.573638677597045898e+00,2.580482006072998047e+00,2.613568544387817383e+00,2.687633991241455078e+00,2.686793088912963867e+00,5.000000000000000000e+00,5.000000000000000000e+00,5.000000000000000000e+00,5.000000000000000000e+00,5.000000000000000000e+00,5.000000000000000000e+00,5.000000000000000000e+00,5.000000000000000000e+00,4.845188617706298828e+00,4.686697006225585938e+00,4.538245677947998047e+00,4.398910045623779297e+00,4.267875671386718750e+00,4.144421577453613281e+00,4.027908802032470703e+00,3.917768239974975586e+00,3.813491344451904297e+00,3.714620590209960938e+00
3.097908020019531250e+00,3.176475286483764648e+00,3.259131431579589844e+00,3.346203804016113281e+00,3.438056707382202148e+00,3.535094499588012695e+00,3.637769460678100586e+00,3.746586799621582031e+00,3.862115144729614258e+00,3.984994649887084961e+00,4.115950584411621094e+00,4.255806446075439453e+00,4.405501365661621094e+00,4.566138267517089844e+00,4.738932609558105469e+00,4.925320148468017578e+00,5.000000000000000000e+00,5.000000000000000000e+00,5.000000000000000000e+00,5.000000000000000000e+00,5.000000000000000000e+00,5.000000000000000000e+00,5.000000000000000000e+00,5.000000000000000000e+00,5.000000000000000000e+00,5.000000000000000000e+00,5.000000000000000000e+00,5.000000000000000000e+00,5.000000000000000000e+00,5.000000000000000000e+00,5.000000000000000000e+00,5.000000000000000000e+00,5.000000000000000000e+00,5.000000000000000000e+00,5.000000000000000000e+00,5.000000000000000000e+00,5.000000000000000000e+00,5.000000000000000000e+00,5.000000000000000000e+00,5.000000000000000000e+00,5.000000000000000000e+00,5.000000000000000000e+00,5.000000000000000000e+00,5.000000000000000000e+00,5.000000000000000000e+00,5.000000000000000000e+00,5.000000000000000000e+00,5.000000000000000000e+00,5.000000000000000000e+00,5.000000000000000000e+00,5.000000000000000000e+00,2.648436307907104492e+00,2.647280931472778320e+00,2.657170057296752930e+00,2.618494510650634766e+00,2.603334903717041016e+00,2.594438314437866211e+00,2.582612037658691406e+00,2.558190345764160156e+00,2.562619209289550781e+00,2.687444686889648438e+00,2.681563615798950195e+00,5.000000000000000000e+00,5.000000000000000000e+00,5.000000000000000000e+00,5.000000000000000000e+00,5.000000000000000000e+00,5.000000000000000000e+00,5.000000000000000000e+00,5.000000000000000000e+00,4.845314979553222656e+00,4.686814785003662109e+00,4.538356304168701172e+00,4.399013519287109375e+00,4.267972946166992188e+00,4.144513607025146484e+00,4.027996063232421875e+00,3.917850732803344727e+00,3.813569307327270508e+00,3.714694499969482422e+00
3.097842216491699219e+00,3.176406145095825195e+00,3.259058475494384766e+00,3.346127271652221680e+00,3.437975883483886719e+00,3.535009145736694336e+00,3.637678623199462891e+00,3.746490478515625000e+00,3.862013101577758789e+00,3.984886169433593750e+00,4.115834712982177734e+00,4.255682468414306641e+00,4.405367851257324219e+00,4.565968036651611328e+00,4.738749504089355469e+00,4.925122261047363281e+00,5.000000000000000000e+00,5.000000000000000000e+00,5.000000000000000000e+00,5.000000000000000000e+00,5.000000000000000000e+00,5.000000000000000000e+00,5.000000000000000000e+00,5.000000000000000000e+00,5.000000000000000000e+00,5.000000000000000000e+00,5.000000000000000000e+00,5.000000000000000000e+00,5.000000000000000000e+00,5.000000000000000000e+00,5.000000000000000000e+00,5.000000000000000000e+00,5.000000000000000000e+00,5.000000000000000000e+00,5.000000000000000000e+00,5.000000000000000000e+00,5.000000000000000000e+00,5.000000000000000000e+00,5.000000000000000000e+00,5.000000000000000000e+00,5.000000000000000000e+00,5.000000000000000000e+00,5.000000000000000000e+00,5.000000000000000000e+00,5.000000000000000000e+00,5.000000000000000000e+00,5.000000000000000000e+00,5.000000000000000000e+00,5.000000000000000000e+00,5.000000000000000000e+00,5.000000000000000000e+00,2.608922243118286133e+00,2.626379251480102539e+00,2.658315896987915039e+00,2.626096010208129883e+00,2.630721807479858398e+00,2.588929414749145508e+00,2.525994062423706055e+00,2.510879278182983398e+00,2.522420406341552734e+00,2.687383651733398438e+00,2.672388792037963867e+00,5.000000000000000000e+00,5.000000000000000000e+00,5.000000000000000000e+00,5.000000000000000000e+00,5.000000000000000000e+00,5.000000000000000000e+00,5.000000000000000000e+00,5.000000000000000000e+00,4.845440864562988281e+00,4.686932563781738281e+00,4.538466930389404297e+00,4.399117469787597656e+00,4.268070697784423828e+00,4.144606113433837891e+00,4.028082847595214844e+00,3.917933464050292969e+00,3.813647270202636719e+00,3.714768648147583008e+00
3.097776651382446289e+00,3.176337242126464844e+00,3.258985996246337891e+00,3.346050500869750977e+00,3.437895059585571289e+00,3.534923553466796875e+00,3.637588262557983398e+00,3.746394872665405273e+00,3.861911296844482422e+00,3.984777927398681641e+00,4.115718841552734375e+00,4.255558490753173828e+00,4.405234813690185547e+00,4.565823554992675781e+00,4.738565921783447266e+00,4.924923896789550781e+00,5.000000000000000000e+00,5.000000000000000000e+00,5.000000000000000000e+00,5.000000000000000000e+00,5.000000000000000000e+00,5.000000000000000000e+00,5.000000000000000000e+00,5.000000000000000000e+00,5.000000000000000000e+00,5.000000000000000000e+00,5.000000000000000000e+00,5.000000000000000000e+00,5.000000000000000000e+00,5.000000000000000000e+00,5.000000000000000000e+00,5.000000000000000000e+00,5.000000000000000000e+00,5.000000000000000000e+00,5.000000000000000000e+00,5.000000000000000000e+00,5.000000000000000000e+00,5.000000000000000000e+00,5.000000000000000000e+00,5.000000000000000000e+00,5.000000000000000000e+00,5.000000000000000000e+00,5.000000000000000000e+00,5.000000000000000000e+00,5.000000000000000000e+00,5.000000000000000000e+00,5.000000000000000000e+00,5.000000000000000000e+00,5.000000000000000000e+00,5.000000000000000000e+00,5.000000000000000000e+00,2.589931011199951172e+00,5.000000000000000000e+00,2.658904790878295898e+00,2.626236677169799805e+00,2.634479761123657227e+00,2.554197311401367188e+00,2.504960060119628906e+00,2.490182399749755859e+00,2.501304388046264648e+00,2.701336145401000977e+00,2.680698156356811523e+00,5.000000000000000000e+00,5.000000000000000000e+00,5.000000000000000000e+00,5.000000000000000000e+00,5.000000000000000000e+00,5.000000000000000000e+00,5.000000000000000000e+00,5.000000000000000000e+00,4.845566749572753906e+00,4.687050819396972656e+00,4.538577079772949219e+00,4.399221420288085938e+00,4.268168449401855469e+00,4.144698143005371094e+00,4.028170108795166016e+00,3.918015718460083008e+00,3.813725233078002930e+00,3.714842557907104492e+00
3.097763061523437500e+00,3.176292419433593750e+00,3.258913278579711914e+00,3.345974206924438477e+00,3.437814235687255859e+00,3.534838199615478516e+00,3.637498140335083008e+00,3.746298551559448242e+00,3.861809015274047852e+00,3.984668970108032227e+00,4.115602970123291016e+00,4.255434513092041016e+00,4.405102252960205078e+00,4.565680980682373047e+00,4.738410472869873047e+00,4.924725532531738281e+00,5.000000000000000000e+00,5.000000000000000000e+00,5.000000000000000000e+00,5.000000000000000000e+00,5.000000000000000000e+00,5.000000000000000000e+00,5.000000000000000000e+00,5.000000000000000000e+00,5.000000000000000000e+00,5.000000000000000000e+00,5.000000000000000000e+00,5.000000000000000000e+00,5.000000000000000000e+00,5.000000000000000000e+00,5.000000000000000000e+00,5.000000000000000000e+00,5.000000000000000000e+00,5.000000000000000000e+00,5.000000000000000000e+00,5.000000000000000000e+00,5.000000000000000000e+00,5.000000000000000000e+00,5.000000000000000000e+00,5.000000000000000000e+00,5.000000000000000000e+00,5.000000000000000000e+00,5.000000000000000000e+00,5.000000000000000000e+00,5.000000000000000000e+00,5.000000000000000000e+00,5.000000000000000000e+00,5.000000000000000000e+00,5.000000000000000000e+00,5.000000000000000000e+00,5.000000000000000000e+00,2.550185203552246094e+00,5.000000000000000000e+00,2.661625623703002930e+00,2.627460479736328125e+00,2.635724544525146484e+00,2.544167041778564453e+00,2.489130496978759766e+00,2.471647500991821289e+00,2.485109806060791016e+00,2.676812410354614258e+00,2.669474601745605469e+00,5.000000000000000000e+00,5.000000000000000000e+00,5.000000000000000000e+00,5.000000000000000000e+00,5.000000000000000000e+00,5.000000000000000000e+00,5.000000000000000000e+00,5.000000000000000000e+00,4.845692634582519531e+00,4.687168598175048828e+00,4.538687705993652344e+00,4.399325370788574219e+00,4.268266201019287109e+00,4.144790172576904297e+00,4.028256893157958984e+00,3.918098211288452148e+00,3.813803434371948242e+00,3.714916706085205078e+00
3.097763061523437500e+00,3.176292419433593750e+00,3.258907318115234375e+00,3.345934152603149414e+00,3.437736749649047852e+00,3.534752607345581055e+00,3.637407302856445312e+00,3.746202707290649414e+00,3.861707210540771484e+00,3.984560728073120117e+00,4.115487098693847656e+00,4.255311012268066406e+00,4.404969692230224609e+00,4.565538406372070312e+00,4.738256931304931641e+00,4.924557209014892578e+00,5.000000000000000000e+00,5.000000000000000000e+00,5.000000000000000000e+00,5.000000000000000000e+00,5.000000000000000000e+00,5.000000000000000000e+00,5.000000000000000000e+00,5.000000000000000000e+00,5.000000000000000000e+00,5.000000000000000000e+00,5.000000000000000000e+00,5.000000000000000000e+00,5.000000000000000000e+00,5.000000000000000000e+00,5.000000000000000000e+00,5.000000000000000000e+00,5.000000000000000000e+00,5.000000000000000000e+00,5.000000000000000000e+00,5.000000000000000000e+00,5.000000000000000000e+00,5.000000000000000000e+00,5.000000000000000000e+00,5.000000000000000000e+00,5.000000000000000000e+00,5.000000000000000000e+00,5.000000000000000000e+00,5.000000000000000000e+00,5.000000000000000000e+00,5.000000000000000000e+00,5.000000000000000000e+00,5.000000000000000000e+00,5.000000000000000000e+00,5.000000000000000000e+00,2.553540229797363281e+00,5.000000000000000000e+00,5.000000000000000000e+00,2.672805309295654297e+00,2.637079715728759766e+00,2.643921613693237305e+00,2.531466245651245117e+00,2.470352172851562500e+00,2.454148292541503906e+00,2.469377040863037109e+00,2.656109571456909180e+00,2.651069641113281250e+00,5.000000000000000000e+00,5.000000000000000000e+00,5.000000000000000000e+00,5.000000000000000000e+00,5.000000000000000000e+00,5.000000000000000000e+00,5.000000000000000000e+00,5.000000000000000000e+00,4.845818519592285156e+00,4.687286376953125000e+00,4.538798332214355469e+00,4.399429321289062500e+00,4.268364429473876953e+00,4.144882202148437500e+00,4.028344631195068359e+00,3.918180465698242188e+00,3.813881397247314453e+00,3.714990615844726562e+00
3.097747325897216797e+00,3.176292419433593750e+00,3.258907318115234375e+00,3.345934391021728516e+00,3.437736749649047852e+00,3.534719228744506836e+00,3.637331962585449219e+00,3.746106624603271484e+00,3.861604928970336914e+00,3.984451770782470703e+00,4.115371227264404297e+00,4.255187034606933594e+00,4.404836654663085938e+00,4.565396308898925781e+00,4.738103389739990234e+00,4.924391269683837891e+00,5.000000000000000000e+00,5.000000000000000000e+00,5.000000000000000000e+00,5.000000000000000000e+00,5.000000000000000000e+00,5.000000000000000000e+00,5.000000000000000000e+00,5.000000000000000000e+00,5.000000000000000000e+00,5.000000000000000000e+00,5.000000000000000000e+00,5.000000000000000000e+00,5.000000000000000000e+00,5.000000000000000000e+00,5.000000000000000000e+00,5.000000000000000000e+00,5.000000000000000000e+00,5.000000000000000000e+00,5.000000000000000000e+00,5.000000000000000000e+00,5.000000000000000000e+00,5.000000000000000000e+00,5.000000000000000000e+00,5.000000000000000000e+00,5.000000000000000000e+00,5.000000000000000000e+00,5.000000000000000000e+00,5.000000000000000000e+00,5.000000000000000000e+00,5.000000000000000000e+00,5.000000000000000000e+00,5.000000000000000000e+00,5.000000000000000000e+00,5.000000000000000000e+00,2.512190580368041992e+00,5.000000000000000000e+00,5.000000000000000000e+00,2.687473297119140625e+00,2.650969982147216797e+00,2.657463550567626953e+00,2.514971494674682617e+00,2.453156232833862305e+00,2.431475400924682617e+00,2.472232818603515625e+00,2.653495788574218750e+00,2.641072034835815430e+00,5.000000000000000000e+00,5.000000000000000000e+00,5.000000000000000000e+00,5.000000000000000000e+00,5.000000000000000000e+00,5.000000000000000000e+00,5.000000000000000000e+00,5.000000000000000000e+00,4.845944881439208984e+00,4.687404155731201172e+00,4.538908958435058594e+00,4.399533271789550781e+00,4.268462181091308594e+00,4.144974708557128906e+00,4.028431415557861328e+00,3.918262720108032227e+00,3.813959360122680664e+00,3.715064764022827148e+00
3.097681283950805664e+00,3.176237106323242188e+00,3.258880853652954102e+00,3.345934391021728516e+00,3.437736749649047852e+00,3.534719228744506836e+00,3.637331962585449219e+00,3.746081113815307617e+00,3.861533403396606445e+00,3.984343528747558594e+00,4.115255832672119141e+00,4.255063056945800781e+00,4.404704093933105469e+00,4.565253734588623047e+00,4.737949848175048828e+00,4.924225330352783203e+00,5.000000000000000000e+00,5.000000000000000000e+00,5.000000000000000000e+00,5.000000000000000000e+00,5.000000000000000000e+00,5.000000000000000000e+00,5.000000000000000000e+00,5.000000000000000000e+00,5.000000000000000000e+00,5.000000000000000000e+00,5.000000000000000000e+00,5.000000000000000000e+00,5.000000000000000000e+00,5.000000000000000000e+00,5.000000000000000000e+00,5.000000000000000000e+00,5.000000000000000000e+00,5.000000000000000000e+00,5.000000000000000000e+00,5.000000000000000000e+00,5.000000000000000000e+00,5.000000000000000000e+00,5.000000000000000000e+00,5.000000000000000000e+00,5.000000000000000000e+00,5.000000000000000000e+00,5.000000000000000000e+00,5.000000000000000000e+00,5.000000000000000000e+00,5.000000000000000000e+00,5.000000000000000000e+00,5.000000000000000000e+00,5.000000000000000000e+00,5.000000000000000000e+00,5.000000000000000000e+00,5.000000000000000000e+00,5.000000000000000000e+00,2.704016447067260742e+00,2.665090084075927734e+00,2.669548749923706055e+00,2.491912603378295898e+00,2.432646989822387695e+00,2.409218072891235352e+00,5.000000000000000000e+00,5.000000000000000000e+00,2.638350486755371094e+00,5.000000000000000000e+00,5.000000000000000000e+00,5.000000000000000000e+00,5.000000000000000000e+00,5.000000000000000000e+00,5.000000000000000000e+00,5.000000000000000000e+00,5.000000000000000000e+00,4.846071243286132812e+00,4.687522411346435547e+00,4.539019584655761719e+00,4.399636745452880859e+00,4.268559932708740234e+00,4.145066738128662109e+00,4.028518676757812500e+00,3.918345212936401367e+00,3.814037322998046875e+00,3.715139150619506836e+00
3.097615003585815430e+00,3.176167726516723633e+00,3.258807897567749023e+00,3.345863342285156250e+00,3.437697649002075195e+00,3.534715414047241211e+00,3.637332439422607422e+00,3.746081113815307617e+00,3.861533403396606445e+00,3.984327793121337891e+00,4.115188598632812500e+00,4.254939079284667969e+00,4.404571533203125000e+00,4.565111160278320312e+00,4.737796306610107422e+00,4.924059867858886719e+00,5.000000000000000000e+00,5.000000000000000000e+00,5.000000000000000000e+00,5.000000000000000000e+00,5.000000000000000000e+00,5.000000000000000000e+00,5.000000000000000000e+00,5.000000000000000000e+00,5.000000000000000000e+00,5.000000000000000000e+00,5.000000000000000000e+00,5.000000000000000000e+00,5.000000000000000000e+00,5.000000000000000000e+00,5.000000000000000000e+00,5.000000000000000000e+00,5.000000000000000000e+00,5.000000000000000000e+00,5.000000000000000000e+00,5.000000000000000000e+00,5.000000000000000000e+00,5.000000000000000000e+00,5.000000000000000000e+00,5.000000000000000000e+00,5.000000000000000000e+00,5.000000000000000000e+00,5.000000000000000000e+00,5.000000000000000000e+00,5.000000000000000000e+00,5.000000000000000000e+00,5.000000000000000000e+00,5.000000000000000000e+00,5.000000000000000000e+00,5.000000000000000000e+00,5.000000000000000000e+00,5.000000000000000000e+00,5.000000000000000000e+00,2.718272924423217773e+00,2.678373813629150391e+00,2.681640625000000000e+00,2.479460239410400391e+00,2.414820432662963867e+00,2.393128156661987305e+00,5.000000000000000000e+00,5.000000000000000000e+00,5.000000000000000000e+00,5.000000000000000000e+00,5.000000000000000000e+00,5.000000000000000000e+00,5.000000000000000000e+00,5.000000000000000000e+00,5.000000000000000000e+00,5.000000000000000000e+00,5.000000000000000000e+00,4.846197128295898438e+00,4.687640190124511719e+00,4.539130210876464844e+00,4.399741172790527344e+00,4.268657684326171875e+00,4.145159244537353516e+00,4.028605461120605469e+00,3.918427467346191406e+00,3.814115524291992188e+00,3.715213298797607422e+00
3.097549438476562500e+00,3.176098108291625977e+00,3.258734703063964844e+00,3.345786333084106445e+00,3.437616348266601562e+00,3.534629344940185547e+00,3.637277364730834961e+00,3.746065139770507812e+00,3.861533403396606445e+00,3.984328269958496094e+00,4.115189075469970703e+00,4.254937648773193359e+00,4.404511451721191406e+00,4.564984321594238281e+00,4.737642765045166016e+00,4.923893928527832031e+00,5.000000000000000000e+00,5.000000000000000000e+00,5.000000000000000000e+00,5.000000000000000000e+00,5.000000000000000000e+00,5.000000000000000000e+00,5.000000000000000000e+00,5.000000000000000000e+00,5.000000000000000000e+00,5.000000000000000000e+00,5.000000000000000000e+00,5.000000000000000000e+00,5.000000000000000000e+00,5.000000000000000000e+00,5.000000000000000000e+00,5.000000000000000000e+00,5.000000000000000000e+00,5.000000000000000000e+00,5.000000000000000000e+00,5.000000000000000000e+00,5.000000000000000000e+00,5.000000000000000000e+00,5.000000000000000000e+00,5.000000000000000000e+00,5.000000000000000000e+00,5.000000000000000000e+00,5.000000000000000000e+00,5.000000000000000000e+00,5.000000000000000000e+00,5.000000000000000000e+00,5.000000000000000000e+00,5.000000000000000000e+00,5.000000000000000000e+00,5.000000000000000000e+00,5.000000000000000000e+00,5.000000000000000000e+00,5.000000000000000000e+00,5.000000000000000000e+00,2.688910484313964844e+00,2.692444801330566406e+00,2.474036931991577148e+00,2.412580490112304688e+00,2.394254207611083984e+00,5.000000000000000000e+00,5.000000000000000000e+00,5.000000000000000000e+00,5.000000000000000000e+00,5.000000000000000000e+00,5.000000000000000000e+00,5.000000000000000000e+00,5.000000000000000000e+00,5.000000000000000000e+00,5.000000000000000000e+00,5.000000000000000000e+00,4.846323013305664062e+00,4.687758445739746094e+00,4.539240837097167969e+00,4.399845123291015625e+00,4.268755435943603516e+00,4.145251274108886719e+00,4.028692722320556641e+00,3.918509960174560547e+00,3.814195632934570312e+00,3.715292692184448242e+00
3.097483396530151367e+00,3.176028966903686523e+00,3.258661985397338867e+00,3.345709323883056641e+00,3.437535047531127930e+00,3.534543275833129883e+00,3.637186288833618164e+00,3.745968580245971680e+00,3.861458778381347656e+00,3.984296560287475586e+00,4.115189075469970703e+00,4.254937648773193359e+00,4.404511451721191406e+00,4.564984321594238281e+00,4.737593173980712891e+00,4.923767566680908203e+00,5.000000000000000000e+00,5.000000000000000000e+00,5.000000000000000000e+00,5.000000000000000000e+00,5.000000000000000000e+00,5.000000000000000000e+00,5.000000000000000000e+00,5.000000000000000000e+00,5.000000000000000000e+00,5.000000000000000000e+00,5.000000000000000000e+00,5.000000000000000000e+00,5.000000000000000000e+00,5.000000000000000000e+00,5.000000000000000000e+00,5.000000000000000000e+00,5.000000000000000000e+00,5.000000000000000000e+00,5.000000000000000000e+00,5.000000000000000000e+00,5.000000000000000000e+00,5.000000000000000000e+00,5.000000000000000000e+00,5.000000000000000000e+00,5.000000000000000000e+00,5.000000000000000000e+00,5.000000000000000000e+00,5.000000000000000000e+00,5.000000000000000000e+00,5.000000000000000000e+00,5.000000000000000000e+00,5.000000000000000000e+00,5.000000000000000000e+00,5.000000000000000000e+00,5.000000000000000000e+00,5.000000000000000000e+00,5.000000000000000000e+00,5.000000000000000000e+00,2.699530124664306641e+00,2.701537847518920898e+00,2.492636203765869141e+00,2.423323631286621094e+00,2.412417650222778320e+00,5.000000000000000000e+00,5.000000000000000000e+00,5.000000000000000000e+00,5.000000000000000000e+00,5.000000000000000000e+00,5.000000000000000000e+00,5.000000000000000000e+00,5.000000000000000000e+00,5.000000000000000000e+00,5.000000000000000000e+00,5.000000000000000000e+00,4.846448898315429688e+00,4.687876224517822266e+00,4.539350986480712891e+00,4.399948596954345703e+00,4.268853187561035156e+00,4.145343303680419922e+00,4.028784275054931641e+00,3.918600559234619141e+00,3.814283132553100586e+00,3.715375661849975586e+00
3.097417354583740234e+00,3.175959587097167969e+00,3.258588790893554688e+00,3.345632553100585938e+00,3.437453985214233398e+00,3.534457445144653320e+00,3.637095212936401367e+00,3.745872020721435547e+00,3.861356019973754883e+00,3.984187364578247070e+00,4.115089893341064453e+00,4.254886150360107422e+00,4.404511928558349609e+00,4.564984798431396484e+00,4.737593173980712891e+00,4.923767566680908203e+00,5.000000000000000000e+00,5.000000000000000000e+00,5.000000000000000000e+00,5.000000000000000000e+00,5.000000000000000000e+00,5.000000000000000000e+00,5.000000000000000000e+00,5.000000000000000000e+00,5.000000000000000000e+00,5.000000000000000000e+00,5.000000000000000000e+00,5.000000000000000000e+00,5.000000000000000000e+00,5.000000000000000000e+00,5.000000000000000000e+00,5.000000000000000000e+00,5.000000000000000000e+00,5.000000000000000000e+00,5.000000000000000000e+00,5.000000000000000000e+00,5.000000000000000000e+00,5.000000000000000000e+00,5.000000000000000000e+00,5.000000000000000000e+00,5.000000000000000000e+00,5.000000000000000000e+00,5.000000000000000000e+00,5.000000000000000000e+00,5.000000000000000000e+00,5.000000000000000000e+00,5.000000000000000000e+00,5.000000000000000000e+00,5.000000000000000000e+00,5.000000000000000000e+00,5.000000000000000000e+00,5.000000000000000000e+00,5.000000000000000000e+00,5.000000000000000000e+00,2.715254306793212891e+00,2.715745449066162109e+00,5.000000000000000000e+00,2.439802885055541992e+00,2.427169799804687500e+00,5.000000000000000000e+00,5.000000000000000000e+00,5.000000000000000000e+00,5.000000000000000000e+00,5.000000000000000000e+00,5.000000000000000000e+00,5.000000000000000000e+00,5.000000000000000000e+00,5.000000000000000000e+00,5.000000000000000000e+00,5.000000000000000000e+00,4.846575260162353516e+00,4.687994003295898438e+00,4.539462089538574219e+00,4.400055408477783203e+00,4.268958568572998047e+00,4.145447254180908203e+00,4.028882026672363281e+00,3.918693065643310547e+00,3.814370870590209961e+00,3.715458869934082031e+00
3.097351074218750000e+00,3.175890207290649414e+00,3.258515834808349609e+00,3.345555543899536133e+00,3.437372684478759766e+00,3.534371852874755859e+00,3.637004375457763672e+00,3.745775461196899414e+00,3.861253499984741211e+00,3.984078168869018555e+00,4.114973068237304688e+00,4.254761695861816406e+00,4.404381752014160156e+00,4.564908027648925781e+00,4.737577915191650391e+00,4.923768043518066406e+00,5.000000000000000000e+00,5.000000000000000000e+00,5.000000000000000000e+00,5.000000000000000000e+00,5.000000000000000000e+00,5.000000000000000000e+00,5.000000000000000000e+00,5.000000000000000000e+00,5.000000000000000000e+00,5.000000000000000000e+00,5.000000000000000000e+00,5.000000000000000000e+00,5.000000000000000000e+00,5.000000000000000000e+00,5.000000000000000000e+00,5.000000000000000000e+00,5.000000000000000000e+00,5.000000000000000000e+00,5.000000000000000000e+00,5.000000000000000000e+00,5.000000000000000000e+00,5.000000000000000000e+00,5.000000000000000000e+00,5.000000000000000000e+00,5.000000000000000000e+00,5.000000000000000000e+00,5.000000000000000000e+00,5.000000000000000000e+00,5.000000000000000000e+00,5.000000000000000000e+00,5.000000000000000000e+00,5.000000000000000000e+00,5.000000000000000000e+00,5.000000000000000000e+00,5.000000000000000000e+00,5.000000000000000000e+00,5.000000000000000000e+00,5.000000000000000000e+00,2.768609285354614258e+00,2.771875381469726562e+00,5.000000000000000000e+00,2.450633287429809570e+00,2.432744741439819336e+00,2.475337743759155273e+00,5.000000000000000000e+00,5.000000000000000000e+00,5.000000000000000000e+00,5.000000000000000000e+00,5.000000000000000000e+00,5.000000000000000000e+00,5.000000000000000000e+00,5.000000000000000000e+00,5.000000000000000000e+00,5.000000000000000000e+00,4.846701145172119141e+00,4.688117980957031250e+00,4.539583683013916016e+00,4.400172233581542969e+00,4.269068241119384766e+00,4.145550727844238281e+00,4.028979778289794922e+00,3.918785810470581055e+00,3.814458847045898438e+00,3.715542316436767578e+00
3.097285509109497070e+00,3.175821065902709961e+00,3.258442640304565430e+00,3.345478534698486328e+00,3.437291383743286133e+00,3.534285783767700195e+00,3.636913299560546875e+00,3.745679140090942383e+00,3.861150741577148438e+00,3.983968734741210938e+00,4.114856719970703125e+00,4.254637241363525391e+00,4.404248237609863281e+00,4.564764499664306641e+00,4.737423896789550781e+00,4.923657894134521484e+00,5.000000000000000000e+00,5.000000000000000000e+00,5.000000000000000000e+00,5.000000000000000000e+00,5.000000000000000000e+00,5.000000000000000000e+00,5.000000000000000000e+00,5.000000000000000000e+00,5.000000000000000000e+00,5.000000000000000000e+00,5.000000000000000000e+00,5.000000000000000000e+00,5.000000000000000000e+00,5.000000000000000000e+00,5.000000000000000000e+00,5.000000000000000000e+00,5.000000000000000000e+00,5.000000000000000000e+00,5.000000000000000000e+00,5.000000000000000000e+00,5.000000000000000000e+00,5.000000000000000000e+00,5.000000000000000000e+00,5.000000000000000000e+00,5.000000000000000000e+00,5.000000000000000000e+00,5.000000000000000000e+00,5.000000000000000000e+00,5.000000000000000000e+00,5.000000000000000000e+00,5.000000000000000000e+00,5.000000000000000000e+00,5.000000000000000000e+00,5.000000000000000000e+00,5.000000000000000000e+00,5.000000000000000000e+00,5.000000000000000000e+00,5.000000000000000000e+00,2.859956741333007812e+00,2.856418132781982422e+00,5.000000000000000000e+00,2.448703289031982422e+00,2.429755926132202148e+00,5.000000000000000000e+00,5.000000000000000000e+00,5.000000000000000000e+00,5.000000000000000000e+00,5.000000000000000000e+00,5.000000000000000000e+00,5.000000000000000000e+00,5.000000000000000000e+00,5.000000000000000000e+00,5.000000000000000000e+00,5.000000000000000000e+00,4.846843242645263672e+00,4.688250541687011719e+00,4.539708137512207031e+00,4.400289058685302734e+00,4.269177913665771484e+00,4.145654201507568359e+00,4.029077529907226562e+00,3.918878316879272461e+00,3.814546346664428711e+00,3.715625524520874023e+00
3.097219467163085938e+00,3.175751686096191406e+00,3.258369922637939453e+00,3.345401763916015625e+00,3.437210083007812500e+00,3.534199714660644531e+00,3.636822223663330078e+00,3.745582580566406250e+00,3.861048698425292969e+00,3.983860015869140625e+00,4.114740371704101562e+00,4.254512786865234375e+00,4.404114723205566406e+00,4.564621448516845703e+00,4.737269401550292969e+00,4.923491477966308594e+00,5.000000000000000000e+00,5.000000000000000000e+00,5.000000000000000000e+00,5.000000000000000000e+00,5.000000000000000000e+00,5.000000000000000000e+00,5.000000000000000000e+00,5.000000000000000000e+00,5.000000000000000000e+00,5.000000000000000000e+00,5.000000000000000000e+00,5.000000000000000000e+00,5.000000000000000000e+00,5.000000000000000000e+00,5.000000000000000000e+00,5.000000000000000000e+00,5.000000000000000000e+00,5.000000000000000000e+00,5.000000000000000000e+00,5.000000000000000000e+00,5.000000000000000000e+00,5.000000000000000000e+00,5.000000000000000000e+00,5.000000000000000000e+00,5.000000000000000000e+00,5.000000000000000000e+00,5.000000000000000000e+00,5.000000000000000000e+00,5.000000000000000000e+00,5.000000000000000000e+00,5.000000000000000000e+00,5.000000000000000000e+00,5.000000000000000000e+00,5.000000000000000000e+00,5.000000000000000000e+00,5.000000000000000000e+00,5.000000000000000000e+00,5.000000000000000000e+00,2.908038139343261719e+00,2.898244142532348633e+00,5.000000000000000000e+00,2.445611953735351562e+00,2.427957534790039062e+00,5.000000000000000000e+00,5.000000000000000000e+00,5.000000000000000000e+00,5.000000000000000000e+00,5.000000000000000000e+00,5.000000000000000000e+00,5.000000000000000000e+00,5.000000000000000000e+00,5.000000000000000000e+00,5.000000000000000000e+00,5.000000000000000000e+00,4.846984863281250000e+00,4.688383102416992188e+00,4.539832115173339844e+00,4.400405406951904297e+00,4.269288063049316406e+00,4.145758152008056641e+00,4.029175758361816406e+00,3.918970823287963867e+00,3.814634084701538086e+00,3.715708494186401367e+00
3.097153425216674805e+00,3.175682067871093750e+00,3.258296728134155273e+00,3.345324754714965820e+00,3.437129020690917969e+00,3.534113645553588867e+00,3.636731386184692383e+00,3.745486021041870117e+00,3.860945940017700195e+00,3.983750820159912109e+00,4.114624023437500000e+00,4.254388332366943359e+00,4.403981208801269531e+00,4.564477920532226562e+00,4.737115383148193359e+00,4.923324584960937500e+00,5.000000000000000000e+00,5.000000000000000000e+00,5.000000000000000000e+00,5.000000000000000000e+00,5.000000000000000000e+00,5.000000000000000000e+00,5.000000000000000000e+00,5.000000000000000000e+00,5.000000000000000000e+00,5.000000000000000000e+00,5.000000000000000000e+00,5.000000000000000000e+00,5.000000000000000000e+00,5.000000000000000000e+00,5.000000000000000000e+00,5.000000000000000000e+00,5.000000000000000000e+00,5.000000000000000000e+00,5.000000000000000000e+00,5.000000000000000000e+00,5.000000000000000000e+00,5.000000000000000000e+00,5.000000000000000000e+00,5.000000000000000000e+00,5.000000000000000000e+00,5.000000000000000000e+00,5.000000000000000000e+00,5.000000000000000000e+00,5.000000000000000000e+00,5.000000000000000000e+00,5.000000000000000000e+00,5.000000000000000000e+00,5.000000000000000000e+00,5.000000000000000000e+00,5.000000000000000000e+00,5.000000000000000000e+00,5.000000000000000000e+00,5.000000000000000000e+00,2.977005243301391602e+00,2.941652536392211914e+00,5.000000000000000000e+00,2.442769050598144531e+00,2.430665493011474609e+00,5.000000000000000000e+00,5.000000000000000000e+00,5.000000000000000000e+00,5.000000000000000000e+00,5.000000000000000000e+00,5.000000000000000000e+00,5.000000000000000000e+00,5.000000000000000000e+00,5.000000000000000000e+00,5.000000000000000000e+00,5.000000000000000000e+00,4.847126483917236328e+00,4.688515663146972656e+00,4.539956569671630859e+00,4.400522232055664062e+00,4.269397735595703125e+00,4.145861625671386719e+00,4.029273509979248047e+00,3.919063806533813477e+00,3.814722061157226562e+00,3.715792179107666016e+00
3.097087621688842773e+00,3.175612688064575195e+00,3.258223772048950195e+00,3.345247507095336914e+00,3.437047719955444336e+00,3.534028053283691406e+00,3.636640548706054688e+00,3.745389461517333984e+00,3.860843420028686523e+00,3.983641624450683594e+00,4.114507675170898438e+00,4.254263877868652344e+00,4.403848171234130859e+00,4.564334869384765625e+00,4.736960887908935547e+00,4.923158168792724609e+00,5.000000000000000000e+00,5.000000000000000000e+00,5.000000000000000000e+00,5.000000000000000000e+00,5.000000000000000000e+00,5.000000000000000000e+00,5.000000000000000000e+00,5.000000000000000000e+00,5.000000000000000000e+00,5.000000000000000000e+00,5.000000000000000000e+00,5.000000000000000000e+00,5.000000000000000000e+00,5.000000000000000000e+00,5.000000000000000000e+00,5.000000000000000000e+00,5.000000000000000000e+00,5.000000000000000000e+00,5.000000000000000000e+00,5.000000000000000000e+00,5.000000000000000000e+00,5.000000000000000000e+00,5.000000000000000000e+00,5.000000000000000000e+00,5.000000000000000000e+00,5.000000000000000000e+00,5.000000000000000000e+00,5.000000000000000000e+00,5.000000000000000000e+00,5.000000000000000000e+00,5.000000000000000000e+00,5.000000000000000000e+00,5.000000000000000000e+00,5.000000000000000000e+00,5.000000000000000000e+00,5.000000000000000000e+00,5.000000000000000000e+00,5.000000000000000000e+00,3.074575901031494141e+00,2.988789558410644531e+00,5.000000000000000000e+00,2.440939903259277344e+00,2.433835983276367188e+00,5.000000000000000000e+00,5.000000000000000000e+00,5.000000000000000000e+00,5.000000000000000000e+00,5.000000000000000000e+00,5.000000000000000000e+00,5.000000000000000000e+00,5.000000000000000000e+00,5.000000000000000000e+00,5.000000000000000000e+00,5.000000000000000000e+00,4.847268104553222656e+00,4.688648223876953125e+00,4.540081024169921875e+00,4.400639057159423828e+00,4.269507884979248047e+00,4.145965099334716797e+00,4.029371261596679688e+00,3.919156074523925781e+00,3.814809799194335938e+00,3.715875148773193359e+00
3.097021579742431641e+00,3.175543546676635742e+00,3.258151054382324219e+00,3.345170497894287109e+00,3.436966419219970703e+00,3.533942222595214844e+00,3.636549472808837891e+00,3.745293378829956055e+00,3.860741138458251953e+00,3.983532190322875977e+00,4.114391326904296875e+00,4.254139423370361328e+00,4.403714656829833984e+00,4.564191341400146484e+00,4.736806869506835938e+00,4.922990798950195312e+00,5.000000000000000000e+00,5.000000000000000000e+00,5.000000000000000000e+00,5.000000000000000000e+00,5.000000000000000000e+00,5.000000000000000000e+00,5.000000000000000000e+00,5.000000000000000000e+00,5.000000000000000000e+00,5.000000000000000000e+00,5.000000000000000000e+00,5.000000000000000000e+00,5.000000000000000000e+00,5.000000000000000000e+00,5.000000000000000000e+00,5.000000000000000000e+00,5.000000000000000000e+00,5.000000000000000000e+00,5.000000000000000000e+00,5.000000000000000000e+00,5.000000000000000000e+00,5.000000000000000000e+00,5.000000000000000000e+00,5.000000000000000000e+00,5.000000000000000000e+00,5.000000000000000000e+00,5.000000000000000000e+00,5.000000000000000000e+00,5.000000000000000000e+00,5.000000000000000000e+00,5.000000000000000000e+00,5.000000000000000000e+00,5.000000000000000000e+00,5.000000000000000000e+00,5.000000000000000000e+00,5.000000000000000000e+00,5.000000000000000000e+00,5.000000000000000000e+00,5.000000000000000000e+00,3.048091411590576172e+00,5.000000000000000000e+00,2.439113140106201172e+00,2.441583871841430664e+00,5.000000000000000000e+00,5.000000000000000000e+00,5.000000000000000000e+00,5.000000000000000000e+00,5.000000000000000000e+00,5.000000000000000000e+00,5.000000000000000000e+00,5.000000000000000000e+00,5.000000000000000000e+00,5.000000000000000000e+00,5.000000000000000000e+00,4.847409725189208984e+00,4.688780784606933594e+00,4.540205001831054688e+00,4.400755882263183594e+00,4.269618034362792969e+00,4.146069049835205078e+00,4.029469490051269531e+00,3.919248580932617188e+00,3.814897298812866211e+00,3.715958356857299805e+00
3.096955537796020508e+00,3.175474166870117188e+00,3.258077859878540039e+00,3.345093965530395508e+00,3.436885118484497070e+00,3.533856153488159180e+00,3.636458635330200195e+00,3.745196819305419922e+00,3.860638618469238281e+00,3.983423471450805664e+00,4.114274978637695312e+00,4.254014968872070312e+00,4.403581619262695312e+00,4.564048290252685547e+00,4.736652374267578125e+00,4.855257987976074219e+00,4.854058742523193359e+00,4.852860450744628906e+00,4.851662158966064453e+00,4.850464820861816406e+00,4.849267959594726562e+00,4.848071575164794922e+00,4.846876144409179688e+00,4.845680713653564453e+00,4.844486236572265625e+00,4.843292236328125000e+00,4.842098712921142578e+00,4.840906143188476562e+00,4.839714050292968750e+00,4.838522434234619141e+00,4.837331295013427734e+00,4.836141109466552734e+00,4.834950923919677734e+00,4.833761692047119141e+00,4.832573413848876953e+00,4.831385135650634766e+00,4.830197811126708984e+00,4.829010963439941406e+00,4.827824592590332031e+00,4.826638698577880859e+00,4.825453281402587891e+00,4.824269294738769531e+00,4.823085308074951172e+00,4.821901798248291016e+00,4.820718765258789062e+00,4.819536685943603516e+00,4.818354606628417969e+00,4.817173957824707031e+00,4.815993309020996094e+00,4.814813613891601562e+00,4.813633918762207031e+00,4.812455177307128906e+00,4.811276912689208984e+00,4.810099601745605469e+00,4.808922290802001953e+00,3.037067413330078125e+00,4.806570053100585938e+00,2.437314748764038086e+00,2.449747800827026367e+00,4.803045749664306641e+00,4.801872253417968750e+00,4.800699234008789062e+00,4.799526691436767578e+00,4.798354625701904297e+00,4.797183513641357422e+00,4.796012401580810547e+00,4.794842720031738281e+00,4.793673038482666016e+00,4.792503833770751953e+00,4.791335582733154297e+00,4.790167808532714844e+00,4.688913345336914062e+00,4.540329456329345703e+00,4.400872707366943359e+00,4.269727706909179688e+00,4.146172523498535156e+00,4.029567241668701172e+00,3.919341564178466797e+00,3.814985275268554688e+00,3.716041803359985352e+00
3.096889495849609375e+00,3.175404787063598633e+00,3.258004903793334961e+00,3.345016956329345703e+00,3.436804056167602539e+00,3.533770561218261719e+00,3.636367559432983398e+00,3.745100259780883789e+00,3.771326541900634766e+00,3.770602703094482422e+00,3.769879579544067383e+00,3.769156694412231445e+00,3.768433809280395508e+00,3.767711400985717773e+00,3.766988992691040039e+00,3.766267299652099609e+00,3.765545368194580078e+00,3.764824151992797852e+00,3.764103174209594727e+00,3.763382196426391602e+00,3.762661695480346680e+00,3.761941194534301758e+00,3.761221408843994141e+00,3.760501861572265625e+00,3.759782075881958008e+00,3.759063243865966797e+00,3.758343935012817383e+00,3.757625579833984375e+00,3.756906986236572266e+00,3.756189107894897461e+00,3.755471467971801758e+00,3.754753828048706055e+00,3.754036664962768555e+00,3.753319501876831055e+00,3.752602815628051758e+00,3.751886129379272461e+00,3.751170158386230469e+00,3.750454425811767578e+00,3.749738693237304688e+00,3.749023437500000000e+00,3.748308181762695312e+00,3.747593641281127930e+00,3.746879339218139648e+00,3.746164798736572266e+00,3.745450973510742188e+00,3.744736909866333008e+00,3.744023799896240234e+00,3.743310451507568359e+00,3.742597579956054688e+00,3.741885185241699219e+00,3.741172790527343750e+00,3.740460872650146484e+00,3.739748716354370117e+00,3.739037513732910156e+00,3.738325834274291992e+00,3.024033069610595703e+00,3.736904621124267578e+00,2.438144207000732422e+00,2.475914716720581055e+00,3.734773635864257812e+00,3.734064340591430664e+00,3.733355045318603516e+00,3.732645750045776367e+00,3.731937170028686523e+00,3.731228351593017578e+00,3.730520248413085938e+00,3.729811906814575195e+00,3.729104280471801758e+00,3.728396892547607422e+00,3.727689504623413086e+00,3.726982831954956055e+00,3.726275920867919922e+00,3.725569486618041992e+00,3.724863290786743164e+00,3.724157571792602539e+00,3.723452091217041016e+00,3.722746372222900391e+00,3.722041606903076172e+00,3.721336603164672852e+00,3.716125011444091797e+00
3.083524465560913086e+00,3.083040952682495117e+00,3.082557201385498047e+00,3.082073688507080078e+00,3.081590652465820312e+00,3.081107378005981445e+00,3.080624341964721680e+00,3.080141544342041016e+00,3.079658985137939453e+00,3.079176187515258789e+00,3.078693866729736328e+00,3.078211545944213867e+00,3.077729463577270508e+00,3.077247858047485352e+00,3.076765775680541992e+00,3.076284170150756836e+00,3.075802564620971680e+00,3.075321435928344727e+00,3.074840307235717773e+00,3.074359178543090820e+00,3.073878526687622070e+00,3.073397636413574219e+00,3.072916984558105469e+00,3.072436571121215820e+00,3.071956396102905273e+00,3.071476221084594727e+00,3.070996046066284180e+00,3.070516347885131836e+00,3.070036649703979492e+00,3.069557189941406250e+00,3.069077730178833008e+00,3.068598508834838867e+00,3.068119525909423828e+00,3.067640542984008789e+00,3.067161798477172852e+00,3.066683053970336914e+00,3.066204786300659180e+00,3.065726518630981445e+00,3.065248250961303711e+00,3.064770460128784180e+00,3.064292192459106445e+00,3.063814640045166016e+00,3.063336849212646484e+00,3.062859535217285156e+00,3.062382459640502930e+00,3.061905145645141602e+00,3.061428308486938477e+00,3.060951232910156250e+00,3.060474634170532227e+00,3.059998035430908203e+00,3.059521675109863281e+00,3.059045553207397461e+00,3.058569431304931641e+00,3.058093547821044922e+00,3.057617425918579102e+00,3.057142019271850586e+00,3.056666374206542969e+00,2.380555391311645508e+00,2.425572395324707031e+00,3.055240869522094727e+00,3.054765939712524414e+00,3.054291009902954102e+00,3.053816556930541992e+00,3.053342103958129883e+00,3.052867650985717773e+00,3.052393674850463867e+00,3.051919460296630859e+00,3.051445722579956055e+00,3.050971746444702148e+00,3.050498247146606445e+00,3.050024986267089844e+00,3.049551486968994141e+00,3.049078464508056641e+00,3.048605442047119141e+00,3.048132658004760742e+00,3.047660112380981445e+00,3.047187328338623047e+00,3.046715021133422852e+00,3.046242475509643555e+00,3.045770645141601562e+00
2.605137825012207031e+00,2.604792594909667969e+00,2.604447364807128906e+00,2.604102134704589844e+00,2.603757143020629883e+00,2.603412389755249023e+00,2.603067636489868164e+00,2.602722883224487305e+00,2.602378129959106445e+00,2.602033615112304688e+00,2.601689100265502930e+00,2.601344585418701172e+00,2.601000308990478516e+00,2.600656270980834961e+00,2.600311994552612305e+00,2.599968194961547852e+00,2.599624156951904297e+00,2.599280357360839844e+00,2.598936319351196289e+00,2.598592758178710938e+00,2.598249435424804688e+00,2.597905874252319336e+00,2.597562551498413086e+00,2.597218990325927734e+00,2.596875905990600586e+00,2.596532821655273438e+00,2.596189737319946289e+00,2.595846891403198242e+00,2.595504045486450195e+00,2.595161437988281250e+00,2.594818592071533203e+00,2.594475984573364258e+00,2.594133377075195312e+00,2.593791246414184570e+00,2.593448877334594727e+00,2.593106746673583984e+00,2.592764616012573242e+00,2.592422485351562500e+00,2.592080593109130859e+00,2.591738939285278320e+00,2.591397047042846680e+00,2.591055393218994141e+00,2.590713739395141602e+00,2.590372323989868164e+00,2.590030670166015625e+00,2.589689493179321289e+00,2.589348316192626953e+00,2.589007139205932617e+00,2.588666200637817383e+00,2.588325262069702148e+00,2.587984323501586914e+00,2.587643623352050781e+00,2.587302923202514648e+00,2.586962461471557617e+00,2.586621761322021484e+00,2.586281538009643555e+00,2.334792375564575195e+00,2.350234270095825195e+00,2.326661348342895508e+00,2.584920644760131836e+00,2.584580898284912109e+00,2.584240913391113281e+00,2.583901166915893555e+00,2.583561420440673828e+00,2.583221912384033203e+00,2.582882404327392578e+00,2.582542896270751953e+00,2.582203626632690430e+00,2.581864356994628906e+00,2.581525325775146484e+00,2.581186056137084961e+00,2.580847263336181641e+00,2.580508232116699219e+00,2.580169439315795898e+00,2.579830884933471680e+00,2.579492092132568359e+00,2.579153537750244141e+00,2.578815221786499023e+00,2.578476667404174805e+00,2.578138589859008789e+00
2.255251646041870117e+00,2.254992961883544922e+00,2.254734277725219727e+00,2.254475593566894531e+00,2.254217147827148438e+00,2.253958463668823242e+00,2.253700017929077148e+00,2.253441810607910156e+00,2.253183364868164062e+00,2.252925157546997070e+00,2.252666950225830078e+00,2.252408742904663086e+00,2.252150535583496094e+00,2.251892328262329102e+00,2.251634359359741211e+00,2.251376628875732422e+00,2.251118659973144531e+00,2.250860691070556641e+00,2.250602960586547852e+00,2.250345230102539062e+00,2.250087499618530273e+00,2.249830007553100586e+00,2.249572515487670898e+00,2.249315023422241211e+00,2.249057531356811523e+00,2.248800277709960938e+00,2.248543024063110352e+00,2.248285531997680664e+00,2.248028516769409180e+00,2.247771501541137695e+00,2.247514247894287109e+00,2.247257232666015625e+00,2.247000217437744141e+00,2.246743440628051758e+00,2.246486663818359375e+00,2.246229887008666992e+00,2.245973110198974609e+00,2.245716571807861328e+00,2.245459794998168945e+00,2.245203256607055664e+00,2.244946956634521484e+00,2.244690418243408203e+00,2.244434118270874023e+00,2.244177818298339844e+00,2.243921518325805664e+00,2.243665456771850586e+00,2.243409156799316406e+00,2.243153095245361328e+00,2.242897272109985352e+00,2.242641210556030273e+00,2.242385387420654297e+00,2.242129325866699219e+00,2.241873741149902344e+00,2.241617918014526367e+00,2.241362333297729492e+00,2.241106748580932617e+00,2.240851163864135742e+00,2.240595579147338867e+00,2.240340232849121094e+00,2.240084886550903320e+00,2.239829540252685547e+00,2.239574193954467773e+00,2.239319086074829102e+00,2.239063978195190430e+00,2.238808870315551758e+00,2.238553762435913086e+00,2.238298892974853516e+00,2.238044023513793945e+00,2.237789154052734375e+00,2.237534284591674805e+00,2.237279653549194336e+00,2.237025022506713867e+00,2.236770391464233398e+00,2.236515760421752930e+00,2.236261367797851562e+00,2.236006736755371094e+00,2.235752344131469727e+00,2.235497951507568359e+00,2.235243797302246094e+00,2.234989643096923828e+00
1.988221287727355957e+00,1.988020300865173340e+00,1.987819194793701172e+00,1.987618088722229004e+00,1.987417221069335938e+00,1.987216234207153320e+00,1.987015485763549805e+00,1.986814498901367188e+00,1.986613631248474121e+00,1.986413002014160156e+00,1.986212134361267090e+00,1.986011385917663574e+00,1.985810875892639160e+00,1.985610127449035645e+00,1.985409498214721680e+00,1.985209107398986816e+00,1.985008478164672852e+00,1.984807968139648438e+00,1.984607458114624023e+00,1.984407186508178711e+00,1.984206795692443848e+00,1.984006404876708984e+00,1.983806014060974121e+00,1.983605980873107910e+00,1.983405709266662598e+00,1.983205437660217285e+00,1.983005523681640625e+00,1.982805371284484863e+00,1.982605218887329102e+00,1.982405424118041992e+00,1.982205390930175781e+00,1.982005476951599121e+00,1.981805562973022461e+00,1.981605887413024902e+00,1.981405973434448242e+00,1.981206178665161133e+00,1.981006622314453125e+00,1.980806827545166016e+00,1.980607151985168457e+00,1.980407476425170898e+00,1.980208158493041992e+00,1.980008482933044434e+00,1.979809045791625977e+00,1.979609727859497070e+00,1.979410290718078613e+00,1.979210853576660156e+00,1.979011416435241699e+00,1.978812336921691895e+00,1.978613018989562988e+00,1.978413820266723633e+00,1.978214859962463379e+00,1.978015661239624023e+00,1.977816462516784668e+00,1.977617383003234863e+00,1.977418541908264160e+00,1.977219581604003906e+00,1.977020502090454102e+00,1.976821899414062500e+00,1.976622939109802246e+00,1.976424098014831543e+00,1.976225256919860840e+00,1.976026773452758789e+00,1.975828051567077637e+00,1.975629329681396484e+00,1.975430846214294434e+00,1.975232243537902832e+00,1.975033640861511230e+00,1.974835395812988281e+00,1.974636912345886230e+00,1.974438428878784180e+00,1.974239945411682129e+00,1.974041819572448730e+00,1.973843455314636230e+00,1.973645210266113281e+00,1.973447203636169434e+00,1.973248958587646484e+00,1.973050713539123535e+00,1.972852587699890137e+00,1.972654700279235840e+00,1.972456693649291992e+00
1.777731299400329590e+00,1.777570605278015137e+00,1.777409791946411133e+00,1.777248978614807129e+00,1.777088403701782227e+00,1.776927709579467773e+00,1.776766896247863770e+00,1.776606440544128418e+00,1.776445865631103516e+00,1.776285171508789062e+00,1.776124835014343262e+00,1.775964260101318359e+00,1.775803685188293457e+00,1.775643348693847656e+00,1.775482892990112305e+00,1.775322437286376953e+00,1.775162220001220703e+00,1.775001883506774902e+00,1.774841666221618652e+00,1.774681329727172852e+00,1.774520993232727051e+00,1.774360775947570801e+00,1.774200558662414551e+00,1.774040460586547852e+00,1.773880243301391602e+00,1.773720145225524902e+00,1.773560166358947754e+00,1.773400068283081055e+00,1.773239970207214355e+00,1.773079991340637207e+00,1.772920131683349609e+00,1.772760152816772461e+00,1.772600173950195312e+00,1.772440433502197266e+00,1.772280573844909668e+00,1.772120714187622070e+00,1.771960854530334473e+00,1.771801233291625977e+00,1.771641492843627930e+00,1.771481752395629883e+00,1.771322131156921387e+00,1.771162509918212891e+00,1.771002769470214844e+00,1.770843148231506348e+00,1.770683765411376953e+00,1.770524144172668457e+00,1.770364522933959961e+00,1.770205259323120117e+00,1.770045757293701172e+00,1.769886255264282227e+00,1.769726991653442383e+00,1.769567608833312988e+00,1.769408226013183594e+00,1.769248843193054199e+00,1.769089698791503906e+00,1.768930435180664062e+00,1.768771171569824219e+00,1.768612146377563477e+00,1.768452882766723633e+00,1.768293738365173340e+00,1.768134593963623047e+00,1.767975687980651855e+00,1.767816543579101562e+00,1.767657518386840820e+00,1.767498612403869629e+00,1.767339587211608887e+00,1.767180681228637695e+00,1.767021656036376953e+00,1.766862988471984863e+00,1.766704082489013672e+00,1.766545176506042480e+00,1.766386508941650391e+00,1.766227722167968750e+00,1.766068935394287109e+00,1.765910267829895020e+00,1.765751719474792480e+00,1.765593051910400391e+00,1.765434384346008301e+00,1.765275955200195312e+00,1.765117287635803223e+00
1.607542991638183594e+00,1.607411503791809082e+00,1.607280135154724121e+00,1.607148647308349609e+00,1.607017159461975098e+00,1.606885910034179688e+00,1.606754541397094727e+00,1.606623053550720215e+00,1.606491804122924805e+00,1.606360554695129395e+00,1.606229186058044434e+00,1.606098055839538574e+00,1.605966687202453613e+00,1.605835556983947754e+00,1.605704307556152344e+00,1.605573058128356934e+00,1.605442047119140625e+00,1.605310916900634766e+00,1.605179667472839355e+00,1.605048656463623047e+00,1.604917645454406738e+00,1.604786515235900879e+00,1.604655504226684570e+00,1.604524493217468262e+00,1.604393482208251953e+00,1.604262471199035645e+00,1.604131579399108887e+00,1.604000687599182129e+00,1.603869676589965820e+00,1.603738784790039062e+00,1.603608012199401855e+00,1.603477120399475098e+00,1.603346228599548340e+00,1.603215575218200684e+00,1.603084683418273926e+00,1.602953910827636719e+00,1.602823138236999512e+00,1.602692484855651855e+00,1.602561831474304199e+00,1.602431058883666992e+00,1.602300524711608887e+00,1.602169871330261230e+00,1.602039217948913574e+00,1.601908564567565918e+00,1.601778149604797363e+00,1.601647496223449707e+00,1.601516962051391602e+00,1.601386547088623047e+00,1.601256012916564941e+00,1.601125597953796387e+00,1.600995063781738281e+00,1.600864768028259277e+00,1.600734353065490723e+00,1.600603938102722168e+00,1.600473642349243164e+00,1.600343346595764160e+00,1.600212931632995605e+00,1.600082635879516602e+00,1.599952340126037598e+00,1.599822163581848145e+00,1.599691867828369141e+00,1.599561691284179688e+00,1.599431514739990234e+00,1.599301338195800781e+00,1.599171280860900879e+00,1.599041104316711426e+00,1.598910927772521973e+00,1.598780870437622070e+00,1.598650932312011719e+00,1.598520874977111816e+00,1.598390817642211914e+00,1.598260879516601562e+00,1.598130822181701660e+00,1.598000884056091309e+00,1.597870945930480957e+00,1.597741127014160156e+00,1.597611188888549805e+00,1.597481250762939453e+00,1.597351551055908203e+00,1.597221612930297852e+00
1.467093229293823242e+00,1.466983675956726074e+00,1.466874122619628906e+00,1.466764807701110840e+00,1.466655254364013672e+00,1.466545820236206055e+00,1.466436386108398438e+00,1.466326951980590820e+00,1.466217637062072754e+00,1.466108202934265137e+00,1.465998888015747070e+00,1.465889573097229004e+00,1.465780258178710938e+00,1.465670824050903320e+00,1.465561628341674805e+00,1.465452313423156738e+00,1.465342998504638672e+00,1.465233802795410156e+00,1.465124607086181641e+00,1.465015292167663574e+00,1.464906215667724609e+00,1.464797019958496094e+00,1.464687705039978027e+00,1.464578628540039062e+00,1.464469552040100098e+00,1.464360475540161133e+00,1.464251279830932617e+00,1.464142203330993652e+00,1.464033126831054688e+00,1.463923931121826172e+00,1.463814973831176758e+00,1.463706016540527344e+00,1.463596940040588379e+00,1.463487863540649414e+00,1.463379025459289551e+00,1.463269948959350586e+00,1.463160991668701172e+00,1.463052153587341309e+00,1.462943196296691895e+00,1.462834358215332031e+00,1.462725400924682617e+00,1.462616562843322754e+00,1.462507724761962891e+00,1.462398886680603027e+00,1.462290167808532715e+00,1.462181329727172852e+00,1.462072491645812988e+00,1.461963772773742676e+00,1.461855053901672363e+00,1.461746215820312500e+00,1.461637496948242188e+00,1.461528897285461426e+00,1.461420178413391113e+00,1.461311459541320801e+00,1.461202859878540039e+00,1.461094260215759277e+00,1.460985541343688965e+00,1.460876941680908203e+00,1.460768461227416992e+00,1.460659861564636230e+00,1.460551261901855469e+00,1.460442781448364258e+00,1.460334181785583496e+00,1.460225701332092285e+00,1.460117101669311523e+00,1.460008740425109863e+00,1.459900259971618652e+00,1.459791779518127441e+00,1.459683418273925781e+00,1.459575057029724121e+00,1.459466576576232910e+00,1.459358215332031250e+00,1.459249854087829590e+00,1.459141492843627930e+00,1.459033131599426270e+00,1.458924889564514160e+00,1.458816528320312500e+00,1.458708286285400391e+00,1.458599925041198730e+00,1.458491802215576172e+00
1.349213361740112305e+00,1.349120855331420898e+00,1.349028229713439941e+00,1.348935484886169434e+00,1.348842978477478027e+00,1.348750472068786621e+00,1.348657965660095215e+00,1.348565340042114258e+00,1.348472833633422852e+00,1.348380327224731445e+00,1.348287820816040039e+00,1.348195314407348633e+00,1.348102927207946777e+00,1.348010420799255371e+00,1.347917914390563965e+00,1.347825527191162109e+00,1.347733020782470703e+00,1.347640633583068848e+00,1.347548246383666992e+00,1.347455859184265137e+00,1.347363471984863281e+00,1.347271203994750977e+00,1.347178816795349121e+00,1.347086548805236816e+00,1.346994161605834961e+00,1.346901774406433105e+00,1.346809625625610352e+00,1.346717238426208496e+00,1.346624970436096191e+00,1.346532821655273438e+00,1.346440434455871582e+00,1.346348166465759277e+00,1.346255898475646973e+00,1.346163749694824219e+00,1.346071600914001465e+00,1.345979332923889160e+00,1.345887184143066406e+00,1.345795035362243652e+00,1.345702886581420898e+00,1.345610618591308594e+00,1.345518469810485840e+00,1.345426440238952637e+00,1.345334291458129883e+00,1.345242261886596680e+00,1.345150232315063477e+00,1.345058083534240723e+00,1.344966053962707520e+00,1.344873905181884766e+00,1.344781994819641113e+00,1.344689965248107910e+00,1.344597935676574707e+00,1.344506025314331055e+00,1.344413995742797852e+00,1.344321966171264648e+00,1.344230055809020996e+00,1.344138145446777344e+00,1.344046235084533691e+00,1.343954205513000488e+00,1.343862414360046387e+00,1.343770503997802734e+00,1.343678593635559082e+00,1.343586802482604980e+00,1.343494892120361328e+00,1.343402981758117676e+00,1.343311190605163574e+00,1.343219399452209473e+00,1.343127608299255371e+00,1.343035817146301270e+00,1.342944025993347168e+00,1.342852234840393066e+00,1.342760443687438965e+00,1.342668652534484863e+00,1.342577099800109863e+00,1.342485308647155762e+00,1.342393636703491211e+00,1.342301964759826660e+00,1.342210292816162109e+00,1.342118501663208008e+00,1.342026829719543457e+00,1.341935276985168457e+00
1.248867869377136230e+00,1.248788595199584961e+00,1.248709201812744141e+00,1.248629808425903320e+00,1.248550534248352051e+00,1.248471260070800781e+00,1.248391866683959961e+00,1.248312711715698242e+00,1.248233318328857422e+00,1.248154044151306152e+00,1.248074889183044434e+00,1.247995615005493164e+00,1.247916340827941895e+00,1.247837066650390625e+00,1.247757911682128906e+00,1.247678637504577637e+00,1.247599482536315918e+00,1.247520208358764648e+00,1.247441172599792480e+00,1.247361898422241211e+00,1.247282743453979492e+00,1.247203588485717773e+00,1.247124433517456055e+00,1.247045278549194336e+00,1.246966242790222168e+00,1.246887087821960449e+00,1.246807932853698730e+00,1.246728897094726562e+00,1.246649742126464844e+00,1.246570706367492676e+00,1.246491670608520508e+00,1.246412634849548340e+00,1.246333479881286621e+00,1.246254563331604004e+00,1.246175527572631836e+00,1.246096491813659668e+00,1.246017456054687500e+00,1.245938539505004883e+00,1.245859503746032715e+00,1.245780467987060547e+00,1.245701432228088379e+00,1.245622634887695312e+00,1.245543599128723145e+00,1.245464682579040527e+00,1.245385766029357910e+00,1.245306849479675293e+00,1.245227932929992676e+00,1.245149016380310059e+00,1.245070219039916992e+00,1.244991302490234375e+00,1.244912385940551758e+00,1.244833588600158691e+00,1.244754672050476074e+00,1.244675874710083008e+00,1.244596958160400391e+00,1.244518280029296875e+00,1.244439363479614258e+00,1.244360566139221191e+00,1.244281888008117676e+00,1.244203090667724609e+00,1.244124293327331543e+00,1.244045495986938477e+00,1.243966817855834961e+00,1.243888020515441895e+00,1.243809223175048828e+00,1.243730664253234863e+00,1.243651866912841797e+00,1.243573188781738281e+00,1.243494510650634766e+00,1.243415832519531250e+00,1.243337154388427734e+00,1.243258476257324219e+00,1.243179917335510254e+00,1.243101239204406738e+00,1.243022561073303223e+00,1.242944002151489258e+00,1.242865443229675293e+00,1.242786765098571777e+00,1.242708206176757812e+00,1.242629647254943848e+00
1.162415146827697754e+00,1.162346363067626953e+00,1.162277698516845703e+00,1.162208914756774902e+00,1.162140250205993652e+00,1.162071585655212402e+00,1.162002801895141602e+00,1.161934137344360352e+00,1.161865472793579102e+00,1.161796689033508301e+00,1.161728024482727051e+00,1.161659479141235352e+00,1.161590695381164551e+00,1.161522150039672852e+00,1.161453485488891602e+00,1.161384820938110352e+00,1.161316275596618652e+00,1.161247611045837402e+00,1.161178946495056152e+00,1.161110401153564453e+00,1.161041736602783203e+00,1.160973191261291504e+00,1.160904645919799805e+00,1.160836100578308105e+00,1.160767436027526855e+00,1.160699009895324707e+00,1.160630345344543457e+00,1.160561800003051758e+00,1.160493373870849609e+00,1.160424828529357910e+00,1.160356283187866211e+00,1.160287737846374512e+00,1.160219311714172363e+00,1.160150885581970215e+00,1.160082340240478516e+00,1.160013794898986816e+00,1.159945368766784668e+00,1.159876942634582520e+00,1.159808397293090820e+00,1.159739971160888672e+00,1.159671545028686523e+00,1.159603118896484375e+00,1.159534692764282227e+00,1.159466266632080078e+00,1.159397840499877930e+00,1.159329533576965332e+00,1.159261107444763184e+00,1.159192681312561035e+00,1.159124374389648438e+00,1.159055948257446289e+00,1.158987641334533691e+00,1.158919215202331543e+00,1.158850908279418945e+00,1.158782601356506348e+00,1.158714175224304199e+00,1.158645987510681152e+00,1.158577680587768555e+00,1.158509254455566406e+00,1.158441066741943359e+00,1.158372759819030762e+00,1.158304452896118164e+00,1.158236265182495117e+00,1.158167958259582520e+00,1.158099770545959473e+00,1.158031463623046875e+00,1.157963275909423828e+00,1.157895088195800781e+00,1.157826781272888184e+00,1.157758593559265137e+00,1.157690405845642090e+00,1.157622218132019043e+00,1.157554030418395996e+00,1.157485842704772949e+00,1.157417654991149902e+00,1.157349467277526855e+00,1.157281279563903809e+00,1.157213211059570312e+00,1.157145023345947266e+00,1.157076954841613770e+00,1.157008886337280273e+00
1.087156891822814941e+00,1.087096691131591797e+00,1.087036609649658203e+00,1.086976528167724609e+00,1.086916327476501465e+00,1.086856245994567871e+00,1.086796164512634277e+00,1.086736083030700684e+00,1.086676001548767090e+00,1.086615920066833496e+00,1.086555838584899902e+00,1.086495757102966309e+00,1.086435675621032715e+00,1.086375594139099121e+00,1.086315631866455078e+00,1.086255550384521484e+00,1.086195468902587891e+00,1.086135506629943848e+00,1.086075425148010254e+00,1.086015462875366211e+00,1.085955500602722168e+00,1.085895419120788574e+00,1.085835456848144531e+00,1.085775494575500488e+00,1.085715532302856445e+00,1.085655570030212402e+00,1.085595607757568359e+00,1.085535645484924316e+00,1.085475683212280273e+00,1.085415720939636230e+00,1.085355758666992188e+00,1.085295796394348145e+00,1.085235953330993652e+00,1.085175991058349609e+00,1.085116147994995117e+00,1.085056185722351074e+00,1.084996223449707031e+00,1.084936380386352539e+00,1.084876418113708496e+00,1.084816575050354004e+00,1.084756731986999512e+00,1.084696769714355469e+00,1.084636926651000977e+00,1.084577083587646484e+00,1.084517240524291992e+00,1.084457397460937500e+00,1.084397554397583008e+00,1.084337711334228516e+00,1.084277868270874023e+00,1.084218025207519531e+00,1.084158182144165039e+00,1.084098458290100098e+00,1.084038615226745605e+00,1.083978891372680664e+00,1.083919048309326172e+00,1.083859324455261230e+00,1.083799481391906738e+00,1.083739757537841797e+00,1.083679914474487305e+00,1.083620190620422363e+00,1.083560466766357422e+00,1.083500742912292480e+00,1.083441019058227539e+00,1.083381295204162598e+00,1.083321571350097656e+00,1.083261847496032715e+00,1.083202123641967773e+00,1.083142399787902832e+00,1.083082675933837891e+00,1.083023071289062500e+00,1.082963347434997559e+00,1.082903623580932617e+00,1.082844018936157227e+00,1.082784414291381836e+00,1.082724690437316895e+00,1.082664966583251953e+00,1.082605481147766113e+00,1.082545757293701172e+00,1.082486152648925781e+00,1.082426548004150391e+00
1.021050930023193359e+00,1.020997881889343262e+00,1.020944833755493164e+00,1.020891785621643066e+00,1.020838737487792969e+00,1.020785689353942871e+00,1.020732760429382324e+00,1.020679712295532227e+00,1.020626664161682129e+00,1.020573735237121582e+00,1.020520687103271484e+00,1.020467758178710938e+00,1.020414829254150391e+00,1.020361781120300293e+00,1.020308852195739746e+00,1.020255923271179199e+00,1.020202875137329102e+00,1.020149946212768555e+00,1.020097017288208008e+00,1.020044088363647461e+00,1.019991040229797363e+00,1.019938230514526367e+00,1.019885182380676270e+00,1.019832372665405273e+00,1.019779443740844727e+00,1.019726514816284180e+00,1.019673585891723633e+00,1.019620656967163086e+00,1.019567728042602539e+00,1.019514918327331543e+00,1.019461989402770996e+00,1.019409179687500000e+00,1.019356250762939453e+00,1.019303441047668457e+00,1.019250512123107910e+00,1.019197702407836914e+00,1.019144892692565918e+00,1.019092082977294922e+00,1.019039154052734375e+00,1.018986344337463379e+00,1.018933534622192383e+00,1.018880724906921387e+00,1.018827795982360840e+00,1.018775105476379395e+00,1.018722176551818848e+00,1.018669366836547852e+00,1.018616557121276855e+00,1.018563747406005859e+00,1.018510937690734863e+00,1.018458247184753418e+00,1.018405437469482422e+00,1.018352627754211426e+00,1.018299937248229980e+00,1.018247127532958984e+00,1.018194317817687988e+00,1.018141627311706543e+00,1.018088936805725098e+00,1.018036127090454102e+00,1.017983436584472656e+00,1.017930746078491211e+00,1.017877936363220215e+00,1.017825245857238770e+00,1.017772555351257324e+00,1.017719864845275879e+00,1.017667174339294434e+00,1.017614364624023438e+00,1.017561793327331543e+00,1.017509102821350098e+00,1.017456412315368652e+00,1.017403721809387207e+00,1.017351031303405762e+00,1.017298340797424316e+00,1.017245650291442871e+00,1.017193078994750977e+00,1.017140388488769531e+00,1.017087697982788086e+00,1.017035126686096191e+00,1.016982555389404297e+00,1.016929864883422852e+00,1.016877174377441406e+00
9.625235199928283691e-01,9.624763727188110352e-01,9.624292254447937012e-01,9.623820781707763672e-01,9.623350501060485840e-01,9.622879028320312500e-01,9.622407555580139160e-01,9.621936082839965820e-01,9.621465206146240234e-01,9.620993733406066895e-01,9.620524048805236816e-01,9.620052576065063477e-01,9.619581699371337891e-01,9.619110822677612305e-01,9.618639945983886719e-01,9.618169069290161133e-01,9.617699384689331055e-01,9.617228507995605469e-01,9.616757631301879883e-01,9.616286754608154297e-01,9.615815877914428711e-01,9.615346789360046387e-01,9.614875912666320801e-01,9.614405632019042969e-01,9.613934755325317383e-01,9.613464474678039551e-01,9.612994194030761719e-01,9.612525105476379395e-01,9.612054228782653809e-01,9.611583948135375977e-01,9.611114263534545898e-01,9.610643982887268066e-01,9.610173702239990234e-01,9.609704613685607910e-01,9.609234929084777832e-01,9.608764648437500000e-01,9.608294963836669922e-01,9.607824683189392090e-01,9.607356190681457520e-01,9.606886506080627441e-01,9.606416225433349609e-01,9.605946540832519531e-01,9.605476856231689453e-01,9.605007767677307129e-01,9.604539275169372559e-01,9.604069590568542480e-01,9.603599905967712402e-01,9.603130817413330078e-01,9.602661132812500000e-01,9.602192044258117676e-01,9.601722359657287598e-01,9.601253271102905273e-01,9.600785374641418457e-01,9.600315690040588379e-01,9.599846601486206055e-01,9.599377512931823730e-01,9.598908424377441406e-01,9.598439931869506836e-01,9.597970843315124512e-01,9.597502946853637695e-01,9.597033858299255371e-01,9.596565365791320801e-01,9.596096277236938477e-01,9.595627784729003906e-01,9.595159292221069336e-01,9.594690799713134766e-01,9.594222903251647949e-01,9.593754410743713379e-01,9.593285918235778809e-01,9.592817425727844238e-01,9.592348933219909668e-01,9.591881036758422852e-01,9.591412544250488281e-01,9.590945243835449219e-01,9.590477347373962402e-01,9.590008854866027832e-01,9.589540958404541016e-01,9.589072465896606445e-01,9.588604569435119629e-01,9.588136672973632812e-01
9.103419184684753418e-01,9.102997779846191406e-01,9.102576971054077148e-01,9.102154970169067383e-01,9.101733565330505371e-01,9.101311564445495605e-01,9.100890159606933594e-01,9.100468754768371582e-01,9.100047945976257324e-01,9.099626541137695312e-01,9.099205136299133301e-01,9.098783731460571289e-01,9.098362326622009277e-01,9.097941517829895020e-01,9.097520709037780762e-01,9.097099304199218750e-01,9.096677899360656738e-01,9.096256494522094727e-01,9.095835685729980469e-01,9.095415472984313965e-01,9.094994068145751953e-01,9.094573259353637695e-01,9.094152450561523438e-01,9.093731641769409180e-01,9.093310236930847168e-01,9.092890620231628418e-01,9.092469811439514160e-01,9.092049002647399902e-01,9.091628193855285645e-01,9.091207385063171387e-01,9.090787768363952637e-01,9.090366959571838379e-01,9.089946746826171875e-01,9.089525938034057617e-01,9.089105129241943359e-01,9.088684916496276855e-01,9.088265299797058105e-01,9.087845087051391602e-01,9.087424278259277344e-01,9.087004065513610840e-01,9.086583852767944336e-01,9.086163640022277832e-01,9.085744619369506836e-01,9.085324406623840332e-01,9.084904193878173828e-01,9.084483981132507324e-01,9.084063768386840820e-01,9.083644747734069824e-01,9.083225131034851074e-01,9.082804918289184570e-01,9.082385301589965820e-01,9.081965088844299316e-01,9.081545472145080566e-01,9.081125855445861816e-01,9.080705642700195312e-01,9.080286026000976562e-01,9.079867601394653320e-01,9.079447984695434570e-01,9.079028367996215820e-01,9.078608751296997070e-01,9.078189134597778320e-01,9.077769517898559570e-01,9.077349901199340820e-01,9.076931476593017578e-01,9.076512455940246582e-01,9.076092839241027832e-01,9.075673818588256836e-01,9.075254797935485840e-01,9.074835181236267090e-01,9.074416160583496094e-01,9.073997735977172852e-01,9.073578715324401855e-01,9.073159694671630859e-01,9.072740674018859863e-01,9.072321653366088867e-01,9.071903228759765625e-01,9.071484208106994629e-01,9.071066379547119141e-01,9.070647358894348145e-01,9.070228338241577148e-01
8.635273575782775879e-01,8.634893894195556641e-01,8.634514808654785156e-01,8.634135127067565918e-01,8.633755445480346680e-01,8.633376359939575195e-01,8.632997870445251465e-01,8.632618188858032227e-01,8.632239103317260742e-01,8.631860017776489258e-01,8.631480336189270020e-01,8.631102442741394043e-01,8.630723357200622559e-01,8.630343675613403320e-01,8.629964590072631836e-01,8.629585504531860352e-01,8.629206418991088867e-01,8.628828525543212891e-01,8.628449440002441406e-01,8.628070354461669922e-01,8.627691864967346191e-01,8.627312779426574707e-01,8.626933693885803223e-01,8.626555800437927246e-01,8.626177310943603516e-01,8.625798225402832031e-01,8.625419735908508301e-01,8.625041246414184570e-01,8.624663352966308594e-01,8.624284863471984863e-01,8.623905777931213379e-01,8.623527288436889648e-01,8.623148798942565918e-01,8.622770309448242188e-01,8.622393012046813965e-01,8.622014522552490234e-01,8.621636033058166504e-01,8.621257543563842773e-01,8.620879650115966797e-01,8.620501160621643066e-01,8.620123863220214844e-01,8.619745373725891113e-01,8.619367480278015137e-01,8.618988990783691406e-01,8.618611097335815430e-01,8.618233799934387207e-01,8.617855906486511230e-01,8.617478013038635254e-01,8.617100119590759277e-01,8.616721630096435547e-01,8.616343736648559570e-01,8.615967035293579102e-01,8.615589141845703125e-01,8.615211248397827148e-01,8.614833354949951172e-01,8.614455461502075195e-01,8.614078164100646973e-01,8.613700270652770996e-01,8.613322377204895020e-01,8.612945079803466797e-01,8.612568378448486328e-01,8.612190485000610352e-01,8.611813187599182129e-01,8.611435890197753906e-01,8.611057996749877930e-01,8.610680699348449707e-01,8.610304594039916992e-01,8.609926700592041016e-01,8.609549403190612793e-01,8.609172105789184570e-01,8.608794808387756348e-01,8.608418107032775879e-01,8.608040809631347656e-01,8.607664108276367188e-01,8.607287406921386719e-01,8.606910109519958496e-01,8.606532812118530273e-01,8.606156110763549805e-01,8.605778813362121582e-01,8.605402112007141113e-01
8.212921023368835449e-01,8.212577700614929199e-01,8.212234377861022949e-01,8.211891055107116699e-01,8.211548924446105957e-01,8.211205601692199707e-01,8.210862278938293457e-01,8.210519552230834961e-01,8.210176229476928711e-01,8.209834098815917969e-01,8.209490776062011719e-01,8.209148049354553223e-01,8.208804726600646973e-01,8.208461999893188477e-01,8.208118677139282227e-01,8.207776546478271484e-01,8.207433819770812988e-01,8.207091093063354492e-01,8.206748366355895996e-01,8.206405639648437500e-01,8.206062316894531250e-01,8.205720782279968262e-01,8.205378055572509766e-01,8.205035328865051270e-01,8.204692602157592773e-01,8.204349875450134277e-01,8.204008340835571289e-01,8.203665614128112793e-01,8.203322887420654297e-01,8.202980160713195801e-01,8.202638030052185059e-01,8.202295303344726562e-01,8.201953768730163574e-01,8.201611638069152832e-01,8.201268911361694336e-01,8.200926780700683594e-01,8.200584650039672852e-01,8.200243115425109863e-01,8.199900388717651367e-01,8.199558258056640625e-01,8.199216127395629883e-01,8.198873996734619141e-01,8.198531866073608398e-01,8.198190331459045410e-01,8.197848200798034668e-01,8.197506070137023926e-01,8.197163939476013184e-01,8.196822404861450195e-01,8.196480274200439453e-01,8.196139335632324219e-01,8.195797204971313477e-01,8.195455074310302734e-01,8.195113539695739746e-01,8.194771409034729004e-01,8.194430470466613770e-01,8.194088935852050781e-01,8.193746805191040039e-01,8.193405270576477051e-01,8.193063735961914062e-01,8.192721605300903320e-01,8.192380070686340332e-01,8.192038536071777344e-01,8.191697001457214355e-01,8.191356062889099121e-01,8.191014528274536133e-01,8.190672993659973145e-01,8.190331459045410156e-01,8.189989924430847168e-01,8.189648985862731934e-01,8.189307451248168945e-01,8.188967108726501465e-01,8.188625574111938477e-01,8.188284039497375488e-01,8.187943100929260254e-01,8.187601566314697266e-01,8.187260627746582031e-01,8.186919093132019043e-01,8.186578750610351562e-01,8.186237812042236328e-01,8.185896873474121094e-01
7.829957008361816406e-01,7.829645872116088867e-01,7.829333543777465820e-01,7.829021811485290527e-01,7.828710079193115234e-01,7.828397750854492188e-01,7.828086018562316895e-01,7.827774882316589355e-01,7.827462553977966309e-01,7.827150821685791016e-01,7.826839089393615723e-01,7.826527357101440430e-01,7.826215624809265137e-01,7.825904488563537598e-01,7.825592756271362305e-01,7.825281023979187012e-01,7.824969291687011719e-01,7.824657559394836426e-01,7.824346423149108887e-01,7.824035286903381348e-01,7.823723554611206055e-01,7.823411822319030762e-01,7.823100090026855469e-01,7.822788953781127930e-01,7.822477817535400391e-01,7.822166681289672852e-01,7.821854948997497559e-01,7.821543812751770020e-01,7.821232080459594727e-01,7.820920944213867188e-01,7.820610404014587402e-01,7.820299267768859863e-01,7.819987535476684570e-01,7.819676399230957031e-01,7.819365262985229492e-01,7.819054722785949707e-01,7.818743586540222168e-01,7.818432450294494629e-01,7.818121314048767090e-01,7.817810177803039551e-01,7.817499041557312012e-01,7.817188501358032227e-01,7.816877365112304688e-01,7.816566824913024902e-01,7.816255688667297363e-01,7.815944552421569824e-01,7.815633416175842285e-01,7.815323472023010254e-01,7.815012335777282715e-01,7.814701795578002930e-01,7.814390659332275391e-01,7.814080119132995605e-01,7.813770174980163574e-01,7.813459038734436035e-01,7.813148498535156250e-01,7.812837958335876465e-01,7.812526822090148926e-01,7.812216281890869141e-01,7.811906337738037109e-01,7.811595797538757324e-01,7.811285257339477539e-01,7.810974717140197754e-01,7.810664176940917969e-01,7.810353636741638184e-01,7.810043096542358398e-01,7.809732556343078613e-01,7.809422016143798828e-01,7.809112668037414551e-01,7.808802127838134766e-01,7.808491587638854980e-01,7.808181047439575195e-01,7.807871103286743164e-01,7.807560563087463379e-01,7.807250618934631348e-01,7.806940674781799316e-01,7.806630730628967285e-01,7.806320190429687500e-01,7.806010246276855469e-01,7.805700302124023438e-01,7.805389761924743652e-01
7.481117248535156250e-01,7.480832338333129883e-01,7.480547428131103516e-01,7.480262517929077148e-01,7.479977607727050781e-01,7.479693889617919922e-01,7.479408979415893555e-01,7.479124069213867188e-01,7.478839755058288574e-01,7.478554844856262207e-01,7.478269934654235840e-01,7.477986216545104980e-01,7.477701306343078613e-01,7.477416992187500000e-01,7.477132081985473633e-01,7.476847767829895020e-01,7.476564049720764160e-01,7.476279139518737793e-01,7.475994825363159180e-01,7.475710511207580566e-01,7.475425601005554199e-01,7.475141286849975586e-01,7.474857568740844727e-01,7.474573254585266113e-01,7.474288940429687500e-01,7.474004626274108887e-01,7.473720312118530273e-01,7.473435997962951660e-01,7.473152279853820801e-01,7.472867965698242188e-01,7.472583651542663574e-01,7.472299337387084961e-01,7.472015023231506348e-01,7.471731901168823242e-01,7.471447587013244629e-01,7.471163272857666016e-01,7.470879554748535156e-01,7.470595240592956543e-01,7.470310926437377930e-01,7.470027804374694824e-01,7.469743490219116211e-01,7.469459772109985352e-01,7.469175457954406738e-01,7.468891739845275879e-01,7.468608021736145020e-01,7.468324303627014160e-01,7.468040585517883301e-01,7.467756867408752441e-01,7.467473149299621582e-01,7.467188835144042969e-01,7.466905713081359863e-01,7.466621994972229004e-01,7.466338276863098145e-01,7.466054558753967285e-01,7.465770840644836426e-01,7.465487122535705566e-01,7.465204000473022461e-01,7.464920282363891602e-01,7.464636564254760742e-01,7.464352846145629883e-01,7.464069724082946777e-01,7.463786602020263672e-01,7.463502883911132812e-01,7.463219761848449707e-01,7.462936043739318848e-01,7.462652325630187988e-01,7.462369203567504883e-01,7.462086081504821777e-01,7.461802363395690918e-01,7.461518645286560059e-01,7.461235523223876953e-01,7.460952401161193848e-01,7.460669279098510742e-01,7.460386157035827637e-01,7.460102438926696777e-01,7.459819316864013672e-01,7.459536194801330566e-01,7.459253668785095215e-01,7.458970546722412109e-01,7.458687424659729004e-01
7.162033915519714355e-01,7.161772847175598145e-01,7.161511778831481934e-01,7.161251306533813477e-01,7.160990238189697266e-01,7.160729169845581055e-01,7.160468101501464844e-01,7.160207033157348633e-01,7.159946560859680176e-01,7.159686088562011719e-01,7.159425020217895508e-01,7.159163951873779297e-01,7.158903479576110840e-01,7.158642411231994629e-01,7.158381938934326172e-01,7.158121466636657715e-01,7.157860398292541504e-01,7.157599925994873047e-01,7.157338857650756836e-01,7.157078385353088379e-01,7.156817913055419922e-01,7.156557440757751465e-01,7.156296372413635254e-01,7.156035900115966797e-01,7.155775427818298340e-01,7.155515551567077637e-01,7.155254483222961426e-01,7.154994010925292969e-01,7.154733538627624512e-01,7.154473066329956055e-01,7.154212594032287598e-01,7.153952717781066895e-01,7.153692245483398438e-01,7.153431773185729980e-01,7.153171300888061523e-01,7.152910828590393066e-01,7.152650356292724609e-01,7.152390480041503906e-01,7.152130007743835449e-01,7.151869535446166992e-01,7.151609063148498535e-01,7.151349186897277832e-01,7.151089310646057129e-01,7.150828838348388672e-01,7.150568962097167969e-01,7.150308489799499512e-01,7.150048017501831055e-01,7.149788141250610352e-01,7.149528264999389648e-01,7.149268388748168945e-01,7.149007916450500488e-01,7.148748040199279785e-01,7.148487567901611328e-01,7.148227691650390625e-01,7.147968411445617676e-01,7.147707939147949219e-01,7.147448062896728516e-01,7.147188186645507812e-01,7.146928310394287109e-01,7.146668434143066406e-01,7.146408557891845703e-01,7.146148681640625000e-01,7.145888805389404297e-01,7.145628929138183594e-01,7.145369052886962891e-01,7.145109772682189941e-01,7.144849896430969238e-01,7.144590020179748535e-01,7.144330143928527832e-01,7.144070267677307129e-01,7.143810391426086426e-01,7.143551111221313477e-01,7.143291234970092773e-01,7.143031358718872070e-01,7.142772078514099121e-01,7.142512798309326172e-01,7.142252922058105469e-01,7.141993045806884766e-01,7.141733765602111816e-01,7.141473889350891113e-01
6.869056224822998047e-01,6.868816614151000977e-01,6.868576407432556152e-01,6.868336200714111328e-01,6.868095993995666504e-01,6.867855787277221680e-01,6.867616772651672363e-01,6.867376565933227539e-01,6.867136359214782715e-01,6.866896152496337891e-01,6.866656541824340820e-01,6.866416335105895996e-01,6.866176724433898926e-01,6.865937113761901855e-01,6.865696907043457031e-01,6.865457296371459961e-01,6.865217089653015137e-01,6.864977478981018066e-01,6.864737868309020996e-01,6.864498257637023926e-01,6.864258050918579102e-01,6.864018440246582031e-01,6.863778829574584961e-01,6.863539218902587891e-01,6.863299608230590820e-01,6.863059997558593750e-01,6.862819790840148926e-01,6.862580180168151855e-01,6.862340569496154785e-01,6.862101554870605469e-01,6.861861944198608398e-01,6.861622333526611328e-01,6.861382126808166504e-01,6.861142516136169434e-01,6.860902905464172363e-01,6.860663890838623047e-01,6.860424280166625977e-01,6.860184669494628906e-01,6.859945654869079590e-01,6.859706044197082520e-01,6.859467029571533203e-01,6.859227418899536133e-01,6.858987808227539062e-01,6.858748197555541992e-01,6.858509182929992676e-01,6.858269572257995605e-01,6.858030557632446289e-01,6.857791543006896973e-01,6.857551932334899902e-01,6.857312321662902832e-01,6.857073307037353516e-01,6.856833696365356445e-01,6.856595277786254883e-01,6.856355667114257812e-01,6.856116652488708496e-01,6.855877041816711426e-01,6.855638027191162109e-01,6.855399608612060547e-01,6.855159997940063477e-01,6.854920983314514160e-01,6.854681968688964844e-01,6.854442358016967773e-01,6.854203343391418457e-01,6.853964924812316895e-01,6.853725910186767578e-01,6.853486895561218262e-01,6.853247880935668945e-01,6.853008270263671875e-01,6.852769255638122559e-01,6.852530837059020996e-01,6.852291822433471680e-01,6.852052807807922363e-01,6.851813793182373047e-01,6.851575374603271484e-01,6.851336956024169922e-01,6.851097345352172852e-01,6.850858330726623535e-01,6.850619316101074219e-01,6.850380897521972656e-01,6.850142478942871094e-01
6.599106788635253906e-01,6.598885059356689453e-01,6.598663330078125000e-01,6.598441600799560547e-01,6.598220467567443848e-01,6.597998738288879395e-01,6.597777605056762695e-01,6.597555875778198242e-01,6.597334146499633789e-01,6.597113013267517090e-01,6.596891880035400391e-01,6.596670150756835938e-01,6.596449017524719238e-01,6.596227288246154785e-01,6.596005558967590332e-01,6.595784425735473633e-01,6.595563292503356934e-01,6.595342159271240234e-01,6.595120429992675781e-01,6.594899296760559082e-01,6.594677567481994629e-01,6.594457030296325684e-01,6.594235897064208984e-01,6.594014167785644531e-01,6.593793034553527832e-01,6.593571901321411133e-01,6.593350172042846680e-01,6.593129634857177734e-01,6.592908501625061035e-01,6.592687368392944336e-01,6.592465639114379883e-01,6.592244505882263184e-01,6.592023372650146484e-01,6.591802835464477539e-01,6.591581702232360840e-01,6.591360569000244141e-01,6.591139435768127441e-01,6.590918302536010742e-01,6.590697765350341797e-01,6.590476632118225098e-01,6.590255498886108398e-01,6.590034365653991699e-01,6.589813232421875000e-01,6.589592099189758301e-01,6.589371562004089355e-01,6.589151024818420410e-01,6.588929891586303711e-01,6.588708758354187012e-01,6.588487625122070312e-01,6.588267087936401367e-01,6.588046550750732422e-01,6.587825417518615723e-01,6.587604880332946777e-01,6.587383747100830078e-01,6.587162613868713379e-01,6.586942672729492188e-01,6.586721539497375488e-01,6.586501002311706543e-01,6.586279869079589844e-01,6.586059331893920898e-01,6.585838198661804199e-01,6.585618257522583008e-01,6.585397124290466309e-01,6.585176587104797363e-01,6.584956049919128418e-01,6.584734916687011719e-01,6.584514975547790527e-01,6.584294438362121582e-01,6.584073901176452637e-01,6.583852767944335938e-01,6.583632230758666992e-01,6.583411693572998047e-01,6.583191752433776855e-01,6.582971215248107910e-01,6.582750678062438965e-01,6.582530140876770020e-01,6.582309603691101074e-01,6.582089066505432129e-01,6.581868529319763184e-01,6.581647992134094238e-01
6.349571943283081055e-01,6.349366903305053711e-01,6.349161863327026367e-01,6.348956823348999023e-01,6.348751783370971680e-01,6.348546147346496582e-01,6.348341107368469238e-01,6.348136067390441895e-01,6.347931623458862305e-01,6.347726583480834961e-01,6.347520947456359863e-01,6.347315907478332520e-01,6.347110867500305176e-01,6.346906423568725586e-01,6.346701383590698242e-01,6.346496343612670898e-01,6.346291303634643555e-01,6.346086263656616211e-01,6.345881223678588867e-01,6.345676779747009277e-01,6.345471739768981934e-01,6.345267295837402344e-01,6.345062255859375000e-01,6.344857215881347656e-01,6.344652175903320312e-01,6.344447731971740723e-01,6.344242691993713379e-01,6.344038248062133789e-01,6.343833208084106445e-01,6.343628168106079102e-01,6.343423724174499512e-01,6.343219280242919922e-01,6.343014240264892578e-01,6.342809796333312988e-01,6.342604756355285645e-01,6.342400312423706055e-01,6.342195868492126465e-01,6.341990828514099121e-01,6.341786384582519531e-01,6.341581344604492188e-01,6.341376900672912598e-01,6.341172456741333008e-01,6.340968012809753418e-01,6.340763568878173828e-01,6.340558528900146484e-01,6.340354084968566895e-01,6.340149641036987305e-01,6.339945197105407715e-01,6.339740753173828125e-01,6.339536309242248535e-01,6.339331865310668945e-01,6.339126825332641602e-01,6.338922381401062012e-01,6.338718533515930176e-01,6.338514089584350586e-01,6.338309645652770996e-01,6.338105201721191406e-01,6.337900757789611816e-01,6.337696313858032227e-01,6.337491869926452637e-01,6.337287425994873047e-01,6.337082982063293457e-01,6.336878538131713867e-01,6.336674690246582031e-01,6.336470246315002441e-01,6.336265802383422852e-01,6.336061954498291016e-01,6.335857510566711426e-01,6.335653066635131836e-01,6.335448622703552246e-01,6.335244774818420410e-01,6.335040330886840820e-01,6.334836483001708984e-01,6.334632039070129395e-01,6.334427595138549805e-01,6.334223747253417969e-01,6.334019899368286133e-01,6.333815455436706543e-01,6.333611607551574707e-01,6.333407163619995117e-01
6.118221879005432129e-01,6.118031144142150879e-01,6.117841005325317383e-01,6.117650270462036133e-01,6.117459535598754883e-01,6.117269396781921387e-01,6.117079257965087891e-01,6.116888523101806641e-01,6.116698384284973145e-01,6.116507649421691895e-01,6.116317510604858398e-01,6.116127371788024902e-01,6.115937232971191406e-01,6.115746498107910156e-01,6.115556359291076660e-01,6.115365624427795410e-01,6.115175485610961914e-01,6.114985346794128418e-01,6.114795207977294922e-01,6.114605069160461426e-01,6.114414930343627930e-01,6.114224195480346680e-01,6.114034056663513184e-01,6.113844513893127441e-01,6.113653779029846191e-01,6.113463640213012695e-01,6.113273501396179199e-01,6.113083362579345703e-01,6.112893223762512207e-01,6.112703084945678711e-01,6.112512946128845215e-01,6.112322807312011719e-01,6.112132668495178223e-01,6.111942529678344727e-01,6.111752986907958984e-01,6.111562848091125488e-01,6.111372709274291992e-01,6.111182570457458496e-01,6.110992431640625000e-01,6.110802292823791504e-01,6.110612750053405762e-01,6.110422611236572266e-01,6.110232472419738770e-01,6.110042333602905273e-01,6.109852790832519531e-01,6.109662652015686035e-01,6.109473109245300293e-01,6.109282970428466797e-01,6.109092831611633301e-01,6.108902692794799805e-01,6.108713150024414062e-01,6.108523607254028320e-01,6.108333468437194824e-01,6.108143925666809082e-01,6.107953786849975586e-01,6.107763648033142090e-01,6.107574105262756348e-01,6.107384562492370605e-01,6.107194423675537109e-01,6.107004880905151367e-01,6.106814742088317871e-01,6.106625199317932129e-01,6.106435656547546387e-01,6.106246113777160645e-01,6.106055974960327148e-01,6.105866432189941406e-01,6.105676889419555664e-01,6.105486750602722168e-01,6.105297803878784180e-01,6.105107665061950684e-01,6.104918122291564941e-01,6.104728579521179199e-01,6.104539036750793457e-01,6.104348897933959961e-01,6.104159951210021973e-01,6.103970408439636230e-01,6.103780269622802734e-01,6.103590726852416992e-01,6.103401184082031250e-01,6.103212237358093262e-01
5.903136730194091797e-01,5.902959704399108887e-01,5.902782082557678223e-01,5.902605056762695312e-01,5.902428030967712402e-01,5.902250409126281738e-01,5.902073383331298828e-01,5.901895761489868164e-01,5.901718735694885254e-01,5.901541709899902344e-01,5.901364684104919434e-01,5.901187062263488770e-01,5.901010036468505859e-01,5.900833010673522949e-01,5.900655388832092285e-01,5.900478959083557129e-01,5.900301337242126465e-01,5.900124311447143555e-01,5.899947285652160645e-01,5.899770259857177734e-01,5.899592638015747070e-01,5.899416208267211914e-01,5.899239182472229004e-01,5.899061560630798340e-01,5.898884534835815430e-01,5.898707509040832520e-01,5.898531079292297363e-01,5.898354053497314453e-01,5.898177027702331543e-01,5.898000001907348633e-01,5.897822976112365723e-01,5.897645354270935059e-01,5.897468924522399902e-01,5.897291898727416992e-01,5.897114872932434082e-01,5.896937847137451172e-01,5.896760821342468262e-01,5.896584391593933105e-01,5.896407365798950195e-01,5.896230340003967285e-01,5.896053314208984375e-01,5.895876288414001465e-01,5.895699858665466309e-01,5.895522832870483398e-01,5.895346403121948242e-01,5.895169377326965332e-01,5.894992351531982422e-01,5.894815325736999512e-01,5.894638299942016602e-01,5.894461870193481445e-01,5.894285440444946289e-01,5.894108414649963379e-01,5.893931388854980469e-01,5.893754959106445312e-01,5.893578529357910156e-01,5.893401503562927246e-01,5.893225073814392090e-01,5.893048048019409180e-01,5.892871022224426270e-01,5.892694592475891113e-01,5.892518162727355957e-01,5.892341136932373047e-01,5.892164707183837891e-01,5.891988277435302734e-01,5.891811251640319824e-01,5.891634821891784668e-01,5.891458392143249512e-01,5.891281366348266602e-01,5.891104936599731445e-01,5.890928506851196289e-01,5.890751481056213379e-01,5.890575647354125977e-01,5.890398621559143066e-01,5.890222191810607910e-01,5.890045762062072754e-01,5.889869332313537598e-01,5.889692306518554688e-01,5.889516472816467285e-01,5.889340043067932129e-01,5.889163017272949219e-01
