3.097452878952026367e+00,3.175997495651245117e+00,3.258629083633422852e+00,3.345675230026245117e+00,3.437499523162841797e+00,3.534506559371948242e+00,3.637163639068603516e+00,3.745964050292968750e+00,3.861474752426147461e+00,3.984335899353027344e+00,4.115271568298339844e+00,4.255106449127197266e+00,4.404777526855468750e+00,4.565362930297851562e+00,4.738099098205566406e+00,4.924421787261962891e+00,5.000000000000000000e+00,5.000000000000000000e+00,5.000000000000000000e+00,5.000000000000000000e+00,5.000000000000000000e+00,5.000000000000000000e+00,5.000000000000000000e+00,5.000000000000000000e+00,5.000000000000000000e+00,5.000000000000000000e+00,5.000000000000000000e+00,5.000000000000000000e+00,5.000000000000000000e+00,5.000000000000000000e+00,5.000000000000000000e+00,5.000000000000000000e+00,5.000000000000000000e+00,5.000000000000000000e+00,5.000000000000000000e+00,5.000000000000000000e+00,5.000000000000000000e+00,5.000000000000000000e+00,5.000000000000000000e+00,5.000000000000000000e+00,5.000000000000000000e+00,5.000000000000000000e+00,5.000000000000000000e+00,5.000000000000000000e+00,5.000000000000000000e+00,5.000000000000000000e+00,5.000000000000000000e+00,5.000000000000000000e+00,5.000000000000000000e+00,5.000000000000000000e+00,5.000000000000000000e+00,5.000000000000000000e+00,5.000000000000000000e+00,2.500860691070556641e+00,2.484131813049316406e+00,2.473898649215698242e+00,2.432607650756835938e+00,2.410171508789062500e+00,2.398041248321533203e+00,2.396068572998046875e+00,2.404969453811645508e+00,2.439851045608520508e+00,2.529702425003051758e+00,2.565556049346923828e+00,5.000000000000000000e+00,5.000000000000000000e+00,5.000000000000000000e+00,5.000000000000000000e+00,5.000000000000000000e+00,5.000000000000000000e+00,4.846354484558105469e+00,4.687795162200927734e+00,4.539282321929931641e+00,4.399890422821044922e+00,4.268804073333740234e+00,4.145303249359130859e+00,4.028747081756591797e+00,3.918566703796386719e+00,3.814249515533447266e+00,3.715340852737426758e+00
3.097386837005615234e+00,3.175928354263305664e+00,3.258556365966796875e+00,3.345598459243774414e+00,3.437418460845947266e+00,3.534420967102050781e+00,3.637056827545166016e+00,3.745849132537841797e+00,3.861352682113647461e+00,3.984205722808837891e+00,4.115133285522460938e+00,4.254958152770996094e+00,4.404619216918945312e+00,4.565191745758056641e+00,4.737915039062500000e+00,4.924222946166992188e+00,5.000000000000000000e+00,5.000000000000000000e+00,5.000000000000000000e+00,5.000000000000000000e+00,5.000000000000000000e+00,5.000000000000000000e+00,5.000000000000000000e+00,5.000000000000000000e+00,5.000000000000000000e+00,5.000000000000000000e+00,5.000000000000000000e+00,5.000000000000000000e+00,5.000000000000000000e+00,5.000000000000000000e+00,5.000000000000000000e+00,5.000000000000000000e+00,5.000000000000000000e+00,5.000000000000000000e+00,5.000000000000000000e+00,5.000000000000000000e+00,5.000000000000000000e+00,5.000000000000000000e+00,5.000000000000000000e+00,5.000000000000000000e+00,5.000000000000000000e+00,5.000000000000000000e+00,5.000000000000000000e+00,5.000000000000000000e+00,5.000000000000000000e+00,5.000000000000000000e+00,5.000000000000000000e+00,5.000000000000000000e+00,5.000000000000000000e+00,5.000000000000000000e+00,5.000000000000000000e+00,5.000000000000000000e+00,5.000000000000000000e+00,2.504421710968017578e+00,2.480476140975952148e+00,2.485005378723144531e+00,2.437644481658935547e+00,2.411568164825439453e+00,2.399473428726196289e+00,2.397455692291259766e+00,2.406248569488525391e+00,2.437267065048217773e+00,2.533652067184448242e+00,2.578127384185791016e+00,5.000000000000000000e+00,5.000000000000000000e+00,5.000000000000000000e+00,5.000000000000000000e+00,5.000000000000000000e+00,5.000000000000000000e+00,4.846495151519775391e+00,4.687926769256591797e+00,4.539405345916748047e+00,4.400006294250488281e+00,4.268913269042968750e+00,4.145404338836669922e+00,4.028838634490966797e+00,3.918649435043334961e+00,3.814326524734497070e+00,3.715414524078369141e+00
3.097321271896362305e+00,3.175859212875366211e+00,3.258483409881591797e+00,3.345521688461303711e+00,3.437337398529052734e+00,3.534334897994995117e+00,3.636966228485107422e+00,3.745735645294189453e+00,3.861230373382568359e+00,3.984075784683227539e+00,4.114994525909423828e+00,4.254809379577636719e+00,4.404459953308105469e+00,4.565021038055419922e+00,4.737731456756591797e+00,4.924024105072021484e+00,5.000000000000000000e+00,5.000000000000000000e+00,5.000000000000000000e+00,5.000000000000000000e+00,5.000000000000000000e+00,5.000000000000000000e+00,5.000000000000000000e+00,5.000000000000000000e+00,5.000000000000000000e+00,5.000000000000000000e+00,5.000000000000000000e+00,5.000000000000000000e+00,5.000000000000000000e+00,5.000000000000000000e+00,5.000000000000000000e+00,5.000000000000000000e+00,5.000000000000000000e+00,5.000000000000000000e+00,5.000000000000000000e+00,5.000000000000000000e+00,5.000000000000000000e+00,5.000000000000000000e+00,5.000000000000000000e+00,5.000000000000000000e+00,5.000000000000000000e+00,5.000000000000000000e+00,5.000000000000000000e+00,5.000000000000000000e+00,5.000000000000000000e+00,5.000000000000000000e+00,5.000000000000000000e+00,5.000000000000000000e+00,5.000000000000000000e+00,5.000000000000000000e+00,5.000000000000000000e+00,5.000000000000000000e+00,5.000000000000000000e+00,2.509834289550781250e+00,2.484180212020874023e+00,2.491817951202392578e+00,2.428520202636718750e+00,2.401850938796997070e+00,2.391626119613647461e+00,2.399907350540161133e+00,2.396341085433959961e+00,2.422130584716796875e+00,2.550126552581787109e+00,5.000000000000000000e+00,5.000000000000000000e+00,5.000000000000000000e+00,5.000000000000000000e+00,5.000000000000000000e+00,5.000000000000000000e+00,5.000000000000000000e+00,4.846636295318603516e+00,4.688058376312255859e+00,4.539529323577880859e+00,4.400117397308349609e+00,4.269013404846191406e+00,4.145495891571044922e+00,4.028925418853759766e+00,3.918730974197387695e+00,3.814404249191284180e+00,3.715487957000732422e+00
3.097255468368530273e+00,3.175789833068847656e+00,3.258410692214965820e+00,3.345445156097412109e+00,3.437256574630737305e+00,3.534249305725097656e+00,3.636875152587890625e+00,3.745639562606811523e+00,3.861109495162963867e+00,3.983945608139038086e+00,4.114855766296386719e+00,4.254661560058593750e+00,4.404301166534423828e+00,4.564850330352783203e+00,4.737547874450683594e+00,4.923825740814208984e+00,5.000000000000000000e+00,5.000000000000000000e+00,5.000000000000000000e+00,5.000000000000000000e+00,5.000000000000000000e+00,5.000000000000000000e+00,5.000000000000000000e+00,5.000000000000000000e+00,5.000000000000000000e+00,5.000000000000000000e+00,5.000000000000000000e+00,5.000000000000000000e+00,5.000000000000000000e+00,5.000000000000000000e+00,5.000000000000000000e+00,5.000000000000000000e+00,5.000000000000000000e+00,5.000000000000000000e+00,5.000000000000000000e+00,5.000000000000000000e+00,5.000000000000000000e+00,5.000000000000000000e+00,5.000000000000000000e+00,5.000000000000000000e+00,5.000000000000000000e+00,5.000000000000000000e+00,5.000000000000000000e+00,5.000000000000000000e+00,5.000000000000000000e+00,5.000000000000000000e+00,5.000000000000000000e+00,5.000000000000000000e+00,5.000000000000000000e+00,5.000000000000000000e+00,5.000000000000000000e+00,5.000000000000000000e+00,5.000000000000000000e+00,2.516982555389404297e+00,2.493161678314208984e+00,2.470694065093994141e+00,2.423026084899902344e+00,2.394260406494140625e+00,2.386771440505981445e+00,2.387675523757934570e+00,2.389343976974487305e+00,2.406152248382568359e+00,2.567699193954467773e+00,5.000000000000000000e+00,5.000000000000000000e+00,5.000000000000000000e+00,5.000000000000000000e+00,5.000000000000000000e+00,5.000000000000000000e+00,5.000000000000000000e+00,4.846773624420166016e+00,4.688181877136230469e+00,4.539639472961425781e+00,4.400220870971679688e+00,4.269110679626464844e+00,4.145587921142578125e+00,4.029011726379394531e+00,3.918812990188598633e+00,3.814481735229492188e+00,3.715561628341674805e+00
3.097189664840698242e+00,3.175720691680908203e+00,3.258337736129760742e+00,3.345368385314941406e+00,3.437175512313842773e+00,3.534163713455200195e+00,3.636784553527832031e+00,3.745543241500854492e+00,3.861007452011108398e+00,3.983816385269165039e+00,4.114717006683349609e+00,4.254513263702392578e+00,4.404141902923583984e+00,4.564680099487304688e+00,4.737363815307617188e+00,4.923626899719238281e+00,5.000000000000000000e+00,5.000000000000000000e+00,5.000000000000000000e+00,5.000000000000000000e+00,5.000000000000000000e+00,5.000000000000000000e+00,5.000000000000000000e+00,5.000000000000000000e+00,5.000000000000000000e+00,5.000000000000000000e+00,5.000000000000000000e+00,5.000000000000000000e+00,5.000000000000000000e+00,5.000000000000000000e+00,5.000000000000000000e+00,5.000000000000000000e+00,5.000000000000000000e+00,5.000000000000000000e+00,5.000000000000000000e+00,5.000000000000000000e+00,5.000000000000000000e+00,5.000000000000000000e+00,5.000000000000000000e+00,5.000000000000000000e+00,5.000000000000000000e+00,5.000000000000000000e+00,5.000000000000000000e+00,5.000000000000000000e+00,5.000000000000000000e+00,5.000000000000000000e+00,5.000000000000000000e+00,5.000000000000000000e+00,5.000000000000000000e+00,5.000000000000000000e+00,5.000000000000000000e+00,5.000000000000000000e+00,5.000000000000000000e+00,2.517743110656738281e+00,2.486121654510498047e+00,2.470691919326782227e+00,2.432016372680664062e+00,2.407610893249511719e+00,2.396968603134155273e+00,2.389068603515625000e+00,2.401356697082519531e+00,2.426368951797485352e+00,2.566348552703857422e+00,5.000000000000000000e+00,5.000000000000000000e+00,5.000000000000000000e+00,5.000000000000000000e+00,5.000000000000000000e+00,5.000000000000000000e+00,5.000000000000000000e+00,4.846899032592773438e+00,4.688298702239990234e+00,4.539749145507812500e+00,4.400324344635009766e+00,4.269207954406738281e+00,4.145678997039794922e+00,4.029098510742187500e+00,3.918894767761230469e+00,3.814559459686279297e+00,3.715635299682617188e+00
3.097123861312866211e+00,3.175651550292968750e+00,3.258264780044555664e+00,3.345291376113891602e+00,3.437094449996948242e+00,3.534078121185302734e+00,3.636693716049194336e+00,3.745446681976318359e+00,3.860905170440673828e+00,3.983707666397094727e+00,4.114578723907470703e+00,4.254364967346191406e+00,4.403983116149902344e+00,4.564508914947509766e+00,4.737179756164550781e+00,4.923428535461425781e+00,5.000000000000000000e+00,5.000000000000000000e+00,5.000000000000000000e+00,5.000000000000000000e+00,5.000000000000000000e+00,5.000000000000000000e+00,5.000000000000000000e+00,5.000000000000000000e+00,5.000000000000000000e+00,5.000000000000000000e+00,5.000000000000000000e+00,5.000000000000000000e+00,5.000000000000000000e+00,5.000000000000000000e+00,5.000000000000000000e+00,5.000000000000000000e+00,5.000000000000000000e+00,5.000000000000000000e+00,5.000000000000000000e+00,5.000000000000000000e+00,5.000000000000000000e+00,5.000000000000000000e+00,5.000000000000000000e+00,5.000000000000000000e+00,5.000000000000000000e+00,5.000000000000000000e+00,5.000000000000000000e+00,5.000000000000000000e+00,5.000000000000000000e+00,5.000000000000000000e+00,5.000000000000000000e+00,5.000000000000000000e+00,5.000000000000000000e+00,5.000000000000000000e+00,5.000000000000000000e+00,5.000000000000000000e+00,5.000000000000000000e+00,2.492284536361694336e+00,2.456433057785034180e+00,2.472958564758300781e+00,2.431291341781616211e+00,2.408003568649291992e+00,2.402253866195678711e+00,2.392038583755493164e+00,2.408499240875244141e+00,2.419606685638427734e+00,2.557540893554687500e+00,2.586673736572265625e+00,5.000000000000000000e+00,5.000000000000000000e+00,5.000000000000000000e+00,5.000000000000000000e+00,5.000000000000000000e+00,5.000000000000000000e+00,4.847023963928222656e+00,4.688416004180908203e+00,4.539859294891357422e+00,4.400427341461181641e+00,4.269305229187011719e+00,4.145771026611328125e+00,4.029184818267822266e+00,3.918976783752441406e+00,3.814637184143066406e+00,3.715708971023559570e+00
3.097058057785034180e+00,3.175582408905029297e+00,3.258192062377929688e+00,3.345214605331420898e+00,3.437013626098632812e+00,3.533992528915405273e+00,3.636603116989135742e+00,3.745350599288940430e+00,3.860802650451660156e+00,3.983598947525024414e+00,4.114462375640869141e+00,4.254216194152832031e+00,4.403824329376220703e+00,4.564338207244873047e+00,4.736995697021484375e+00,4.923229694366455078e+00,5.000000000000000000e+00,5.000000000000000000e+00,5.000000000000000000e+00,5.000000000000000000e+00,5.000000000000000000e+00,5.000000000000000000e+00,5.000000000000000000e+00,5.000000000000000000e+00,5.000000000000000000e+00,5.000000000000000000e+00,5.000000000000000000e+00,5.000000000000000000e+00,5.000000000000000000e+00,5.000000000000000000e+00,5.000000000000000000e+00,5.000000000000000000e+00,5.000000000000000000e+00,5.000000000000000000e+00,5.000000000000000000e+00,5.000000000000000000e+00,5.000000000000000000e+00,5.000000000000000000e+00,5.000000000000000000e+00,5.000000000000000000e+00,5.000000000000000000e+00,5.000000000000000000e+00,5.000000000000000000e+00,5.000000000000000000e+00,5.000000000000000000e+00,5.000000000000000000e+00,5.000000000000000000e+00,5.000000000000000000e+00,5.000000000000000000e+00,5.000000000000000000e+00,5.000000000000000000e+00,5.000000000000000000e+00,5.000000000000000000e+00,5.000000000000000000e+00,2.433989524841308594e+00,2.452263355255126953e+00,2.418091297149658203e+00,2.399501085281372070e+00,2.421458244323730469e+00,2.415034294128417969e+00,2.418654918670654297e+00,2.402747154235839844e+00,2.432685613632202148e+00,2.556143760681152344e+00,5.000000000000000000e+00,5.000000000000000000e+00,5.000000000000000000e+00,5.000000000000000000e+00,5.000000000000000000e+00,5.000000000000000000e+00,4.847149372100830078e+00,4.688533306121826172e+00,4.539968967437744141e+00,4.400530338287353516e+00,4.269402027130126953e+00,4.145862579345703125e+00,4.029271125793457031e+00,3.919058799743652344e+00,3.814714670181274414e+00,3.715782165527343750e+00
3.096992492675781250e+00,3.175513267517089844e+00,3.258119344711303711e+00,3.345137834548950195e+00,3.436932325363159180e+00,3.533906936645507812e+00,3.636512517929077148e+00,3.745254516601562500e+00,3.860700368881225586e+00,3.983489751815795898e+00,4.114346504211425781e+00,4.254092216491699219e+00,4.403665542602539062e+00,4.564167499542236328e+00,4.736812114715576172e+00,4.923030853271484375e+00,5.000000000000000000e+00,5.000000000000000000e+00,5.000000000000000000e+00,5.000000000000000000e+00,5.000000000000000000e+00,5.000000000000000000e+00,5.000000000000000000e+00,5.000000000000000000e+00,5.000000000000000000e+00,5.000000000000000000e+00,5.000000000000000000e+00,5.000000000000000000e+00,5.000000000000000000e+00,5.000000000000000000e+00,5.000000000000000000e+00,5.000000000000000000e+00,5.000000000000000000e+00,5.000000000000000000e+00,5.000000000000000000e+00,5.000000000000000000e+00,5.000000000000000000e+00,5.000000000000000000e+00,5.000000000000000000e+00,5.000000000000000000e+00,5.000000000000000000e+00,5.000000000000000000e+00,5.000000000000000000e+00,5.000000000000000000e+00,5.000000000000000000e+00,5.000000000000000000e+00,5.000000000000000000e+00,5.000000000000000000e+00,5.000000000000000000e+00,5.000000000000000000e+00,5.000000000000000000e+00,5.000000000000000000e+00,5.000000000000000000e+00,5.000000000000000000e+00,2.406054973602294922e+00,2.425051212310791016e+00,2.389197587966918945e+00,2.367829799652099609e+00,2.400687694549560547e+00,2.433515310287475586e+00,2.396332025527954102e+00,2.374799728393554688e+00,2.395138740539550781e+00,2.542853355407714844e+00,5.000000000000000000e+00,5.000000000000000000e+00,5.000000000000000000e+00,5.000000000000000000e+00,5.000000000000000000e+00,5.000000000000000000e+00,4.847274780273437500e+00,4.688650131225585938e+00,4.540078639984130859e+00,4.400633811950683594e+00,4.269499301910400391e+00,4.145954132080078125e+00,4.029357910156250000e+00,3.919140577316284180e+00,3.814791917800903320e+00,3.715855836868286133e+00
3.096926450729370117e+00,3.175444126129150391e+00,3.258046627044677734e+00,3.345061302185058594e+00,3.436851263046264648e+00,3.533820867538452148e+00,3.636421918869018555e+00,3.745158433914184570e+00,3.860598087310791016e+00,3.983381032943725586e+00,4.114230632781982422e+00,4.253968238830566406e+00,4.403532028198242188e+00,4.563996791839599609e+00,4.736628532409667969e+00,4.922832489013671875e+00,5.000000000000000000e+00,5.000000000000000000e+00,5.000000000000000000e+00,5.000000000000000000e+00,5.000000000000000000e+00,5.000000000000000000e+00,5.000000000000000000e+00,5.000000000000000000e+00,5.000000000000000000e+00,5.000000000000000000e+00,5.000000000000000000e+00,5.000000000000000000e+00,5.000000000000000000e+00,5.000000000000000000e+00,5.000000000000000000e+00,5.000000000000000000e+00,5.000000000000000000e+00,5.000000000000000000e+00,5.000000000000000000e+00,5.000000000000000000e+00,5.000000000000000000e+00,5.000000000000000000e+00,5.000000000000000000e+00,5.000000000000000000e+00,5.000000000000000000e+00,5.000000000000000000e+00,5.000000000000000000e+00,5.000000000000000000e+00,5.000000000000000000e+00,5.000000000000000000e+00,5.000000000000000000e+00,5.000000000000000000e+00,5.000000000000000000e+00,5.000000000000000000e+00,5.000000000000000000e+00,5.000000000000000000e+00,5.000000000000000000e+00,5.000000000000000000e+00,2.401678085327148438e+00,2.402077198028564453e+00,2.379173040390014648e+00,2.356723308563232422e+00,2.373811960220336914e+00,2.421516656875610352e+00,2.380711317062377930e+00,2.364167690277099609e+00,2.379476785659790039e+00,2.548292636871337891e+00,5.000000000000000000e+00,5.000000000000000000e+00,5.000000000000000000e+00,5.000000000000000000e+00,5.000000000000000000e+00,5.000000000000000000e+00,4.847399711608886719e+00,4.688767433166503906e+00,4.540188789367675781e+00,4.400737285614013672e+00,4.269596576690673828e+00,4.146045684814453125e+00,4.029444694519042969e+00,3.919222116470336914e+00,3.814869642257690430e+00,3.715929508209228516e+00
3.096860647201538086e+00,3.175374746322631836e+00,3.257973909378051758e+00,3.344984531402587891e+00,3.436770200729370117e+00,3.533735275268554688e+00,3.636331319808959961e+00,3.745062112808227539e+00,3.860496044158935547e+00,3.983272075653076172e+00,4.114114284515380859e+00,4.253844261169433594e+00,4.403398990631103516e+00,4.563853740692138672e+00,4.736444473266601562e+00,4.922633647918701172e+00,5.000000000000000000e+00,5.000000000000000000e+00,5.000000000000000000e+00,5.000000000000000000e+00,5.000000000000000000e+00,5.000000000000000000e+00,5.000000000000000000e+00,5.000000000000000000e+00,5.000000000000000000e+00,5.000000000000000000e+00,5.000000000000000000e+00,5.000000000000000000e+00,5.000000000000000000e+00,5.000000000000000000e+00,5.000000000000000000e+00,5.000000000000000000e+00,5.000000000000000000e+00,5.000000000000000000e+00,5.000000000000000000e+00,5.000000000000000000e+00,5.000000000000000000e+00,5.000000000000000000e+00,5.000000000000000000e+00,5.000000000000000000e+00,5.000000000000000000e+00,5.000000000000000000e+00,5.000000000000000000e+00,5.000000000000000000e+00,5.000000000000000000e+00,5.000000000000000000e+00,5.000000000000000000e+00,5.000000000000000000e+00,5.000000000000000000e+00,5.000000000000000000e+00,5.000000000000000000e+00,5.000000000000000000e+00,5.000000000000000000e+00,5.000000000000000000e+00,2.368165493011474609e+00,2.353308439254760742e+00,2.372215986251831055e+00,2.349963426589965820e+00,2.365524530410766602e+00,2.420872211456298828e+00,2.374056816101074219e+00,2.358969926834106445e+00,2.369701862335205078e+00,2.529046297073364258e+00,5.000000000000000000e+00,5.000000000000000000e+00,5.000000000000000000e+00,5.000000000000000000e+00,5.000000000000000000e+00,5.000000000000000000e+00,4.847525119781494141e+00,4.688884735107421875e+00,4.540298461914062500e+00,4.400840282440185547e+00,4.269693851470947266e+00,4.146137237548828125e+00,4.029531002044677734e+00,3.919304132461547852e+00,3.814947128295898438e+00,3.716003179550170898e+00
3.096847534179687500e+00,3.175330877304077148e+00,3.257900714874267578e+00,3.344907760620117188e+00,3.436689376831054688e+00,3.533649682998657227e+00,3.636240243911743164e+00,3.744966030120849609e+00,3.860394001007080078e+00,3.983163356781005859e+00,4.113998413085937500e+00,4.253719806671142578e+00,4.403266429901123047e+00,4.563710689544677734e+00,4.736289501190185547e+00,4.922435760498046875e+00,5.000000000000000000e+00,5.000000000000000000e+00,5.000000000000000000e+00,5.000000000000000000e+00,5.000000000000000000e+00,5.000000000000000000e+00,5.000000000000000000e+00,5.000000000000000000e+00,5.000000000000000000e+00,5.000000000000000000e+00,5.000000000000000000e+00,5.000000000000000000e+00,5.000000000000000000e+00,5.000000000000000000e+00,5.000000000000000000e+00,5.000000000000000000e+00,5.000000000000000000e+00,5.000000000000000000e+00,5.000000000000000000e+00,5.000000000000000000e+00,5.000000000000000000e+00,5.000000000000000000e+00,5.000000000000000000e+00,5.000000000000000000e+00,5.000000000000000000e+00,5.000000000000000000e+00,5.000000000000000000e+00,5.000000000000000000e+00,5.000000000000000000e+00,5.000000000000000000e+00,5.000000000000000000e+00,5.000000000000000000e+00,5.000000000000000000e+00,5.000000000000000000e+00,5.000000000000000000e+00,5.000000000000000000e+00,5.000000000000000000e+00,5.000000000000000000e+00,2.355945110321044922e+00,2.412431240081787109e+00,2.366536378860473633e+00,2.343742370605468750e+00,2.358653068542480469e+00,2.418094635009765625e+00,2.366338491439819336e+00,2.354018688201904297e+00,2.360007047653198242e+00,2.523449420928955078e+00,5.000000000000000000e+00,5.000000000000000000e+00,5.000000000000000000e+00,5.000000000000000000e+00,5.000000000000000000e+00,5.000000000000000000e+00,4.847650527954101562e+00,4.689001560211181641e+00,4.540408134460449219e+00,4.400943279266357422e+00,4.269791126251220703e+00,4.146228790283203125e+00,4.029617309570312500e+00,3.919385910034179688e+00,3.815024852752685547e+00,3.716076850891113281e+00
3.096847534179687500e+00,3.175330877304077148e+00,3.257895469665527344e+00,3.344868421554565430e+00,3.436612606048583984e+00,3.533564090728759766e+00,3.636149644851684570e+00,3.744869470596313477e+00,3.860291719436645508e+00,3.983054637908935547e+00,4.113882064819335938e+00,4.253595829010009766e+00,4.403133392333984375e+00,4.563567638397216797e+00,4.736135482788085938e+00,4.922267436981201172e+00,5.000000000000000000e+00,5.000000000000000000e+00,5.000000000000000000e+00,5.000000000000000000e+00,5.000000000000000000e+00,5.000000000000000000e+00,5.000000000000000000e+00,5.000000000000000000e+00,5.000000000000000000e+00,5.000000000000000000e+00,5.000000000000000000e+00,5.000000000000000000e+00,5.000000000000000000e+00,5.000000000000000000e+00,5.000000000000000000e+00,5.000000000000000000e+00,5.000000000000000000e+00,5.000000000000000000e+00,5.000000000000000000e+00,5.000000000000000000e+00,5.000000000000000000e+00,5.000000000000000000e+00,5.000000000000000000e+00,5.000000000000000000e+00,5.000000000000000000e+00,5.000000000000000000e+00,5.000000000000000000e+00,5.000000000000000000e+00,5.000000000000000000e+00,5.000000000000000000e+00,5.000000000000000000e+00,5.000000000000000000e+00,5.000000000000000000e+00,5.000000000000000000e+00,5.000000000000000000e+00,5.000000000000000000e+00,5.000000000000000000e+00,5.000000000000000000e+00,2.333885431289672852e+00,2.423776626586914062e+00,2.361778974533081055e+00,2.337800741195678711e+00,2.350188255310058594e+00,2.415320634841918945e+00,2.358670234680175781e+00,2.346573829650878906e+00,2.352092027664184570e+00,2.593845844268798828e+00,5.000000000000000000e+00,5.000000000000000000e+00,5.000000000000000000e+00,5.000000000000000000e+00,5.000000000000000000e+00,5.000000000000000000e+00,4.847775459289550781e+00,4.689118862152099609e+00,4.540518283843994141e+00,4.401046752929687500e+00,4.269887924194335938e+00,4.146320819854736328e+00,4.029704093933105469e+00,3.919467926025390625e+00,3.815102577209472656e+00,3.716150522232055664e+00
3.096830844879150391e+00,3.175330877304077148e+00,3.257895469665527344e+00,3.344868421554565430e+00,3.436612606048583984e+00,3.533530950546264648e+00,3.636075019836425781e+00,3.744773387908935547e+00,3.860189199447631836e+00,3.982945919036865234e+00,4.113765716552734375e+00,4.253471851348876953e+00,4.403000354766845703e+00,4.563425064086914062e+00,4.735981464385986328e+00,4.922101497650146484e+00,5.000000000000000000e+00,5.000000000000000000e+00,5.000000000000000000e+00,5.000000000000000000e+00,5.000000000000000000e+00,5.000000000000000000e+00,5.000000000000000000e+00,5.000000000000000000e+00,5.000000000000000000e+00,5.000000000000000000e+00,5.000000000000000000e+00,5.000000000000000000e+00,5.000000000000000000e+00,5.000000000000000000e+00,5.000000000000000000e+00,5.000000000000000000e+00,5.000000000000000000e+00,5.000000000000000000e+00,5.000000000000000000e+00,5.000000000000000000e+00,5.000000000000000000e+00,5.000000000000000000e+00,5.000000000000000000e+00,5.000000000000000000e+00,5.000000000000000000e+00,5.000000000000000000e+00,5.000000000000000000e+00,5.000000000000000000e+00,5.000000000000000000e+00,5.000000000000000000e+00,5.000000000000000000e+00,5.000000000000000000e+00,5.000000000000000000e+00,5.000000000000000000e+00,5.000000000000000000e+00,5.000000000000000000e+00,5.000000000000000000e+00,5.000000000000000000e+00,5.000000000000000000e+00,2.446364402770996094e+00,2.354869604110717773e+00,2.330871343612670898e+00,2.343811273574829102e+00,2.410602569580078125e+00,2.355114936828613281e+00,2.340376853942871094e+00,2.336006164550781250e+00,5.000000000000000000e+00,2.523783922195434570e+00,5.000000000000000000e+00,5.000000000000000000e+00,5.000000000000000000e+00,5.000000000000000000e+00,5.000000000000000000e+00,4.847900867462158203e+00,4.689236164093017578e+00,4.540627956390380859e+00,4.401149749755859375e+00,4.269985198974609375e+00,4.146412372589111328e+00,4.029790401458740234e+00,3.919549942016601562e+00,3.815180063247680664e+00,3.716224193572998047e+00
3.096764802932739258e+00,3.175274372100830078e+00,3.257868051528930664e+00,3.344868421554565430e+00,3.436612606048583984e+00,3.533530950546264648e+00,3.636075019836425781e+00,3.744748830795288086e+00,3.860118627548217773e+00,3.982837200164794922e+00,4.113649845123291016e+00,4.253347873687744141e+00,4.402867317199707031e+00,4.563282012939453125e+00,4.735827922821044922e+00,4.921934604644775391e+00,5.000000000000000000e+00,5.000000000000000000e+00,5.000000000000000000e+00,5.000000000000000000e+00,5.000000000000000000e+00,5.000000000000000000e+00,5.000000000000000000e+00,5.000000000000000000e+00,5.000000000000000000e+00,5.000000000000000000e+00,5.000000000000000000e+00,5.000000000000000000e+00,5.000000000000000000e+00,5.000000000000000000e+00,5.000000000000000000e+00,5.000000000000000000e+00,5.000000000000000000e+00,5.000000000000000000e+00,5.000000000000000000e+00,5.000000000000000000e+00,5.000000000000000000e+00,5.000000000000000000e+00,5.000000000000000000e+00,5.000000000000000000e+00,5.000000000000000000e+00,5.000000000000000000e+00,5.000000000000000000e+00,5.000000000000000000e+00,5.000000000000000000e+00,5.000000000000000000e+00,5.000000000000000000e+00,5.000000000000000000e+00,5.000000000000000000e+00,5.000000000000000000e+00,5.000000000000000000e+00,5.000000000000000000e+00,5.000000000000000000e+00,5.000000000000000000e+00,5.000000000000000000e+00,5.000000000000000000e+00,2.350337266921997070e+00,2.323874711990356445e+00,2.336370468139648438e+00,2.406402111053466797e+00,2.352243900299072266e+00,2.331547498703002930e+00,2.322482824325561523e+00,5.000000000000000000e+00,5.000000000000000000e+00,5.000000000000000000e+00,5.000000000000000000e+00,5.000000000000000000e+00,5.000000000000000000e+00,5.000000000000000000e+00,4.848026275634765625e+00,4.689352989196777344e+00,4.540738105773925781e+00,4.401253223419189453e+00,4.270082473754882812e+00,4.146503925323486328e+00,4.029877185821533203e+00,3.919631958007812500e+00,3.815257310867309570e+00,3.716297388076782227e+00
3.096699237823486328e+00,3.175205230712890625e+00,3.257795333862304688e+00,3.344796895980834961e+00,3.436572551727294922e+00,3.533526420593261719e+00,3.636075019836425781e+00,3.744748830795288086e+00,3.860118627548217773e+00,3.982822418212890625e+00,4.113584041595458984e+00,4.253223896026611328e+00,4.402734279632568359e+00,4.563138961791992188e+00,4.735673904418945312e+00,4.921768665313720703e+00,5.000000000000000000e+00,5.000000000000000000e+00,5.000000000000000000e+00,5.000000000000000000e+00,5.000000000000000000e+00,5.000000000000000000e+00,5.000000000000000000e+00,5.000000000000000000e+00,5.000000000000000000e+00,5.000000000000000000e+00,5.000000000000000000e+00,5.000000000000000000e+00,5.000000000000000000e+00,5.000000000000000000e+00,5.000000000000000000e+00,5.000000000000000000e+00,5.000000000000000000e+00,5.000000000000000000e+00,5.000000000000000000e+00,5.000000000000000000e+00,5.000000000000000000e+00,5.000000000000000000e+00,5.000000000000000000e+00,5.000000000000000000e+00,5.000000000000000000e+00,5.000000000000000000e+00,5.000000000000000000e+00,5.000000000000000000e+00,5.000000000000000000e+00,5.000000000000000000e+00,5.000000000000000000e+00,5.000000000000000000e+00,5.000000000000000000e+00,5.000000000000000000e+00,5.000000000000000000e+00,5.000000000000000000e+00,5.000000000000000000e+00,5.000000000000000000e+00,5.000000000000000000e+00,5.000000000000000000e+00,2.347170829772949219e+00,2.316919803619384766e+00,2.327335834503173828e+00,2.452328205108642578e+00,2.349179506301879883e+00,2.322679758071899414e+00,2.316280126571655273e+00,5.000000000000000000e+00,5.000000000000000000e+00,5.000000000000000000e+00,5.000000000000000000e+00,5.000000000000000000e+00,5.000000000000000000e+00,5.000000000000000000e+00,4.848151206970214844e+00,4.689470291137695312e+00,4.540847778320312500e+00,4.401356220245361328e+00,4.270179271697998047e+00,4.146595478057861328e+00,4.029963970184326172e+00,3.919713258743286133e+00,3.815335035324096680e+00,3.716371059417724609e+00
3.096633195877075195e+00,3.175135850906372070e+00,3.257722377777099609e+00,3.344719648361206055e+00,3.436491250991821289e+00,3.533440589904785156e+00,3.636019229888916016e+00,3.744731664657592773e+00,3.860118627548217773e+00,3.982822418212890625e+00,4.113584041595458984e+00,4.253222942352294922e+00,4.402675628662109375e+00,4.563014030456542969e+00,4.735519886016845703e+00,4.921602725982666016e+00,5.000000000000000000e+00,5.000000000000000000e+00,5.000000000000000000e+00,5.000000000000000000e+00,5.000000000000000000e+00,5.000000000000000000e+00,5.000000000000000000e+00,5.000000000000000000e+00,5.000000000000000000e+00,5.000000000000000000e+00,5.000000000000000000e+00,5.000000000000000000e+00,5.000000000000000000e+00,5.000000000000000000e+00,5.000000000000000000e+00,5.000000000000000000e+00,5.000000000000000000e+00,5.000000000000000000e+00,5.000000000000000000e+00,5.000000000000000000e+00,5.000000000000000000e+00,5.000000000000000000e+00,5.000000000000000000e+00,5.000000000000000000e+00,5.000000000000000000e+00,5.000000000000000000e+00,5.000000000000000000e+00,5.000000000000000000e+00,5.000000000000000000e+00,5.000000000000000000e+00,5.000000000000000000e+00,5.000000000000000000e+00,5.000000000000000000e+00,5.000000000000000000e+00,5.000000000000000000e+00,5.000000000000000000e+00,5.000000000000000000e+00,5.000000000000000000e+00,5.000000000000000000e+00,5.000000000000000000e+00,2.359931468963623047e+00,2.315388917922973633e+00,2.324627876281738281e+00,5.000000000000000000e+00,2.350023269653320312e+00,2.322529554367065430e+00,2.316981792449951172e+00,5.000000000000000000e+00,5.000000000000000000e+00,5.000000000000000000e+00,5.000000000000000000e+00,5.000000000000000000e+00,5.000000000000000000e+00,5.000000000000000000e+00,4.848276615142822266e+00,4.689588069915771484e+00,4.540957927703857422e+00,4.401459693908691406e+00,4.270276546478271484e+00,4.146687030792236328e+00,4.030050277709960938e+00,3.919795274734497070e+00,3.815414428710937500e+00,3.716450214385986328e+00
3.096567153930664062e+00,3.175066471099853516e+00,3.257649183273315430e+00,3.344642639160156250e+00,3.436409950256347656e+00,3.533354520797729492e+00,3.635928153991699219e+00,3.744635105133056641e+00,3.860042572021484375e+00,3.982789993286132812e+00,4.113584041595458984e+00,4.253222942352294922e+00,4.402675628662109375e+00,4.563014030456542969e+00,4.735471725463867188e+00,4.921477794647216797e+00,5.000000000000000000e+00,5.000000000000000000e+00,5.000000000000000000e+00,5.000000000000000000e+00,5.000000000000000000e+00,5.000000000000000000e+00,5.000000000000000000e+00,5.000000000000000000e+00,5.000000000000000000e+00,5.000000000000000000e+00,5.000000000000000000e+00,5.000000000000000000e+00,5.000000000000000000e+00,5.000000000000000000e+00,5.000000000000000000e+00,5.000000000000000000e+00,5.000000000000000000e+00,5.000000000000000000e+00,5.000000000000000000e+00,5.000000000000000000e+00,5.000000000000000000e+00,5.000000000000000000e+00,5.000000000000000000e+00,5.000000000000000000e+00,5.000000000000000000e+00,5.000000000000000000e+00,5.000000000000000000e+00,5.000000000000000000e+00,5.000000000000000000e+00,5.000000000000000000e+00,5.000000000000000000e+00,5.000000000000000000e+00,5.000000000000000000e+00,5.000000000000000000e+00,5.000000000000000000e+00,5.000000000000000000e+00,5.000000000000000000e+00,5.000000000000000000e+00,5.000000000000000000e+00,2.499802112579345703e+00,2.369262218475341797e+00,2.326058387756347656e+00,2.334800243377685547e+00,5.000000000000000000e+00,2.360596418380737305e+00,2.338032960891723633e+00,2.366421222686767578e+00,5.000000000000000000e+00,5.000000000000000000e+00,5.000000000000000000e+00,5.000000000000000000e+00,5.000000000000000000e+00,5.000000000000000000e+00,5.000000000000000000e+00,4.848402023315429688e+00,4.689704895019531250e+00,4.541067600250244141e+00,4.401562690734863281e+00,4.270373821258544922e+00,4.146778583526611328e+00,4.030141353607177734e+00,3.919885635375976562e+00,3.815501928329467773e+00,3.716533660888671875e+00
3.096501111984252930e+00,3.174997091293334961e+00,3.257576227188110352e+00,3.344565629959106445e+00,3.436328649520874023e+00,3.533268690109252930e+00,3.635837078094482422e+00,3.744538545608520508e+00,3.859940052032470703e+00,3.982680797576904297e+00,4.113483905792236328e+00,4.253170490264892578e+00,4.402675628662109375e+00,4.563014030456542969e+00,4.735471725463867188e+00,4.921477794647216797e+00,5.000000000000000000e+00,5.000000000000000000e+00,5.000000000000000000e+00,5.000000000000000000e+00,5.000000000000000000e+00,5.000000000000000000e+00,5.000000000000000000e+00,5.000000000000000000e+00,5.000000000000000000e+00,5.000000000000000000e+00,5.000000000000000000e+00,5.000000000000000000e+00,5.000000000000000000e+00,5.000000000000000000e+00,5.000000000000000000e+00,5.000000000000000000e+00,5.000000000000000000e+00,5.000000000000000000e+00,5.000000000000000000e+00,5.000000000000000000e+00,5.000000000000000000e+00,5.000000000000000000e+00,5.000000000000000000e+00,5.000000000000000000e+00,5.000000000000000000e+00,5.000000000000000000e+00,5.000000000000000000e+00,5.000000000000000000e+00,5.000000000000000000e+00,5.000000000000000000e+00,5.000000000000000000e+00,5.000000000000000000e+00,5.000000000000000000e+00,5.000000000000000000e+00,5.000000000000000000e+00,5.000000000000000000e+00,5.000000000000000000e+00,5.000000000000000000e+00,5.000000000000000000e+00,2.483873605728149414e+00,2.408497571945190430e+00,2.369509935379028320e+00,5.000000000000000000e+00,2.421006202697753906e+00,2.374105930328369141e+00,2.355829477310180664e+00,5.000000000000000000e+00,5.000000000000000000e+00,5.000000000000000000e+00,5.000000000000000000e+00,5.000000000000000000e+00,5.000000000000000000e+00,5.000000000000000000e+00,5.000000000000000000e+00,4.848526954650878906e+00,4.689822196960449219e+00,4.541177749633789062e+00,4.401668548583984375e+00,4.270478725433349609e+00,4.146882057189941406e+00,4.030239105224609375e+00,3.919978380203247070e+00,3.815590143203735352e+00,3.716616868972778320e+00
3.096435070037841797e+00,3.174927711486816406e+00,3.257503271102905273e+00,3.344488620758056641e+00,3.436247348785400391e+00,3.533182621002197266e+00,3.635746240615844727e+00,3.744441986083984375e+00,3.859837532043457031e+00,3.982571601867675781e+00,4.113367080688476562e+00,4.253046035766601562e+00,4.402544498443603516e+00,4.562935829162597656e+00,4.735455513000488281e+00,4.921477794647216797e+00,5.000000000000000000e+00,5.000000000000000000e+00,5.000000000000000000e+00,5.000000000000000000e+00,5.000000000000000000e+00,5.000000000000000000e+00,5.000000000000000000e+00,5.000000000000000000e+00,5.000000000000000000e+00,5.000000000000000000e+00,5.000000000000000000e+00,5.000000000000000000e+00,5.000000000000000000e+00,5.000000000000000000e+00,5.000000000000000000e+00,5.000000000000000000e+00,5.000000000000000000e+00,5.000000000000000000e+00,5.000000000000000000e+00,5.000000000000000000e+00,5.000000000000000000e+00,5.000000000000000000e+00,5.000000000000000000e+00,5.000000000000000000e+00,5.000000000000000000e+00,5.000000000000000000e+00,5.000000000000000000e+00,5.000000000000000000e+00,5.000000000000000000e+00,5.000000000000000000e+00,5.000000000000000000e+00,5.000000000000000000e+00,5.000000000000000000e+00,5.000000000000000000e+00,5.000000000000000000e+00,5.000000000000000000e+00,5.000000000000000000e+00,5.000000000000000000e+00,5.000000000000000000e+00,2.519904375076293945e+00,2.466524124145507812e+00,2.494703531265258789e+00,5.000000000000000000e+00,2.426784753799438477e+00,2.391380310058593750e+00,2.375448703765869141e+00,5.000000000000000000e+00,5.000000000000000000e+00,5.000000000000000000e+00,5.000000000000000000e+00,5.000000000000000000e+00,5.000000000000000000e+00,5.000000000000000000e+00,5.000000000000000000e+00,4.848652362823486328e+00,4.689945220947265625e+00,4.541298866271972656e+00,4.401785373687744141e+00,4.270588397979736328e+00,4.146986007690429688e+00,4.030336856842041016e+00,3.920071125030517578e+00,3.815677642822265625e+00,3.716700077056884766e+00
3.096369266510009766e+00,3.174858570098876953e+00,3.257430553436279297e+00,3.344412088394165039e+00,3.436166286468505859e+00,3.533097028732299805e+00,3.635655641555786133e+00,3.744345903396606445e+00,3.859735250473022461e+00,3.982462882995605469e+00,4.113251209259033203e+00,4.252921581268310547e+00,4.402410984039306641e+00,4.562792778015136719e+00,4.735301017761230469e+00,4.921366691589355469e+00,5.000000000000000000e+00,5.000000000000000000e+00,5.000000000000000000e+00,5.000000000000000000e+00,5.000000000000000000e+00,5.000000000000000000e+00,5.000000000000000000e+00,5.000000000000000000e+00,5.000000000000000000e+00,5.000000000000000000e+00,5.000000000000000000e+00,5.000000000000000000e+00,5.000000000000000000e+00,5.000000000000000000e+00,5.000000000000000000e+00,5.000000000000000000e+00,5.000000000000000000e+00,5.000000000000000000e+00,5.000000000000000000e+00,5.000000000000000000e+00,5.000000000000000000e+00,5.000000000000000000e+00,5.000000000000000000e+00,5.000000000000000000e+00,5.000000000000000000e+00,5.000000000000000000e+00,5.000000000000000000e+00,5.000000000000000000e+00,5.000000000000000000e+00,5.000000000000000000e+00,5.000000000000000000e+00,5.000000000000000000e+00,5.000000000000000000e+00,5.000000000000000000e+00,5.000000000000000000e+00,5.000000000000000000e+00,5.000000000000000000e+00,5.000000000000000000e+00,5.000000000000000000e+00,2.558798074722290039e+00,2.521441936492919922e+00,5.000000000000000000e+00,5.000000000000000000e+00,2.424999952316284180e+00,2.395403623580932617e+00,2.385768175125122070e+00,5.000000000000000000e+00,5.000000000000000000e+00,5.000000000000000000e+00,5.000000000000000000e+00,5.000000000000000000e+00,5.000000000000000000e+00,5.000000000000000000e+00,5.000000000000000000e+00,4.848794460296630859e+00,4.690078258514404297e+00,4.541423320770263672e+00,4.401902198791503906e+00,4.270698547363281250e+00,4.147089481353759766e+00,4.030435085296630859e+00,3.920163393020629883e+00,3.815765380859375000e+00,3.716783761978149414e+00
3.096303462982177734e+00,3.174789190292358398e+00,3.257357358932495117e+00,3.344335079193115234e+00,3.436084985733032227e+00,3.533011198043823242e+00,3.635564565658569336e+00,3.744249343872070312e+00,3.859632730484008789e+00,3.982353687286376953e+00,4.113134384155273438e+00,4.252797126770019531e+00,4.402277946472167969e+00,4.562649250030517578e+00,4.735146999359130859e+00,4.921199798583984375e+00,5.000000000000000000e+00,5.000000000000000000e+00,5.000000000000000000e+00,5.000000000000000000e+00,5.000000000000000000e+00,5.000000000000000000e+00,5.000000000000000000e+00,5.000000000000000000e+00,5.000000000000000000e+00,5.000000000000000000e+00,5.000000000000000000e+00,5.000000000000000000e+00,5.000000000000000000e+00,5.000000000000000000e+00,5.000000000000000000e+00,5.000000000000000000e+00,5.000000000000000000e+00,5.000000000000000000e+00,5.000000000000000000e+00,5.000000000000000000e+00,5.000000000000000000e+00,5.000000000000000000e+00,5.000000000000000000e+00,5.000000000000000000e+00,5.000000000000000000e+00,5.000000000000000000e+00,5.000000000000000000e+00,5.000000000000000000e+00,5.000000000000000000e+00,5.000000000000000000e+00,5.000000000000000000e+00,5.000000000000000000e+00,5.000000000000000000e+00,5.000000000000000000e+00,5.000000000000000000e+00,5.000000000000000000e+00,5.000000000000000000e+00,5.000000000000000000e+00,5.000000000000000000e+00,2.611100912094116211e+00,2.604217290878295898e+00,5.000000000000000000e+00,5.000000000000000000e+00,2.424770832061767578e+00,2.398766994476318359e+00,2.395997285842895508e+00,5.000000000000000000e+00,5.000000000000000000e+00,5.000000000000000000e+00,5.000000000000000000e+00,5.000000000000000000e+00,5.000000000000000000e+00,5.000000000000000000e+00,5.000000000000000000e+00,4.848936080932617188e+00,4.690210819244384766e+00,4.541547775268554688e+00,4.402019023895263672e+00,4.270808696746826172e+00,4.147193431854248047e+00,4.030532836914062500e+00,3.920256376266479492e+00,3.815853595733642578e+00,3.716866731643676758e+00
3.096237421035766602e+00,3.174719810485839844e+00,3.257284402847290039e+00,3.344258069992065430e+00,3.436003684997558594e+00,3.532925367355346680e+00,3.635473489761352539e+00,3.744152784347534180e+00,3.859530210494995117e+00,3.982244491577148438e+00,4.113018035888671875e+00,4.252672672271728516e+00,4.402144432067871094e+00,4.562506198883056641e+00,4.734992504119873047e+00,4.921033382415771484e+00,5.000000000000000000e+00,5.000000000000000000e+00,5.000000000000000000e+00,5.000000000000000000e+00,5.000000000000000000e+00,5.000000000000000000e+00,5.000000000000000000e+00,5.000000000000000000e+00,5.000000000000000000e+00,5.000000000000000000e+00,5.000000000000000000e+00,5.000000000000000000e+00,5.000000000000000000e+00,5.000000000000000000e+00,5.000000000000000000e+00,5.000000000000000000e+00,5.000000000000000000e+00,5.000000000000000000e+00,5.000000000000000000e+00,5.000000000000000000e+00,5.000000000000000000e+00,5.000000000000000000e+00,5.000000000000000000e+00,5.000000000000000000e+00,5.000000000000000000e+00,5.000000000000000000e+00,5.000000000000000000e+00,5.000000000000000000e+00,5.000000000000000000e+00,5.000000000000000000e+00,5.000000000000000000e+00,5.000000000000000000e+00,5.000000000000000000e+00,5.000000000000000000e+00,5.000000000000000000e+00,5.000000000000000000e+00,5.000000000000000000e+00,5.000000000000000000e+00,2.805489063262939453e+00,2.674190044403076172e+00,5.000000000000000000e+00,5.000000000000000000e+00,5.000000000000000000e+00,2.425663709640502930e+00,2.401998758316040039e+00,5.000000000000000000e+00,5.000000000000000000e+00,5.000000000000000000e+00,5.000000000000000000e+00,5.000000000000000000e+00,5.000000000000000000e+00,5.000000000000000000e+00,5.000000000000000000e+00,5.000000000000000000e+00,4.849077701568603516e+00,4.690343379974365234e+00,4.541672229766845703e+00,4.402135848999023438e+00,4.270918369293212891e+00,4.147297382354736328e+00,4.030630588531494141e+00,3.920349121093750000e+00,3.815941095352172852e+00,3.716949939727783203e+00
3.096171379089355469e+00,3.174650430679321289e+00,3.257211208343505859e+00,3.344181060791015625e+00,3.435922384262084961e+00,3.532839298248291016e+00,3.635382652282714844e+00,3.744056463241577148e+00,3.859427690505981445e+00,3.982135295867919922e+00,4.112902164459228516e+00,4.252548694610595703e+00,4.402011394500732422e+00,4.562363147735595703e+00,4.734838485717773438e+00,4.920866966247558594e+00,5.000000000000000000e+00,5.000000000000000000e+00,5.000000000000000000e+00,5.000000000000000000e+00,5.000000000000000000e+00,5.000000000000000000e+00,5.000000000000000000e+00,5.000000000000000000e+00,5.000000000000000000e+00,5.000000000000000000e+00,5.000000000000000000e+00,5.000000000000000000e+00,5.000000000000000000e+00,5.000000000000000000e+00,5.000000000000000000e+00,5.000000000000000000e+00,5.000000000000000000e+00,5.000000000000000000e+00,5.000000000000000000e+00,5.000000000000000000e+00,5.000000000000000000e+00,5.000000000000000000e+00,5.000000000000000000e+00,5.000000000000000000e+00,5.000000000000000000e+00,5.000000000000000000e+00,5.000000000000000000e+00,5.000000000000000000e+00,5.000000000000000000e+00,5.000000000000000000e+00,5.000000000000000000e+00,5.000000000000000000e+00,5.000000000000000000e+00,5.000000000000000000e+00,5.000000000000000000e+00,5.000000000000000000e+00,5.000000000000000000e+00,5.000000000000000000e+00,2.769557714462280273e+00,2.729727029800415039e+00,5.000000000000000000e+00,5.000000000000000000e+00,5.000000000000000000e+00,2.429286479949951172e+00,2.406357288360595703e+00,5.000000000000000000e+00,5.000000000000000000e+00,5.000000000000000000e+00,5.000000000000000000e+00,5.000000000000000000e+00,5.000000000000000000e+00,5.000000000000000000e+00,5.000000000000000000e+00,5.000000000000000000e+00,4.849219799041748047e+00,4.690475940704345703e+00,4.541796207427978516e+00,4.402253150939941406e+00,4.271028518676757812e+00,4.147400856018066406e+00,4.030728816986083984e+00,3.920441627502441406e+00,3.816028833389282227e+00,3.717033147811889648e+00
3.096105337142944336e+00,3.174581050872802734e+00,3.257138252258300781e+00,3.344104051589965820e+00,3.435841083526611328e+00,3.532753467559814453e+00,3.635291576385498047e+00,3.743959903717041016e+00,3.859325170516967773e+00,3.982026100158691406e+00,4.112785339355468750e+00,4.252424240112304688e+00,4.401877880096435547e+00,4.562219619750976562e+00,4.734683990478515625e+00,4.920700073242187500e+00,5.000000000000000000e+00,5.000000000000000000e+00,5.000000000000000000e+00,5.000000000000000000e+00,5.000000000000000000e+00,5.000000000000000000e+00,5.000000000000000000e+00,5.000000000000000000e+00,5.000000000000000000e+00,5.000000000000000000e+00,5.000000000000000000e+00,5.000000000000000000e+00,5.000000000000000000e+00,5.000000000000000000e+00,5.000000000000000000e+00,5.000000000000000000e+00,5.000000000000000000e+00,5.000000000000000000e+00,5.000000000000000000e+00,5.000000000000000000e+00,5.000000000000000000e+00,5.000000000000000000e+00,5.000000000000000000e+00,5.000000000000000000e+00,5.000000000000000000e+00,5.000000000000000000e+00,5.000000000000000000e+00,5.000000000000000000e+00,5.000000000000000000e+00,5.000000000000000000e+00,5.000000000000000000e+00,5.000000000000000000e+00,5.000000000000000000e+00,5.000000000000000000e+00,5.000000000000000000e+00,5.000000000000000000e+00,5.000000000000000000e+00,5.000000000000000000e+00,2.759888172149658203e+00,2.736820220947265625e+00,5.000000000000000000e+00,5.000000000000000000e+00,5.000000000000000000e+00,2.432680845260620117e+00,2.410751581192016602e+00,5.000000000000000000e+00,5.000000000000000000e+00,5.000000000000000000e+00,5.000000000000000000e+00,5.000000000000000000e+00,5.000000000000000000e+00,5.000000000000000000e+00,5.000000000000000000e+00,5.000000000000000000e+00,4.849361419677734375e+00,4.690608978271484375e+00,4.541920661926269531e+00,4.402369499206542969e+00,4.271138668060302734e+00,4.147504329681396484e+00,4.030826568603515625e+00,3.920534610748291016e+00,3.816116809844970703e+00,3.717116832733154297e+00
3.096039772033691406e+00,3.174511909484863281e+00,3.257065534591674805e+00,3.344027519226074219e+00,3.435760259628295898e+00,3.532667875289916992e+00,3.635200977325439453e+00,3.743863821029663086e+00,3.859223127365112305e+00,3.981917381286621094e+00,4.112669467926025391e+00,4.252299785614013672e+00,4.401744842529296875e+00,4.562076568603515625e+00,4.734529972076416016e+00,4.855264186859130859e+00,4.854064941406250000e+00,4.852866172790527344e+00,4.851668357849121094e+00,4.850470542907714844e+00,4.849273681640625000e+00,4.848077297210693359e+00,4.846881389617919922e+00,4.845686435699462891e+00,4.844492435455322266e+00,4.843298435211181641e+00,4.842104911804199219e+00,4.840911865234375000e+00,4.839719772338867188e+00,4.838528156280517578e+00,4.837337017059326172e+00,4.836146354675292969e+00,4.834956645965576172e+00,4.833767414093017578e+00,4.832579135894775391e+00,4.831390857696533203e+00,4.830203056335449219e+00,4.829016208648681641e+00,4.827829837799072266e+00,4.826644420623779297e+00,4.825459003448486328e+00,4.824274539947509766e+00,4.823090553283691406e+00,4.821907043457031250e+00,4.820724010467529297e+00,4.819541931152343750e+00,4.818360328674316406e+00,4.817179203033447266e+00,4.815998554229736328e+00,4.814818382263183594e+00,4.813639163970947266e+00,4.812460422515869141e+00,4.811282157897949219e+00,4.810104370117187500e+00,2.759316682815551758e+00,2.740470170974731445e+00,4.806575298309326172e+00,4.805399894714355469e+00,4.804224967956542969e+00,2.436084747314453125e+00,2.427827358245849609e+00,4.800704002380371094e+00,4.799531459808349609e+00,4.798359394073486328e+00,4.797188282012939453e+00,4.796017646789550781e+00,4.794847488403320312e+00,4.793677806854248047e+00,4.792508602142333984e+00,4.791340351104736328e+00,4.790172576904296875e+00,4.690741539001464844e+00,4.542045593261718750e+00,4.402486801147460938e+00,4.271248340606689453e+00,4.147608280181884766e+00,4.030924797058105469e+00,3.920627117156982422e+00,3.816204547882080078e+00,3.717199802398681641e+00
3.095973730087280273e+00,3.174442529678344727e+00,3.256992578506469727e+00,3.343950510025024414e+00,3.435678958892822266e+00,3.532582044601440430e+00,3.635109901428222656e+00,3.743767261505126953e+00,3.771333456039428711e+00,3.770609855651855469e+00,3.769886255264282227e+00,3.769163370132446289e+00,3.768440485000610352e+00,3.767718076705932617e+00,3.766995668411254883e+00,3.766273975372314453e+00,3.765552043914794922e+00,3.764830827713012695e+00,3.764109849929809570e+00,3.763388872146606445e+00,3.762668371200561523e+00,3.761947870254516602e+00,3.761228084564208984e+00,3.760508298873901367e+00,3.759788990020751953e+00,3.759069442749023438e+00,3.758350849151611328e+00,3.757632255554199219e+00,3.756913661956787109e+00,3.756195783615112305e+00,3.755477905273437500e+00,3.754760503768920898e+00,3.754042863845825195e+00,3.753326177597045898e+00,3.752609252929687500e+00,3.751893043518066406e+00,3.751176595687866211e+00,3.750460863113403320e+00,3.749745368957519531e+00,3.749029874801635742e+00,3.748314857482910156e+00,3.747599840164184570e+00,3.746885538101196289e+00,3.746170997619628906e+00,3.745457172393798828e+00,3.744743347167968750e+00,3.744029998779296875e+00,3.743317127227783203e+00,3.742604017257690430e+00,3.741891622543334961e+00,3.741178989410400391e+00,3.740467071533203125e+00,3.739754915237426758e+00,3.739043712615966797e+00,3.738332271575927734e+00,2.741410970687866211e+00,3.736910343170166016e+00,3.736200094223022461e+00,3.735490083694458008e+00,2.445058107376098633e+00,3.734070539474487305e+00,3.733361005783081055e+00,3.732651948928833008e+00,3.731942892074584961e+00,3.731234550476074219e+00,3.730525970458984375e+00,3.729818105697631836e+00,3.729110479354858398e+00,3.728402853012084961e+00,3.727695703506469727e+00,3.726988554000854492e+00,3.726282119750976562e+00,3.725575447082519531e+00,3.724869489669799805e+00,3.724163293838500977e+00,3.723457813262939453e+00,3.722752332687377930e+00,3.722047328948974609e+00,3.721342563629150391e+00,3.717283010482788086e+00
3.083531618118286133e+00,3.083047628402709961e+00,3.082564115524291992e+00,3.082080602645874023e+00,3.081597089767456055e+00,3.081114053726196289e+00,3.080631017684936523e+00,3.080148220062255859e+00,3.079665422439575195e+00,3.079182863235473633e+00,3.078700780868530273e+00,3.078218221664428711e+00,3.077736377716064453e+00,3.077254295349121094e+00,3.076772451400756836e+00,3.076290845870971680e+00,3.075809478759765625e+00,3.075327873229980469e+00,3.074846744537353516e+00,3.074365854263305664e+00,3.073884963989257812e+00,3.073404312133789062e+00,3.072923421859741211e+00,3.072443246841430664e+00,3.071962833404541016e+00,3.071482658386230469e+00,3.071002721786499023e+00,3.070523023605346680e+00,3.070043087005615234e+00,3.069563627243041992e+00,3.069084405899047852e+00,3.068604946136474609e+00,3.068125963211059570e+00,3.067646980285644531e+00,3.067168235778808594e+00,3.066689491271972656e+00,3.066211223602294922e+00,3.065732717514038086e+00,3.065254688262939453e+00,3.064776897430419922e+00,3.064298629760742188e+00,3.063821077346801758e+00,3.063343286514282227e+00,3.062865972518920898e+00,3.062388658523559570e+00,3.061911582946777344e+00,3.061434507369995117e+00,3.060957670211791992e+00,3.060480833053588867e+00,3.060004472732543945e+00,3.059528112411499023e+00,3.059051752090454102e+00,3.058575630187988281e+00,3.058099746704101562e+00,3.057623863220214844e+00,3.057148218154907227e+00,3.056672811508178711e+00,3.056197166442871094e+00,3.055721998214721680e+00,2.396921157836914062e+00,2.410374879837036133e+00,3.054297447204589844e+00,3.053822755813598633e+00,3.053348302841186523e+00,3.052873849868774414e+00,3.052399635314941406e+00,3.051925420761108398e+00,3.051451683044433594e+00,3.050977945327758789e+00,3.050504446029663086e+00,3.050030946731567383e+00,3.049557685852050781e+00,3.049084663391113281e+00,3.048611402511596680e+00,3.048138618469238281e+00,3.047665834426879883e+00,3.047193288803100586e+00,3.046720743179321289e+00,3.046248674392700195e+00,3.045776367187500000e+00
2.605144500732421875e+00,2.604799270629882812e+00,2.604453802108764648e+00,2.604108810424804688e+00,2.603763818740844727e+00,2.603418827056884766e+00,2.603073835372924805e+00,2.602729320526123047e+00,2.602384328842163086e+00,2.602039813995361328e+00,2.601695299148559570e+00,2.601351022720336914e+00,2.601006746292114258e+00,2.600662469863891602e+00,2.600318193435668945e+00,2.599974393844604492e+00,2.599630355834960938e+00,2.599286556243896484e+00,2.598942756652832031e+00,2.598599195480346680e+00,2.598255395889282227e+00,2.597912073135375977e+00,2.597568750381469727e+00,2.597225427627563477e+00,2.596882104873657227e+00,2.596539020538330078e+00,2.596195936203002930e+00,2.595853090286254883e+00,2.595510244369506836e+00,2.595167398452758789e+00,2.594824790954589844e+00,2.594482183456420898e+00,2.594139575958251953e+00,2.593797445297241211e+00,2.593455076217651367e+00,2.593112945556640625e+00,2.592770576477050781e+00,2.592428684234619141e+00,2.592086553573608398e+00,2.591744899749755859e+00,2.591403007507324219e+00,2.591061353683471680e+00,2.590719938278198242e+00,2.590378284454345703e+00,2.590036869049072266e+00,2.589695453643798828e+00,2.589354515075683594e+00,2.589013099670410156e+00,2.588672161102294922e+00,2.588331222534179688e+00,2.587990283966064453e+00,2.587649583816528320e+00,2.587308883666992188e+00,2.586968421936035156e+00,2.586627721786499023e+00,2.586287498474121094e+00,2.585947036743164062e+00,2.585607051849365234e+00,2.585266590118408203e+00,2.339403867721557617e+00,2.324809551239013672e+00,2.584246873855590820e+00,2.583907127380371094e+00,2.583567380905151367e+00,2.583227872848510742e+00,2.582888126373291016e+00,2.582548856735229492e+00,2.582209348678588867e+00,2.581870317459106445e+00,2.581531047821044922e+00,2.581192016601562500e+00,2.580852985382080078e+00,2.580514192581176758e+00,2.580175399780273438e+00,2.579836606979370117e+00,2.579498052597045898e+00,2.579159259796142578e+00,2.578820943832397461e+00,2.578482389450073242e+00,2.578144311904907227e+00
2.255258083343505859e+00,2.254999160766601562e+00,2.254740476608276367e+00,2.254481792449951172e+00,2.254223108291625977e+00,2.253964662551879883e+00,2.253706216812133789e+00,2.253447532653808594e+00,2.253189325332641602e+00,2.252930879592895508e+00,2.252672672271728516e+00,2.252414464950561523e+00,2.252156257629394531e+00,2.251898288726806641e+00,2.251640319824218750e+00,2.251382350921630859e+00,2.251124382019042969e+00,2.250866651535034180e+00,2.250608921051025391e+00,2.250350952148437500e+00,2.250093460083007812e+00,2.249835729598999023e+00,2.249578237533569336e+00,2.249320745468139648e+00,2.249063253402709961e+00,2.248805999755859375e+00,2.248548746109008789e+00,2.248291492462158203e+00,2.248034238815307617e+00,2.247777223587036133e+00,2.247519969940185547e+00,2.247262954711914062e+00,2.247005939483642578e+00,2.246749162673950195e+00,2.246492385864257812e+00,2.246235609054565430e+00,2.245978832244873047e+00,2.245722293853759766e+00,2.245465517044067383e+00,2.245208978652954102e+00,2.244952440261840820e+00,2.244696140289306641e+00,2.244439840316772461e+00,2.244183301925659180e+00,2.243927240371704102e+00,2.243670940399169922e+00,2.243414878845214844e+00,2.243158817291259766e+00,2.242902755737304688e+00,2.242646932601928711e+00,2.242390871047973633e+00,2.242135047912597656e+00,2.241879224777221680e+00,2.241623640060424805e+00,2.241367816925048828e+00,2.241112232208251953e+00,2.240856885910034180e+00,2.240601301193237305e+00,2.240345954895019531e+00,2.240090370178222656e+00,2.239835023880004883e+00,2.239579677581787109e+00,2.239324569702148438e+00,2.239069461822509766e+00,2.238814353942871094e+00,2.238559484481811523e+00,2.238304376602172852e+00,2.238049507141113281e+00,2.237794637680053711e+00,2.237540006637573242e+00,2.237285137176513672e+00,2.237030506134033203e+00,2.236775875091552734e+00,2.236521244049072266e+00,2.236266613006591797e+00,2.236012220382690430e+00,2.235757827758789062e+00,2.235503435134887695e+00,2.235249280929565430e+00,2.234995126724243164e+00
1.988227128982543945e+00,1.988026022911071777e+00,1.987825036048889160e+00,1.987623929977416992e+00,1.987422823905944824e+00,1.987221837043762207e+00,1.987021088600158691e+00,1.986820101737976074e+00,1.986619234085083008e+00,1.986418366432189941e+00,1.986217498779296875e+00,1.986016988754272461e+00,1.985816240310668945e+00,1.985615491867065430e+00,1.985414862632751465e+00,1.985214471817016602e+00,1.985013842582702637e+00,1.984813332557678223e+00,1.984612822532653809e+00,1.984412550926208496e+00,1.984212160110473633e+00,1.984011769294738770e+00,1.983811378479003906e+00,1.983611345291137695e+00,1.983411073684692383e+00,1.983210802078247070e+00,1.983010649681091309e+00,1.982810735702514648e+00,1.982610702514648438e+00,1.982410550117492676e+00,1.982210874557495117e+00,1.982010841369628906e+00,1.981810927391052246e+00,1.981611013412475586e+00,1.981411337852478027e+00,1.981211543083190918e+00,1.981011748313903809e+00,1.980812191963195801e+00,1.980612516403198242e+00,1.980412840843200684e+00,1.980213284492492676e+00,1.980013966560363770e+00,1.979814410209655762e+00,1.979614853858947754e+00,1.979415416717529297e+00,1.979216217994689941e+00,1.979016780853271484e+00,1.978817462921142578e+00,1.978618383407592773e+00,1.978419184684753418e+00,1.978219985961914062e+00,1.978020787239074707e+00,1.977821826934814453e+00,1.977622747421264648e+00,1.977423667907714844e+00,1.977224707603454590e+00,1.977025866508483887e+00,1.976827025413513184e+00,1.976628065109252930e+00,1.976429462432861328e+00,1.976230621337890625e+00,1.976031899452209473e+00,1.975833058357238770e+00,1.975634694099426270e+00,1.975435972213745117e+00,1.975237369537353516e+00,1.975038766860961914e+00,1.974840521812438965e+00,1.974641919136047363e+00,1.974443554878234863e+00,1.974245309829711914e+00,1.974046945571899414e+00,1.973848581314086914e+00,1.973650336265563965e+00,1.973452210426330566e+00,1.973254084587097168e+00,1.973055839538574219e+00,1.972857952117919922e+00,1.972659826278686523e+00,1.972461819648742676e+00
1.777736663818359375e+00,1.777575850486755371e+00,1.777415275573730469e+00,1.777254462242126465e+00,1.777093648910522461e+00,1.776932954788208008e+00,1.776772260665893555e+00,1.776611685752868652e+00,1.776451110839843750e+00,1.776290416717529297e+00,1.776129841804504395e+00,1.775969505310058594e+00,1.775808930397033691e+00,1.775648474693298340e+00,1.775488018989562988e+00,1.775327682495117188e+00,1.775167346000671387e+00,1.775006890296936035e+00,1.774846553802490234e+00,1.774686217308044434e+00,1.774526119232177734e+00,1.774365782737731934e+00,1.774205565452575684e+00,1.774045348167419434e+00,1.773885369300842285e+00,1.773725152015686035e+00,1.773565053939819336e+00,1.773404955863952637e+00,1.773245096206665039e+00,1.773084998130798340e+00,1.772925019264221191e+00,1.772765278816223145e+00,1.772605299949645996e+00,1.772445321083068848e+00,1.772285461425781250e+00,1.772125720977783203e+00,1.771965861320495605e+00,1.771806120872497559e+00,1.771646261215209961e+00,1.771486759185791016e+00,1.771327018737792969e+00,1.771167278289794922e+00,1.771007776260375977e+00,1.770848155021667480e+00,1.770688533782958984e+00,1.770529031753540039e+00,1.770369648933410645e+00,1.770210146903991699e+00,1.770050644874572754e+00,1.769891381263732910e+00,1.769731879234313965e+00,1.769572496414184570e+00,1.769413113594055176e+00,1.769253969192504883e+00,1.769094586372375488e+00,1.768935322761535645e+00,1.768776059150695801e+00,1.768617033958435059e+00,1.768457770347595215e+00,1.768298625946044922e+00,1.768139600753784180e+00,1.767980456352233887e+00,1.767821431159973145e+00,1.767662286758422852e+00,1.767503499984741211e+00,1.767344474792480469e+00,1.767185449600219727e+00,1.767026543617248535e+00,1.766867756843566895e+00,1.766708970069885254e+00,1.766550064086914062e+00,1.766391396522521973e+00,1.766232609748840332e+00,1.766073822975158691e+00,1.765915036201477051e+00,1.765756487846374512e+00,1.765597820281982422e+00,1.765439271926879883e+00,1.765280604362487793e+00,1.765122175216674805e+00
1.607548117637634277e+00,1.607416629791259766e+00,1.607285141944885254e+00,1.607153773307800293e+00,1.607022285461425781e+00,1.606890797615051270e+00,1.606759428977966309e+00,1.606628179550170898e+00,1.606496810913085938e+00,1.606365442276000977e+00,1.606234073638916016e+00,1.606102824211120605e+00,1.605971574783325195e+00,1.605840325355529785e+00,1.605709075927734375e+00,1.605577826499938965e+00,1.605446815490722656e+00,1.605315685272216797e+00,1.605184435844421387e+00,1.605053305625915527e+00,1.604922294616699219e+00,1.604791283607482910e+00,1.604660153388977051e+00,1.604529142379760742e+00,1.604398012161254883e+00,1.604267239570617676e+00,1.604136228561401367e+00,1.604005217552185059e+00,1.603874325752258301e+00,1.603743553161621094e+00,1.603612542152404785e+00,1.603481650352478027e+00,1.603350996971130371e+00,1.603220105171203613e+00,1.603089332580566406e+00,1.602958559989929199e+00,1.602827906608581543e+00,1.602697134017944336e+00,1.602566361427307129e+00,1.602435708045959473e+00,1.602305173873901367e+00,1.602174401283264160e+00,1.602043747901916504e+00,1.601913332939147949e+00,1.601782679557800293e+00,1.601652145385742188e+00,1.601521611213684082e+00,1.601391196250915527e+00,1.601260662078857422e+00,1.601130127906799316e+00,1.600999593734741211e+00,1.600869297981262207e+00,1.600738883018493652e+00,1.600608468055725098e+00,1.600478291511535645e+00,1.600347876548767090e+00,1.600217461585998535e+00,1.600087165832519531e+00,1.599956989288330078e+00,1.599826693534851074e+00,1.599696397781372070e+00,1.599566221237182617e+00,1.599436044692993164e+00,1.599305868148803711e+00,1.599175691604614258e+00,1.599045634269714355e+00,1.598915576934814453e+00,1.598785400390625000e+00,1.598655343055725098e+00,1.598525404930114746e+00,1.598395347595214844e+00,1.598265290260314941e+00,1.598135232925415039e+00,1.598005414009094238e+00,1.597875475883483887e+00,1.597745537757873535e+00,1.597615718841552734e+00,1.597485780715942383e+00,1.597355961799621582e+00,1.597226023674011230e+00
1.467097997665405273e+00,1.466988444328308105e+00,1.466878890991210938e+00,1.466769337654113770e+00,1.466660022735595703e+00,1.466550469398498535e+00,1.466441035270690918e+00,1.466331601142883301e+00,1.466222286224365234e+00,1.466112852096557617e+00,1.466003417968750000e+00,1.465894103050231934e+00,1.465784788131713867e+00,1.465675473213195801e+00,1.465566158294677734e+00,1.465456843376159668e+00,1.465347528457641602e+00,1.465238332748413086e+00,1.465129017829895020e+00,1.465019822120666504e+00,1.464910507202148438e+00,1.464801430702209473e+00,1.464692234992980957e+00,1.464583039283752441e+00,1.464473843574523926e+00,1.464364767074584961e+00,1.464255690574645996e+00,1.464146494865417480e+00,1.464037418365478516e+00,1.463928341865539551e+00,1.463819384574890137e+00,1.463710308074951172e+00,1.463601231575012207e+00,1.463492274284362793e+00,1.463383316993713379e+00,1.463274359703063965e+00,1.463165402412414551e+00,1.463056564331054688e+00,1.462947607040405273e+00,1.462838649749755859e+00,1.462729692459106445e+00,1.462620973587036133e+00,1.462512016296386719e+00,1.462403178215026855e+00,1.462294340133666992e+00,1.462185621261596680e+00,1.462076783180236816e+00,1.461968064308166504e+00,1.461859345436096191e+00,1.461750626564025879e+00,1.461641788482666016e+00,1.461533069610595703e+00,1.461424469947814941e+00,1.461315751075744629e+00,1.461207151412963867e+00,1.461098551750183105e+00,1.460989952087402344e+00,1.460881233215332031e+00,1.460772633552551270e+00,1.460664153099060059e+00,1.460555553436279297e+00,1.460446953773498535e+00,1.460338473320007324e+00,1.460229992866516113e+00,1.460121512413024902e+00,1.460012912750244141e+00,1.459904551506042480e+00,1.459796071052551270e+00,1.459687590599060059e+00,1.459579229354858398e+00,1.459470868110656738e+00,1.459362506866455078e+00,1.459254026412963867e+00,1.459145665168762207e+00,1.459037423133850098e+00,1.458929061889648438e+00,1.458820700645446777e+00,1.458712577819824219e+00,1.458604216575622559e+00,1.458495974540710449e+00
1.349217891693115234e+00,1.349125266075134277e+00,1.349032640457153320e+00,1.348940014839172363e+00,1.348847508430480957e+00,1.348754882812500000e+00,1.348662257194519043e+00,1.348569750785827637e+00,1.348477244377136230e+00,1.348384737968444824e+00,1.348292112350463867e+00,1.348199605941772461e+00,1.348107099533081055e+00,1.348014712333679199e+00,1.347922205924987793e+00,1.347829699516296387e+00,1.347737312316894531e+00,1.347644925117492676e+00,1.347552537918090820e+00,1.347460031509399414e+00,1.347367644309997559e+00,1.347275376319885254e+00,1.347182989120483398e+00,1.347090601921081543e+00,1.346998333930969238e+00,1.346905946731567383e+00,1.346813678741455078e+00,1.346721410751342773e+00,1.346629023551940918e+00,1.346536755561828613e+00,1.346444606781005859e+00,1.346352338790893555e+00,1.346260070800781250e+00,1.346167802810668945e+00,1.346075534820556641e+00,1.345983386039733887e+00,1.345891237258911133e+00,1.345799088478088379e+00,1.345706939697265625e+00,1.345614790916442871e+00,1.345522642135620117e+00,1.345430493354797363e+00,1.345338463783264160e+00,1.345246315002441406e+00,1.345154166221618652e+00,1.345062136650085449e+00,1.344970107078552246e+00,1.344878077507019043e+00,1.344786047935485840e+00,1.344694018363952637e+00,1.344601988792419434e+00,1.344509959220886230e+00,1.344417929649353027e+00,1.344326138496398926e+00,1.344234108924865723e+00,1.344142079353332520e+00,1.344050168991088867e+00,1.343958377838134766e+00,1.343866348266601562e+00,1.343774437904357910e+00,1.343682646751403809e+00,1.343590736389160156e+00,1.343498826026916504e+00,1.343407034873962402e+00,1.343315243721008301e+00,1.343223452568054199e+00,1.343131542205810547e+00,1.343039870262145996e+00,1.342948079109191895e+00,1.342856287956237793e+00,1.342764496803283691e+00,1.342672824859619141e+00,1.342581033706665039e+00,1.342489242553710938e+00,1.342397570610046387e+00,1.342305898666381836e+00,1.342214226722717285e+00,1.342122554779052734e+00,1.342031002044677734e+00,1.341939330101013184e+00
1.248872160911560059e+00,1.248792767524719238e+00,1.248713374137878418e+00,1.248633980751037598e+00,1.248554706573486328e+00,1.248475432395935059e+00,1.248396039009094238e+00,1.248316764831542969e+00,1.248237490653991699e+00,1.248158216476440430e+00,1.248078942298889160e+00,1.247999668121337891e+00,1.247920393943786621e+00,1.247841238975524902e+00,1.247761964797973633e+00,1.247682690620422363e+00,1.247603416442871094e+00,1.247524261474609375e+00,1.247445106506347656e+00,1.247365951538085938e+00,1.247286677360534668e+00,1.247207522392272949e+00,1.247128486633300781e+00,1.247049212455749512e+00,1.246970057487487793e+00,1.246891021728515625e+00,1.246811985969543457e+00,1.246732831001281738e+00,1.246653676033020020e+00,1.246574640274047852e+00,1.246495485305786133e+00,1.246416449546813965e+00,1.246337413787841797e+00,1.246258378028869629e+00,1.246179342269897461e+00,1.246100306510925293e+00,1.246021270751953125e+00,1.245942234992980957e+00,1.245863318443298340e+00,1.245784401893615723e+00,1.245705366134643555e+00,1.245626330375671387e+00,1.245547413825988770e+00,1.245468497276306152e+00,1.245389580726623535e+00,1.245310664176940918e+00,1.245231747627258301e+00,1.245152831077575684e+00,1.245073914527893066e+00,1.244994997978210449e+00,1.244916200637817383e+00,1.244837403297424316e+00,1.244758486747741699e+00,1.244679570198059082e+00,1.244600892066955566e+00,1.244521975517272949e+00,1.244443178176879883e+00,1.244364380836486816e+00,1.244285583496093750e+00,1.244206786155700684e+00,1.244127988815307617e+00,1.244049310684204102e+00,1.243970632553100586e+00,1.243891835212707520e+00,1.243813037872314453e+00,1.243734359741210938e+00,1.243655681610107422e+00,1.243577003479003906e+00,1.243498206138610840e+00,1.243419647216796875e+00,1.243340969085693359e+00,1.243262290954589844e+00,1.243183612823486328e+00,1.243105053901672363e+00,1.243026375770568848e+00,1.242947697639465332e+00,1.242869138717651367e+00,1.242790579795837402e+00,1.242711901664733887e+00,1.242633342742919922e+00
1.162419080734252930e+00,1.162350416183471680e+00,1.162281632423400879e+00,1.162212967872619629e+00,1.162144184112548828e+00,1.162075519561767578e+00,1.162006735801696777e+00,1.161938071250915527e+00,1.161869287490844727e+00,1.161800622940063477e+00,1.161731958389282227e+00,1.161663293838500977e+00,1.161594629287719727e+00,1.161525964736938477e+00,1.161457300186157227e+00,1.161388635635375977e+00,1.161319971084594727e+00,1.161251425743103027e+00,1.161182761192321777e+00,1.161114215850830078e+00,1.161045551300048828e+00,1.160977005958557129e+00,1.160908341407775879e+00,1.160839796066284180e+00,1.160771250724792480e+00,1.160702705383300781e+00,1.160634040832519531e+00,1.160565614700317383e+00,1.160497069358825684e+00,1.160428524017333984e+00,1.160359978675842285e+00,1.160291433334350586e+00,1.160223007202148438e+00,1.160154461860656738e+00,1.160085916519165039e+00,1.160017371177673340e+00,1.159949064254760742e+00,1.159880518913269043e+00,1.159812092781066895e+00,1.159743547439575195e+00,1.159675121307373047e+00,1.159606695175170898e+00,1.159538269042968750e+00,1.159469842910766602e+00,1.159401535987854004e+00,1.159333109855651855e+00,1.159264683723449707e+00,1.159196257591247559e+00,1.159127950668334961e+00,1.159059524536132812e+00,1.158991217613220215e+00,1.158922791481018066e+00,1.158854484558105469e+00,1.158786177635192871e+00,1.158717870712280273e+00,1.158649563789367676e+00,1.158581256866455078e+00,1.158512949943542480e+00,1.158444643020629883e+00,1.158376336097717285e+00,1.158308148384094238e+00,1.158239841461181641e+00,1.158171653747558594e+00,1.158103346824645996e+00,1.158035039901733398e+00,1.157966852188110352e+00,1.157898664474487305e+00,1.157830357551574707e+00,1.157762169837951660e+00,1.157693982124328613e+00,1.157625794410705566e+00,1.157557606697082520e+00,1.157489418983459473e+00,1.157421231269836426e+00,1.157353043556213379e+00,1.157284975051879883e+00,1.157216787338256836e+00,1.157148718833923340e+00,1.157080531120300293e+00,1.157012343406677246e+00
1.087160587310791016e+00,1.087100505828857422e+00,1.087040424346923828e+00,1.086980223655700684e+00,1.086920142173767090e+00,1.086859941482543945e+00,1.086799860000610352e+00,1.086739778518676758e+00,1.086679697036743164e+00,1.086619615554809570e+00,1.086559534072875977e+00,1.086499452590942383e+00,1.086439371109008789e+00,1.086379289627075195e+00,1.086319327354431152e+00,1.086259245872497559e+00,1.086199164390563965e+00,1.086139082908630371e+00,1.086079120635986328e+00,1.086019039154052734e+00,1.085959076881408691e+00,1.085898995399475098e+00,1.085839033126831055e+00,1.085779070854187012e+00,1.085719108581542969e+00,1.085659027099609375e+00,1.085599064826965332e+00,1.085539221763610840e+00,1.085479140281677246e+00,1.085419178009033203e+00,1.085359215736389160e+00,1.085299253463745117e+00,1.085239410400390625e+00,1.085179448127746582e+00,1.085119485855102539e+00,1.085059642791748047e+00,1.084999799728393555e+00,1.084939837455749512e+00,1.084879875183105469e+00,1.084820032119750977e+00,1.084760069847106934e+00,1.084700226783752441e+00,1.084640383720397949e+00,1.084580540657043457e+00,1.084520578384399414e+00,1.084460854530334473e+00,1.084401011466979980e+00,1.084341168403625488e+00,1.084281325340270996e+00,1.084221482276916504e+00,1.084161639213562012e+00,1.084101796150207520e+00,1.084042072296142578e+00,1.083982229232788086e+00,1.083922505378723145e+00,1.083862662315368652e+00,1.083802938461303711e+00,1.083743095397949219e+00,1.083683371543884277e+00,1.083623647689819336e+00,1.083563923835754395e+00,1.083504080772399902e+00,1.083444356918334961e+00,1.083384633064270020e+00,1.083324909210205078e+00,1.083265185356140137e+00,1.083205461502075195e+00,1.083145856857299805e+00,1.083086133003234863e+00,1.083026409149169922e+00,1.082966685295104980e+00,1.082907080650329590e+00,1.082847356796264648e+00,1.082787752151489258e+00,1.082728028297424316e+00,1.082668423652648926e+00,1.082608819007873535e+00,1.082549095153808594e+00,1.082489490509033203e+00,1.082429885864257812e+00
1.021054506301879883e+00,1.021001458168029785e+00,1.020948410034179688e+00,1.020895361900329590e+00,1.020842313766479492e+00,1.020789265632629395e+00,1.020736336708068848e+00,1.020683288574218750e+00,1.020630240440368652e+00,1.020577192306518555e+00,1.020524263381958008e+00,1.020471215248107910e+00,1.020418286323547363e+00,1.020365238189697266e+00,1.020312309265136719e+00,1.020259380340576172e+00,1.020206332206726074e+00,1.020153403282165527e+00,1.020100355148315430e+00,1.020047545433044434e+00,1.019994497299194336e+00,1.019941568374633789e+00,1.019888639450073242e+00,1.019835710525512695e+00,1.019782781600952148e+00,1.019729852676391602e+00,1.019676923751831055e+00,1.019623994827270508e+00,1.019571185111999512e+00,1.019518256187438965e+00,1.019465327262878418e+00,1.019412517547607422e+00,1.019359588623046875e+00,1.019306778907775879e+00,1.019253849983215332e+00,1.019201040267944336e+00,1.019148111343383789e+00,1.019095301628112793e+00,1.019042491912841797e+00,1.018989562988281250e+00,1.018936753273010254e+00,1.018883943557739258e+00,1.018831133842468262e+00,1.018778324127197266e+00,1.018725395202636719e+00,1.018672704696655273e+00,1.018619775772094727e+00,1.018567085266113281e+00,1.018514275550842285e+00,1.018461465835571289e+00,1.018408775329589844e+00,1.018355965614318848e+00,1.018303155899047852e+00,1.018250346183776855e+00,1.018197655677795410e+00,1.018144845962524414e+00,1.018092155456542969e+00,1.018039464950561523e+00,1.017986655235290527e+00,1.017933964729309082e+00,1.017881155014038086e+00,1.017828464508056641e+00,1.017775774002075195e+00,1.017723083496093750e+00,1.017670273780822754e+00,1.017617702484130859e+00,1.017565011978149414e+00,1.017512321472167969e+00,1.017459630966186523e+00,1.017406940460205078e+00,1.017354249954223633e+00,1.017301559448242188e+00,1.017248988151550293e+00,1.017196297645568848e+00,1.017143607139587402e+00,1.017090916633605957e+00,1.017038345336914062e+00,1.016985774040222168e+00,1.016933083534240723e+00,1.016880512237548828e+00
9.625269770622253418e-01,9.624797701835632324e-01,9.624326229095458984e-01,9.623854756355285645e-01,9.623383283615112305e-01,9.622911810874938965e-01,9.622440338134765625e-01,9.621970653533935547e-01,9.621499180793762207e-01,9.621028304100036621e-01,9.620556831359863281e-01,9.620085954666137695e-01,9.619614481925964355e-01,9.619143605232238770e-01,9.618672728538513184e-01,9.618203043937683105e-01,9.617732167243957520e-01,9.617261290550231934e-01,9.616790413856506348e-01,9.616319537162780762e-01,9.615849256515502930e-01,9.615378379821777344e-01,9.614908099174499512e-01,9.614437222480773926e-01,9.613968133926391602e-01,9.613497257232666016e-01,9.613026976585388184e-01,9.612556695938110352e-01,9.612086415290832520e-01,9.611616134643554688e-01,9.611145853996276855e-01,9.610675573348999023e-01,9.610205888748168945e-01,9.609736800193786621e-01,9.609266519546508789e-01,9.608796834945678711e-01,9.608326554298400879e-01,9.607856869697570801e-01,9.607386589050292969e-01,9.606916904449462891e-01,9.606447219848632812e-01,9.605977535247802734e-01,9.605509042739868164e-01,9.605039358139038086e-01,9.604569673538208008e-01,9.604099988937377930e-01,9.603630900382995605e-01,9.603161215782165527e-01,9.602692127227783203e-01,9.602222442626953125e-01,9.601753354072570801e-01,9.601284861564636230e-01,9.600815773010253906e-01,9.600346684455871582e-01,9.599877595901489258e-01,9.599408507347106934e-01,9.598939418792724609e-01,9.598470330238342285e-01,9.598001241683959961e-01,9.597533941268920898e-01,9.597064852714538574e-01,9.596595764160156250e-01,9.596127271652221680e-01,9.595658779144287109e-01,9.595189690589904785e-01,9.594721198081970215e-01,9.594253897666931152e-01,9.593785405158996582e-01,9.593316912651062012e-01,9.592848420143127441e-01,9.592379927635192871e-01,9.591911435127258301e-01,9.591442942619323730e-01,9.590976238250732422e-01,9.590507745742797852e-01,9.590039849281311035e-01,9.589571356773376465e-01,9.589103460311889648e-01,9.588635563850402832e-01,9.588167667388916016e-01
9.103451967239379883e-01,9.103029966354370117e-01,9.102608561515808105e-01,9.102187752723693848e-01,9.101765751838684082e-01,9.101344347000122070e-01,9.100922942161560059e-01,9.100500941276550293e-01,9.100079536437988281e-01,9.099658131599426270e-01,9.099236726760864258e-01,9.098815321922302246e-01,9.098394513130187988e-01,9.097973108291625977e-01,9.097552299499511719e-01,9.097130894660949707e-01,9.096709489822387695e-01,9.096288084983825684e-01,9.095867276191711426e-01,9.095445871353149414e-01,9.095025658607482910e-01,9.094604849815368652e-01,9.094184041023254395e-01,9.093762636184692383e-01,9.093341827392578125e-01,9.092921018600463867e-01,9.092500209808349609e-01,9.092079401016235352e-01,9.091658592224121094e-01,9.091238975524902344e-01,9.090818166732788086e-01,9.090397357940673828e-01,9.089977145195007324e-01,9.089556336402893066e-01,9.089136123657226562e-01,9.088715314865112305e-01,9.088295102119445801e-01,9.087874293327331543e-01,9.087455272674560547e-01,9.087035059928894043e-01,9.086614251136779785e-01,9.086194038391113281e-01,9.085773825645446777e-01,9.085353612899780273e-01,9.084933400154113770e-01,9.084513783454895020e-01,9.084093570709228516e-01,9.083674550056457520e-01,9.083254337310791016e-01,9.082834720611572266e-01,9.082414507865905762e-01,9.081994891166687012e-01,9.081574678421020508e-01,9.081155061721801758e-01,9.080735445022583008e-01,9.080315828323364258e-01,9.079896807670593262e-01,9.079477190971374512e-01,9.079057574272155762e-01,9.078637957572937012e-01,9.078218936920166016e-01,9.077799320220947266e-01,9.077379703521728516e-01,9.076961278915405273e-01,9.076541662216186523e-01,9.076122641563415527e-01,9.075703024864196777e-01,9.075284004211425781e-01,9.074864983558654785e-01,9.074445366859436035e-01,9.074026346206665039e-01,9.073608517646789551e-01,9.073189496994018555e-01,9.072770476341247559e-01,9.072351455688476562e-01,9.071932435035705566e-01,9.071513414382934570e-01,9.071094393730163574e-01,9.070676565170288086e-01,9.070258140563964844e-01
8.635304570198059082e-01,8.634925484657287598e-01,8.634545803070068359e-01,8.634166121482849121e-01,8.633787035942077637e-01,8.633407354354858398e-01,8.633028268814086914e-01,8.632648587226867676e-01,8.632270097732543945e-01,8.631891012191772461e-01,8.631511926651000977e-01,8.631132245063781738e-01,8.630753159523010254e-01,8.630374073982238770e-01,8.629994988441467285e-01,8.629615902900695801e-01,8.629236817359924316e-01,8.628858923912048340e-01,8.628479838371276855e-01,8.628100752830505371e-01,8.627721667289733887e-01,8.627343177795410156e-01,8.626964092254638672e-01,8.626585006713867188e-01,8.626206517219543457e-01,8.625828623771667480e-01,8.625450134277343750e-01,8.625071048736572266e-01,8.624692559242248535e-01,8.624314069747924805e-01,8.623935580253601074e-01,8.623556494712829590e-01,8.623178005218505859e-01,8.622799515724182129e-01,8.622422218322753906e-01,8.622043728828430176e-01,8.621665239334106445e-01,8.621286749839782715e-01,8.620908856391906738e-01,8.620530366897583008e-01,8.620151877403259277e-01,8.619773983955383301e-01,8.619395494461059570e-01,8.619018197059631348e-01,8.618640303611755371e-01,8.618262410163879395e-01,8.617883920669555664e-01,8.617506027221679688e-01,8.617128133773803711e-01,8.616750240325927734e-01,8.616372346878051758e-01,8.615995049476623535e-01,8.615617156028747559e-01,8.615239858627319336e-01,8.614861965179443359e-01,8.614484071731567383e-01,8.614106178283691406e-01,8.613728284835815430e-01,8.613350987434387207e-01,8.612973093986511230e-01,8.612595796585083008e-01,8.612219095230102539e-01,8.611841201782226562e-01,8.611463904380798340e-01,8.611086606979370117e-01,8.610709309577941895e-01,8.610332012176513672e-01,8.609954118728637695e-01,8.609578013420104980e-01,8.609200716018676758e-01,8.608823418617248535e-01,8.608446121215820312e-01,8.608068823814392090e-01,8.607691526412963867e-01,8.607314825057983398e-01,8.606938123703002930e-01,8.606561422348022461e-01,8.606184124946594238e-01,8.605807423591613770e-01,8.605430126190185547e-01
8.212950825691223145e-01,8.212607502937316895e-01,8.212264180183410645e-01,8.211920857429504395e-01,8.211578726768493652e-01,8.211235404014587402e-01,8.210892081260681152e-01,8.210549354553222656e-01,8.210206031799316406e-01,8.209862709045410156e-01,8.209519982337951660e-01,8.209176659584045410e-01,8.208833932876586914e-01,8.208491802215576172e-01,8.208148479461669922e-01,8.207805752754211426e-01,8.207463026046752930e-01,8.207119703292846680e-01,8.206776976585388184e-01,8.206434249877929688e-01,8.206091523170471191e-01,8.205749392509460449e-01,8.205406665802001953e-01,8.205063939094543457e-01,8.204721212387084961e-01,8.204379081726074219e-01,8.204036355018615723e-01,8.203693628311157227e-01,8.203350901603698730e-01,8.203008770942687988e-01,8.202666640281677246e-01,8.202324509620666504e-01,8.201981782913208008e-01,8.201639652252197266e-01,8.201296925544738770e-01,8.200954794883728027e-01,8.200612664222717285e-01,8.200269937515258789e-01,8.199927806854248047e-01,8.199586272239685059e-01,8.199244141578674316e-01,8.198902010917663574e-01,8.198559880256652832e-01,8.198217749595642090e-01,8.197875618934631348e-01,8.197533488273620605e-01,8.197191357612609863e-01,8.196849226951599121e-01,8.196508288383483887e-01,8.196166157722473145e-01,8.195824623107910156e-01,8.195482492446899414e-01,8.195140361785888672e-01,8.194798827171325684e-01,8.194456696510314941e-01,8.194115161895751953e-01,8.193774223327636719e-01,8.193432688713073730e-01,8.193090558052062988e-01,8.192749023437500000e-01,8.192407488822937012e-01,8.192065954208374023e-01,8.191724419593811035e-01,8.191382884979248047e-01,8.191041350364685059e-01,8.190699815750122070e-01,8.190358877182006836e-01,8.190017342567443848e-01,8.189675807952880859e-01,8.189334869384765625e-01,8.188993334770202637e-01,8.188651800155639648e-01,8.188310861587524414e-01,8.187969923019409180e-01,8.187628984451293945e-01,8.187287449836730957e-01,8.186946511268615723e-01,8.186604976654052734e-01,8.186264038085937500e-01,8.185923099517822266e-01
7.829986214637756348e-01,7.829674482345581055e-01,7.829362154006958008e-01,7.829050421714782715e-01,7.828738093376159668e-01,7.828426361083984375e-01,7.828114628791809082e-01,7.827802300453186035e-01,7.827490568161010742e-01,7.827179431915283203e-01,7.826867699623107910e-01,7.826555967330932617e-01,7.826244235038757324e-01,7.825931906700134277e-01,7.825620174407958984e-01,7.825308442115783691e-01,7.824997305870056152e-01,7.824685573577880859e-01,7.824374437332153320e-01,7.824062705039978027e-01,7.823750972747802734e-01,7.823439836502075195e-01,7.823128104209899902e-01,7.822816371917724609e-01,7.822505235671997070e-01,7.822193503379821777e-01,7.821882963180541992e-01,7.821571230888366699e-01,7.821260094642639160e-01,7.820948958396911621e-01,7.820637226104736328e-01,7.820326089859008789e-01,7.820014953613281250e-01,7.819703221321105957e-01,7.819392085075378418e-01,7.819081544876098633e-01,7.818770408630371094e-01,7.818459272384643555e-01,7.818148136138916016e-01,7.817836999893188477e-01,7.817525863647460938e-01,7.817214727401733398e-01,7.816903591156005859e-01,7.816593050956726074e-01,7.816282510757446289e-01,7.815971374511718750e-01,7.815660834312438965e-01,7.815349698066711426e-01,7.815038561820983887e-01,7.814728021621704102e-01,7.814416885375976562e-01,7.814106345176696777e-01,7.813796401023864746e-01,7.813485264778137207e-01,7.813174724578857422e-01,7.812864184379577637e-01,7.812553048133850098e-01,7.812242507934570312e-01,7.811931967735290527e-01,7.811621427536010742e-01,7.811310887336730957e-01,7.811000943183898926e-01,7.810690402984619141e-01,7.810379862785339355e-01,7.810069322586059570e-01,7.809758782386779785e-01,7.809448242187500000e-01,7.809137701988220215e-01,7.808827161788940430e-01,7.808517217636108398e-01,7.808207273483276367e-01,7.807897329330444336e-01,7.807586789131164551e-01,7.807276248931884766e-01,7.806966304779052734e-01,7.806655764579772949e-01,7.806345820426940918e-01,7.806035876274108887e-01,7.805725932121276855e-01,7.805415987968444824e-01
7.481144666671752930e-01,7.480859756469726562e-01,7.480574846267700195e-01,7.480289936065673828e-01,7.480005025863647461e-01,7.479721307754516602e-01,7.479436397552490234e-01,7.479151487350463867e-01,7.478866577148437500e-01,7.478582262992858887e-01,7.478297352790832520e-01,7.478013038635253906e-01,7.477728128433227539e-01,7.477443218231201172e-01,7.477159500122070312e-01,7.476875185966491699e-01,7.476590275764465332e-01,7.476305961608886719e-01,7.476021647453308105e-01,7.475736737251281738e-01,7.475452423095703125e-01,7.475168108940124512e-01,7.474883794784545898e-01,7.474600076675415039e-01,7.474315762519836426e-01,7.474030852317810059e-01,7.473746538162231445e-01,7.473462224006652832e-01,7.473177909851074219e-01,7.472893595695495605e-01,7.472609877586364746e-01,7.472326159477233887e-01,7.472041845321655273e-01,7.471757531166076660e-01,7.471473217010498047e-01,7.471189498901367188e-01,7.470905184745788574e-01,7.470620870590209961e-01,7.470337152481079102e-01,7.470052838325500488e-01,7.469769716262817383e-01,7.469485402107238770e-01,7.469201683998107910e-01,7.468917369842529297e-01,7.468633651733398438e-01,7.468349933624267578e-01,7.468065619468688965e-01,7.467781901359558105e-01,7.467498183250427246e-01,7.467215061187744141e-01,7.466931343078613281e-01,7.466647028923034668e-01,7.466363310813903809e-01,7.466079592704772949e-01,7.465795874595642090e-01,7.465512156486511230e-01,7.465228438377380371e-01,7.464945912361145020e-01,7.464662194252014160e-01,7.464378476142883301e-01,7.464094758033752441e-01,7.463811039924621582e-01,7.463527917861938477e-01,7.463244199752807617e-01,7.462960481643676758e-01,7.462677359580993652e-01,7.462394237518310547e-01,7.462111115455627441e-01,7.461827397346496582e-01,7.461543679237365723e-01,7.461260557174682617e-01,7.460977435111999512e-01,7.460693717002868652e-01,7.460410594940185547e-01,7.460127472877502441e-01,7.459844350814819336e-01,7.459561228752136230e-01,7.459278106689453125e-01,7.458994984626770020e-01,7.458711862564086914e-01
7.162060141563415527e-01,7.161799669265747070e-01,7.161538600921630859e-01,7.161277532577514648e-01,7.161016464233398438e-01,7.160755395889282227e-01,7.160494327545166016e-01,7.160233259201049805e-01,7.159972786903381348e-01,7.159711718559265137e-01,7.159451246261596680e-01,7.159190177917480469e-01,7.158929705619812012e-01,7.158668637275695801e-01,7.158407568931579590e-01,7.158147096633911133e-01,7.157886028289794922e-01,7.157625555992126465e-01,7.157364487648010254e-01,7.157104611396789551e-01,7.156843543052673340e-01,7.156583070755004883e-01,7.156322002410888672e-01,7.156061530113220215e-01,7.155801057815551758e-01,7.155540585517883301e-01,7.155279517173767090e-01,7.155019640922546387e-01,7.154759168624877930e-01,7.154498696327209473e-01,7.154238224029541016e-01,7.153977751731872559e-01,7.153717279434204102e-01,7.153456807136535645e-01,7.153196334838867188e-01,7.152935862541198730e-01,7.152675986289978027e-01,7.152415513992309570e-01,7.152155041694641113e-01,7.151894569396972656e-01,7.151634097099304199e-01,7.151374220848083496e-01,7.151113748550415039e-01,7.150853276252746582e-01,7.150592803955078125e-01,7.150333523750305176e-01,7.150073051452636719e-01,7.149813175201416016e-01,7.149552702903747559e-01,7.149292826652526855e-01,7.149032354354858398e-01,7.148772478103637695e-01,7.148512005805969238e-01,7.148252129554748535e-01,7.147992849349975586e-01,7.147732377052307129e-01,7.147472500801086426e-01,7.147212624549865723e-01,7.146952152252197266e-01,7.146692276000976562e-01,7.146432399749755859e-01,7.146172523498535156e-01,7.145913243293762207e-01,7.145653367042541504e-01,7.145393490791320801e-01,7.145133614540100098e-01,7.144873738288879395e-01,7.144613862037658691e-01,7.144353985786437988e-01,7.144094109535217285e-01,7.143834233283996582e-01,7.143574357032775879e-01,7.143315076828002930e-01,7.143055796623229980e-01,7.142795920372009277e-01,7.142536044120788574e-01,7.142276763916015625e-01,7.142016887664794922e-01,7.141757607460021973e-01,7.141497731208801270e-01
6.869081854820251465e-01,6.868841648101806641e-01,6.868601441383361816e-01,6.868361830711364746e-01,6.868121623992919922e-01,6.867881417274475098e-01,6.867641806602478027e-01,6.867401599884033203e-01,6.867161393165588379e-01,6.866921782493591309e-01,6.866681575775146484e-01,6.866441369056701660e-01,6.866201758384704590e-01,6.865961551666259766e-01,6.865721940994262695e-01,6.865482330322265625e-01,6.865242123603820801e-01,6.865002512931823730e-01,6.864762902259826660e-01,6.864522695541381836e-01,6.864283084869384766e-01,6.864042878150939941e-01,6.863803267478942871e-01,6.863563656806945801e-01,6.863324046134948730e-01,6.863084435462951660e-01,6.862844824790954590e-01,6.862605214118957520e-01,6.862365007400512695e-01,6.862125396728515625e-01,6.861885786056518555e-01,6.861646175384521484e-01,6.861407160758972168e-01,6.861167550086975098e-01,6.860927939414978027e-01,6.860688328742980957e-01,6.860448718070983887e-01,6.860209107398986816e-01,6.859969496726989746e-01,6.859729886054992676e-01,6.859490275382995605e-01,6.859251260757446289e-01,6.859012246131896973e-01,6.858772635459899902e-01,6.858533024787902832e-01,6.858293414115905762e-01,6.858054399490356445e-01,6.857814788818359375e-01,6.857575774192810059e-01,6.857336163520812988e-01,6.857097148895263672e-01,6.856858134269714355e-01,6.856618523597717285e-01,6.856379508972167969e-01,6.856139898300170898e-01,6.855900883674621582e-01,6.855661869049072266e-01,6.855422258377075195e-01,6.855183839797973633e-01,6.854944229125976562e-01,6.854705214500427246e-01,6.854466199874877930e-01,6.854227185249328613e-01,6.853988170623779297e-01,6.853748559951782227e-01,6.853509545326232910e-01,6.853270530700683594e-01,6.853032112121582031e-01,6.852793097496032715e-01,6.852554082870483398e-01,6.852315068244934082e-01,6.852076053619384766e-01,6.851837038993835449e-01,6.851598024368286133e-01,6.851359009742736816e-01,6.851119995117187500e-01,6.850880980491638184e-01,6.850643157958984375e-01,6.850404143333435059e-01,6.850165128707885742e-01
6.599131226539611816e-01,6.598909497261047363e-01,6.598688364028930664e-01,6.598466634750366211e-01,6.598244905471801758e-01,6.598023176193237305e-01,6.597802042961120605e-01,6.597580313682556152e-01,6.597358584403991699e-01,6.597136855125427246e-01,6.596915721893310547e-01,6.596694588661193848e-01,6.596472859382629395e-01,6.596251726150512695e-01,6.596029996871948242e-01,6.595808863639831543e-01,6.595587134361267090e-01,6.595366001129150391e-01,6.595144271850585938e-01,6.594923138618469238e-01,6.594702005386352539e-01,6.594480872154235840e-01,6.594259738922119141e-01,6.594038009643554688e-01,6.593816876411437988e-01,6.593595743179321289e-01,6.593374013900756836e-01,6.593152880668640137e-01,6.592931747436523438e-01,6.592711210250854492e-01,6.592489480972290039e-01,6.592268347740173340e-01,6.592047214508056641e-01,6.591826081275939941e-01,6.591604948043823242e-01,6.591383814811706543e-01,6.591162681579589844e-01,6.590942144393920898e-01,6.590721011161804199e-01,6.590499877929687500e-01,6.590278744697570801e-01,6.590057611465454102e-01,6.589836478233337402e-01,6.589615345001220703e-01,6.589394807815551758e-01,6.589173674583435059e-01,6.588953137397766113e-01,6.588732004165649414e-01,6.588510870933532715e-01,6.588290333747863770e-01,6.588069200515747070e-01,6.587848067283630371e-01,6.587627530097961426e-01,6.587406396865844727e-01,6.587185859680175781e-01,6.586965322494506836e-01,6.586744189262390137e-01,6.586523652076721191e-01,6.586302518844604492e-01,6.586081981658935547e-01,6.585860848426818848e-01,6.585640311241149902e-01,6.585419774055480957e-01,6.585199236869812012e-01,6.584978699684143066e-01,6.584758162498474121e-01,6.584537029266357422e-01,6.584316492080688477e-01,6.584095954895019531e-01,6.583875417709350586e-01,6.583654284477233887e-01,6.583433747291564941e-01,6.583213806152343750e-01,6.582993268966674805e-01,6.582772731781005859e-01,6.582552194595336914e-01,6.582331657409667969e-01,6.582111120223999023e-01,6.581890583038330078e-01,6.581670045852661133e-01
