3.103440284729003906e+00,3.182281494140625000e+00,3.265233039855957031e+00,3.352624177932739258e+00,3.444822549819946289e+00,3.542235136032104492e+00,3.645317316055297852e+00,3.754578828811645508e+00,3.870592832565307617e+00,3.994004726409912109e+00,4.125545024871826172e+00,4.266045570373535156e+00,5.000000000000000000e+00,5.000000000000000000e+00,5.000000000000000000e+00,5.000000000000000000e+00,5.000000000000000000e+00,5.000000000000000000e+00,5.000000000000000000e+00,5.000000000000000000e+00,5.000000000000000000e+00,5.000000000000000000e+00,5.000000000000000000e+00,5.000000000000000000e+00,5.000000000000000000e+00,5.000000000000000000e+00,5.000000000000000000e+00,5.000000000000000000e+00,5.000000000000000000e+00,5.000000000000000000e+00,5.000000000000000000e+00,5.000000000000000000e+00,5.000000000000000000e+00,5.000000000000000000e+00,5.000000000000000000e+00,5.000000000000000000e+00,5.000000000000000000e+00,5.000000000000000000e+00,5.000000000000000000e+00,5.000000000000000000e+00,5.000000000000000000e+00,5.000000000000000000e+00,5.000000000000000000e+00,5.000000000000000000e+00,5.000000000000000000e+00,5.000000000000000000e+00,5.000000000000000000e+00,5.000000000000000000e+00,5.000000000000000000e+00,5.000000000000000000e+00,5.000000000000000000e+00,5.000000000000000000e+00,5.000000000000000000e+00,5.000000000000000000e+00,5.000000000000000000e+00,5.000000000000000000e+00,5.000000000000000000e+00,5.000000000000000000e+00,1.506070971488952637e+00,1.490666389465332031e+00,1.490616321563720703e+00,1.490118384361267090e+00,1.457692384719848633e+00,1.437664628028869629e+00,1.423531293869018555e+00,1.409673094749450684e+00,1.399492383003234863e+00,1.395099759101867676e+00,1.391275644302368164e+00,1.390335559844970703e+00,1.397088766098022461e+00,1.411181569099426270e+00,1.417961597442626953e+00,1.542292833328247070e+00,1.542028427124023438e+00,4.135963916778564453e+00,4.019865989685058594e+00,3.910156726837158203e+00,3.806276559829711914e+00,3.707772970199584961e+00
3.103381633758544922e+00,3.182219743728637695e+00,3.265167951583862305e+00,3.352555513381958008e+00,3.444750070571899414e+00,3.542158603668212891e+00,3.645236253738403320e+00,3.754492759704589844e+00,3.870501279830932617e+00,3.993907213211059570e+00,4.125441074371337891e+00,4.265934467315673828e+00,4.416334152221679688e+00,5.000000000000000000e+00,5.000000000000000000e+00,5.000000000000000000e+00,5.000000000000000000e+00,5.000000000000000000e+00,5.000000000000000000e+00,5.000000000000000000e+00,5.000000000000000000e+00,5.000000000000000000e+00,5.000000000000000000e+00,5.000000000000000000e+00,5.000000000000000000e+00,5.000000000000000000e+00,5.000000000000000000e+00,5.000000000000000000e+00,5.000000000000000000e+00,5.000000000000000000e+00,5.000000000000000000e+00,5.000000000000000000e+00,5.000000000000000000e+00,5.000000000000000000e+00,5.000000000000000000e+00,5.000000000000000000e+00,5.000000000000000000e+00,5.000000000000000000e+00,5.000000000000000000e+00,5.000000000000000000e+00,5.000000000000000000e+00,5.000000000000000000e+00,5.000000000000000000e+00,5.000000000000000000e+00,5.000000000000000000e+00,5.000000000000000000e+00,5.000000000000000000e+00,5.000000000000000000e+00,5.000000000000000000e+00,5.000000000000000000e+00,5.000000000000000000e+00,5.000000000000000000e+00,5.000000000000000000e+00,5.000000000000000000e+00,5.000000000000000000e+00,5.000000000000000000e+00,5.000000000000000000e+00,5.000000000000000000e+00,1.505178093910217285e+00,1.485022425651550293e+00,1.487174272537231445e+00,1.484865188598632812e+00,1.453540086746215820e+00,1.433148384094238281e+00,1.419238209724426270e+00,1.407195091247558594e+00,1.400593876838684082e+00,1.396679997444152832e+00,1.391697049140930176e+00,1.392513990402221680e+00,1.401029706001281738e+00,1.406237363815307617e+00,1.435210466384887695e+00,1.541611194610595703e+00,1.536746025085449219e+00,4.136012554168701172e+00,4.019963264465332031e+00,3.910248756408691406e+00,3.806363821029663086e+00,3.707855939865112305e+00
3.103322744369506836e+00,3.182157754898071289e+00,3.265102624893188477e+00,3.352486848831176758e+00,3.444677591323852539e+00,3.542081832885742188e+00,3.645154953002929688e+00,3.754406690597534180e+00,3.870409727096557617e+00,3.993809700012207031e+00,4.125337123870849609e+00,4.265823364257812500e+00,4.416214942932128906e+00,4.577598094940185547e+00,5.000000000000000000e+00,5.000000000000000000e+00,5.000000000000000000e+00,5.000000000000000000e+00,5.000000000000000000e+00,5.000000000000000000e+00,5.000000000000000000e+00,5.000000000000000000e+00,5.000000000000000000e+00,5.000000000000000000e+00,5.000000000000000000e+00,5.000000000000000000e+00,5.000000000000000000e+00,5.000000000000000000e+00,5.000000000000000000e+00,5.000000000000000000e+00,5.000000000000000000e+00,5.000000000000000000e+00,5.000000000000000000e+00,5.000000000000000000e+00,5.000000000000000000e+00,5.000000000000000000e+00,5.000000000000000000e+00,5.000000000000000000e+00,5.000000000000000000e+00,5.000000000000000000e+00,5.000000000000000000e+00,5.000000000000000000e+00,5.000000000000000000e+00,5.000000000000000000e+00,5.000000000000000000e+00,5.000000000000000000e+00,5.000000000000000000e+00,5.000000000000000000e+00,5.000000000000000000e+00,5.000000000000000000e+00,5.000000000000000000e+00,5.000000000000000000e+00,5.000000000000000000e+00,5.000000000000000000e+00,5.000000000000000000e+00,5.000000000000000000e+00,5.000000000000000000e+00,5.000000000000000000e+00,1.491575717926025391e+00,1.466159105300903320e+00,1.466823220252990723e+00,1.484154105186462402e+00,1.445427536964416504e+00,1.430372357368469238e+00,1.418628334999084473e+00,1.407075643539428711e+00,1.403021574020385742e+00,1.396966814994812012e+00,1.395958542823791504e+00,1.398069620132446289e+00,1.405445814132690430e+00,1.414398312568664551e+00,1.444929718971252441e+00,1.534250259399414062e+00,1.524892807006835938e+00,1.523568868637084961e+00,4.020061016082763672e+00,3.910340785980224609e+00,3.806451320648193359e+00,3.707938909530639648e+00
3.103262901306152344e+00,3.182096004486083984e+00,3.265037536621093750e+00,3.352418661117553711e+00,3.444605112075805664e+00,3.542005300521850586e+00,3.645073890686035156e+00,3.754320621490478516e+00,3.870318174362182617e+00,3.993712186813354492e+00,4.125233173370361328e+00,4.265712261199951172e+00,4.416095733642578125e+00,4.577469825744628906e+00,4.751085758209228516e+00,5.000000000000000000e+00,5.000000000000000000e+00,5.000000000000000000e+00,5.000000000000000000e+00,5.000000000000000000e+00,5.000000000000000000e+00,5.000000000000000000e+00,5.000000000000000000e+00,5.000000000000000000e+00,5.000000000000000000e+00,5.000000000000000000e+00,5.000000000000000000e+00,5.000000000000000000e+00,5.000000000000000000e+00,5.000000000000000000e+00,5.000000000000000000e+00,5.000000000000000000e+00,5.000000000000000000e+00,5.000000000000000000e+00,5.000000000000000000e+00,5.000000000000000000e+00,5.000000000000000000e+00,5.000000000000000000e+00,5.000000000000000000e+00,5.000000000000000000e+00,5.000000000000000000e+00,5.000000000000000000e+00,5.000000000000000000e+00,5.000000000000000000e+00,5.000000000000000000e+00,5.000000000000000000e+00,5.000000000000000000e+00,5.000000000000000000e+00,5.000000000000000000e+00,5.000000000000000000e+00,5.000000000000000000e+00,5.000000000000000000e+00,5.000000000000000000e+00,5.000000000000000000e+00,5.000000000000000000e+00,5.000000000000000000e+00,5.000000000000000000e+00,5.000000000000000000e+00,1.478689074516296387e+00,1.453851699829101562e+00,1.453799605369567871e+00,1.472472190856933594e+00,1.439899563789367676e+00,1.428548336029052734e+00,1.417510867118835449e+00,1.411921381950378418e+00,1.410891294479370117e+00,1.409862756729125977e+00,1.402492880821228027e+00,1.410946726799011230e+00,1.417341709136962891e+00,1.420317530632019043e+00,1.440482258796691895e+00,1.531018137931823730e+00,1.517043590545654297e+00,1.516395926475524902e+00,4.020158290863037109e+00,3.910433292388916016e+00,3.806538581848144531e+00,3.708021640777587891e+00
3.103196382522583008e+00,3.182033538818359375e+00,3.264972448348999023e+00,3.352349996566772461e+00,3.444532632827758789e+00,3.541928529739379883e+00,3.644992589950561523e+00,3.754234552383422852e+00,3.870226621627807617e+00,3.993614912033081055e+00,4.125129222869873047e+00,4.265600681304931641e+00,4.415976524353027344e+00,4.577342033386230469e+00,4.750947952270507812e+00,4.938241958618164062e+00,5.000000000000000000e+00,5.000000000000000000e+00,5.000000000000000000e+00,5.000000000000000000e+00,5.000000000000000000e+00,5.000000000000000000e+00,5.000000000000000000e+00,5.000000000000000000e+00,5.000000000000000000e+00,5.000000000000000000e+00,5.000000000000000000e+00,5.000000000000000000e+00,5.000000000000000000e+00,5.000000000000000000e+00,5.000000000000000000e+00,5.000000000000000000e+00,5.000000000000000000e+00,5.000000000000000000e+00,5.000000000000000000e+00,5.000000000000000000e+00,5.000000000000000000e+00,5.000000000000000000e+00,5.000000000000000000e+00,5.000000000000000000e+00,5.000000000000000000e+00,5.000000000000000000e+00,5.000000000000000000e+00,5.000000000000000000e+00,5.000000000000000000e+00,5.000000000000000000e+00,5.000000000000000000e+00,5.000000000000000000e+00,5.000000000000000000e+00,5.000000000000000000e+00,5.000000000000000000e+00,5.000000000000000000e+00,5.000000000000000000e+00,5.000000000000000000e+00,5.000000000000000000e+00,5.000000000000000000e+00,5.000000000000000000e+00,5.000000000000000000e+00,1.470751404762268066e+00,1.445383191108703613e+00,1.441396117210388184e+00,1.459224343299865723e+00,1.436399340629577637e+00,1.425971865653991699e+00,1.415770411491394043e+00,1.407499909400939941e+00,1.424046754837036133e+00,1.422998905181884766e+00,1.408691883087158203e+00,1.424063086509704590e+00,1.416895389556884766e+00,1.405356049537658691e+00,1.384768247604370117e+00,1.376384377479553223e+00,1.512472033500671387e+00,1.508983969688415527e+00,4.020256042480468750e+00,3.910525321960449219e+00,3.806626319885253906e+00,3.708104848861694336e+00
3.103129863739013672e+00,3.181963205337524414e+00,3.264906644821166992e+00,3.352281332015991211e+00,3.444460153579711914e+00,3.541851997375488281e+00,3.644911527633666992e+00,3.754148483276367188e+00,3.870135307312011719e+00,3.993517398834228516e+00,4.125025272369384766e+00,4.265489578247070312e+00,4.415857315063476562e+00,4.577213764190673828e+00,4.750810146331787109e+00,4.938092708587646484e+00,5.000000000000000000e+00,5.000000000000000000e+00,5.000000000000000000e+00,5.000000000000000000e+00,5.000000000000000000e+00,5.000000000000000000e+00,5.000000000000000000e+00,5.000000000000000000e+00,5.000000000000000000e+00,5.000000000000000000e+00,5.000000000000000000e+00,5.000000000000000000e+00,5.000000000000000000e+00,5.000000000000000000e+00,5.000000000000000000e+00,5.000000000000000000e+00,5.000000000000000000e+00,5.000000000000000000e+00,5.000000000000000000e+00,5.000000000000000000e+00,5.000000000000000000e+00,5.000000000000000000e+00,5.000000000000000000e+00,5.000000000000000000e+00,5.000000000000000000e+00,5.000000000000000000e+00,5.000000000000000000e+00,5.000000000000000000e+00,5.000000000000000000e+00,5.000000000000000000e+00,5.000000000000000000e+00,5.000000000000000000e+00,5.000000000000000000e+00,5.000000000000000000e+00,5.000000000000000000e+00,5.000000000000000000e+00,5.000000000000000000e+00,5.000000000000000000e+00,5.000000000000000000e+00,5.000000000000000000e+00,5.000000000000000000e+00,5.000000000000000000e+00,1.462898612022399902e+00,1.436643123626708984e+00,1.424555182456970215e+00,1.452444314956665039e+00,1.431859254837036133e+00,1.421323180198669434e+00,1.412298798561096191e+00,1.403258562088012695e+00,1.421196818351745605e+00,1.432969450950622559e+00,1.433727502822875977e+00,1.413489699363708496e+00,1.393159985542297363e+00,1.373958468437194824e+00,1.359611868858337402e+00,1.348819971084594727e+00,1.363608479499816895e+00,1.496071815490722656e+00,1.508603215217590332e+00,3.910618066787719727e+00,3.806713581085205078e+00,3.708187580108642578e+00
3.103062868118286133e+00,3.181893110275268555e+00,3.264832973480224609e+00,3.352211952209472656e+00,3.444387674331665039e+00,3.541775226593017578e+00,3.644830465316772461e+00,3.754062175750732422e+00,3.870043754577636719e+00,3.993419885635375977e+00,4.124921321868896484e+00,4.265378475189208984e+00,4.415738582611083984e+00,4.577085971832275391e+00,4.750672340393066406e+00,4.937943935394287109e+00,5.000000000000000000e+00,5.000000000000000000e+00,5.000000000000000000e+00,5.000000000000000000e+00,5.000000000000000000e+00,5.000000000000000000e+00,5.000000000000000000e+00,5.000000000000000000e+00,5.000000000000000000e+00,5.000000000000000000e+00,5.000000000000000000e+00,5.000000000000000000e+00,5.000000000000000000e+00,5.000000000000000000e+00,5.000000000000000000e+00,5.000000000000000000e+00,5.000000000000000000e+00,5.000000000000000000e+00,5.000000000000000000e+00,5.000000000000000000e+00,5.000000000000000000e+00,5.000000000000000000e+00,5.000000000000000000e+00,5.000000000000000000e+00,5.000000000000000000e+00,5.000000000000000000e+00,5.000000000000000000e+00,5.000000000000000000e+00,5.000000000000000000e+00,5.000000000000000000e+00,5.000000000000000000e+00,5.000000000000000000e+00,5.000000000000000000e+00,5.000000000000000000e+00,5.000000000000000000e+00,5.000000000000000000e+00,5.000000000000000000e+00,5.000000000000000000e+00,5.000000000000000000e+00,5.000000000000000000e+00,5.000000000000000000e+00,5.000000000000000000e+00,1.450310111045837402e+00,1.425381302833557129e+00,1.411512494087219238e+00,1.432963132858276367e+00,1.428499817848205566e+00,1.414920210838317871e+00,1.406265377998352051e+00,1.397616028785705566e+00,1.406237244606018066e+00,1.435039520263671875e+00,1.432104825973510742e+00,1.402568578720092773e+00,1.373388528823852539e+00,1.359646797180175781e+00,1.349053263664245605e+00,1.338743925094604492e+00,1.329433441162109375e+00,1.374123096466064453e+00,1.487445592880249023e+00,3.910710096359252930e+00,3.806801080703735352e+00,3.708270788192749023e+00
3.102996587753295898e+00,3.181823253631591797e+00,3.264759063720703125e+00,3.352134227752685547e+00,3.444314718246459961e+00,3.541698694229125977e+00,3.644749164581298828e+00,3.753976106643676758e+00,3.869952201843261719e+00,3.993322610855102539e+00,4.124817371368408203e+00,4.265267372131347656e+00,4.415619373321533203e+00,4.576957702636718750e+00,4.750534534454345703e+00,4.937795162200927734e+00,5.000000000000000000e+00,5.000000000000000000e+00,5.000000000000000000e+00,5.000000000000000000e+00,5.000000000000000000e+00,5.000000000000000000e+00,5.000000000000000000e+00,5.000000000000000000e+00,5.000000000000000000e+00,5.000000000000000000e+00,5.000000000000000000e+00,5.000000000000000000e+00,5.000000000000000000e+00,5.000000000000000000e+00,5.000000000000000000e+00,5.000000000000000000e+00,5.000000000000000000e+00,5.000000000000000000e+00,5.000000000000000000e+00,5.000000000000000000e+00,5.000000000000000000e+00,5.000000000000000000e+00,5.000000000000000000e+00,5.000000000000000000e+00,5.000000000000000000e+00,5.000000000000000000e+00,5.000000000000000000e+00,5.000000000000000000e+00,5.000000000000000000e+00,5.000000000000000000e+00,5.000000000000000000e+00,5.000000000000000000e+00,5.000000000000000000e+00,5.000000000000000000e+00,5.000000000000000000e+00,5.000000000000000000e+00,5.000000000000000000e+00,5.000000000000000000e+00,5.000000000000000000e+00,5.000000000000000000e+00,5.000000000000000000e+00,5.000000000000000000e+00,1.449506282806396484e+00,1.416040062904357910e+00,1.415560841560363770e+00,1.461668491363525391e+00,1.426434755325317383e+00,1.411784648895263672e+00,1.402663707733154297e+00,1.393693447113037109e+00,1.390298604965209961e+00,1.417357087135314941e+00,1.428514242172241211e+00,1.398735165596008301e+00,1.372897386550903320e+00,1.350654602050781250e+00,1.341125011444091797e+00,1.331781506538391113e+00,1.322567343711853027e+00,1.340179443359375000e+00,1.494527220726013184e+00,3.910802602767944336e+00,3.806888341903686523e+00,3.708353519439697266e+00
3.102929830551147461e+00,3.181753158569335938e+00,3.264685153961181641e+00,3.352056503295898438e+00,3.444232702255249023e+00,3.541621923446655273e+00,3.644668102264404297e+00,3.753890037536621094e+00,3.869860649108886719e+00,3.993225097656250000e+00,4.124713420867919922e+00,4.265156269073486328e+00,4.415500164031982422e+00,4.576830387115478516e+00,4.750396251678466797e+00,4.937645912170410156e+00,5.000000000000000000e+00,5.000000000000000000e+00,5.000000000000000000e+00,5.000000000000000000e+00,5.000000000000000000e+00,5.000000000000000000e+00,5.000000000000000000e+00,5.000000000000000000e+00,5.000000000000000000e+00,5.000000000000000000e+00,5.000000000000000000e+00,5.000000000000000000e+00,5.000000000000000000e+00,5.000000000000000000e+00,5.000000000000000000e+00,5.000000000000000000e+00,5.000000000000000000e+00,5.000000000000000000e+00,5.000000000000000000e+00,5.000000000000000000e+00,5.000000000000000000e+00,5.000000000000000000e+00,5.000000000000000000e+00,5.000000000000000000e+00,5.000000000000000000e+00,5.000000000000000000e+00,5.000000000000000000e+00,5.000000000000000000e+00,5.000000000000000000e+00,5.000000000000000000e+00,5.000000000000000000e+00,5.000000000000000000e+00,5.000000000000000000e+00,5.000000000000000000e+00,5.000000000000000000e+00,5.000000000000000000e+00,5.000000000000000000e+00,5.000000000000000000e+00,5.000000000000000000e+00,5.000000000000000000e+00,5.000000000000000000e+00,5.000000000000000000e+00,1.451020479202270508e+00,1.416709542274475098e+00,1.404814720153808594e+00,1.461989164352416992e+00,1.421428561210632324e+00,1.412025928497314453e+00,1.402747035026550293e+00,1.393615722656250000e+00,1.386329054832458496e+00,1.407487630844116211e+00,1.425231695175170898e+00,1.398390769958496094e+00,1.372380256652832031e+00,1.346501708030700684e+00,1.333475232124328613e+00,1.324891090393066406e+00,1.315771698951721191e+00,1.308801412582397461e+00,1.360789418220520020e+00,3.910894632339477539e+00,3.806979894638061523e+00,3.708446502685546875e+00
3.102863311767578125e+00,3.181682825088500977e+00,3.264611482620239258e+00,3.351978540420532227e+00,3.444150686264038086e+00,3.541535377502441406e+00,3.644586801528930664e+00,3.753803968429565430e+00,3.869769334793090820e+00,3.993127822875976562e+00,4.124609470367431641e+00,4.265045166015625000e+00,4.415380954742431641e+00,4.576702117919921875e+00,4.750258445739746094e+00,4.937497138977050781e+00,5.000000000000000000e+00,5.000000000000000000e+00,5.000000000000000000e+00,5.000000000000000000e+00,5.000000000000000000e+00,5.000000000000000000e+00,5.000000000000000000e+00,5.000000000000000000e+00,5.000000000000000000e+00,5.000000000000000000e+00,5.000000000000000000e+00,5.000000000000000000e+00,5.000000000000000000e+00,5.000000000000000000e+00,5.000000000000000000e+00,5.000000000000000000e+00,5.000000000000000000e+00,5.000000000000000000e+00,5.000000000000000000e+00,5.000000000000000000e+00,5.000000000000000000e+00,5.000000000000000000e+00,5.000000000000000000e+00,5.000000000000000000e+00,5.000000000000000000e+00,5.000000000000000000e+00,5.000000000000000000e+00,5.000000000000000000e+00,5.000000000000000000e+00,5.000000000000000000e+00,5.000000000000000000e+00,5.000000000000000000e+00,5.000000000000000000e+00,5.000000000000000000e+00,5.000000000000000000e+00,5.000000000000000000e+00,5.000000000000000000e+00,5.000000000000000000e+00,5.000000000000000000e+00,5.000000000000000000e+00,5.000000000000000000e+00,5.000000000000000000e+00,5.000000000000000000e+00,1.402707457542419434e+00,1.379465699195861816e+00,1.374803781509399414e+00,1.422037601470947266e+00,1.412629365921020508e+00,1.403377652168273926e+00,1.394246339797973633e+00,1.385233044624328613e+00,1.405911564826965332e+00,1.434409260749816895e+00,1.398042082786560059e+00,1.371280550956726074e+00,1.345402598381042480e+00,1.324257612228393555e+00,1.316354870796203613e+00,1.308545827865600586e+00,1.300142288208007812e+00,1.328237414360046387e+00,3.911001682281494141e+00,3.807083606719970703e+00,3.708544492721557617e+00
3.102796792984008789e+00,3.181612968444824219e+00,3.264537811279296875e+00,3.351900815963745117e+00,3.444068670272827148e+00,3.541448116302490234e+00,3.644495010375976562e+00,3.753717899322509766e+00,3.869677782058715820e+00,3.993030309677124023e+00,4.124505519866943359e+00,4.264934062957763672e+00,4.415261745452880859e+00,4.576574325561523438e+00,4.750120639801025391e+00,4.937348365783691406e+00,5.000000000000000000e+00,5.000000000000000000e+00,5.000000000000000000e+00,5.000000000000000000e+00,5.000000000000000000e+00,5.000000000000000000e+00,5.000000000000000000e+00,5.000000000000000000e+00,5.000000000000000000e+00,5.000000000000000000e+00,5.000000000000000000e+00,5.000000000000000000e+00,5.000000000000000000e+00,5.000000000000000000e+00,5.000000000000000000e+00,5.000000000000000000e+00,5.000000000000000000e+00,5.000000000000000000e+00,5.000000000000000000e+00,5.000000000000000000e+00,5.000000000000000000e+00,5.000000000000000000e+00,5.000000000000000000e+00,5.000000000000000000e+00,5.000000000000000000e+00,5.000000000000000000e+00,5.000000000000000000e+00,5.000000000000000000e+00,5.000000000000000000e+00,5.000000000000000000e+00,5.000000000000000000e+00,5.000000000000000000e+00,5.000000000000000000e+00,5.000000000000000000e+00,5.000000000000000000e+00,5.000000000000000000e+00,5.000000000000000000e+00,5.000000000000000000e+00,5.000000000000000000e+00,5.000000000000000000e+00,5.000000000000000000e+00,5.000000000000000000e+00,5.000000000000000000e+00,1.389865994453430176e+00,1.362004637718200684e+00,1.375218272209167480e+00,1.354881882667541504e+00,1.414457082748413086e+00,1.405181527137756348e+00,1.396026849746704102e+00,1.386990666389465332e+00,1.406902194023132324e+00,1.443196892738342285e+00,1.398224353790283203e+00,1.370182752609252930e+00,1.344305276870727539e+00,1.319243669509887695e+00,1.307371497154235840e+00,1.299668312072753906e+00,1.292161941528320312e+00,1.295562028884887695e+00,1.447504401206970215e+00,3.807186841964721680e+00,3.708642959594726562e+00
3.102730035781860352e+00,3.181542873382568359e+00,3.264463901519775391e+00,3.351823091506958008e+00,3.443986654281616211e+00,3.541361570358276367e+00,3.644403219223022461e+00,3.753620386123657227e+00,3.869586229324340820e+00,3.992932796478271484e+00,4.124401569366455078e+00,4.264822959899902344e+00,4.415143013000488281e+00,4.576446533203125000e+00,4.749982833862304688e+00,4.937199115753173828e+00,5.000000000000000000e+00,5.000000000000000000e+00,5.000000000000000000e+00,5.000000000000000000e+00,5.000000000000000000e+00,5.000000000000000000e+00,5.000000000000000000e+00,5.000000000000000000e+00,5.000000000000000000e+00,5.000000000000000000e+00,5.000000000000000000e+00,5.000000000000000000e+00,5.000000000000000000e+00,5.000000000000000000e+00,5.000000000000000000e+00,5.000000000000000000e+00,5.000000000000000000e+00,5.000000000000000000e+00,5.000000000000000000e+00,5.000000000000000000e+00,5.000000000000000000e+00,5.000000000000000000e+00,5.000000000000000000e+00,5.000000000000000000e+00,5.000000000000000000e+00,5.000000000000000000e+00,5.000000000000000000e+00,5.000000000000000000e+00,5.000000000000000000e+00,5.000000000000000000e+00,5.000000000000000000e+00,5.000000000000000000e+00,5.000000000000000000e+00,5.000000000000000000e+00,5.000000000000000000e+00,5.000000000000000000e+00,5.000000000000000000e+00,5.000000000000000000e+00,5.000000000000000000e+00,5.000000000000000000e+00,5.000000000000000000e+00,5.000000000000000000e+00,1.428466081619262695e+00,1.377555012702941895e+00,1.355472564697265625e+00,1.474413633346557617e+00,1.344955086708068848e+00,1.416947364807128906e+00,1.406990170478820801e+00,1.397812008857727051e+00,1.388752698898315430e+00,1.408645272254943848e+00,1.448166966438293457e+00,1.403096199035644531e+00,1.369086623191833496e+00,1.343209624290466309e+00,1.318188667297363281e+00,1.299037098884582520e+00,1.291884779930114746e+00,1.284810781478881836e+00,1.277813911437988281e+00,1.319082975387573242e+00,3.807290554046630859e+00,3.708740949630737305e+00
3.102663278579711914e+00,3.181473016738891602e+00,3.264390230178833008e+00,3.351745605468750000e+00,3.443904399871826172e+00,3.541274785995483398e+00,3.644310951232910156e+00,3.753523111343383789e+00,3.869483232498168945e+00,3.992835521697998047e+00,4.124298095703125000e+00,4.264711856842041016e+00,4.415023803710937500e+00,4.576318264007568359e+00,4.749845027923583984e+00,4.937050342559814453e+00,5.000000000000000000e+00,5.000000000000000000e+00,5.000000000000000000e+00,5.000000000000000000e+00,5.000000000000000000e+00,5.000000000000000000e+00,5.000000000000000000e+00,5.000000000000000000e+00,5.000000000000000000e+00,5.000000000000000000e+00,5.000000000000000000e+00,5.000000000000000000e+00,5.000000000000000000e+00,5.000000000000000000e+00,5.000000000000000000e+00,5.000000000000000000e+00,5.000000000000000000e+00,5.000000000000000000e+00,5.000000000000000000e+00,5.000000000000000000e+00,5.000000000000000000e+00,5.000000000000000000e+00,5.000000000000000000e+00,5.000000000000000000e+00,5.000000000000000000e+00,5.000000000000000000e+00,5.000000000000000000e+00,5.000000000000000000e+00,5.000000000000000000e+00,5.000000000000000000e+00,5.000000000000000000e+00,5.000000000000000000e+00,5.000000000000000000e+00,5.000000000000000000e+00,5.000000000000000000e+00,5.000000000000000000e+00,5.000000000000000000e+00,5.000000000000000000e+00,5.000000000000000000e+00,5.000000000000000000e+00,5.000000000000000000e+00,5.000000000000000000e+00,1.425896286964416504e+00,1.371378421783447266e+00,5.000000000000000000e+00,1.326397061347961426e+00,1.445131778717041016e+00,1.419581532478332520e+00,1.409288048744201660e+00,1.399601578712463379e+00,1.390519142150878906e+00,1.409486889839172363e+00,5.000000000000000000e+00,1.408002257347106934e+00,1.367992281913757324e+00,1.342115879058837891e+00,1.315804719924926758e+00,1.293133258819580078e+00,1.283586740493774414e+00,1.277542829513549805e+00,1.270624637603759766e+00,1.272087216377258301e+00,3.807393789291381836e+00,3.708838939666748047e+00
3.102596759796142578e+00,3.181402683258056641e+00,3.264316558837890625e+00,3.351667404174804688e+00,3.443822383880615234e+00,3.541188001632690430e+00,3.644219160079956055e+00,3.753425598144531250e+00,3.869379281997680664e+00,3.992725610733032227e+00,4.124194145202636719e+00,4.264600753784179688e+00,4.414904594421386719e+00,4.576190471649169922e+00,4.749707221984863281e+00,4.936901569366455078e+00,5.000000000000000000e+00,5.000000000000000000e+00,5.000000000000000000e+00,5.000000000000000000e+00,5.000000000000000000e+00,5.000000000000000000e+00,5.000000000000000000e+00,5.000000000000000000e+00,5.000000000000000000e+00,5.000000000000000000e+00,5.000000000000000000e+00,5.000000000000000000e+00,5.000000000000000000e+00,5.000000000000000000e+00,5.000000000000000000e+00,5.000000000000000000e+00,5.000000000000000000e+00,5.000000000000000000e+00,5.000000000000000000e+00,5.000000000000000000e+00,5.000000000000000000e+00,5.000000000000000000e+00,5.000000000000000000e+00,5.000000000000000000e+00,5.000000000000000000e+00,5.000000000000000000e+00,5.000000000000000000e+00,5.000000000000000000e+00,5.000000000000000000e+00,5.000000000000000000e+00,5.000000000000000000e+00,5.000000000000000000e+00,5.000000000000000000e+00,5.000000000000000000e+00,5.000000000000000000e+00,5.000000000000000000e+00,5.000000000000000000e+00,5.000000000000000000e+00,5.000000000000000000e+00,5.000000000000000000e+00,5.000000000000000000e+00,5.000000000000000000e+00,1.421511173248291016e+00,1.380899310111999512e+00,1.356886744499206543e+00,1.316790461540222168e+00,1.453907251358032227e+00,1.422225236892700195e+00,1.411893606185913086e+00,1.401710867881774902e+00,1.392290115356445312e+00,1.409509539604187012e+00,5.000000000000000000e+00,1.417099118232727051e+00,1.371332645416259766e+00,1.339316725730895996e+00,1.313024878501892090e+00,1.290846467018127441e+00,1.272833824157714844e+00,1.268415331840515137e+00,1.263515830039978027e+00,1.256748318672180176e+00,1.414926648139953613e+00,3.708937168121337891e+00
3.102530241012573242e+00,3.181332588195800781e+00,3.264242887496948242e+00,3.351589918136596680e+00,3.443740367889404297e+00,3.541100978851318359e+00,3.644127368927001953e+00,3.753328323364257812e+00,3.869275569915771484e+00,3.992615461349487305e+00,4.124077320098876953e+00,4.264489650726318359e+00,4.414785385131835938e+00,4.576062679290771484e+00,4.749569416046142578e+00,4.936752319335937500e+00,5.000000000000000000e+00,5.000000000000000000e+00,5.000000000000000000e+00,5.000000000000000000e+00,5.000000000000000000e+00,5.000000000000000000e+00,5.000000000000000000e+00,5.000000000000000000e+00,5.000000000000000000e+00,5.000000000000000000e+00,5.000000000000000000e+00,5.000000000000000000e+00,5.000000000000000000e+00,5.000000000000000000e+00,5.000000000000000000e+00,5.000000000000000000e+00,5.000000000000000000e+00,5.000000000000000000e+00,5.000000000000000000e+00,5.000000000000000000e+00,5.000000000000000000e+00,5.000000000000000000e+00,5.000000000000000000e+00,5.000000000000000000e+00,5.000000000000000000e+00,5.000000000000000000e+00,5.000000000000000000e+00,5.000000000000000000e+00,5.000000000000000000e+00,5.000000000000000000e+00,5.000000000000000000e+00,5.000000000000000000e+00,5.000000000000000000e+00,5.000000000000000000e+00,5.000000000000000000e+00,5.000000000000000000e+00,5.000000000000000000e+00,5.000000000000000000e+00,5.000000000000000000e+00,5.000000000000000000e+00,5.000000000000000000e+00,5.000000000000000000e+00,5.000000000000000000e+00,1.369466185569763184e+00,1.341221570968627930e+00,1.517202854156494141e+00,1.462789893150329590e+00,1.424878954887390137e+00,1.414409637451171875e+00,1.404082298278808594e+00,1.393904566764831543e+00,1.409532070159912109e+00,5.000000000000000000e+00,5.000000000000000000e+00,1.379642128944396973e+00,1.336436867713928223e+00,1.310256838798522949e+00,1.288567543029785156e+00,1.269554257392883301e+00,1.257914066314697266e+00,1.253598451614379883e+00,1.249312162399291992e+00,1.249448060989379883e+00,3.709035158157348633e+00
3.102463483810424805e+00,3.181262731552124023e+00,3.264168977737426758e+00,3.351512193679809570e+00,3.443658351898193359e+00,3.541014194488525391e+00,3.644035577774047852e+00,3.753230333328247070e+00,3.869172096252441406e+00,3.992504835128784180e+00,4.123959541320800781e+00,4.264365196228027344e+00,4.414666652679443359e+00,4.575934410095214844e+00,4.749431610107421875e+00,4.936603546142578125e+00,5.000000000000000000e+00,5.000000000000000000e+00,5.000000000000000000e+00,5.000000000000000000e+00,5.000000000000000000e+00,5.000000000000000000e+00,5.000000000000000000e+00,5.000000000000000000e+00,5.000000000000000000e+00,5.000000000000000000e+00,5.000000000000000000e+00,5.000000000000000000e+00,5.000000000000000000e+00,5.000000000000000000e+00,5.000000000000000000e+00,5.000000000000000000e+00,5.000000000000000000e+00,5.000000000000000000e+00,5.000000000000000000e+00,5.000000000000000000e+00,5.000000000000000000e+00,5.000000000000000000e+00,5.000000000000000000e+00,5.000000000000000000e+00,5.000000000000000000e+00,5.000000000000000000e+00,5.000000000000000000e+00,5.000000000000000000e+00,5.000000000000000000e+00,5.000000000000000000e+00,5.000000000000000000e+00,5.000000000000000000e+00,5.000000000000000000e+00,5.000000000000000000e+00,5.000000000000000000e+00,5.000000000000000000e+00,5.000000000000000000e+00,5.000000000000000000e+00,5.000000000000000000e+00,5.000000000000000000e+00,5.000000000000000000e+00,5.000000000000000000e+00,5.000000000000000000e+00,5.000000000000000000e+00,5.000000000000000000e+00,1.531650424003601074e+00,1.472355723381042480e+00,1.432103157043457031e+00,1.414581298828125000e+00,1.404251337051391602e+00,1.394071221351623535e+00,1.409789443016052246e+00,5.000000000000000000e+00,5.000000000000000000e+00,1.389406442642211914e+00,1.341420769691467285e+00,1.307500362396240234e+00,1.286296606063842773e+00,1.267349839210510254e+00,1.248952984809875488e+00,1.243340015411376953e+00,1.239194631576538086e+00,1.236118197441101074e+00,3.709133148193359375e+00
3.102396965026855469e+00,3.181192636489868164e+00,3.264095306396484375e+00,3.351434469223022461e+00,3.443576097488403320e+00,3.540927648544311523e+00,3.643943309783935547e+00,3.753133058547973633e+00,3.869068622589111328e+00,3.992394685745239258e+00,4.123841762542724609e+00,4.264239311218261719e+00,4.414533138275146484e+00,4.575806617736816406e+00,4.749293804168701172e+00,4.936454772949218750e+00,5.000000000000000000e+00,5.000000000000000000e+00,5.000000000000000000e+00,5.000000000000000000e+00,5.000000000000000000e+00,5.000000000000000000e+00,5.000000000000000000e+00,5.000000000000000000e+00,5.000000000000000000e+00,5.000000000000000000e+00,5.000000000000000000e+00,5.000000000000000000e+00,5.000000000000000000e+00,5.000000000000000000e+00,5.000000000000000000e+00,5.000000000000000000e+00,5.000000000000000000e+00,5.000000000000000000e+00,5.000000000000000000e+00,5.000000000000000000e+00,5.000000000000000000e+00,5.000000000000000000e+00,5.000000000000000000e+00,5.000000000000000000e+00,5.000000000000000000e+00,5.000000000000000000e+00,5.000000000000000000e+00,5.000000000000000000e+00,5.000000000000000000e+00,5.000000000000000000e+00,5.000000000000000000e+00,5.000000000000000000e+00,5.000000000000000000e+00,5.000000000000000000e+00,5.000000000000000000e+00,5.000000000000000000e+00,5.000000000000000000e+00,5.000000000000000000e+00,5.000000000000000000e+00,5.000000000000000000e+00,5.000000000000000000e+00,5.000000000000000000e+00,5.000000000000000000e+00,5.000000000000000000e+00,5.000000000000000000e+00,5.000000000000000000e+00,1.484293818473815918e+00,1.441822767257690430e+00,1.415564775466918945e+00,1.404420614242553711e+00,1.394237995147705078e+00,1.410062909126281738e+00,5.000000000000000000e+00,5.000000000000000000e+00,4.835966587066650391e+00,1.356496453285217285e+00,1.305260181427001953e+00,1.284033775329589844e+00,1.265088796615600586e+00,1.247796773910522461e+00,1.239047169685363770e+00,1.236411333084106445e+00,1.233348727226257324e+00,3.709231615066528320e+00
3.102330207824707031e+00,3.181122541427612305e+00,3.264021635055541992e+00,3.351356744766235352e+00,3.443494081497192383e+00,3.540840864181518555e+00,3.643851518630981445e+00,3.753035545349121094e+00,3.868964672088623047e+00,3.992284297943115234e+00,4.123723983764648438e+00,4.264113426208496094e+00,4.414398670196533203e+00,4.575663566589355469e+00,4.749155998229980469e+00,4.936305999755859375e+00,5.000000000000000000e+00,5.000000000000000000e+00,5.000000000000000000e+00,5.000000000000000000e+00,5.000000000000000000e+00,5.000000000000000000e+00,5.000000000000000000e+00,5.000000000000000000e+00,5.000000000000000000e+00,5.000000000000000000e+00,5.000000000000000000e+00,5.000000000000000000e+00,5.000000000000000000e+00,5.000000000000000000e+00,5.000000000000000000e+00,5.000000000000000000e+00,5.000000000000000000e+00,5.000000000000000000e+00,5.000000000000000000e+00,5.000000000000000000e+00,5.000000000000000000e+00,5.000000000000000000e+00,5.000000000000000000e+00,5.000000000000000000e+00,5.000000000000000000e+00,5.000000000000000000e+00,5.000000000000000000e+00,5.000000000000000000e+00,5.000000000000000000e+00,5.000000000000000000e+00,5.000000000000000000e+00,5.000000000000000000e+00,5.000000000000000000e+00,5.000000000000000000e+00,5.000000000000000000e+00,5.000000000000000000e+00,5.000000000000000000e+00,5.000000000000000000e+00,5.000000000000000000e+00,5.000000000000000000e+00,5.000000000000000000e+00,5.000000000000000000e+00,5.000000000000000000e+00,5.000000000000000000e+00,5.000000000000000000e+00,5.000000000000000000e+00,1.500567793846130371e+00,1.451559662818908691e+00,1.419213175773620605e+00,1.404590010643005371e+00,1.394404888153076172e+00,1.409222483634948730e+00,5.000000000000000000e+00,5.000000000000000000e+00,4.836133480072021484e+00,4.678229808807373047e+00,1.325109481811523438e+00,1.281575798988342285e+00,1.264250159263610840e+00,1.247510075569152832e+00,1.235128879547119141e+00,1.232607483863830566e+00,1.230494499206542969e+00,3.709329605102539062e+00
3.102226257324218750e+00,3.181035518646240234e+00,3.263947963714599609e+00,3.351278781890869141e+00,3.443412065505981445e+00,3.540753841400146484e+00,3.643759727478027344e+00,3.752938270568847656e+00,3.868861198425292969e+00,3.992174148559570312e+00,4.123606204986572266e+00,4.263987541198730469e+00,4.414263248443603516e+00,4.575518608093261719e+00,4.749002456665039062e+00,4.936156749725341797e+00,5.000000000000000000e+00,5.000000000000000000e+00,5.000000000000000000e+00,5.000000000000000000e+00,5.000000000000000000e+00,5.000000000000000000e+00,5.000000000000000000e+00,5.000000000000000000e+00,5.000000000000000000e+00,5.000000000000000000e+00,5.000000000000000000e+00,5.000000000000000000e+00,5.000000000000000000e+00,5.000000000000000000e+00,5.000000000000000000e+00,5.000000000000000000e+00,5.000000000000000000e+00,5.000000000000000000e+00,5.000000000000000000e+00,5.000000000000000000e+00,5.000000000000000000e+00,5.000000000000000000e+00,5.000000000000000000e+00,5.000000000000000000e+00,5.000000000000000000e+00,5.000000000000000000e+00,5.000000000000000000e+00,5.000000000000000000e+00,5.000000000000000000e+00,5.000000000000000000e+00,5.000000000000000000e+00,5.000000000000000000e+00,5.000000000000000000e+00,5.000000000000000000e+00,5.000000000000000000e+00,5.000000000000000000e+00,5.000000000000000000e+00,5.000000000000000000e+00,5.000000000000000000e+00,5.000000000000000000e+00,5.000000000000000000e+00,5.000000000000000000e+00,5.000000000000000000e+00,5.000000000000000000e+00,5.000000000000000000e+00,5.000000000000000000e+00,1.512826323509216309e+00,1.461428880691528320e+00,1.422880530357360840e+00,1.406803250312805176e+00,1.394571661949157715e+00,1.407334327697753906e+00,5.000000000000000000e+00,5.000000000000000000e+00,4.836299896240234375e+00,4.678385734558105469e+00,1.346189737319946289e+00,1.285121440887451172e+00,1.268021106719970703e+00,1.250592827796936035e+00,1.239796519279479980e+00,1.237160205841064453e+00,1.235201120376586914e+00,3.709427595138549805e+00
3.102110624313354492e+00,3.180914163589477539e+00,3.263825893402099609e+00,3.351175546646118164e+00,3.443329095840454102e+00,3.540667057037353516e+00,3.643667936325073242e+00,3.752840518951416016e+00,3.868757724761962891e+00,3.992063522338867188e+00,4.123488426208496094e+00,4.263861656188964844e+00,4.414128780364990234e+00,4.575374126434326172e+00,4.748846530914306641e+00,4.935991287231445312e+00,5.000000000000000000e+00,5.000000000000000000e+00,5.000000000000000000e+00,5.000000000000000000e+00,5.000000000000000000e+00,5.000000000000000000e+00,5.000000000000000000e+00,5.000000000000000000e+00,5.000000000000000000e+00,5.000000000000000000e+00,5.000000000000000000e+00,5.000000000000000000e+00,5.000000000000000000e+00,5.000000000000000000e+00,5.000000000000000000e+00,5.000000000000000000e+00,5.000000000000000000e+00,5.000000000000000000e+00,5.000000000000000000e+00,5.000000000000000000e+00,5.000000000000000000e+00,5.000000000000000000e+00,5.000000000000000000e+00,5.000000000000000000e+00,5.000000000000000000e+00,5.000000000000000000e+00,5.000000000000000000e+00,5.000000000000000000e+00,5.000000000000000000e+00,5.000000000000000000e+00,5.000000000000000000e+00,5.000000000000000000e+00,5.000000000000000000e+00,5.000000000000000000e+00,5.000000000000000000e+00,5.000000000000000000e+00,5.000000000000000000e+00,5.000000000000000000e+00,5.000000000000000000e+00,5.000000000000000000e+00,5.000000000000000000e+00,5.000000000000000000e+00,5.000000000000000000e+00,5.000000000000000000e+00,5.000000000000000000e+00,5.000000000000000000e+00,1.523303508758544922e+00,1.471433043479919434e+00,1.427215456962585449e+00,1.410406708717346191e+00,1.394738554954528809e+00,1.405451416969299316e+00,5.000000000000000000e+00,5.000000000000000000e+00,4.836466789245605469e+00,4.678541660308837891e+00,1.338359236717224121e+00,1.292381882667541504e+00,1.273631215095520020e+00,1.255416870117187500e+00,1.247147202491760254e+00,1.244262695312500000e+00,1.241391658782958984e+00,3.709526062011718750e+00
3.102005958557128906e+00,3.180792808532714844e+00,3.263698101043701172e+00,3.351040601730346680e+00,3.443186521530151367e+00,3.540543556213378906e+00,3.643566131591796875e+00,3.752743005752563477e+00,3.868654251098632812e+00,3.991953372955322266e+00,4.123371124267578125e+00,4.263735771179199219e+00,4.413993835449218750e+00,4.575228691101074219e+00,4.748690605163574219e+00,4.935822963714599609e+00,5.000000000000000000e+00,5.000000000000000000e+00,5.000000000000000000e+00,5.000000000000000000e+00,5.000000000000000000e+00,5.000000000000000000e+00,5.000000000000000000e+00,5.000000000000000000e+00,5.000000000000000000e+00,5.000000000000000000e+00,5.000000000000000000e+00,5.000000000000000000e+00,5.000000000000000000e+00,5.000000000000000000e+00,5.000000000000000000e+00,5.000000000000000000e+00,5.000000000000000000e+00,5.000000000000000000e+00,5.000000000000000000e+00,5.000000000000000000e+00,5.000000000000000000e+00,5.000000000000000000e+00,5.000000000000000000e+00,5.000000000000000000e+00,5.000000000000000000e+00,5.000000000000000000e+00,5.000000000000000000e+00,5.000000000000000000e+00,5.000000000000000000e+00,5.000000000000000000e+00,5.000000000000000000e+00,5.000000000000000000e+00,5.000000000000000000e+00,5.000000000000000000e+00,5.000000000000000000e+00,5.000000000000000000e+00,5.000000000000000000e+00,5.000000000000000000e+00,5.000000000000000000e+00,5.000000000000000000e+00,5.000000000000000000e+00,5.000000000000000000e+00,5.000000000000000000e+00,5.000000000000000000e+00,5.000000000000000000e+00,5.000000000000000000e+00,5.000000000000000000e+00,1.483575344085693359e+00,1.437775969505310059e+00,1.413453817367553711e+00,1.397163033485412598e+00,1.407889962196350098e+00,5.000000000000000000e+00,5.000000000000000000e+00,4.836633682250976562e+00,4.678698062896728516e+00,1.323529839515686035e+00,1.303871273994445801e+00,1.284095048904418945e+00,1.267182826995849609e+00,1.261425018310546875e+00,1.258474230766296387e+00,3.808221340179443359e+00,3.709624052047729492e+00
3.101939439773559570e+00,3.180711507797241211e+00,3.263588428497314453e+00,3.350905656814575195e+00,3.443044185638427734e+00,3.540392875671386719e+00,3.643406867980957031e+00,3.752594947814941406e+00,3.868529796600341797e+00,3.991843223571777344e+00,4.123253345489501953e+00,4.263609886169433594e+00,4.413858890533447266e+00,4.575084209442138672e+00,4.748534202575683594e+00,4.935654163360595703e+00,5.000000000000000000e+00,5.000000000000000000e+00,5.000000000000000000e+00,5.000000000000000000e+00,5.000000000000000000e+00,5.000000000000000000e+00,5.000000000000000000e+00,5.000000000000000000e+00,5.000000000000000000e+00,5.000000000000000000e+00,5.000000000000000000e+00,5.000000000000000000e+00,5.000000000000000000e+00,5.000000000000000000e+00,5.000000000000000000e+00,5.000000000000000000e+00,5.000000000000000000e+00,5.000000000000000000e+00,5.000000000000000000e+00,5.000000000000000000e+00,5.000000000000000000e+00,5.000000000000000000e+00,5.000000000000000000e+00,5.000000000000000000e+00,5.000000000000000000e+00,5.000000000000000000e+00,5.000000000000000000e+00,5.000000000000000000e+00,5.000000000000000000e+00,5.000000000000000000e+00,5.000000000000000000e+00,5.000000000000000000e+00,5.000000000000000000e+00,5.000000000000000000e+00,5.000000000000000000e+00,5.000000000000000000e+00,5.000000000000000000e+00,5.000000000000000000e+00,5.000000000000000000e+00,5.000000000000000000e+00,5.000000000000000000e+00,5.000000000000000000e+00,5.000000000000000000e+00,5.000000000000000000e+00,5.000000000000000000e+00,5.000000000000000000e+00,5.000000000000000000e+00,1.492187142372131348e+00,1.445405125617980957e+00,1.420934200286865234e+00,1.405362129211425781e+00,1.416600465774536133e+00,5.000000000000000000e+00,5.000000000000000000e+00,4.836800575256347656e+00,1.382282376289367676e+00,1.335582137107849121e+00,1.313483119010925293e+00,1.292183399200439453e+00,1.281890034675598145e+00,1.276033639907836914e+00,1.302782773971557617e+00,3.808324575424194336e+00,3.709722042083740234e+00
3.101873159408569336e+00,3.180641889572143555e+00,3.263515233993530273e+00,3.350822448730468750e+00,3.442929744720458984e+00,3.540243864059448242e+00,3.643247365951538086e+00,3.752425909042358398e+00,3.868350028991699219e+00,3.991665124893188477e+00,4.123101234436035156e+00,4.263484001159667969e+00,4.413723945617675781e+00,4.574939250946044922e+00,4.748378276824951172e+00,4.935485839843750000e+00,5.000000000000000000e+00,5.000000000000000000e+00,5.000000000000000000e+00,5.000000000000000000e+00,5.000000000000000000e+00,5.000000000000000000e+00,5.000000000000000000e+00,5.000000000000000000e+00,5.000000000000000000e+00,5.000000000000000000e+00,5.000000000000000000e+00,5.000000000000000000e+00,5.000000000000000000e+00,5.000000000000000000e+00,5.000000000000000000e+00,5.000000000000000000e+00,5.000000000000000000e+00,5.000000000000000000e+00,5.000000000000000000e+00,5.000000000000000000e+00,5.000000000000000000e+00,5.000000000000000000e+00,5.000000000000000000e+00,5.000000000000000000e+00,5.000000000000000000e+00,5.000000000000000000e+00,5.000000000000000000e+00,5.000000000000000000e+00,5.000000000000000000e+00,5.000000000000000000e+00,5.000000000000000000e+00,5.000000000000000000e+00,5.000000000000000000e+00,5.000000000000000000e+00,5.000000000000000000e+00,5.000000000000000000e+00,5.000000000000000000e+00,5.000000000000000000e+00,5.000000000000000000e+00,5.000000000000000000e+00,5.000000000000000000e+00,5.000000000000000000e+00,5.000000000000000000e+00,5.000000000000000000e+00,5.000000000000000000e+00,5.000000000000000000e+00,5.000000000000000000e+00,1.488646745681762695e+00,1.453248381614685059e+00,1.432169675827026367e+00,1.421729087829589844e+00,1.435225129127502441e+00,5.000000000000000000e+00,5.000000000000000000e+00,4.836967468261718750e+00,1.368874073028564453e+00,1.344247937202453613e+00,1.319567084312438965e+00,1.307480096817016602e+00,1.296942830085754395e+00,1.290984392166137695e+00,3.912420749664306641e+00,3.808428049087524414e+00,3.709820508956909180e+00
3.101806640625000000e+00,3.180571794509887695e+00,3.263441562652587891e+00,3.350744962692260742e+00,3.442848205566406250e+00,3.540157556533813477e+00,3.643127918243408203e+00,3.752267122268676758e+00,3.868170261383056641e+00,3.991473674774169922e+00,4.122897148132324219e+00,4.263269424438476562e+00,4.413537025451660156e+00,4.574784755706787109e+00,4.748222351074218750e+00,4.935317039489746094e+00,5.000000000000000000e+00,5.000000000000000000e+00,5.000000000000000000e+00,5.000000000000000000e+00,5.000000000000000000e+00,5.000000000000000000e+00,5.000000000000000000e+00,5.000000000000000000e+00,5.000000000000000000e+00,5.000000000000000000e+00,5.000000000000000000e+00,5.000000000000000000e+00,5.000000000000000000e+00,5.000000000000000000e+00,5.000000000000000000e+00,5.000000000000000000e+00,5.000000000000000000e+00,5.000000000000000000e+00,5.000000000000000000e+00,5.000000000000000000e+00,5.000000000000000000e+00,5.000000000000000000e+00,5.000000000000000000e+00,5.000000000000000000e+00,5.000000000000000000e+00,5.000000000000000000e+00,5.000000000000000000e+00,5.000000000000000000e+00,5.000000000000000000e+00,5.000000000000000000e+00,5.000000000000000000e+00,5.000000000000000000e+00,5.000000000000000000e+00,5.000000000000000000e+00,5.000000000000000000e+00,5.000000000000000000e+00,5.000000000000000000e+00,5.000000000000000000e+00,5.000000000000000000e+00,5.000000000000000000e+00,5.000000000000000000e+00,5.000000000000000000e+00,5.000000000000000000e+00,5.000000000000000000e+00,5.000000000000000000e+00,5.000000000000000000e+00,1.539438366889953613e+00,1.491638660430908203e+00,1.464701175689697266e+00,1.447198629379272461e+00,1.442271828651428223e+00,1.467180967330932617e+00,5.000000000000000000e+00,5.000000000000000000e+00,4.837134361267089844e+00,1.375098228454589844e+00,1.349811673164367676e+00,1.333463191986083984e+00,1.323143482208251953e+00,1.312353134155273438e+00,1.332522034645080566e+00,3.912529945373535156e+00,3.808528661727905273e+00,3.709910392761230469e+00
3.101740360260009766e+00,3.180502176284790039e+00,3.263367891311645508e+00,3.350667476654052734e+00,3.442766189575195312e+00,3.540071010589599609e+00,3.643036127090454102e+00,3.752170324325561523e+00,3.868045091629028320e+00,3.991304636001586914e+00,4.122693061828613281e+00,4.263051033020019531e+00,4.413303375244140625e+00,4.574533939361572266e+00,4.747991561889648438e+00,4.935121536254882812e+00,5.000000000000000000e+00,5.000000000000000000e+00,5.000000000000000000e+00,5.000000000000000000e+00,5.000000000000000000e+00,5.000000000000000000e+00,5.000000000000000000e+00,5.000000000000000000e+00,5.000000000000000000e+00,5.000000000000000000e+00,5.000000000000000000e+00,5.000000000000000000e+00,5.000000000000000000e+00,5.000000000000000000e+00,5.000000000000000000e+00,5.000000000000000000e+00,5.000000000000000000e+00,5.000000000000000000e+00,5.000000000000000000e+00,5.000000000000000000e+00,5.000000000000000000e+00,5.000000000000000000e+00,5.000000000000000000e+00,5.000000000000000000e+00,5.000000000000000000e+00,5.000000000000000000e+00,5.000000000000000000e+00,5.000000000000000000e+00,5.000000000000000000e+00,5.000000000000000000e+00,5.000000000000000000e+00,5.000000000000000000e+00,5.000000000000000000e+00,5.000000000000000000e+00,5.000000000000000000e+00,5.000000000000000000e+00,5.000000000000000000e+00,5.000000000000000000e+00,5.000000000000000000e+00,5.000000000000000000e+00,5.000000000000000000e+00,5.000000000000000000e+00,5.000000000000000000e+00,5.000000000000000000e+00,5.000000000000000000e+00,5.000000000000000000e+00,1.535253405570983887e+00,1.499206781387329102e+00,1.477626800537109375e+00,1.462546229362487793e+00,1.463417053222656250e+00,5.000000000000000000e+00,5.000000000000000000e+00,5.000000000000000000e+00,1.430579781532287598e+00,1.378922581672668457e+00,1.353750824928283691e+00,1.341436862945556641e+00,1.332328438758850098e+00,1.323342919349670410e+00,4.022476196289062500e+00,3.912626504898071289e+00,3.808616876602172852e+00,3.709993600845336914e+00
3.101673841476440430e+00,3.180432319641113281e+00,3.263294696807861328e+00,3.350590229034423828e+00,3.442684650421142578e+00,3.539984703063964844e+00,3.642944335937500000e+00,3.752072811126708984e+00,3.867941617965698242e+00,3.991194486618041992e+00,4.122560977935791016e+00,4.262869358062744141e+00,4.413069725036621094e+00,4.574282646179199219e+00,4.747720718383789062e+00,4.934829235076904297e+00,5.000000000000000000e+00,5.000000000000000000e+00,5.000000000000000000e+00,5.000000000000000000e+00,5.000000000000000000e+00,5.000000000000000000e+00,5.000000000000000000e+00,5.000000000000000000e+00,5.000000000000000000e+00,5.000000000000000000e+00,5.000000000000000000e+00,5.000000000000000000e+00,5.000000000000000000e+00,5.000000000000000000e+00,5.000000000000000000e+00,5.000000000000000000e+00,5.000000000000000000e+00,5.000000000000000000e+00,5.000000000000000000e+00,5.000000000000000000e+00,5.000000000000000000e+00,5.000000000000000000e+00,5.000000000000000000e+00,5.000000000000000000e+00,5.000000000000000000e+00,5.000000000000000000e+00,5.000000000000000000e+00,5.000000000000000000e+00,5.000000000000000000e+00,5.000000000000000000e+00,5.000000000000000000e+00,5.000000000000000000e+00,5.000000000000000000e+00,5.000000000000000000e+00,5.000000000000000000e+00,5.000000000000000000e+00,5.000000000000000000e+00,5.000000000000000000e+00,5.000000000000000000e+00,5.000000000000000000e+00,5.000000000000000000e+00,5.000000000000000000e+00,5.000000000000000000e+00,5.000000000000000000e+00,5.000000000000000000e+00,5.000000000000000000e+00,1.537898540496826172e+00,1.508963465690612793e+00,1.490782618522644043e+00,1.478213310241699219e+00,1.504221439361572266e+00,5.000000000000000000e+00,5.000000000000000000e+00,5.000000000000000000e+00,1.424152016639709473e+00,1.382768154144287109e+00,1.358296275138854980e+00,1.349371194839477539e+00,1.340288519859313965e+00,1.331195592880249023e+00,4.022574424743652344e+00,3.912719249725341797e+00,3.808705091476440430e+00,3.710077285766601562e+00
3.101607561111450195e+00,3.180362701416015625e+00,3.263221025466918945e+00,3.350512504577636719e+00,3.442602634429931641e+00,3.539898157119750977e+00,3.642853021621704102e+00,3.751976013183593750e+00,3.867838621139526367e+00,3.991084814071655273e+00,4.122443675994873047e+00,4.262743949890136719e+00,4.412930488586425781e+00,4.574086189270019531e+00,4.747458457946777344e+00,4.934536933898925781e+00,5.000000000000000000e+00,5.000000000000000000e+00,5.000000000000000000e+00,5.000000000000000000e+00,5.000000000000000000e+00,5.000000000000000000e+00,5.000000000000000000e+00,5.000000000000000000e+00,5.000000000000000000e+00,5.000000000000000000e+00,5.000000000000000000e+00,5.000000000000000000e+00,5.000000000000000000e+00,5.000000000000000000e+00,5.000000000000000000e+00,5.000000000000000000e+00,5.000000000000000000e+00,5.000000000000000000e+00,5.000000000000000000e+00,5.000000000000000000e+00,5.000000000000000000e+00,5.000000000000000000e+00,5.000000000000000000e+00,5.000000000000000000e+00,5.000000000000000000e+00,5.000000000000000000e+00,5.000000000000000000e+00,5.000000000000000000e+00,5.000000000000000000e+00,5.000000000000000000e+00,5.000000000000000000e+00,5.000000000000000000e+00,5.000000000000000000e+00,5.000000000000000000e+00,5.000000000000000000e+00,5.000000000000000000e+00,5.000000000000000000e+00,5.000000000000000000e+00,5.000000000000000000e+00,5.000000000000000000e+00,5.000000000000000000e+00,5.000000000000000000e+00,5.000000000000000000e+00,5.000000000000000000e+00,5.000000000000000000e+00,5.000000000000000000e+00,1.547545313835144043e+00,1.518328905105590820e+00,1.500537276268005371e+00,1.488030076026916504e+00,1.514340043067932129e+00,5.000000000000000000e+00,5.000000000000000000e+00,5.000000000000000000e+00,1.417831540107727051e+00,1.387163758277893066e+00,1.365412831306457520e+00,1.357207179069519043e+00,1.348344326019287109e+00,1.351958394050598145e+00,4.022672653198242188e+00,3.912812232971191406e+00,3.808792829513549805e+00,3.710160970687866211e+00
3.101541280746459961e+00,3.180292606353759766e+00,3.263147592544555664e+00,3.350435256958007812e+00,3.442521095275878906e+00,3.539811372756958008e+00,3.642761230468750000e+00,3.751878738403320312e+00,3.867735147476196289e+00,3.990974903106689453e+00,4.122326374053955078e+00,4.262618541717529297e+00,4.412796020507812500e+00,4.573941707611083984e+00,4.747303009033203125e+00,4.934323787689208984e+00,5.000000000000000000e+00,5.000000000000000000e+00,5.000000000000000000e+00,5.000000000000000000e+00,5.000000000000000000e+00,5.000000000000000000e+00,5.000000000000000000e+00,5.000000000000000000e+00,5.000000000000000000e+00,5.000000000000000000e+00,5.000000000000000000e+00,5.000000000000000000e+00,5.000000000000000000e+00,5.000000000000000000e+00,5.000000000000000000e+00,5.000000000000000000e+00,5.000000000000000000e+00,5.000000000000000000e+00,5.000000000000000000e+00,5.000000000000000000e+00,5.000000000000000000e+00,5.000000000000000000e+00,5.000000000000000000e+00,5.000000000000000000e+00,5.000000000000000000e+00,5.000000000000000000e+00,5.000000000000000000e+00,5.000000000000000000e+00,5.000000000000000000e+00,5.000000000000000000e+00,5.000000000000000000e+00,5.000000000000000000e+00,5.000000000000000000e+00,5.000000000000000000e+00,5.000000000000000000e+00,5.000000000000000000e+00,5.000000000000000000e+00,5.000000000000000000e+00,5.000000000000000000e+00,5.000000000000000000e+00,5.000000000000000000e+00,5.000000000000000000e+00,5.000000000000000000e+00,5.000000000000000000e+00,5.000000000000000000e+00,5.000000000000000000e+00,1.557047009468078613e+00,1.527651429176330566e+00,1.507528662681579590e+00,1.494905352592468262e+00,1.523346424102783203e+00,5.000000000000000000e+00,5.000000000000000000e+00,5.000000000000000000e+00,1.417374372482299805e+00,1.391936779022216797e+00,1.373436808586120605e+00,1.365134716033935547e+00,1.356497526168823242e+00,4.138984680175781250e+00,4.022770881652832031e+00,3.912905454635620117e+00,3.808881044387817383e+00,3.710244178771972656e+00
3.101475000381469727e+00,3.180222749710083008e+00,3.263074159622192383e+00,3.350357532501220703e+00,3.442439079284667969e+00,3.539725065231323242e+00,3.642669916152954102e+00,3.751781702041625977e+00,3.867632150650024414e+00,3.990864753723144531e+00,4.122209072113037109e+00,4.262493133544921875e+00,4.412662029266357422e+00,4.573797225952148438e+00,4.747147560119628906e+00,4.934155941009521484e+00,5.000000000000000000e+00,5.000000000000000000e+00,5.000000000000000000e+00,5.000000000000000000e+00,5.000000000000000000e+00,5.000000000000000000e+00,5.000000000000000000e+00,5.000000000000000000e+00,5.000000000000000000e+00,5.000000000000000000e+00,5.000000000000000000e+00,5.000000000000000000e+00,5.000000000000000000e+00,5.000000000000000000e+00,5.000000000000000000e+00,5.000000000000000000e+00,5.000000000000000000e+00,5.000000000000000000e+00,5.000000000000000000e+00,5.000000000000000000e+00,5.000000000000000000e+00,5.000000000000000000e+00,5.000000000000000000e+00,5.000000000000000000e+00,5.000000000000000000e+00,5.000000000000000000e+00,5.000000000000000000e+00,5.000000000000000000e+00,5.000000000000000000e+00,5.000000000000000000e+00,5.000000000000000000e+00,5.000000000000000000e+00,5.000000000000000000e+00,5.000000000000000000e+00,5.000000000000000000e+00,5.000000000000000000e+00,5.000000000000000000e+00,5.000000000000000000e+00,5.000000000000000000e+00,5.000000000000000000e+00,5.000000000000000000e+00,5.000000000000000000e+00,5.000000000000000000e+00,5.000000000000000000e+00,5.000000000000000000e+00,5.000000000000000000e+00,1.566666245460510254e+00,1.537139773368835449e+00,1.514810800552368164e+00,1.504377484321594238e+00,1.532371401786804199e+00,5.000000000000000000e+00,5.000000000000000000e+00,5.000000000000000000e+00,1.423424124717712402e+00,1.396967887878417969e+00,1.381555676460266113e+00,1.373155474662780762e+00,1.364749908447265625e+00,4.139088630676269531e+00,4.022869110107421875e+00,3.912997961044311523e+00,3.808969259262084961e+00,3.710327863693237305e+00
3.101408481597900391e+00,3.180153131484985352e+00,3.263000726699829102e+00,3.350280284881591797e+00,3.442357540130615234e+00,3.539638519287109375e+00,3.642578125000000000e+00,3.751684427261352539e+00,3.867528676986694336e+00,3.990755081176757812e+00,4.122091770172119141e+00,4.262367725372314453e+00,4.412527561187744141e+00,4.573653221130371094e+00,4.746992111206054688e+00,4.933987617492675781e+00,5.000000000000000000e+00,5.000000000000000000e+00,5.000000000000000000e+00,5.000000000000000000e+00,5.000000000000000000e+00,5.000000000000000000e+00,5.000000000000000000e+00,5.000000000000000000e+00,5.000000000000000000e+00,5.000000000000000000e+00,5.000000000000000000e+00,5.000000000000000000e+00,5.000000000000000000e+00,5.000000000000000000e+00,5.000000000000000000e+00,5.000000000000000000e+00,5.000000000000000000e+00,5.000000000000000000e+00,5.000000000000000000e+00,5.000000000000000000e+00,5.000000000000000000e+00,5.000000000000000000e+00,5.000000000000000000e+00,5.000000000000000000e+00,5.000000000000000000e+00,5.000000000000000000e+00,5.000000000000000000e+00,5.000000000000000000e+00,5.000000000000000000e+00,5.000000000000000000e+00,5.000000000000000000e+00,5.000000000000000000e+00,5.000000000000000000e+00,5.000000000000000000e+00,5.000000000000000000e+00,5.000000000000000000e+00,5.000000000000000000e+00,5.000000000000000000e+00,5.000000000000000000e+00,5.000000000000000000e+00,5.000000000000000000e+00,5.000000000000000000e+00,5.000000000000000000e+00,5.000000000000000000e+00,5.000000000000000000e+00,5.000000000000000000e+00,1.576404929161071777e+00,1.546746730804443359e+00,1.523316740989685059e+00,1.514498353004455566e+00,1.541504025459289551e+00,5.000000000000000000e+00,5.000000000000000000e+00,5.000000000000000000e+00,1.430433869361877441e+00,1.403678536415100098e+00,1.390307545661926270e+00,1.381611704826354980e+00,1.373024106025695801e+00,4.139192581176757812e+00,4.022967338562011719e+00,3.913091182708740234e+00,3.809056997299194336e+00,3.710411548614501953e+00
3.101342201232910156e+00,3.180083274841308594e+00,3.262927055358886719e+00,3.350202798843383789e+00,3.442275524139404297e+00,3.539552211761474609e+00,3.642486810684204102e+00,3.751587629318237305e+00,3.867425918579101562e+00,3.990644931793212891e+00,4.121974468231201172e+00,4.262242794036865234e+00,4.412393093109130859e+00,4.573508739471435547e+00,4.746836662292480469e+00,4.933819770812988281e+00,5.000000000000000000e+00,5.000000000000000000e+00,5.000000000000000000e+00,5.000000000000000000e+00,5.000000000000000000e+00,5.000000000000000000e+00,5.000000000000000000e+00,5.000000000000000000e+00,5.000000000000000000e+00,5.000000000000000000e+00,5.000000000000000000e+00,5.000000000000000000e+00,5.000000000000000000e+00,5.000000000000000000e+00,5.000000000000000000e+00,5.000000000000000000e+00,5.000000000000000000e+00,5.000000000000000000e+00,5.000000000000000000e+00,5.000000000000000000e+00,5.000000000000000000e+00,5.000000000000000000e+00,5.000000000000000000e+00,5.000000000000000000e+00,5.000000000000000000e+00,5.000000000000000000e+00,5.000000000000000000e+00,5.000000000000000000e+00,5.000000000000000000e+00,5.000000000000000000e+00,5.000000000000000000e+00,5.000000000000000000e+00,5.000000000000000000e+00,5.000000000000000000e+00,5.000000000000000000e+00,5.000000000000000000e+00,5.000000000000000000e+00,5.000000000000000000e+00,5.000000000000000000e+00,5.000000000000000000e+00,5.000000000000000000e+00,5.000000000000000000e+00,5.000000000000000000e+00,5.000000000000000000e+00,5.000000000000000000e+00,5.000000000000000000e+00,1.586402535438537598e+00,1.556474328041076660e+00,1.531918764114379883e+00,1.524146080017089844e+00,5.000000000000000000e+00,5.000000000000000000e+00,5.000000000000000000e+00,1.502405166625976562e+00,1.437512993812561035e+00,1.410283207893371582e+00,1.399335384368896484e+00,1.390526533126831055e+00,4.262443542480468750e+00,4.139296531677246094e+00,4.023065567016601562e+00,3.913184165954589844e+00,3.809145212173461914e+00,3.710494995117187500e+00
3.101275682449340820e+00,3.180013656616210938e+00,3.262853860855102539e+00,3.350125551223754883e+00,3.442193746566772461e+00,3.539465665817260742e+00,3.642395019531250000e+00,3.751490354537963867e+00,3.867322444915771484e+00,3.990535259246826172e+00,4.121857643127441406e+00,4.262117385864257812e+00,4.412258625030517578e+00,4.573364257812500000e+00,4.746681213378906250e+00,4.933651924133300781e+00,5.000000000000000000e+00,5.000000000000000000e+00,5.000000000000000000e+00,5.000000000000000000e+00,5.000000000000000000e+00,5.000000000000000000e+00,5.000000000000000000e+00,5.000000000000000000e+00,5.000000000000000000e+00,5.000000000000000000e+00,5.000000000000000000e+00,5.000000000000000000e+00,5.000000000000000000e+00,5.000000000000000000e+00,5.000000000000000000e+00,5.000000000000000000e+00,5.000000000000000000e+00,5.000000000000000000e+00,5.000000000000000000e+00,5.000000000000000000e+00,5.000000000000000000e+00,5.000000000000000000e+00,5.000000000000000000e+00,5.000000000000000000e+00,5.000000000000000000e+00,5.000000000000000000e+00,5.000000000000000000e+00,5.000000000000000000e+00,5.000000000000000000e+00,5.000000000000000000e+00,5.000000000000000000e+00,5.000000000000000000e+00,5.000000000000000000e+00,5.000000000000000000e+00,5.000000000000000000e+00,5.000000000000000000e+00,5.000000000000000000e+00,5.000000000000000000e+00,5.000000000000000000e+00,5.000000000000000000e+00,5.000000000000000000e+00,5.000000000000000000e+00,5.000000000000000000e+00,5.000000000000000000e+00,5.000000000000000000e+00,5.000000000000000000e+00,1.597679495811462402e+00,1.567278027534484863e+00,1.544356703758239746e+00,1.534692883491516113e+00,5.000000000000000000e+00,5.000000000000000000e+00,5.000000000000000000e+00,1.490979433059692383e+00,1.444592475891113281e+00,1.419205427169799805e+00,1.408481121063232422e+00,1.416117072105407715e+00,4.262554168701171875e+00,4.139400482177734375e+00,4.023163795471191406e+00,3.913276910781860352e+00,3.809233427047729492e+00,3.710578680038452148e+00
3.101209163665771484e+00,3.179943799972534180e+00,3.262780189514160156e+00,3.350047826766967773e+00,3.442112207412719727e+00,3.539379358291625977e+00,3.642303705215454102e+00,3.751393318176269531e+00,3.867218971252441406e+00,3.990425109863281250e+00,4.121740341186523438e+00,4.261991977691650391e+00,4.412124156951904297e+00,4.573220252990722656e+00,4.746525764465332031e+00,4.854934692382812500e+00,4.853728771209716797e+00,4.852523803710937500e+00,4.851319313049316406e+00,4.850115299224853516e+00,4.848911762237548828e+00,4.847709178924560547e+00,4.846506595611572266e+00,4.845304965972900391e+00,4.844104290008544922e+00,4.842903614044189453e+00,4.841703891754150391e+00,4.840504646301269531e+00,4.839305877685546875e+00,4.838107585906982422e+00,4.836910247802734375e+00,4.835713386535644531e+00,4.834517002105712891e+00,4.833321571350097656e+00,4.832126140594482422e+00,4.830931663513183594e+00,4.829737663269042969e+00,4.828544616699218750e+00,4.827351570129394531e+00,4.826159477233886719e+00,4.824967861175537109e+00,4.823777198791503906e+00,4.822586536407470703e+00,4.821396827697753906e+00,4.820207595825195312e+00,4.819019317626953125e+00,4.817831039428710938e+00,4.816643714904785156e+00,4.815456867218017578e+00,4.814270496368408203e+00,4.813084602355957031e+00,4.811899662017822266e+00,4.810715198516845703e+00,4.809531211853027344e+00,4.808347702026367188e+00,4.807165145874023438e+00,4.805982589721679688e+00,4.804800987243652344e+00,4.803619861602783203e+00,4.802439689636230469e+00,4.801259517669677734e+00,4.800080299377441406e+00,1.609239578247070312e+00,1.578433752059936523e+00,1.555853724479675293e+00,1.545744419097900391e+00,4.794192790985107422e+00,4.793016910552978516e+00,4.791841506958007812e+00,1.482779145240783691e+00,1.451588749885559082e+00,1.428613662719726562e+00,1.417747259140014648e+00,4.393376827239990234e+00,4.262664318084716797e+00,4.139504432678222656e+00,4.023262023925781250e+00,3.913369894027709961e+00,3.809321165084838867e+00,3.710662364959716797e+00
3.101143121719360352e+00,3.179874181747436523e+00,3.262706995010375977e+00,3.349970579147338867e+00,3.442030191421508789e+00,3.539292812347412109e+00,3.642212152481079102e+00,3.751296043395996094e+00,3.771165132522583008e+00,3.770437479019165039e+00,3.769710063934326172e+00,3.768983125686645508e+00,3.768256425857543945e+00,3.767529964447021484e+00,3.766803741455078125e+00,3.766077756881713867e+00,3.765352249145507812e+00,3.764626741409301758e+00,3.763901710510253906e+00,3.763176918029785156e+00,3.762452363967895508e+00,3.761728286743164062e+00,3.761004209518432617e+00,3.760280609130859375e+00,3.759557247161865234e+00,3.758834123611450195e+00,3.758111238479614258e+00,3.757388830184936523e+00,3.756666421890258789e+00,3.755944490432739258e+00,3.755222558975219727e+00,3.754501342773437500e+00,3.753780126571655273e+00,3.753059148788452148e+00,3.752338647842407227e+00,3.751618146896362305e+00,3.750898122787475586e+00,3.750178337097167969e+00,3.749458789825439453e+00,3.748739480972290039e+00,3.748020648956298828e+00,3.747301816940307617e+00,3.746583461761474609e+00,3.745865345001220703e+00,3.745147466659545898e+00,3.744429826736450195e+00,3.743712663650512695e+00,3.742995500564575195e+00,3.742278814315795898e+00,3.741562366485595703e+00,3.740846157073974609e+00,3.740130186080932617e+00,3.739414453506469727e+00,3.738699197769165039e+00,3.737984180450439453e+00,3.737269163131713867e+00,3.736554622650146484e+00,3.735840320587158203e+00,3.735126256942749023e+00,3.734412431716918945e+00,3.733699083328247070e+00,3.732985734939575195e+00,1.621073365211486816e+00,1.589951276779174805e+00,1.565471529960632324e+00,1.556956291198730469e+00,3.729423999786376953e+00,3.728712320327758789e+00,3.728000879287719727e+00,1.506845593452453613e+00,1.458653330802917480e+00,1.438147425651550293e+00,1.436196804046630859e+00,3.724448442459106445e+00,3.723738908767700195e+00,3.723029375076293945e+00,3.722320318222045898e+00,3.721611499786376953e+00,3.720902681350708008e+00,3.710745573043823242e+00
3.083441495895385742e+00,3.082955121994018555e+00,3.082468748092651367e+00,3.081982851028442383e+00,3.081496953964233398e+00,3.081011295318603516e+00,3.080525636672973633e+00,3.080040216445922852e+00,3.079554796218872070e+00,3.079069614410400391e+00,3.078584671020507812e+00,3.078099727630615234e+00,3.077615022659301758e+00,3.077130317687988281e+00,3.076645851135253906e+00,3.076161623001098633e+00,3.075677394866943359e+00,3.075193405151367188e+00,3.074709653854370117e+00,3.074225902557373047e+00,3.073742389678955078e+00,3.073259115219116211e+00,3.072775840759277344e+00,3.072292804718017578e+00,3.071809768676757812e+00,3.071326971054077148e+00,3.070844411849975586e+00,3.070361852645874023e+00,3.069879531860351562e+00,3.069397449493408203e+00,3.068915367126464844e+00,3.068433523178100586e+00,3.067951917648315430e+00,3.067470312118530273e+00,3.066988706588745117e+00,3.066507339477539062e+00,3.066026210784912109e+00,3.065545320510864258e+00,3.065064668655395508e+00,3.064584016799926758e+00,3.064103364944458008e+00,3.063623189926147461e+00,3.063142776489257812e+00,3.062662839889526367e+00,3.062182903289794922e+00,3.061703205108642578e+00,3.061223506927490234e+00,3.060744047164916992e+00,3.060264825820922852e+00,3.059785604476928711e+00,3.059306621551513672e+00,3.058827877044677734e+00,3.058349132537841797e+00,3.057870626449584961e+00,3.057392120361328125e+00,3.056913852691650391e+00,3.056435823440551758e+00,3.055957794189453125e+00,3.055480003356933594e+00,3.055002450942993164e+00,3.054524898529052734e+00,3.054047584533691406e+00,1.640896797180175781e+00,1.601638078689575195e+00,1.575208902359008789e+00,1.568331956863403320e+00,3.051662921905517578e+00,3.051186561584472656e+00,3.050710201263427734e+00,1.498171091079711914e+00,1.473531961441040039e+00,1.456399917602539062e+00,3.048806428909301758e+00,3.048330783843994141e+00,3.047855377197265625e+00,3.047380208969116211e+00,3.046905040740966797e+00,3.046430110931396484e+00,3.045955181121826172e+00,3.045480489730834961e+00
2.605081081390380859e+00,2.604733943939208984e+00,2.604386806488037109e+00,2.604039669036865234e+00,2.603692770004272461e+00,2.603345870971679688e+00,2.602999448776245117e+00,2.602652788162231445e+00,2.602306365966796875e+00,2.601959943771362305e+00,2.601613521575927734e+00,2.601267099380493164e+00,2.600920915603637695e+00,2.600574970245361328e+00,2.600228786468505859e+00,2.599882841110229492e+00,2.599537134170532227e+00,2.599191427230834961e+00,2.598845720291137695e+00,2.598500013351440430e+00,2.598154544830322266e+00,2.597809314727783203e+00,2.597463846206665039e+00,2.597118854522705078e+00,2.596773624420166016e+00,2.596428632736206055e+00,2.596083641052246094e+00,2.595738887786865234e+00,2.595394134521484375e+00,2.595049619674682617e+00,2.594704866409301758e+00,2.594360589981079102e+00,2.594016075134277344e+00,2.593671798706054688e+00,2.593327760696411133e+00,2.592983484268188477e+00,2.592639684677124023e+00,2.592295646667480469e+00,2.591951847076416016e+00,2.591608047485351562e+00,2.591264486312866211e+00,2.590920925140380859e+00,2.590577602386474609e+00,2.590234041213989258e+00,2.589890956878662109e+00,2.589547634124755859e+00,2.589204549789428711e+00,2.588861465454101562e+00,2.588518619537353516e+00,2.588175773620605469e+00,2.587833166122436523e+00,2.587490558624267578e+00,2.587147951126098633e+00,2.586805582046508789e+00,2.586463212966918945e+00,2.586120843887329102e+00,2.585778713226318359e+00,2.585436582565307617e+00,2.585094690322875977e+00,2.584752798080444336e+00,2.584410905838012695e+00,2.584069252014160156e+00,2.583727598190307617e+00,1.622374057769775391e+00,1.600650310516357422e+00,2.582703113555908203e+00,2.582361936569213867e+00,2.582020759582519531e+00,1.547059178352355957e+00,1.500621438026428223e+00,1.470955252647399902e+00,1.453705072402954102e+00,2.580316066741943359e+00,2.579975366592407227e+00,2.579634904861450195e+00,2.579294443130493164e+00,2.578953981399536133e+00,2.578613758087158203e+00,2.578273534774780273e+00,2.577933311462402344e+00
2.255210876464843750e+00,2.254950761795043945e+00,2.254690647125244141e+00,2.254430770874023438e+00,2.254170656204223633e+00,2.253910541534423828e+00,2.253650665283203125e+00,2.253390789031982422e+00,2.253131151199340820e+00,2.252871513366699219e+00,2.252611875534057617e+00,2.252352237701416016e+00,2.252092838287353516e+00,2.251833200454711914e+00,2.251573801040649414e+00,2.251314401626586914e+00,2.251055240631103516e+00,2.250795841217041016e+00,2.250536680221557617e+00,2.250277519226074219e+00,2.250018358230590820e+00,2.249759435653686523e+00,2.249500513076782227e+00,2.249241590499877930e+00,2.248982667922973633e+00,2.248723983764648438e+00,2.248465299606323242e+00,2.248206615447998047e+00,2.247947931289672852e+00,2.247689485549926758e+00,2.247430801391601562e+00,2.247172355651855469e+00,2.246914148330688477e+00,2.246655702590942383e+00,2.246397495269775391e+00,2.246139287948608398e+00,2.245881319046020508e+00,2.245623111724853516e+00,2.245365142822265625e+00,2.245107173919677734e+00,2.244849205017089844e+00,2.244591474533081055e+00,2.244333505630493164e+00,2.244076013565063477e+00,2.243818283081054688e+00,2.243560552597045898e+00,2.243303060531616211e+00,2.243045568466186523e+00,2.242788076400756836e+00,2.242530822753906250e+00,2.242273569107055664e+00,2.242016315460205078e+00,2.241759061813354492e+00,2.241502046585083008e+00,2.241244792938232422e+00,2.240987777709960938e+00,2.240731000900268555e+00,2.240473985671997070e+00,2.240217208862304688e+00,2.239960432052612305e+00,2.239703655242919922e+00,2.239447116851806641e+00,2.239190340042114258e+00,1.627833485603332520e+00,1.602051734924316406e+00,1.589954376220703125e+00,2.238164663314819336e+00,2.237908363342285156e+00,2.237652063369750977e+00,1.508403182029724121e+00,1.464727163314819336e+00,1.438883304595947266e+00,1.432700037956237793e+00,2.236371755599975586e+00,2.236115932464599609e+00,2.235860109329223633e+00,2.235604286193847656e+00,2.235348463058471680e+00,2.235092878341674805e+00,2.234837293624877930e+00
1.988191127777099609e+00,1.987988948822021484e+00,1.987786650657653809e+00,1.987584590911865234e+00,1.987382411956787109e+00,1.987180471420288086e+00,1.986978530883789062e+00,1.986776351928710938e+00,1.986574530601501465e+00,1.986372470855712891e+00,1.986170768737792969e+00,1.985969066619873047e+00,1.985767126083374023e+00,1.985565423965454102e+00,1.985363602638244629e+00,1.985162138938903809e+00,1.984960556030273438e+00,1.984759092330932617e+00,1.984557390213012695e+00,1.984356045722961426e+00,1.984154462814331055e+00,1.983953118324279785e+00,1.983751654624938965e+00,1.983550310134887695e+00,1.983348965644836426e+00,1.983147740364074707e+00,1.982946395874023438e+00,1.982745409011840820e+00,1.982544183731079102e+00,1.982343196868896484e+00,1.982141971588134766e+00,1.981941103935241699e+00,1.981739997863769531e+00,1.981539130210876465e+00,1.981338143348693848e+00,1.981137394905090332e+00,1.980936408042907715e+00,1.980735778808593750e+00,1.980534911155700684e+00,1.980334281921386719e+00,1.980133533477783203e+00,1.979933023452758789e+00,1.979732394218444824e+00,1.979532003402709961e+00,1.979331374168395996e+00,1.979130983352661133e+00,1.978930473327636719e+00,1.978730201721191406e+00,1.978529810905456543e+00,1.978329539299011230e+00,1.978129267692565918e+00,1.977929115295410156e+00,1.977728843688964844e+00,1.977528810501098633e+00,1.977328538894653320e+00,1.977128624916076660e+00,1.976928591728210449e+00,1.976728677749633789e+00,1.976528644561767578e+00,1.976328849792480469e+00,1.976128935813903809e+00,1.975929260253906250e+00,1.975729346275329590e+00,1.622449278831481934e+00,1.585666894912719727e+00,1.566246390342712402e+00,1.562357187271118164e+00,1.974731206893920898e+00,1.974531531333923340e+00,1.974332213401794434e+00,1.974132657051086426e+00,1.427823543548583984e+00,1.410780906677246094e+00,1.417924880981445312e+00,1.973335266113281250e+00,1.973136186599731445e+00,1.972936868667602539e+00,1.972737789154052734e+00,1.972538590431213379e+00,1.972339630126953125e+00
1.777708292007446289e+00,1.777546525001525879e+00,1.777384877204895020e+00,1.777223348617553711e+00,1.777061700820922852e+00,1.776900172233581543e+00,1.776738524436950684e+00,1.776577115058898926e+00,1.776415586471557617e+00,1.776254177093505859e+00,1.776092886924743652e+00,1.775931358337402344e+00,1.775770068168640137e+00,1.775608658790588379e+00,1.775447368621826172e+00,1.775286197662353516e+00,1.775124907493591309e+00,1.774963736534118652e+00,1.774802446365356445e+00,1.774641394615173340e+00,1.774480342864990234e+00,1.774319291114807129e+00,1.774158120155334473e+00,1.773997187614440918e+00,1.773836016654968262e+00,1.773675084114074707e+00,1.773514032363891602e+00,1.773353219032287598e+00,1.773192286491394043e+00,1.773031473159790039e+00,1.772870540618896484e+00,1.772709727287292480e+00,1.772548913955688477e+00,1.772388219833374023e+00,1.772227406501770020e+00,1.772066831588745117e+00,1.771906018257141113e+00,1.771745443344116211e+00,1.771584749221801758e+00,1.771424293518066406e+00,1.771263599395751953e+00,1.771103143692016602e+00,1.770942568778991699e+00,1.770782232284545898e+00,1.770621657371520996e+00,1.770461320877075195e+00,1.770300865173339844e+00,1.770140647888183594e+00,1.769980192184448242e+00,1.769819974899291992e+00,1.769659638404846191e+00,1.769499540328979492e+00,1.769339203834533691e+00,1.769179105758666992e+00,1.769018888473510742e+00,1.768858790397644043e+00,1.768698692321777344e+00,1.768538713455200195e+00,1.768378496170043945e+00,1.768218636512756348e+00,1.768058538436889648e+00,1.767898678779602051e+00,1.767738699913024902e+00,1.621853351593017578e+00,1.565427303314208984e+00,1.546482682228088379e+00,1.533540844917297363e+00,1.525076270103454590e+00,1.766779780387878418e+00,1.766620159149169922e+00,1.766460418701171875e+00,1.419612765312194824e+00,1.395522713661193848e+00,1.392344951629638672e+00,1.397630333900451660e+00,1.765662550926208496e+00,1.765502929687500000e+00,1.765343546867370605e+00,1.765184044837951660e+00,1.765024662017822266e+00
1.607525229454040527e+00,1.607392907142639160e+00,1.607260704040527344e+00,1.607128500938415527e+00,1.606996417045593262e+00,1.606864213943481445e+00,1.606732130050659180e+00,1.606600165367126465e+00,1.606468081474304199e+00,1.606335997581481934e+00,1.606203913688659668e+00,1.606072068214416504e+00,1.605940103530883789e+00,1.605808019638061523e+00,1.605676174163818359e+00,1.605544209480285645e+00,1.605412364006042480e+00,1.605280637741088867e+00,1.605148673057556152e+00,1.605016946792602539e+00,1.604884982109069824e+00,1.604753375053405762e+00,1.604621529579162598e+00,1.604489922523498535e+00,1.604358196258544922e+00,1.604226589202880859e+00,1.604094743728637695e+00,1.603963255882263184e+00,1.603831529617309570e+00,1.603699922561645508e+00,1.603568315505981445e+00,1.603436827659606934e+00,1.603305220603942871e+00,1.603173732757568359e+00,1.603042125701904297e+00,1.602910757064819336e+00,1.602779150009155273e+00,1.602647781372070312e+00,1.602516293525695801e+00,1.602385044097900391e+00,1.602253556251525879e+00,1.602122306823730469e+00,1.601990818977355957e+00,1.601859688758850098e+00,1.601728320121765137e+00,1.601597070693969727e+00,1.601465702056884766e+00,1.601334571838378906e+00,1.601203322410583496e+00,1.601072192192077637e+00,1.600940942764282227e+00,1.600809931755065918e+00,1.600678682327270508e+00,1.600547671318054199e+00,1.600416541099548340e+00,1.600285649299621582e+00,1.600154519081115723e+00,1.600023508071899414e+00,1.599892377853393555e+00,1.599761605262756348e+00,1.599630475044250488e+00,1.599499702453613281e+00,1.599368691444396973e+00,1.599237918853759766e+00,1.545119404792785645e+00,1.517767667770385742e+00,1.502436161041259766e+00,1.489315748214721680e+00,1.484925150871276855e+00,1.598453044891357422e+00,1.598322272300720215e+00,1.598191618919372559e+00,1.391858339309692383e+00,1.359747529029846191e+00,1.344458103179931641e+00,1.366485238075256348e+00,1.597538352012634277e+00,1.597407817840576172e+00,1.597277164459228516e+00,1.597146749496459961e+00
1.467079043388366699e+00,1.466968894004821777e+00,1.466858744621276855e+00,1.466748714447021484e+00,1.466638684272766113e+00,1.466528654098510742e+00,1.466418623924255371e+00,1.466308474540710449e+00,1.466198563575744629e+00,1.466088652610778809e+00,1.465978622436523438e+00,1.465868711471557617e+00,1.465758681297302246e+00,1.465648770332336426e+00,1.465538978576660156e+00,1.465429067611694336e+00,1.465319156646728516e+00,1.465209245681762695e+00,1.465099453926086426e+00,1.464989542961120605e+00,1.464879870414733887e+00,1.464770078659057617e+00,1.464660286903381348e+00,1.464550495147705078e+00,1.464440703392028809e+00,1.464331030845642090e+00,1.464221477508544922e+00,1.464111804962158203e+00,1.464002132415771484e+00,1.463892459869384766e+00,1.463782787322998047e+00,1.463673114776611328e+00,1.463563561439514160e+00,1.463453888893127441e+00,1.463344454765319824e+00,1.463234782218933105e+00,1.463125348091125488e+00,1.463015675544738770e+00,1.462906241416931152e+00,1.462796688079833984e+00,1.462687253952026367e+00,1.462577700614929199e+00,1.462468385696411133e+00,1.462358832359313965e+00,1.462249517440795898e+00,1.462139964103698730e+00,1.462030649185180664e+00,1.461921215057373047e+00,1.461812019348144531e+00,1.461702585220336914e+00,1.461593270301818848e+00,1.461483955383300781e+00,1.461374759674072266e+00,1.461265444755554199e+00,1.461156249046325684e+00,1.461046934127807617e+00,1.460937738418579102e+00,1.460828423500061035e+00,1.460719347000122070e+00,1.460610151290893555e+00,1.460501074790954590e+00,1.460391759872436523e+00,1.460282802581787109e+00,1.460173606872558594e+00,1.460064530372619629e+00,1.459955453872680664e+00,1.459846377372741699e+00,1.459737300872802734e+00,1.459628343582153320e+00,1.459519267082214355e+00,1.459410309791564941e+00,1.459301352500915527e+00,1.459192395210266113e+00,1.459083437919616699e+00,1.458974480628967285e+00,1.458865523338317871e+00,1.458756685256958008e+00,1.458647727966308594e+00,1.458539009094238281e+00,1.458430051803588867e+00
1.349202036857604980e+00,1.349108934402465820e+00,1.349015831947326660e+00,1.348922729492187500e+00,1.348829627037048340e+00,1.348736524581909180e+00,1.348643541336059570e+00,1.348550438880920410e+00,1.348457455635070801e+00,1.348364353179931641e+00,1.348271369934082031e+00,1.348178386688232422e+00,1.348085284233093262e+00,1.347992420196533203e+00,1.347899317741394043e+00,1.347806453704833984e+00,1.347713470458984375e+00,1.347620606422424316e+00,1.347527742385864258e+00,1.347434759140014648e+00,1.347341895103454590e+00,1.347249031066894531e+00,1.347156167030334473e+00,1.347063422203063965e+00,1.346970438957214355e+00,1.346877694129943848e+00,1.346784830093383789e+00,1.346692085266113281e+00,1.346599340438842773e+00,1.346506476402282715e+00,1.346413731575012207e+00,1.346321105957031250e+00,1.346228361129760742e+00,1.346135616302490234e+00,1.346042990684509277e+00,1.345950126647949219e+00,1.345857501029968262e+00,1.345764756202697754e+00,1.345672249794006348e+00,1.345579504966735840e+00,1.345486879348754883e+00,1.345394253730773926e+00,1.345301628112792969e+00,1.345209002494812012e+00,1.345116496086120605e+00,1.345023870468139648e+00,1.344931364059448242e+00,1.344838738441467285e+00,1.344746232032775879e+00,1.344653606414794922e+00,1.344561219215393066e+00,1.344468593597412109e+00,1.344376206398010254e+00,1.344283699989318848e+00,1.344191193580627441e+00,1.344098687171936035e+00,1.344006299972534180e+00,1.343913912773132324e+00,1.343821525573730469e+00,1.343729019165039062e+00,1.343636751174926758e+00,1.343544244766235352e+00,1.343451976776123047e+00,1.343359589576721191e+00,1.343267321586608887e+00,1.343174934387207031e+00,1.343082666397094727e+00,1.342990279197692871e+00,1.342898011207580566e+00,1.342805743217468262e+00,1.342713475227355957e+00,1.342621207237243652e+00,1.342529058456420898e+00,1.342436790466308594e+00,1.342344641685485840e+00,1.342252373695373535e+00,1.342160224914550781e+00,1.342067956924438477e+00,1.341975927352905273e+00,1.341883659362792969e+00
1.248858690261840820e+00,1.248778939247131348e+00,1.248699188232421875e+00,1.248619437217712402e+00,1.248539566993713379e+00,1.248459935188293457e+00,1.248380064964294434e+00,1.248300433158874512e+00,1.248220682144165039e+00,1.248140931129455566e+00,1.248061299324035645e+00,1.247981548309326172e+00,1.247901916503906250e+00,1.247822165489196777e+00,1.247742533683776855e+00,1.247662901878356934e+00,1.247583270072937012e+00,1.247503638267517090e+00,1.247424006462097168e+00,1.247344374656677246e+00,1.247264862060546875e+00,1.247185230255126953e+00,1.247105598449707031e+00,1.247025966644287109e+00,1.246946454048156738e+00,1.246866941452026367e+00,1.246787428855895996e+00,1.246707916259765625e+00,1.246628284454345703e+00,1.246548891067504883e+00,1.246469259262084961e+00,1.246389865875244141e+00,1.246310353279113770e+00,1.246230840682983398e+00,1.246151566505432129e+00,1.246072053909301758e+00,1.245992660522460938e+00,1.245913147926330566e+00,1.245833754539489746e+00,1.245754241943359375e+00,1.245674967765808105e+00,1.245595455169677734e+00,1.245516180992126465e+00,1.245436787605285645e+00,1.245357394218444824e+00,1.245278000831604004e+00,1.245198726654052734e+00,1.245119333267211914e+00,1.245040059089660645e+00,1.244960665702819824e+00,1.244881391525268555e+00,1.244802117347717285e+00,1.244722843170166016e+00,1.244643568992614746e+00,1.244564294815063477e+00,1.244485020637512207e+00,1.244405746459960938e+00,1.244326472282409668e+00,1.244247317314147949e+00,1.244168043136596680e+00,1.244088888168334961e+00,1.244009733200073242e+00,1.243930578231811523e+00,1.243851304054260254e+00,1.243772268295288086e+00,1.243692994117736816e+00,1.243613958358764648e+00,1.243534684181213379e+00,1.243455648422241211e+00,1.243376493453979492e+00,1.243297457695007324e+00,1.243218302726745605e+00,1.243139266967773438e+00,1.243060111999511719e+00,1.242981076240539551e+00,1.242902040481567383e+00,1.242823004722595215e+00,1.242743968963623047e+00,1.242664933204650879e+00,1.242585897445678711e+00
1.162407755851745605e+00,1.162338614463806152e+00,1.162269473075866699e+00,1.162200331687927246e+00,1.162131309509277344e+00,1.162062168121337891e+00,1.161993026733398438e+00,1.161924004554748535e+00,1.161854863166809082e+00,1.161785840988159180e+00,1.161716818809509277e+00,1.161647796630859375e+00,1.161578774452209473e+00,1.161509633064270020e+00,1.161440730094909668e+00,1.161371588706970215e+00,1.161302685737609863e+00,1.161233663558959961e+00,1.161164641380310059e+00,1.161095738410949707e+00,1.161026716232299805e+00,1.160957694053649902e+00,1.160888791084289551e+00,1.160819768905639648e+00,1.160750865936279297e+00,1.160681962966918945e+00,1.160613059997558594e+00,1.160544037818908691e+00,1.160475254058837891e+00,1.160406351089477539e+00,1.160337448120117188e+00,1.160268545150756836e+00,1.160199642181396484e+00,1.160130739212036133e+00,1.160061955451965332e+00,1.159993052482604980e+00,1.159924268722534180e+00,1.159855365753173828e+00,1.159786581993103027e+00,1.159717798233032227e+00,1.159649014472961426e+00,1.159580230712890625e+00,1.159511327743530273e+00,1.159442663192749023e+00,1.159373760223388672e+00,1.159305095672607422e+00,1.159236192703247070e+00,1.159167528152465820e+00,1.159098744392395020e+00,1.159030079841613770e+00,1.158961296081542969e+00,1.158892512321472168e+00,1.158823847770690918e+00,1.158755064010620117e+00,1.158686399459838867e+00,1.158617734909057617e+00,1.158548951148986816e+00,1.158480405807495117e+00,1.158411622047424316e+00,1.158343076705932617e+00,1.158274412155151367e+00,1.158205747604370117e+00,1.158137083053588867e+00,1.158068537712097168e+00,1.157999873161315918e+00,1.157931208610534668e+00,1.157862544059753418e+00,1.157793998718261719e+00,1.157725453376770020e+00,1.157656908035278320e+00,1.157588243484497070e+00,1.157519698143005371e+00,1.157451152801513672e+00,1.157382607460021973e+00,1.157314062118530273e+00,1.157245516777038574e+00,1.157176971435546875e+00,1.157108545303344727e+00,1.157039999961853027e+00,1.156971454620361328e+00
1.087150812149047852e+00,1.087090373039245605e+00,1.087029814720153809e+00,1.086969375610351562e+00,1.086908936500549316e+00,1.086848497390747070e+00,1.086788058280944824e+00,1.086727619171142578e+00,1.086667180061340332e+00,1.086606860160827637e+00,1.086546421051025391e+00,1.086485981941223145e+00,1.086425542831420898e+00,1.086365222930908203e+00,1.086304903030395508e+00,1.086244463920593262e+00,1.086184144020080566e+00,1.086123704910278320e+00,1.086063385009765625e+00,1.086002945899963379e+00,1.085942745208740234e+00,1.085882425308227539e+00,1.085821986198425293e+00,1.085761666297912598e+00,1.085701346397399902e+00,1.085641145706176758e+00,1.085580825805664062e+00,1.085520505905151367e+00,1.085460186004638672e+00,1.085399866104125977e+00,1.085339665412902832e+00,1.085279464721679688e+00,1.085219144821166992e+00,1.085158944129943848e+00,1.085098624229431152e+00,1.085038423538208008e+00,1.084978103637695312e+00,1.084917902946472168e+00,1.084857702255249023e+00,1.084797501564025879e+00,1.084737300872802734e+00,1.084677100181579590e+00,1.084616899490356445e+00,1.084556818008422852e+00,1.084496617317199707e+00,1.084436416625976562e+00,1.084376215934753418e+00,1.084316134452819824e+00,1.084255933761596680e+00,1.084195733070373535e+00,1.084135651588439941e+00,1.084075450897216797e+00,1.084015369415283203e+00,1.083955287933349609e+00,1.083895087242126465e+00,1.083835005760192871e+00,1.083774924278259277e+00,1.083714842796325684e+00,1.083654642105102539e+00,1.083594679832458496e+00,1.083534479141235352e+00,1.083474516868591309e+00,1.083414316177368164e+00,1.083354353904724121e+00,1.083294272422790527e+00,1.083234190940856934e+00,1.083174109458923340e+00,1.083114147186279297e+00,1.083054065704345703e+00,1.082994103431701660e+00,1.082934021949768066e+00,1.082874059677124023e+00,1.082814097404479980e+00,1.082754135131835938e+00,1.082694053649902344e+00,1.082634091377258301e+00,1.082574129104614258e+00,1.082514166831970215e+00,1.082454204559326172e+00,1.082394242286682129e+00
1.021045923233032227e+00,1.020992636680603027e+00,1.020939230918884277e+00,1.020885944366455078e+00,1.020832538604736328e+00,1.020779252052307129e+00,1.020725965499877930e+00,1.020672678947448730e+00,1.020619392395019531e+00,1.020566105842590332e+00,1.020512819290161133e+00,1.020459532737731934e+00,1.020406246185302734e+00,1.020352959632873535e+00,1.020299673080444336e+00,1.020246386528015137e+00,1.020193099975585938e+00,1.020139932632446289e+00,1.020086646080017090e+00,1.020033478736877441e+00,1.019980192184448242e+00,1.019926905632019043e+00,1.019873738288879395e+00,1.019820570945739746e+00,1.019767284393310547e+00,1.019714117050170898e+00,1.019660949707031250e+00,1.019607782363891602e+00,1.019554615020751953e+00,1.019501328468322754e+00,1.019448161125183105e+00,1.019394993782043457e+00,1.019341826438903809e+00,1.019288659095764160e+00,1.019235491752624512e+00,1.019182443618774414e+00,1.019129276275634766e+00,1.019076108932495117e+00,1.019022941589355469e+00,1.018969893455505371e+00,1.018916726112365723e+00,1.018863558769226074e+00,1.018810510635375977e+00,1.018757343292236328e+00,1.018704295158386230e+00,1.018651247024536133e+00,1.018598198890686035e+00,1.018545150756835938e+00,1.018492102622985840e+00,1.018438935279846191e+00,1.018385887145996094e+00,1.018332839012145996e+00,1.018279790878295898e+00,1.018226742744445801e+00,1.018173694610595703e+00,1.018120646476745605e+00,1.018067598342895508e+00,1.018014550209045410e+00,1.017961502075195312e+00,1.017908453941345215e+00,1.017855525016784668e+00,1.017802476882934570e+00,1.017749428749084473e+00,1.017696499824523926e+00,1.017643451690673828e+00,1.017590403556823730e+00,1.017537474632263184e+00,1.017484545707702637e+00,1.017431497573852539e+00,1.017378568649291992e+00,1.017325639724731445e+00,1.017272591590881348e+00,1.017219662666320801e+00,1.017166733741760254e+00,1.017113804817199707e+00,1.017060875892639160e+00,1.017007946968078613e+00,1.016955018043518066e+00,1.016902089118957520e+00,1.016849160194396973e+00
9.625194668769836426e-01,9.624719619750976562e-01,9.624245762825012207e-01,9.623771905899047852e-01,9.623298048973083496e-01,9.622824788093566895e-01,9.622350335121154785e-01,9.621876478195190430e-01,9.621403217315673828e-01,9.620929956436157227e-01,9.620456695556640625e-01,9.619982242584228516e-01,9.619508981704711914e-01,9.619035720825195312e-01,9.618562459945678711e-01,9.618089199066162109e-01,9.617615342140197754e-01,9.617142081260681152e-01,9.616669416427612305e-01,9.616196155548095703e-01,9.615723490715026855e-01,9.615249633789062500e-01,9.614776968955993652e-01,9.614304304122924805e-01,9.613831639289855957e-01,9.613358974456787109e-01,9.612885117530822754e-01,9.612412452697753906e-01,9.611939787864685059e-01,9.611467719078063965e-01,9.610993862152099609e-01,9.610521793365478516e-01,9.610049128532409668e-01,9.609577059745788574e-01,9.609104990959167480e-01,9.608631730079650879e-01,9.608159661293029785e-01,9.607687592506408691e-01,9.607215523719787598e-01,9.606743454933166504e-01,9.606270194053649902e-01,9.605798125267028809e-01,9.605326652526855469e-01,9.604854583740234375e-01,9.604383111000061035e-01,9.603909850120544434e-01,9.603438377380371094e-01,9.602966904640197754e-01,9.602495431900024414e-01,9.602023363113403320e-01,9.601551890373229980e-01,9.601080417633056641e-01,9.600609540939331055e-01,9.600136876106262207e-01,9.599665403366088867e-01,9.599194526672363281e-01,9.598723053932189941e-01,9.598250985145568848e-01,9.597779512405395508e-01,9.597308635711669922e-01,9.596837759017944336e-01,9.596365690231323242e-01,9.595894217491149902e-01,9.595423340797424316e-01,9.594953060150146484e-01,9.594480991363525391e-01,9.594010114669799805e-01,9.593539237976074219e-01,9.593068957328796387e-01,9.592596888542175293e-01,9.592126607894897461e-01,9.591655731201171875e-01,9.591185450553894043e-01,9.590713977813720703e-01,9.590243697166442871e-01,9.589773416519165039e-01,9.589303135871887207e-01,9.588831663131713867e-01,9.588361382484436035e-01,9.587891101837158203e-01
