3.098590373992919922e+00,3.176924943923950195e+00,3.259322643280029297e+00,3.346104860305786133e+00,3.437631607055664062e+00,3.534305810928344727e+00,3.636574745178222656e+00,3.744938850402832031e+00,3.859959602355957031e+00,3.982269048690795898e+00,4.112583637237548828e+00,4.251715660095214844e+00,4.400591373443603516e+00,4.560270786285400391e+00,4.731975078582763672e+00,4.917115211486816406e+00,5.000000000000000000e+00,5.000000000000000000e+00,5.000000000000000000e+00,5.000000000000000000e+00,5.000000000000000000e+00,5.000000000000000000e+00,5.000000000000000000e+00,5.000000000000000000e+00,5.000000000000000000e+00,5.000000000000000000e+00,5.000000000000000000e+00,5.000000000000000000e+00,5.000000000000000000e+00,5.000000000000000000e+00,5.000000000000000000e+00,5.000000000000000000e+00,5.000000000000000000e+00,5.000000000000000000e+00,5.000000000000000000e+00,5.000000000000000000e+00,5.000000000000000000e+00,5.000000000000000000e+00,5.000000000000000000e+00,5.000000000000000000e+00,5.000000000000000000e+00,5.000000000000000000e+00,5.000000000000000000e+00,5.000000000000000000e+00,5.000000000000000000e+00,5.000000000000000000e+00,5.000000000000000000e+00,5.000000000000000000e+00,5.000000000000000000e+00,5.000000000000000000e+00,5.000000000000000000e+00,5.000000000000000000e+00,5.000000000000000000e+00,5.000000000000000000e+00,5.000000000000000000e+00,5.000000000000000000e+00,5.000000000000000000e+00,5.000000000000000000e+00,5.000000000000000000e+00,5.000000000000000000e+00,5.000000000000000000e+00,5.000000000000000000e+00,5.000000000000000000e+00,5.000000000000000000e+00,5.000000000000000000e+00,5.000000000000000000e+00,5.000000000000000000e+00,5.000000000000000000e+00,5.000000000000000000e+00,5.000000000000000000e+00,4.852581024169921875e+00,4.693212509155273438e+00,4.543950080871582031e+00,4.403888702392578125e+00,4.272204399108886719e+00,4.148166179656982422e+00,4.031127452850341797e+00,3.920512199401855469e+00,3.815804958343505859e+00,3.716545343399047852e+00
3.098524093627929688e+00,3.176855325698852539e+00,3.259249448776245117e+00,3.346031427383422852e+00,3.437557458877563477e+00,3.534227371215820312e+00,3.636492013931274414e+00,3.744851112365722656e+00,3.859865903854370117e+00,3.982169866561889648e+00,4.112477779388427734e+00,4.251602172851562500e+00,4.400469779968261719e+00,4.560140609741210938e+00,4.731834411621093750e+00,4.916963577270507812e+00,5.000000000000000000e+00,5.000000000000000000e+00,5.000000000000000000e+00,5.000000000000000000e+00,5.000000000000000000e+00,5.000000000000000000e+00,5.000000000000000000e+00,5.000000000000000000e+00,5.000000000000000000e+00,5.000000000000000000e+00,5.000000000000000000e+00,5.000000000000000000e+00,5.000000000000000000e+00,5.000000000000000000e+00,5.000000000000000000e+00,5.000000000000000000e+00,5.000000000000000000e+00,5.000000000000000000e+00,5.000000000000000000e+00,5.000000000000000000e+00,5.000000000000000000e+00,5.000000000000000000e+00,5.000000000000000000e+00,5.000000000000000000e+00,5.000000000000000000e+00,5.000000000000000000e+00,5.000000000000000000e+00,5.000000000000000000e+00,5.000000000000000000e+00,5.000000000000000000e+00,5.000000000000000000e+00,5.000000000000000000e+00,5.000000000000000000e+00,5.000000000000000000e+00,5.000000000000000000e+00,5.000000000000000000e+00,5.000000000000000000e+00,5.000000000000000000e+00,5.000000000000000000e+00,5.000000000000000000e+00,5.000000000000000000e+00,5.000000000000000000e+00,5.000000000000000000e+00,5.000000000000000000e+00,5.000000000000000000e+00,5.000000000000000000e+00,5.000000000000000000e+00,5.000000000000000000e+00,5.000000000000000000e+00,5.000000000000000000e+00,5.000000000000000000e+00,5.000000000000000000e+00,5.000000000000000000e+00,5.000000000000000000e+00,4.852757453918457031e+00,4.693346500396728516e+00,4.544075965881347656e+00,4.404006958007812500e+00,4.272315502166748047e+00,4.148270606994628906e+00,4.031226158142089844e+00,3.920605421066284180e+00,3.815893888473510742e+00,3.716629266738891602e+00
3.098458051681518555e+00,3.176785469055175781e+00,3.259176254272460938e+00,3.345954418182373047e+00,3.437479734420776367e+00,3.534149169921875000e+00,3.636408805847167969e+00,3.744762897491455078e+00,3.859772682189941406e+00,3.982070446014404297e+00,4.112371921539306641e+00,4.251489162445068359e+00,4.400348186492919922e+00,4.560009956359863281e+00,4.731694221496582031e+00,4.916811943054199219e+00,5.000000000000000000e+00,5.000000000000000000e+00,5.000000000000000000e+00,5.000000000000000000e+00,5.000000000000000000e+00,5.000000000000000000e+00,5.000000000000000000e+00,5.000000000000000000e+00,5.000000000000000000e+00,5.000000000000000000e+00,5.000000000000000000e+00,5.000000000000000000e+00,5.000000000000000000e+00,5.000000000000000000e+00,5.000000000000000000e+00,5.000000000000000000e+00,5.000000000000000000e+00,5.000000000000000000e+00,5.000000000000000000e+00,5.000000000000000000e+00,5.000000000000000000e+00,5.000000000000000000e+00,5.000000000000000000e+00,5.000000000000000000e+00,5.000000000000000000e+00,5.000000000000000000e+00,5.000000000000000000e+00,5.000000000000000000e+00,5.000000000000000000e+00,5.000000000000000000e+00,5.000000000000000000e+00,5.000000000000000000e+00,5.000000000000000000e+00,5.000000000000000000e+00,5.000000000000000000e+00,5.000000000000000000e+00,5.000000000000000000e+00,5.000000000000000000e+00,5.000000000000000000e+00,5.000000000000000000e+00,5.000000000000000000e+00,5.000000000000000000e+00,5.000000000000000000e+00,5.000000000000000000e+00,5.000000000000000000e+00,5.000000000000000000e+00,5.000000000000000000e+00,5.000000000000000000e+00,5.000000000000000000e+00,5.000000000000000000e+00,5.000000000000000000e+00,5.000000000000000000e+00,5.000000000000000000e+00,5.000000000000000000e+00,4.852900981903076172e+00,4.693480491638183594e+00,4.544201374053955078e+00,4.404125213623046875e+00,4.272426605224609375e+00,4.148375511169433594e+00,4.031325340270996094e+00,3.920698881149291992e+00,3.815982341766357422e+00,3.716713190078735352e+00
3.098392009735107422e+00,3.176716089248657227e+00,3.259103059768676758e+00,3.345877408981323242e+00,3.437398433685302734e+00,3.534067153930664062e+00,3.636326074600219727e+00,3.744675159454345703e+00,3.859678983688354492e+00,3.981970787048339844e+00,4.112265586853027344e+00,4.251375675201416016e+00,4.400227069854736328e+00,4.559879302978515625e+00,4.731554031372070312e+00,4.916660308837890625e+00,5.000000000000000000e+00,5.000000000000000000e+00,5.000000000000000000e+00,5.000000000000000000e+00,5.000000000000000000e+00,5.000000000000000000e+00,5.000000000000000000e+00,5.000000000000000000e+00,5.000000000000000000e+00,5.000000000000000000e+00,5.000000000000000000e+00,5.000000000000000000e+00,5.000000000000000000e+00,5.000000000000000000e+00,5.000000000000000000e+00,5.000000000000000000e+00,5.000000000000000000e+00,5.000000000000000000e+00,5.000000000000000000e+00,5.000000000000000000e+00,5.000000000000000000e+00,5.000000000000000000e+00,5.000000000000000000e+00,5.000000000000000000e+00,5.000000000000000000e+00,5.000000000000000000e+00,5.000000000000000000e+00,5.000000000000000000e+00,5.000000000000000000e+00,5.000000000000000000e+00,5.000000000000000000e+00,5.000000000000000000e+00,5.000000000000000000e+00,5.000000000000000000e+00,5.000000000000000000e+00,5.000000000000000000e+00,5.000000000000000000e+00,5.000000000000000000e+00,5.000000000000000000e+00,5.000000000000000000e+00,5.000000000000000000e+00,5.000000000000000000e+00,5.000000000000000000e+00,5.000000000000000000e+00,5.000000000000000000e+00,5.000000000000000000e+00,5.000000000000000000e+00,5.000000000000000000e+00,5.000000000000000000e+00,5.000000000000000000e+00,5.000000000000000000e+00,5.000000000000000000e+00,5.000000000000000000e+00,5.000000000000000000e+00,4.853044033050537109e+00,4.693614482879638672e+00,4.544326782226562500e+00,4.404243469238281250e+00,4.272537708282470703e+00,4.148480415344238281e+00,4.031424045562744141e+00,3.920792341232299805e+00,3.816070795059204102e+00,3.716797590255737305e+00
3.098325490951538086e+00,3.176646709442138672e+00,3.259030103683471680e+00,3.345799922943115234e+00,3.437317132949829102e+00,3.533981323242187500e+00,3.636239528656005859e+00,3.744586944580078125e+00,3.859585762023925781e+00,3.981871604919433594e+00,4.112159729003906250e+00,4.251262187957763672e+00,4.400105476379394531e+00,4.559749126434326172e+00,4.731413364410400391e+00,4.916508674621582031e+00,5.000000000000000000e+00,5.000000000000000000e+00,5.000000000000000000e+00,5.000000000000000000e+00,5.000000000000000000e+00,5.000000000000000000e+00,5.000000000000000000e+00,5.000000000000000000e+00,5.000000000000000000e+00,5.000000000000000000e+00,5.000000000000000000e+00,5.000000000000000000e+00,5.000000000000000000e+00,5.000000000000000000e+00,5.000000000000000000e+00,5.000000000000000000e+00,5.000000000000000000e+00,5.000000000000000000e+00,5.000000000000000000e+00,5.000000000000000000e+00,5.000000000000000000e+00,5.000000000000000000e+00,5.000000000000000000e+00,5.000000000000000000e+00,5.000000000000000000e+00,5.000000000000000000e+00,5.000000000000000000e+00,5.000000000000000000e+00,5.000000000000000000e+00,5.000000000000000000e+00,5.000000000000000000e+00,5.000000000000000000e+00,5.000000000000000000e+00,5.000000000000000000e+00,5.000000000000000000e+00,5.000000000000000000e+00,5.000000000000000000e+00,5.000000000000000000e+00,5.000000000000000000e+00,5.000000000000000000e+00,5.000000000000000000e+00,5.000000000000000000e+00,5.000000000000000000e+00,5.000000000000000000e+00,5.000000000000000000e+00,5.000000000000000000e+00,5.000000000000000000e+00,5.000000000000000000e+00,5.000000000000000000e+00,5.000000000000000000e+00,5.000000000000000000e+00,5.000000000000000000e+00,5.000000000000000000e+00,5.000000000000000000e+00,4.853187561035156250e+00,4.693748950958251953e+00,4.544452667236328125e+00,4.404361248016357422e+00,4.272648811340332031e+00,4.148584842681884766e+00,4.031523227691650391e+00,3.920885801315307617e+00,3.816155910491943359e+00,3.716875553131103516e+00
3.098259449005126953e+00,3.176577091217041016e+00,3.258956909179687500e+00,3.345722913742065430e+00,3.437235593795776367e+00,3.533895015716552734e+00,3.636148452758789062e+00,3.744495391845703125e+00,3.859492063522338867e+00,3.981771945953369141e+00,4.112053394317626953e+00,4.251149177551269531e+00,4.399983882904052734e+00,4.559618473052978516e+00,4.731273174285888672e+00,4.916357040405273438e+00,5.000000000000000000e+00,5.000000000000000000e+00,5.000000000000000000e+00,5.000000000000000000e+00,5.000000000000000000e+00,5.000000000000000000e+00,5.000000000000000000e+00,5.000000000000000000e+00,5.000000000000000000e+00,5.000000000000000000e+00,5.000000000000000000e+00,5.000000000000000000e+00,5.000000000000000000e+00,5.000000000000000000e+00,5.000000000000000000e+00,5.000000000000000000e+00,5.000000000000000000e+00,5.000000000000000000e+00,5.000000000000000000e+00,5.000000000000000000e+00,5.000000000000000000e+00,5.000000000000000000e+00,5.000000000000000000e+00,5.000000000000000000e+00,5.000000000000000000e+00,5.000000000000000000e+00,5.000000000000000000e+00,5.000000000000000000e+00,5.000000000000000000e+00,5.000000000000000000e+00,5.000000000000000000e+00,5.000000000000000000e+00,5.000000000000000000e+00,5.000000000000000000e+00,5.000000000000000000e+00,5.000000000000000000e+00,5.000000000000000000e+00,5.000000000000000000e+00,5.000000000000000000e+00,5.000000000000000000e+00,5.000000000000000000e+00,5.000000000000000000e+00,5.000000000000000000e+00,5.000000000000000000e+00,5.000000000000000000e+00,5.000000000000000000e+00,5.000000000000000000e+00,5.000000000000000000e+00,5.000000000000000000e+00,5.000000000000000000e+00,5.000000000000000000e+00,5.000000000000000000e+00,5.000000000000000000e+00,5.000000000000000000e+00,4.853331089019775391e+00,4.693882942199707031e+00,4.544578552246093750e+00,4.404479026794433594e+00,4.272759914398193359e+00,4.148686408996582031e+00,4.031615257263183594e+00,3.920970201492309570e+00,3.816236257553100586e+00,3.716951131820678711e+00
3.098193407058715820e+00,3.176507711410522461e+00,3.258883476257324219e+00,3.345645904541015625e+00,3.437154293060302734e+00,3.533808946609497070e+00,3.636057376861572266e+00,3.744399070739746094e+00,3.859394788742065430e+00,3.981672763824462891e+00,4.111947536468505859e+00,4.251035690307617188e+00,4.399862766265869141e+00,4.559488296508789062e+00,4.731132507324218750e+00,4.916205406188964844e+00,5.000000000000000000e+00,5.000000000000000000e+00,5.000000000000000000e+00,5.000000000000000000e+00,5.000000000000000000e+00,5.000000000000000000e+00,5.000000000000000000e+00,5.000000000000000000e+00,5.000000000000000000e+00,5.000000000000000000e+00,5.000000000000000000e+00,5.000000000000000000e+00,5.000000000000000000e+00,5.000000000000000000e+00,5.000000000000000000e+00,5.000000000000000000e+00,5.000000000000000000e+00,5.000000000000000000e+00,5.000000000000000000e+00,5.000000000000000000e+00,5.000000000000000000e+00,5.000000000000000000e+00,5.000000000000000000e+00,5.000000000000000000e+00,5.000000000000000000e+00,5.000000000000000000e+00,5.000000000000000000e+00,5.000000000000000000e+00,5.000000000000000000e+00,5.000000000000000000e+00,5.000000000000000000e+00,5.000000000000000000e+00,5.000000000000000000e+00,5.000000000000000000e+00,5.000000000000000000e+00,5.000000000000000000e+00,5.000000000000000000e+00,5.000000000000000000e+00,5.000000000000000000e+00,5.000000000000000000e+00,5.000000000000000000e+00,5.000000000000000000e+00,5.000000000000000000e+00,5.000000000000000000e+00,5.000000000000000000e+00,5.000000000000000000e+00,5.000000000000000000e+00,5.000000000000000000e+00,5.000000000000000000e+00,5.000000000000000000e+00,5.000000000000000000e+00,5.000000000000000000e+00,5.000000000000000000e+00,5.000000000000000000e+00,4.853474140167236328e+00,4.694016933441162109e+00,4.544701576232910156e+00,4.404590606689453125e+00,4.272860527038574219e+00,4.148781299591064453e+00,4.031704902648925781e+00,3.921055078506469727e+00,3.816316127777099609e+00,3.717027425765991211e+00
3.098127365112304688e+00,3.176437854766845703e+00,3.258810281753540039e+00,3.345568895339965820e+00,3.437072753906250000e+00,3.533722877502441406e+00,3.635966300964355469e+00,3.744302034378051758e+00,3.859292268753051758e+00,3.981569051742553711e+00,4.111841201782226562e+00,4.250922203063964844e+00,4.399741172790527344e+00,4.559357643127441406e+00,4.730992317199707031e+00,4.916053771972656250e+00,5.000000000000000000e+00,5.000000000000000000e+00,5.000000000000000000e+00,5.000000000000000000e+00,5.000000000000000000e+00,5.000000000000000000e+00,5.000000000000000000e+00,5.000000000000000000e+00,5.000000000000000000e+00,5.000000000000000000e+00,5.000000000000000000e+00,5.000000000000000000e+00,5.000000000000000000e+00,5.000000000000000000e+00,5.000000000000000000e+00,5.000000000000000000e+00,5.000000000000000000e+00,5.000000000000000000e+00,5.000000000000000000e+00,5.000000000000000000e+00,5.000000000000000000e+00,5.000000000000000000e+00,5.000000000000000000e+00,5.000000000000000000e+00,5.000000000000000000e+00,5.000000000000000000e+00,5.000000000000000000e+00,5.000000000000000000e+00,5.000000000000000000e+00,5.000000000000000000e+00,5.000000000000000000e+00,5.000000000000000000e+00,5.000000000000000000e+00,5.000000000000000000e+00,5.000000000000000000e+00,5.000000000000000000e+00,5.000000000000000000e+00,5.000000000000000000e+00,5.000000000000000000e+00,5.000000000000000000e+00,5.000000000000000000e+00,5.000000000000000000e+00,5.000000000000000000e+00,5.000000000000000000e+00,5.000000000000000000e+00,5.000000000000000000e+00,5.000000000000000000e+00,5.000000000000000000e+00,5.000000000000000000e+00,5.000000000000000000e+00,5.000000000000000000e+00,5.000000000000000000e+00,5.000000000000000000e+00,5.000000000000000000e+00,4.853610515594482422e+00,4.694139957427978516e+00,4.544815063476562500e+00,4.404697418212890625e+00,4.272961139678955078e+00,4.148876190185546875e+00,4.031794548034667969e+00,3.921139717102050781e+00,3.816396474838256836e+00,3.717103481292724609e+00
3.098061323165893555e+00,3.176368474960327148e+00,3.258737325668334961e+00,3.345491647720336914e+00,3.436991453170776367e+00,3.533637046813964844e+00,3.635875463485717773e+00,3.744205474853515625e+00,3.859189748764038086e+00,3.981460094451904297e+00,4.111731529235839844e+00,4.250809192657470703e+00,4.399619579315185547e+00,4.559227466583251953e+00,4.730851650238037109e+00,4.915902137756347656e+00,5.000000000000000000e+00,5.000000000000000000e+00,5.000000000000000000e+00,5.000000000000000000e+00,5.000000000000000000e+00,5.000000000000000000e+00,5.000000000000000000e+00,5.000000000000000000e+00,5.000000000000000000e+00,5.000000000000000000e+00,5.000000000000000000e+00,5.000000000000000000e+00,5.000000000000000000e+00,5.000000000000000000e+00,5.000000000000000000e+00,5.000000000000000000e+00,5.000000000000000000e+00,5.000000000000000000e+00,5.000000000000000000e+00,5.000000000000000000e+00,5.000000000000000000e+00,5.000000000000000000e+00,5.000000000000000000e+00,5.000000000000000000e+00,5.000000000000000000e+00,5.000000000000000000e+00,5.000000000000000000e+00,5.000000000000000000e+00,5.000000000000000000e+00,5.000000000000000000e+00,5.000000000000000000e+00,5.000000000000000000e+00,5.000000000000000000e+00,4.797281265258789062e+00,4.782403469085693359e+00,5.000000000000000000e+00,5.000000000000000000e+00,5.000000000000000000e+00,5.000000000000000000e+00,5.000000000000000000e+00,5.000000000000000000e+00,5.000000000000000000e+00,5.000000000000000000e+00,5.000000000000000000e+00,5.000000000000000000e+00,5.000000000000000000e+00,5.000000000000000000e+00,5.000000000000000000e+00,5.000000000000000000e+00,5.000000000000000000e+00,5.000000000000000000e+00,5.000000000000000000e+00,5.000000000000000000e+00,5.000000000000000000e+00,4.853740215301513672e+00,4.694261074066162109e+00,4.544928550720214844e+00,4.404804229736328125e+00,4.273061752319335938e+00,4.148970603942871094e+00,4.031883716583251953e+00,3.921224117279052734e+00,3.816476821899414062e+00,3.717179298400878906e+00
3.097994804382324219e+00,3.176299095153808594e+00,3.258664131164550781e+00,3.345414400100708008e+00,3.436910152435302734e+00,3.533550977706909180e+00,3.635783910751342773e+00,3.744108915328979492e+00,3.859087228775024414e+00,3.981350421905517578e+00,4.111614704132080078e+00,4.250691413879394531e+00,4.399498462677001953e+00,4.559097290039062500e+00,4.730711460113525391e+00,4.915750503540039062e+00,5.000000000000000000e+00,5.000000000000000000e+00,5.000000000000000000e+00,5.000000000000000000e+00,5.000000000000000000e+00,5.000000000000000000e+00,5.000000000000000000e+00,5.000000000000000000e+00,5.000000000000000000e+00,5.000000000000000000e+00,5.000000000000000000e+00,5.000000000000000000e+00,5.000000000000000000e+00,5.000000000000000000e+00,5.000000000000000000e+00,5.000000000000000000e+00,5.000000000000000000e+00,5.000000000000000000e+00,5.000000000000000000e+00,5.000000000000000000e+00,5.000000000000000000e+00,5.000000000000000000e+00,5.000000000000000000e+00,5.000000000000000000e+00,5.000000000000000000e+00,5.000000000000000000e+00,5.000000000000000000e+00,5.000000000000000000e+00,5.000000000000000000e+00,5.000000000000000000e+00,5.000000000000000000e+00,5.000000000000000000e+00,5.000000000000000000e+00,4.819497585296630859e+00,4.798127651214599609e+00,5.000000000000000000e+00,5.000000000000000000e+00,5.000000000000000000e+00,5.000000000000000000e+00,5.000000000000000000e+00,5.000000000000000000e+00,5.000000000000000000e+00,5.000000000000000000e+00,5.000000000000000000e+00,5.000000000000000000e+00,5.000000000000000000e+00,5.000000000000000000e+00,5.000000000000000000e+00,5.000000000000000000e+00,5.000000000000000000e+00,5.000000000000000000e+00,5.000000000000000000e+00,5.000000000000000000e+00,5.000000000000000000e+00,4.853869915008544922e+00,4.694382667541503906e+00,4.545042037963867188e+00,4.404910564422607422e+00,4.273161888122558594e+00,4.149065494537353516e+00,4.031972885131835938e+00,3.921308755874633789e+00,3.816556692123413086e+00,3.717255592346191406e+00
3.097928762435913086e+00,3.176229476928710938e+00,3.258591175079345703e+00,3.345337390899658203e+00,3.436828851699829102e+00,3.533465147018432617e+00,3.635692834854125977e+00,3.744012594223022461e+00,3.858984708786010742e+00,3.981241226196289062e+00,4.111498355865478516e+00,4.250566482543945312e+00,4.399372577667236328e+00,4.558967113494873047e+00,4.730570793151855469e+00,4.915598869323730469e+00,5.000000000000000000e+00,5.000000000000000000e+00,5.000000000000000000e+00,5.000000000000000000e+00,5.000000000000000000e+00,5.000000000000000000e+00,5.000000000000000000e+00,5.000000000000000000e+00,5.000000000000000000e+00,5.000000000000000000e+00,5.000000000000000000e+00,5.000000000000000000e+00,5.000000000000000000e+00,5.000000000000000000e+00,5.000000000000000000e+00,5.000000000000000000e+00,5.000000000000000000e+00,5.000000000000000000e+00,5.000000000000000000e+00,5.000000000000000000e+00,5.000000000000000000e+00,5.000000000000000000e+00,5.000000000000000000e+00,5.000000000000000000e+00,5.000000000000000000e+00,5.000000000000000000e+00,5.000000000000000000e+00,5.000000000000000000e+00,5.000000000000000000e+00,5.000000000000000000e+00,5.000000000000000000e+00,5.000000000000000000e+00,5.000000000000000000e+00,4.908612251281738281e+00,4.878132820129394531e+00,5.000000000000000000e+00,5.000000000000000000e+00,5.000000000000000000e+00,5.000000000000000000e+00,5.000000000000000000e+00,5.000000000000000000e+00,5.000000000000000000e+00,5.000000000000000000e+00,5.000000000000000000e+00,5.000000000000000000e+00,5.000000000000000000e+00,5.000000000000000000e+00,5.000000000000000000e+00,5.000000000000000000e+00,5.000000000000000000e+00,5.000000000000000000e+00,5.000000000000000000e+00,5.000000000000000000e+00,5.000000000000000000e+00,4.853999614715576172e+00,4.694503784179687500e+00,4.545156002044677734e+00,4.405017852783203125e+00,4.273262977600097656e+00,4.149160385131835938e+00,4.032062530517578125e+00,3.921393632888793945e+00,3.816636800765991211e+00,3.717331647872924805e+00
3.097862720489501953e+00,3.176160097122192383e+00,3.258517742156982422e+00,3.345260381698608398e+00,3.436747312545776367e+00,3.533378839492797852e+00,3.635601997375488281e+00,3.743916034698486328e+00,3.858881711959838867e+00,3.981132268905639648e+00,4.111382007598876953e+00,4.250442028045654297e+00,4.399239063262939453e+00,4.558831691741943359e+00,4.730430603027343750e+00,4.915447235107421875e+00,5.000000000000000000e+00,5.000000000000000000e+00,5.000000000000000000e+00,5.000000000000000000e+00,5.000000000000000000e+00,5.000000000000000000e+00,5.000000000000000000e+00,5.000000000000000000e+00,5.000000000000000000e+00,5.000000000000000000e+00,5.000000000000000000e+00,5.000000000000000000e+00,5.000000000000000000e+00,5.000000000000000000e+00,5.000000000000000000e+00,5.000000000000000000e+00,5.000000000000000000e+00,5.000000000000000000e+00,5.000000000000000000e+00,5.000000000000000000e+00,5.000000000000000000e+00,5.000000000000000000e+00,5.000000000000000000e+00,5.000000000000000000e+00,5.000000000000000000e+00,5.000000000000000000e+00,5.000000000000000000e+00,5.000000000000000000e+00,5.000000000000000000e+00,5.000000000000000000e+00,5.000000000000000000e+00,4.879596233367919922e+00,4.859063625335693359e+00,4.814062595367431641e+00,4.795761108398437500e+00,4.796905040740966797e+00,4.839145183563232422e+00,5.000000000000000000e+00,5.000000000000000000e+00,5.000000000000000000e+00,5.000000000000000000e+00,5.000000000000000000e+00,5.000000000000000000e+00,5.000000000000000000e+00,5.000000000000000000e+00,5.000000000000000000e+00,5.000000000000000000e+00,5.000000000000000000e+00,5.000000000000000000e+00,5.000000000000000000e+00,5.000000000000000000e+00,5.000000000000000000e+00,5.000000000000000000e+00,5.000000000000000000e+00,4.854129314422607422e+00,4.694624900817871094e+00,4.545269489288330078e+00,4.405124664306640625e+00,4.273363113403320312e+00,4.149254798889160156e+00,4.032152175903320312e+00,3.921478033065795898e+00,3.816717147827148438e+00,3.717407464981079102e+00
3.097768306732177734e+00,3.176076889038085938e+00,3.258444547653198242e+00,3.345183134078979492e+00,3.436666011810302734e+00,3.533292770385742188e+00,3.635510921478271484e+00,3.743818998336791992e+00,3.858779191970825195e+00,3.981023073196411133e+00,4.111265182495117188e+00,4.250318050384521484e+00,4.399105548858642578e+00,4.558688640594482422e+00,4.730285644531250000e+00,4.915296077728271484e+00,5.000000000000000000e+00,5.000000000000000000e+00,5.000000000000000000e+00,5.000000000000000000e+00,5.000000000000000000e+00,5.000000000000000000e+00,5.000000000000000000e+00,5.000000000000000000e+00,5.000000000000000000e+00,5.000000000000000000e+00,5.000000000000000000e+00,5.000000000000000000e+00,5.000000000000000000e+00,5.000000000000000000e+00,5.000000000000000000e+00,5.000000000000000000e+00,5.000000000000000000e+00,5.000000000000000000e+00,5.000000000000000000e+00,5.000000000000000000e+00,5.000000000000000000e+00,5.000000000000000000e+00,5.000000000000000000e+00,5.000000000000000000e+00,5.000000000000000000e+00,5.000000000000000000e+00,5.000000000000000000e+00,5.000000000000000000e+00,5.000000000000000000e+00,5.000000000000000000e+00,5.000000000000000000e+00,4.879273891448974609e+00,4.827933311462402344e+00,4.770111560821533203e+00,4.768659591674804688e+00,4.777516841888427734e+00,4.842227935791015625e+00,5.000000000000000000e+00,5.000000000000000000e+00,5.000000000000000000e+00,5.000000000000000000e+00,5.000000000000000000e+00,5.000000000000000000e+00,5.000000000000000000e+00,5.000000000000000000e+00,5.000000000000000000e+00,5.000000000000000000e+00,5.000000000000000000e+00,5.000000000000000000e+00,5.000000000000000000e+00,5.000000000000000000e+00,5.000000000000000000e+00,5.000000000000000000e+00,5.000000000000000000e+00,4.854258537292480469e+00,4.694746017456054688e+00,4.545383453369140625e+00,4.405230998992919922e+00,4.273463726043701172e+00,4.149349689483642578e+00,4.032241344451904297e+00,3.921562671661376953e+00,3.816797018051147461e+00,3.717483758926391602e+00
3.097669124603271484e+00,3.175972461700439453e+00,3.258337259292602539e+00,3.345087766647338867e+00,3.436583995819091797e+00,3.533206939697265625e+00,3.635420083999633789e+00,3.743722677230834961e+00,3.858676671981811523e+00,3.980913877487182617e+00,4.111148834228515625e+00,4.250193119049072266e+00,4.398972511291503906e+00,4.558545589447021484e+00,4.730131149291992188e+00,4.915139675140380859e+00,5.000000000000000000e+00,5.000000000000000000e+00,5.000000000000000000e+00,5.000000000000000000e+00,5.000000000000000000e+00,5.000000000000000000e+00,5.000000000000000000e+00,5.000000000000000000e+00,5.000000000000000000e+00,5.000000000000000000e+00,5.000000000000000000e+00,5.000000000000000000e+00,5.000000000000000000e+00,5.000000000000000000e+00,5.000000000000000000e+00,5.000000000000000000e+00,5.000000000000000000e+00,5.000000000000000000e+00,5.000000000000000000e+00,5.000000000000000000e+00,5.000000000000000000e+00,5.000000000000000000e+00,5.000000000000000000e+00,5.000000000000000000e+00,5.000000000000000000e+00,5.000000000000000000e+00,5.000000000000000000e+00,5.000000000000000000e+00,5.000000000000000000e+00,5.000000000000000000e+00,5.000000000000000000e+00,4.926439285278320312e+00,4.847990036010742188e+00,4.773550033569335938e+00,4.755776882171630859e+00,4.791317939758300781e+00,4.835186481475830078e+00,5.000000000000000000e+00,5.000000000000000000e+00,5.000000000000000000e+00,5.000000000000000000e+00,5.000000000000000000e+00,5.000000000000000000e+00,5.000000000000000000e+00,5.000000000000000000e+00,5.000000000000000000e+00,5.000000000000000000e+00,5.000000000000000000e+00,5.000000000000000000e+00,5.000000000000000000e+00,5.000000000000000000e+00,5.000000000000000000e+00,5.000000000000000000e+00,5.000000000000000000e+00,4.854388713836669922e+00,4.694867610931396484e+00,4.545496940612792969e+00,4.405338287353515625e+00,4.273564338684082031e+00,4.149444580078125000e+00,4.032330989837646484e+00,3.921647548675537109e+00,3.816877365112304688e+00,3.717559814453125000e+00
3.097569942474365234e+00,3.175868272781372070e+00,3.258227586746215820e+00,3.344972133636474609e+00,3.436461925506591797e+00,3.533097028732299805e+00,3.635324954986572266e+00,3.743626117706298828e+00,3.858574151992797852e+00,3.980804443359375000e+00,4.111032485961914062e+00,4.250068664550781250e+00,4.398838996887207031e+00,4.558402538299560547e+00,4.729977130889892578e+00,4.914972782135009766e+00,5.000000000000000000e+00,5.000000000000000000e+00,5.000000000000000000e+00,5.000000000000000000e+00,5.000000000000000000e+00,5.000000000000000000e+00,5.000000000000000000e+00,5.000000000000000000e+00,5.000000000000000000e+00,5.000000000000000000e+00,5.000000000000000000e+00,5.000000000000000000e+00,5.000000000000000000e+00,5.000000000000000000e+00,5.000000000000000000e+00,5.000000000000000000e+00,5.000000000000000000e+00,5.000000000000000000e+00,5.000000000000000000e+00,5.000000000000000000e+00,5.000000000000000000e+00,5.000000000000000000e+00,5.000000000000000000e+00,5.000000000000000000e+00,5.000000000000000000e+00,5.000000000000000000e+00,5.000000000000000000e+00,5.000000000000000000e+00,5.000000000000000000e+00,5.000000000000000000e+00,5.000000000000000000e+00,4.951529502868652344e+00,4.870731830596923828e+00,4.767529964447021484e+00,4.763529300689697266e+00,4.790912628173828125e+00,4.858052730560302734e+00,5.000000000000000000e+00,5.000000000000000000e+00,5.000000000000000000e+00,5.000000000000000000e+00,5.000000000000000000e+00,5.000000000000000000e+00,5.000000000000000000e+00,5.000000000000000000e+00,5.000000000000000000e+00,5.000000000000000000e+00,5.000000000000000000e+00,5.000000000000000000e+00,5.000000000000000000e+00,5.000000000000000000e+00,5.000000000000000000e+00,5.000000000000000000e+00,5.000000000000000000e+00,4.854518413543701172e+00,4.694988727569580078e+00,4.545610904693603516e+00,4.405444622039794922e+00,4.273664474487304688e+00,4.149539470672607422e+00,4.032420635223388672e+00,3.921731948852539062e+00,3.816957712173461914e+00,3.717635631561279297e+00
3.097500801086425781e+00,3.175779342651367188e+00,3.258118152618408203e+00,3.344856739044189453e+00,3.436340332031250000e+00,3.532968521118164062e+00,3.635188341140747070e+00,3.743499517440795898e+00,3.858463287353515625e+00,3.980695247650146484e+00,4.110916137695312500e+00,4.249944686889648438e+00,4.398705959320068359e+00,4.558259010314941406e+00,4.729823112487792969e+00,4.914806842803955078e+00,5.000000000000000000e+00,5.000000000000000000e+00,5.000000000000000000e+00,5.000000000000000000e+00,5.000000000000000000e+00,5.000000000000000000e+00,5.000000000000000000e+00,5.000000000000000000e+00,5.000000000000000000e+00,5.000000000000000000e+00,5.000000000000000000e+00,5.000000000000000000e+00,5.000000000000000000e+00,5.000000000000000000e+00,5.000000000000000000e+00,5.000000000000000000e+00,5.000000000000000000e+00,5.000000000000000000e+00,5.000000000000000000e+00,5.000000000000000000e+00,5.000000000000000000e+00,5.000000000000000000e+00,5.000000000000000000e+00,5.000000000000000000e+00,5.000000000000000000e+00,5.000000000000000000e+00,5.000000000000000000e+00,5.000000000000000000e+00,5.000000000000000000e+00,5.000000000000000000e+00,5.000000000000000000e+00,5.000000000000000000e+00,4.833744049072265625e+00,4.771616935729980469e+00,4.757013320922851562e+00,4.799106597900390625e+00,4.849822998046875000e+00,4.830482006072998047e+00,5.000000000000000000e+00,5.000000000000000000e+00,5.000000000000000000e+00,5.000000000000000000e+00,5.000000000000000000e+00,5.000000000000000000e+00,5.000000000000000000e+00,5.000000000000000000e+00,5.000000000000000000e+00,5.000000000000000000e+00,5.000000000000000000e+00,5.000000000000000000e+00,5.000000000000000000e+00,5.000000000000000000e+00,5.000000000000000000e+00,5.000000000000000000e+00,4.854647636413574219e+00,4.695109844207763672e+00,4.545724391937255859e+00,4.405551433563232422e+00,4.273765087127685547e+00,4.149633884429931641e+00,4.032509803771972656e+00,3.921816587448120117e+00,3.817037582397460938e+00,3.717711925506591797e+00
3.097434759140014648e+00,3.175709724426269531e+00,3.258043766021728516e+00,3.344760656356811523e+00,3.436219692230224609e+00,3.532839298248291016e+00,3.635051727294921875e+00,3.743354558944702148e+00,3.858309268951416016e+00,3.980547904968261719e+00,4.110785484313964844e+00,4.249819755554199219e+00,4.398572444915771484e+00,4.558115959167480469e+00,4.729668617248535156e+00,4.914640426635742188e+00,5.000000000000000000e+00,5.000000000000000000e+00,5.000000000000000000e+00,5.000000000000000000e+00,5.000000000000000000e+00,5.000000000000000000e+00,5.000000000000000000e+00,5.000000000000000000e+00,5.000000000000000000e+00,5.000000000000000000e+00,5.000000000000000000e+00,5.000000000000000000e+00,5.000000000000000000e+00,5.000000000000000000e+00,5.000000000000000000e+00,5.000000000000000000e+00,5.000000000000000000e+00,5.000000000000000000e+00,5.000000000000000000e+00,5.000000000000000000e+00,5.000000000000000000e+00,5.000000000000000000e+00,5.000000000000000000e+00,5.000000000000000000e+00,5.000000000000000000e+00,5.000000000000000000e+00,5.000000000000000000e+00,5.000000000000000000e+00,5.000000000000000000e+00,5.000000000000000000e+00,5.000000000000000000e+00,5.000000000000000000e+00,4.808861255645751953e+00,4.785864353179931641e+00,4.776885032653808594e+00,4.792800903320312500e+00,5.000000000000000000e+00,4.773435115814208984e+00,5.000000000000000000e+00,5.000000000000000000e+00,5.000000000000000000e+00,5.000000000000000000e+00,5.000000000000000000e+00,5.000000000000000000e+00,5.000000000000000000e+00,5.000000000000000000e+00,5.000000000000000000e+00,5.000000000000000000e+00,5.000000000000000000e+00,5.000000000000000000e+00,5.000000000000000000e+00,5.000000000000000000e+00,5.000000000000000000e+00,5.000000000000000000e+00,4.854777812957763672e+00,4.695231437683105469e+00,4.545838356018066406e+00,4.405658721923828125e+00,4.273865699768066406e+00,4.149728775024414062e+00,4.032599449157714844e+00,3.921901464462280273e+00,3.817117929458618164e+00,3.717787742614746094e+00
3.097368717193603516e+00,3.175640344619750977e+00,3.257970571517944336e+00,3.344683647155761719e+00,3.436138391494750977e+00,3.532735109329223633e+00,3.634920597076416016e+00,3.743209838867187500e+00,3.858155488967895508e+00,3.980384111404418945e+00,4.110610961914062500e+00,4.249647140502929688e+00,4.398417949676513672e+00,4.557972908020019531e+00,4.729514598846435547e+00,4.914473533630371094e+00,5.000000000000000000e+00,5.000000000000000000e+00,5.000000000000000000e+00,5.000000000000000000e+00,5.000000000000000000e+00,5.000000000000000000e+00,5.000000000000000000e+00,5.000000000000000000e+00,5.000000000000000000e+00,5.000000000000000000e+00,5.000000000000000000e+00,5.000000000000000000e+00,5.000000000000000000e+00,5.000000000000000000e+00,5.000000000000000000e+00,5.000000000000000000e+00,5.000000000000000000e+00,5.000000000000000000e+00,5.000000000000000000e+00,5.000000000000000000e+00,5.000000000000000000e+00,5.000000000000000000e+00,5.000000000000000000e+00,5.000000000000000000e+00,5.000000000000000000e+00,5.000000000000000000e+00,5.000000000000000000e+00,5.000000000000000000e+00,5.000000000000000000e+00,5.000000000000000000e+00,5.000000000000000000e+00,4.946604728698730469e+00,4.764655590057373047e+00,4.721875667572021484e+00,4.798317432403564453e+00,4.777929782867431641e+00,5.000000000000000000e+00,4.721724033355712891e+00,5.000000000000000000e+00,5.000000000000000000e+00,5.000000000000000000e+00,5.000000000000000000e+00,5.000000000000000000e+00,5.000000000000000000e+00,5.000000000000000000e+00,5.000000000000000000e+00,5.000000000000000000e+00,5.000000000000000000e+00,5.000000000000000000e+00,5.000000000000000000e+00,5.000000000000000000e+00,5.000000000000000000e+00,5.000000000000000000e+00,5.000000000000000000e+00,4.854907512664794922e+00,4.695352554321289062e+00,4.545951843261718750e+00,4.405765533447265625e+00,4.273966312408447266e+00,4.149823665618896484e+00,4.032689094543457031e+00,3.921985864639282227e+00,3.817198276519775391e+00,3.717863798141479492e+00
3.097302675247192383e+00,3.175570964813232422e+00,3.257897615432739258e+00,3.344606637954711914e+00,3.436057090759277344e+00,3.532649278640747070e+00,3.634829759597778320e+00,3.743096590042114258e+00,3.858011245727539062e+00,3.980220317840576172e+00,4.110436439514160156e+00,4.249460220336914062e+00,4.398218154907226562e+00,4.557768344879150391e+00,4.729330062866210938e+00,4.914307594299316406e+00,5.000000000000000000e+00,5.000000000000000000e+00,5.000000000000000000e+00,5.000000000000000000e+00,5.000000000000000000e+00,5.000000000000000000e+00,5.000000000000000000e+00,5.000000000000000000e+00,5.000000000000000000e+00,5.000000000000000000e+00,5.000000000000000000e+00,5.000000000000000000e+00,5.000000000000000000e+00,5.000000000000000000e+00,5.000000000000000000e+00,5.000000000000000000e+00,5.000000000000000000e+00,5.000000000000000000e+00,5.000000000000000000e+00,5.000000000000000000e+00,5.000000000000000000e+00,5.000000000000000000e+00,5.000000000000000000e+00,5.000000000000000000e+00,5.000000000000000000e+00,5.000000000000000000e+00,5.000000000000000000e+00,5.000000000000000000e+00,5.000000000000000000e+00,5.000000000000000000e+00,5.000000000000000000e+00,5.000000000000000000e+00,4.774143218994140625e+00,4.703657627105712891e+00,4.793547630310058594e+00,4.773958683013916016e+00,5.000000000000000000e+00,5.000000000000000000e+00,5.000000000000000000e+00,5.000000000000000000e+00,5.000000000000000000e+00,5.000000000000000000e+00,5.000000000000000000e+00,5.000000000000000000e+00,5.000000000000000000e+00,5.000000000000000000e+00,5.000000000000000000e+00,5.000000000000000000e+00,5.000000000000000000e+00,5.000000000000000000e+00,5.000000000000000000e+00,5.000000000000000000e+00,5.000000000000000000e+00,5.000000000000000000e+00,4.855036735534667969e+00,4.695474147796630859e+00,4.546065807342529297e+00,4.405871868133544922e+00,4.274066925048828125e+00,4.149918079376220703e+00,4.032778739929199219e+00,3.922070741653442383e+00,3.817278146743774414e+00,3.717940568923950195e+00
3.097236156463623047e+00,3.175501585006713867e+00,3.257824420928955078e+00,3.344529390335083008e+00,3.435976028442382812e+00,3.532563447952270508e+00,3.634738683700561523e+00,3.743000030517578125e+00,3.857908725738525391e+00,3.980096578598022461e+00,4.110277175903320312e+00,4.249273777008056641e+00,4.398017883300781250e+00,4.557553768157958984e+00,4.729098796844482422e+00,4.914062976837158203e+00,5.000000000000000000e+00,5.000000000000000000e+00,5.000000000000000000e+00,5.000000000000000000e+00,5.000000000000000000e+00,5.000000000000000000e+00,5.000000000000000000e+00,5.000000000000000000e+00,5.000000000000000000e+00,5.000000000000000000e+00,5.000000000000000000e+00,5.000000000000000000e+00,5.000000000000000000e+00,5.000000000000000000e+00,5.000000000000000000e+00,5.000000000000000000e+00,5.000000000000000000e+00,5.000000000000000000e+00,5.000000000000000000e+00,5.000000000000000000e+00,5.000000000000000000e+00,5.000000000000000000e+00,5.000000000000000000e+00,5.000000000000000000e+00,5.000000000000000000e+00,5.000000000000000000e+00,5.000000000000000000e+00,5.000000000000000000e+00,5.000000000000000000e+00,5.000000000000000000e+00,5.000000000000000000e+00,4.900821208953857422e+00,5.000000000000000000e+00,4.687707424163818359e+00,4.800372123718261719e+00,4.782182216644287109e+00,5.000000000000000000e+00,5.000000000000000000e+00,5.000000000000000000e+00,5.000000000000000000e+00,5.000000000000000000e+00,5.000000000000000000e+00,5.000000000000000000e+00,5.000000000000000000e+00,5.000000000000000000e+00,5.000000000000000000e+00,5.000000000000000000e+00,5.000000000000000000e+00,5.000000000000000000e+00,5.000000000000000000e+00,5.000000000000000000e+00,5.000000000000000000e+00,5.000000000000000000e+00,5.000000000000000000e+00,4.855166912078857422e+00,4.695595264434814453e+00,4.546179771423339844e+00,4.405979156494140625e+00,4.274167537689208984e+00,4.150013446807861328e+00,4.032868385314941406e+00,3.922157764434814453e+00,3.817364215850830078e+00,3.718024015426635742e+00
3.097170114517211914e+00,3.175432205200195312e+00,3.257751464843750000e+00,3.344452381134033203e+00,3.435894727706909180e+00,3.532477378845214844e+00,3.634647369384765625e+00,3.742903709411621094e+00,3.857806205749511719e+00,3.979987144470214844e+00,4.110160827636718750e+00,4.249136924743652344e+00,4.397840499877929688e+00,4.557338714599609375e+00,4.728867530822753906e+00,4.913813591003417969e+00,5.000000000000000000e+00,5.000000000000000000e+00,5.000000000000000000e+00,5.000000000000000000e+00,5.000000000000000000e+00,5.000000000000000000e+00,5.000000000000000000e+00,5.000000000000000000e+00,5.000000000000000000e+00,5.000000000000000000e+00,5.000000000000000000e+00,5.000000000000000000e+00,5.000000000000000000e+00,5.000000000000000000e+00,5.000000000000000000e+00,5.000000000000000000e+00,5.000000000000000000e+00,5.000000000000000000e+00,5.000000000000000000e+00,5.000000000000000000e+00,5.000000000000000000e+00,5.000000000000000000e+00,5.000000000000000000e+00,5.000000000000000000e+00,5.000000000000000000e+00,5.000000000000000000e+00,5.000000000000000000e+00,5.000000000000000000e+00,5.000000000000000000e+00,5.000000000000000000e+00,5.000000000000000000e+00,4.886209011077880859e+00,5.000000000000000000e+00,4.667625904083251953e+00,4.812701225280761719e+00,4.788178443908691406e+00,5.000000000000000000e+00,5.000000000000000000e+00,5.000000000000000000e+00,5.000000000000000000e+00,5.000000000000000000e+00,5.000000000000000000e+00,5.000000000000000000e+00,5.000000000000000000e+00,5.000000000000000000e+00,5.000000000000000000e+00,5.000000000000000000e+00,5.000000000000000000e+00,5.000000000000000000e+00,5.000000000000000000e+00,5.000000000000000000e+00,5.000000000000000000e+00,5.000000000000000000e+00,5.000000000000000000e+00,4.855296611785888672e+00,4.695716857910156250e+00,4.546293258666992188e+00,4.406085968017578125e+00,4.274269580841064453e+00,4.150113105773925781e+00,4.032966136932373047e+00,3.922250747680664062e+00,3.817452430725097656e+00,3.718107700347900391e+00
3.097104072570800781e+00,3.175362586975097656e+00,3.257678270339965820e+00,3.344375371932983398e+00,3.435813426971435547e+00,3.532391548156738281e+00,3.634556531906127930e+00,3.742807149887084961e+00,3.857703924179077148e+00,3.979877948760986328e+00,4.110044479370117188e+00,4.249012470245361328e+00,4.397707462310791016e+00,4.557186603546142578e+00,4.728668212890625000e+00,4.913564205169677734e+00,5.000000000000000000e+00,5.000000000000000000e+00,5.000000000000000000e+00,5.000000000000000000e+00,5.000000000000000000e+00,5.000000000000000000e+00,5.000000000000000000e+00,5.000000000000000000e+00,5.000000000000000000e+00,5.000000000000000000e+00,5.000000000000000000e+00,5.000000000000000000e+00,5.000000000000000000e+00,5.000000000000000000e+00,5.000000000000000000e+00,5.000000000000000000e+00,5.000000000000000000e+00,5.000000000000000000e+00,5.000000000000000000e+00,5.000000000000000000e+00,5.000000000000000000e+00,5.000000000000000000e+00,5.000000000000000000e+00,5.000000000000000000e+00,5.000000000000000000e+00,5.000000000000000000e+00,5.000000000000000000e+00,5.000000000000000000e+00,5.000000000000000000e+00,5.000000000000000000e+00,5.000000000000000000e+00,5.000000000000000000e+00,5.000000000000000000e+00,4.674509048461914062e+00,4.826613903045654297e+00,4.793843269348144531e+00,5.000000000000000000e+00,5.000000000000000000e+00,5.000000000000000000e+00,5.000000000000000000e+00,5.000000000000000000e+00,5.000000000000000000e+00,5.000000000000000000e+00,5.000000000000000000e+00,5.000000000000000000e+00,5.000000000000000000e+00,5.000000000000000000e+00,5.000000000000000000e+00,5.000000000000000000e+00,5.000000000000000000e+00,5.000000000000000000e+00,5.000000000000000000e+00,5.000000000000000000e+00,5.000000000000000000e+00,4.855426311492919922e+00,4.695838928222656250e+00,4.546411991119384766e+00,4.406201362609863281e+00,4.274380207061767578e+00,4.150217533111572266e+00,4.033064365386962891e+00,3.922343969345092773e+00,3.817540645599365234e+00,3.718191385269165039e+00
3.097038030624389648e+00,3.175293207168579102e+00,3.257605314254760742e+00,3.344298362731933594e+00,3.435732126235961914e+00,3.532305717468261719e+00,3.634465456008911133e+00,3.742710828781127930e+00,3.857601404190063477e+00,3.979768991470336914e+00,4.109928131103515625e+00,4.248888492584228516e+00,4.397573947906494141e+00,4.557044029235839844e+00,4.728514194488525391e+00,4.913393020629882812e+00,5.000000000000000000e+00,5.000000000000000000e+00,5.000000000000000000e+00,5.000000000000000000e+00,5.000000000000000000e+00,5.000000000000000000e+00,5.000000000000000000e+00,5.000000000000000000e+00,5.000000000000000000e+00,5.000000000000000000e+00,5.000000000000000000e+00,5.000000000000000000e+00,5.000000000000000000e+00,5.000000000000000000e+00,5.000000000000000000e+00,5.000000000000000000e+00,5.000000000000000000e+00,5.000000000000000000e+00,5.000000000000000000e+00,5.000000000000000000e+00,5.000000000000000000e+00,5.000000000000000000e+00,5.000000000000000000e+00,5.000000000000000000e+00,5.000000000000000000e+00,5.000000000000000000e+00,5.000000000000000000e+00,5.000000000000000000e+00,5.000000000000000000e+00,5.000000000000000000e+00,5.000000000000000000e+00,5.000000000000000000e+00,5.000000000000000000e+00,4.712694644927978516e+00,4.895414829254150391e+00,4.951377868652343750e+00,5.000000000000000000e+00,5.000000000000000000e+00,5.000000000000000000e+00,5.000000000000000000e+00,5.000000000000000000e+00,5.000000000000000000e+00,5.000000000000000000e+00,5.000000000000000000e+00,5.000000000000000000e+00,5.000000000000000000e+00,5.000000000000000000e+00,5.000000000000000000e+00,5.000000000000000000e+00,5.000000000000000000e+00,5.000000000000000000e+00,5.000000000000000000e+00,5.000000000000000000e+00,5.000000000000000000e+00,4.855565071105957031e+00,4.695972442626953125e+00,4.546536922454833984e+00,4.406319141387939453e+00,4.274490833282470703e+00,4.150321483612060547e+00,4.033163070678710938e+00,3.922436952590942383e+00,3.817628622055053711e+00,3.718275070190429688e+00
3.096972227096557617e+00,3.175223827362060547e+00,3.257532358169555664e+00,3.344221353530883789e+00,3.435650825500488281e+00,3.532219648361206055e+00,3.634374618530273438e+00,3.742614269256591797e+00,3.857498884201049805e+00,3.979660034179687500e+00,4.109811782836914062e+00,4.248764038085937500e+00,4.397440910339355469e+00,4.556900978088378906e+00,4.728360176086425781e+00,4.913227081298828125e+00,5.000000000000000000e+00,5.000000000000000000e+00,5.000000000000000000e+00,5.000000000000000000e+00,5.000000000000000000e+00,5.000000000000000000e+00,5.000000000000000000e+00,5.000000000000000000e+00,5.000000000000000000e+00,5.000000000000000000e+00,5.000000000000000000e+00,5.000000000000000000e+00,5.000000000000000000e+00,5.000000000000000000e+00,5.000000000000000000e+00,5.000000000000000000e+00,5.000000000000000000e+00,5.000000000000000000e+00,5.000000000000000000e+00,5.000000000000000000e+00,5.000000000000000000e+00,5.000000000000000000e+00,5.000000000000000000e+00,5.000000000000000000e+00,5.000000000000000000e+00,5.000000000000000000e+00,5.000000000000000000e+00,5.000000000000000000e+00,5.000000000000000000e+00,5.000000000000000000e+00,5.000000000000000000e+00,5.000000000000000000e+00,5.000000000000000000e+00,4.725194454193115234e+00,5.000000000000000000e+00,5.000000000000000000e+00,5.000000000000000000e+00,5.000000000000000000e+00,5.000000000000000000e+00,5.000000000000000000e+00,5.000000000000000000e+00,5.000000000000000000e+00,5.000000000000000000e+00,5.000000000000000000e+00,5.000000000000000000e+00,5.000000000000000000e+00,5.000000000000000000e+00,5.000000000000000000e+00,5.000000000000000000e+00,5.000000000000000000e+00,5.000000000000000000e+00,5.000000000000000000e+00,5.000000000000000000e+00,5.000000000000000000e+00,4.855708122253417969e+00,4.696105957031250000e+00,4.546662330627441406e+00,4.406436443328857422e+00,4.274601459503173828e+00,4.150425910949707031e+00,4.033261299133300781e+00,3.922529935836791992e+00,3.817716836929321289e+00,3.718358755111694336e+00
3.096906185150146484e+00,3.175154209136962891e+00,3.257459163665771484e+00,3.344144344329833984e+00,3.435569286346435547e+00,3.532133817672729492e+00,3.634283542633056641e+00,3.742517948150634766e+00,3.857396602630615234e+00,3.979550838470458984e+00,4.109695434570312500e+00,4.248639583587646484e+00,4.397307872772216797e+00,4.556757926940917969e+00,4.728206157684326172e+00,4.913060665130615234e+00,5.000000000000000000e+00,5.000000000000000000e+00,5.000000000000000000e+00,5.000000000000000000e+00,5.000000000000000000e+00,5.000000000000000000e+00,5.000000000000000000e+00,5.000000000000000000e+00,5.000000000000000000e+00,5.000000000000000000e+00,5.000000000000000000e+00,5.000000000000000000e+00,5.000000000000000000e+00,5.000000000000000000e+00,5.000000000000000000e+00,5.000000000000000000e+00,5.000000000000000000e+00,5.000000000000000000e+00,5.000000000000000000e+00,5.000000000000000000e+00,5.000000000000000000e+00,5.000000000000000000e+00,5.000000000000000000e+00,5.000000000000000000e+00,5.000000000000000000e+00,5.000000000000000000e+00,5.000000000000000000e+00,5.000000000000000000e+00,5.000000000000000000e+00,5.000000000000000000e+00,5.000000000000000000e+00,5.000000000000000000e+00,5.000000000000000000e+00,4.744345664978027344e+00,5.000000000000000000e+00,5.000000000000000000e+00,5.000000000000000000e+00,5.000000000000000000e+00,5.000000000000000000e+00,5.000000000000000000e+00,5.000000000000000000e+00,5.000000000000000000e+00,5.000000000000000000e+00,5.000000000000000000e+00,5.000000000000000000e+00,5.000000000000000000e+00,5.000000000000000000e+00,5.000000000000000000e+00,5.000000000000000000e+00,5.000000000000000000e+00,5.000000000000000000e+00,5.000000000000000000e+00,5.000000000000000000e+00,5.000000000000000000e+00,4.855850696563720703e+00,4.696238994598388672e+00,4.546787261962890625e+00,4.406553745269775391e+00,4.274712085723876953e+00,4.150530338287353516e+00,4.033359527587890625e+00,3.922623157501220703e+00,3.817805051803588867e+00,3.718442201614379883e+00
3.096840143203735352e+00,3.175084829330444336e+00,3.257386207580566406e+00,3.344067335128784180e+00,3.435487985610961914e+00,3.532047986984252930e+00,3.634192705154418945e+00,3.742421150207519531e+00,3.857294082641601562e+00,3.979441881179809570e+00,4.109579086303710938e+00,4.248515129089355469e+00,4.397174835205078125e+00,4.556614875793457031e+00,4.728052139282226562e+00,4.912894725799560547e+00,5.000000000000000000e+00,5.000000000000000000e+00,5.000000000000000000e+00,5.000000000000000000e+00,5.000000000000000000e+00,5.000000000000000000e+00,5.000000000000000000e+00,5.000000000000000000e+00,5.000000000000000000e+00,5.000000000000000000e+00,5.000000000000000000e+00,5.000000000000000000e+00,5.000000000000000000e+00,5.000000000000000000e+00,5.000000000000000000e+00,5.000000000000000000e+00,5.000000000000000000e+00,5.000000000000000000e+00,5.000000000000000000e+00,5.000000000000000000e+00,5.000000000000000000e+00,5.000000000000000000e+00,5.000000000000000000e+00,5.000000000000000000e+00,5.000000000000000000e+00,5.000000000000000000e+00,5.000000000000000000e+00,5.000000000000000000e+00,5.000000000000000000e+00,5.000000000000000000e+00,5.000000000000000000e+00,5.000000000000000000e+00,5.000000000000000000e+00,4.772559165954589844e+00,5.000000000000000000e+00,5.000000000000000000e+00,5.000000000000000000e+00,5.000000000000000000e+00,5.000000000000000000e+00,5.000000000000000000e+00,5.000000000000000000e+00,5.000000000000000000e+00,5.000000000000000000e+00,5.000000000000000000e+00,5.000000000000000000e+00,5.000000000000000000e+00,5.000000000000000000e+00,5.000000000000000000e+00,5.000000000000000000e+00,5.000000000000000000e+00,5.000000000000000000e+00,5.000000000000000000e+00,5.000000000000000000e+00,5.000000000000000000e+00,4.855993270874023438e+00,4.696372509002685547e+00,4.546912193298339844e+00,4.406671524047851562e+00,4.274822711944580078e+00,4.150634288787841797e+00,4.033458232879638672e+00,3.922716140747070312e+00,3.817893266677856445e+00,3.718525886535644531e+00
3.096774101257324219e+00,3.175015449523925781e+00,3.257313013076782227e+00,3.343990325927734375e+00,3.435406684875488281e+00,3.531962156295776367e+00,3.634101867675781250e+00,3.742324590682983398e+00,3.857191562652587891e+00,3.979332923889160156e+00,4.109462738037109375e+00,4.248391151428222656e+00,4.397041797637939453e+00,4.556471824645996094e+00,4.727898597717285156e+00,4.912728309631347656e+00,5.000000000000000000e+00,5.000000000000000000e+00,5.000000000000000000e+00,5.000000000000000000e+00,5.000000000000000000e+00,5.000000000000000000e+00,5.000000000000000000e+00,5.000000000000000000e+00,5.000000000000000000e+00,5.000000000000000000e+00,5.000000000000000000e+00,5.000000000000000000e+00,5.000000000000000000e+00,5.000000000000000000e+00,5.000000000000000000e+00,5.000000000000000000e+00,5.000000000000000000e+00,5.000000000000000000e+00,5.000000000000000000e+00,5.000000000000000000e+00,5.000000000000000000e+00,5.000000000000000000e+00,5.000000000000000000e+00,5.000000000000000000e+00,5.000000000000000000e+00,5.000000000000000000e+00,5.000000000000000000e+00,5.000000000000000000e+00,5.000000000000000000e+00,5.000000000000000000e+00,5.000000000000000000e+00,5.000000000000000000e+00,5.000000000000000000e+00,5.000000000000000000e+00,5.000000000000000000e+00,5.000000000000000000e+00,5.000000000000000000e+00,5.000000000000000000e+00,5.000000000000000000e+00,5.000000000000000000e+00,5.000000000000000000e+00,5.000000000000000000e+00,5.000000000000000000e+00,5.000000000000000000e+00,5.000000000000000000e+00,5.000000000000000000e+00,5.000000000000000000e+00,5.000000000000000000e+00,5.000000000000000000e+00,5.000000000000000000e+00,5.000000000000000000e+00,5.000000000000000000e+00,5.000000000000000000e+00,5.000000000000000000e+00,4.856135845184326172e+00,4.696506023406982422e+00,4.547037601470947266e+00,4.406788825988769531e+00,4.274932861328125000e+00,4.150738716125488281e+00,4.033556461334228516e+00,3.922809362411499023e+00,3.817981481552124023e+00,3.718609571456909180e+00
3.096708059310913086e+00,3.174946069717407227e+00,3.257240056991577148e+00,3.343913555145263672e+00,3.435325622558593750e+00,3.531876325607299805e+00,3.634010791778564453e+00,3.742228269577026367e+00,3.857089281082153320e+00,3.979223966598510742e+00,4.109346389770507812e+00,4.248266696929931641e+00,4.396908760070800781e+00,4.556328773498535156e+00,4.727744579315185547e+00,4.854178905487060547e+00,4.852974891662597656e+00,4.851771354675292969e+00,4.850568294525146484e+00,4.849365711212158203e+00,4.848163604736328125e+00,4.846962451934814453e+00,4.845761775970458984e+00,4.844561576843261719e+00,4.843361854553222656e+00,4.842163085937500000e+00,4.840964794158935547e+00,4.839766979217529297e+00,4.838569641113281250e+00,4.837372779846191406e+00,4.836177349090576172e+00,4.834981918334960938e+00,4.833786964416503906e+00,4.832592487335205078e+00,4.831398963928222656e+00,4.830205917358398438e+00,4.829013347625732422e+00,4.827821731567382812e+00,4.826630115509033203e+00,4.825439929962158203e+00,4.824249744415283203e+00,4.823060035705566406e+00,4.821871280670166016e+00,4.820683002471923828e+00,4.819495201110839844e+00,4.818307876586914062e+00,4.817121505737304688e+00,4.815935611724853516e+00,4.814750194549560547e+00,4.813565254211425781e+00,4.626918315887451172e+00,4.811197280883789062e+00,4.810014247894287109e+00,4.808831691741943359e+00,4.807649612426757812e+00,4.806468486785888672e+00,4.805287837982177734e+00,4.804107666015625000e+00,4.802927970886230469e+00,4.801748752593994141e+00,4.800570487976074219e+00,4.799392700195312500e+00,4.798215389251708984e+00,4.797038555145263672e+00,4.795862674713134766e+00,4.794687271118164062e+00,4.793512344360351562e+00,4.792337894439697266e+00,4.791163921356201172e+00,4.789990425109863281e+00,4.788818359375000000e+00,4.696639537811279297e+00,4.547162532806396484e+00,4.406906604766845703e+00,4.275043487548828125e+00,4.150842666625976562e+00,4.033655166625976562e+00,3.922902345657348633e+00,3.818069696426391602e+00,3.718693256378173828e+00
3.096642017364501953e+00,3.174876451492309570e+00,3.257167100906372070e+00,3.343836545944213867e+00,3.435244321823120117e+00,3.531790256500244141e+00,3.633919954299926758e+00,3.742131948471069336e+00,3.770691633224487305e+00,3.769964694976806641e+00,3.769238471984863281e+00,3.768512010574340820e+00,3.767786264419555664e+00,3.767060518264770508e+00,3.766335248947143555e+00,3.765610456466674805e+00,3.764885425567626953e+00,3.764161109924316406e+00,3.763436555862426758e+00,3.762712717056274414e+00,3.761989355087280273e+00,3.761265754699707031e+00,3.760542869567871094e+00,3.759819984436035156e+00,3.759097337722778320e+00,3.758375167846679688e+00,3.757652997970581055e+00,3.756931543350219727e+00,3.756210088729858398e+00,3.755488634109497070e+00,3.754768133163452148e+00,3.754047155380249023e+00,3.753326892852783203e+00,3.752607107162475586e+00,3.751887083053588867e+00,3.751167774200439453e+00,3.750448226928710938e+00,3.749729394912719727e+00,3.749011039733886719e+00,3.748292207717895508e+00,3.747574329376220703e+00,3.746856689453125000e+00,3.746138811111450195e+00,3.745421648025512695e+00,3.744704484939575195e+00,3.743987798690795898e+00,3.743271589279174805e+00,3.742555141448974609e+00,3.741839408874511719e+00,3.741123437881469727e+00,3.740408182144165039e+00,3.739693403244018555e+00,3.738978147506713867e+00,3.738263845443725586e+00,3.737549781799316406e+00,3.736835479736328125e+00,3.736121892929077148e+00,3.735408067703247070e+00,3.734695196151733398e+00,3.733982324600219727e+00,3.733269453048706055e+00,3.732557296752929688e+00,3.731844902038574219e+00,3.731133222579956055e+00,3.730421781539916992e+00,3.729710340499877930e+00,3.728999376296997070e+00,3.728288888931274414e+00,3.727578163146972656e+00,3.726868152618408203e+00,3.726157903671264648e+00,3.725448369979858398e+00,3.724739074707031250e+00,3.724029779434204102e+00,3.723320960998535156e+00,3.722612142562866211e+00,3.721904039382934570e+00,3.721196174621582031e+00,3.720488071441650391e+00,3.718776941299438477e+00
3.083113908767700195e+00,3.082628011703491211e+00,3.082142353057861328e+00,3.081656455993652344e+00,3.081171035766601562e+00,3.080685853958129883e+00,3.080200433731079102e+00,3.079715728759765625e+00,3.079230785369873047e+00,3.078745841979980469e+00,3.078261613845825195e+00,3.077776908874511719e+00,3.077292919158935547e+00,3.076808691024780273e+00,3.076324701309204102e+00,3.075840711593627930e+00,3.075357198715209961e+00,3.074873924255371094e+00,3.074390411376953125e+00,3.073907375335693359e+00,3.073424339294433594e+00,3.072941541671752930e+00,3.072458982467651367e+00,3.071976184844970703e+00,3.071494102478027344e+00,3.071012020111083984e+00,3.070529699325561523e+00,3.070047855377197266e+00,3.069566011428833008e+00,3.069084405899047852e+00,3.068603038787841797e+00,3.068121671676635742e+00,3.067640542984008789e+00,3.067159414291381836e+00,3.066678524017333984e+00,3.066198110580444336e+00,3.065717458724975586e+00,3.065237045288085938e+00,3.064756631851196289e+00,3.064276695251464844e+00,3.063796758651733398e+00,3.063316822052001953e+00,3.062837362289428711e+00,3.062357902526855469e+00,3.061878442764282227e+00,3.061399221420288086e+00,3.060920000076293945e+00,3.060441255569458008e+00,3.059962511062622070e+00,3.059483766555786133e+00,3.059005498886108398e+00,3.058526992797851562e+00,3.058048963546752930e+00,3.057570934295654297e+00,3.057092905044555664e+00,3.056615352630615234e+00,3.056138038635253906e+00,3.055660247802734375e+00,3.055183172225952148e+00,3.054705858230590820e+00,3.054229021072387695e+00,3.053752422332763672e+00,3.053275585174560547e+00,3.052798986434936523e+00,3.052322626113891602e+00,3.051846504211425781e+00,3.051370382308959961e+00,3.050894260406494141e+00,3.050418615341186523e+00,3.049942970275878906e+00,3.049467563629150391e+00,3.048992395401000977e+00,3.048516988754272461e+00,3.048042058944702148e+00,3.047567367553710938e+00,3.047092437744140625e+00,3.046617984771728516e+00,3.046143293380737305e+00,3.045669078826904297e+00,3.045195102691650391e+00
2.604841470718383789e+00,2.604494571685791016e+00,2.604147911071777344e+00,2.603801012039184570e+00,2.603454351425170898e+00,2.603107929229736328e+00,2.602761507034301758e+00,2.602415323257446289e+00,2.602069139480590820e+00,2.601722717285156250e+00,2.601376771926879883e+00,2.601030826568603516e+00,2.600685119628906250e+00,2.600339174270629883e+00,2.599993467330932617e+00,2.599647998809814453e+00,2.599302530288696289e+00,2.598957061767578125e+00,2.598611831665039062e+00,2.598266363143920898e+00,2.597921371459960938e+00,2.597576379776000977e+00,2.597231388092041016e+00,2.596886634826660156e+00,2.596541881561279297e+00,2.596197128295898438e+00,2.595852851867675781e+00,2.595508098602294922e+00,2.595164060592651367e+00,2.594819784164428711e+00,2.594475507736206055e+00,2.594131469726562500e+00,2.593787670135498047e+00,2.593443632125854492e+00,2.593099832534790039e+00,2.592756032943725586e+00,2.592412471771240234e+00,2.592068910598754883e+00,2.591725349426269531e+00,2.591382265090942383e+00,2.591038703918457031e+00,2.590695619583129883e+00,2.590352773666381836e+00,2.590009689331054688e+00,2.589666843414306641e+00,2.589323997497558594e+00,2.588981151580810547e+00,2.588638782501220703e+00,2.588295936584472656e+00,2.587953567504882812e+00,2.587611436843872070e+00,2.587269067764282227e+00,2.586926937103271484e+00,2.586584806442260742e+00,2.586242914199829102e+00,2.585901021957397461e+00,2.585559129714965820e+00,2.585217475891113281e+00,2.584875822067260742e+00,2.584534406661987305e+00,2.584192991256713867e+00,2.583851575851440430e+00,2.583510160446166992e+00,2.583169221878051758e+00,2.582828044891357422e+00,2.582487106323242188e+00,2.582145929336547852e+00,2.581805229187011719e+00,2.581464767456054688e+00,2.581123828887939453e+00,2.580783367156982422e+00,2.580442905426025391e+00,2.580102443695068359e+00,2.579762458801269531e+00,2.579421997070312500e+00,2.579082012176513672e+00,2.578742027282714844e+00,2.578402042388916016e+00,2.578062295913696289e+00,2.577722549438476562e+00
2.255027055740356445e+00,2.254767179489135742e+00,2.254507303237915039e+00,2.254247426986694336e+00,2.253987550735473633e+00,2.253727912902832031e+00,2.253468275070190430e+00,2.253208637237548828e+00,2.252948999404907227e+00,2.252689599990844727e+00,2.252430200576782227e+00,2.252170801162719727e+00,2.251911640167236328e+00,2.251652240753173828e+00,2.251393079757690430e+00,2.251133918762207031e+00,2.250874757766723633e+00,2.250615835189819336e+00,2.250356912612915039e+00,2.250097990036010742e+00,2.249839305877685547e+00,2.249580383300781250e+00,2.249321699142456055e+00,2.249063014984130859e+00,2.248804330825805664e+00,2.248545885086059570e+00,2.248287439346313477e+00,2.248028993606567383e+00,2.247770786285400391e+00,2.247512340545654297e+00,2.247254133224487305e+00,2.246996164321899414e+00,2.246737957000732422e+00,2.246479988098144531e+00,2.246222019195556641e+00,2.245964050292968750e+00,2.245706319808959961e+00,2.245448350906372070e+00,2.245190620422363281e+00,2.244933128356933594e+00,2.244675397872924805e+00,2.244417905807495117e+00,2.244160175323486328e+00,2.243902921676635742e+00,2.243645429611206055e+00,2.243388175964355469e+00,2.243130922317504883e+00,2.242873907089233398e+00,2.242616653442382812e+00,2.242359638214111328e+00,2.242102384567260742e+00,2.241845607757568359e+00,2.241588592529296875e+00,2.241331815719604492e+00,2.241075038909912109e+00,2.240818262100219727e+00,2.240561485290527344e+00,2.240304946899414062e+00,2.240048408508300781e+00,2.239791870117187500e+00,2.239535331726074219e+00,2.239279031753540039e+00,2.239022731781005859e+00,2.238766431808471680e+00,2.238510370254516602e+00,2.238254308700561523e+00,2.237998008728027344e+00,2.237742185592651367e+00,2.237486124038696289e+00,2.237230300903320312e+00,2.236974477767944336e+00,2.236718416213989258e+00,2.236462831497192383e+00,2.236207008361816406e+00,2.235951423645019531e+00,2.235696077346801758e+00,2.235440492630004883e+00,2.235184907913208008e+00,2.234929800033569336e+00,2.234674215316772461e+00
1.988044857978820801e+00,1.987842679023742676e+00,1.987640857696533203e+00,1.987438917160034180e+00,1.987236857414245605e+00,1.987034916877746582e+00,1.986833095550537109e+00,1.986631512641906738e+00,1.986429572105407715e+00,1.986227869987487793e+00,1.986026167869567871e+00,1.985824465751647949e+00,1.985623002052307129e+00,1.985421419143676758e+00,1.985219836235046387e+00,1.985018372535705566e+00,1.984816908836364746e+00,1.984615683555603027e+00,1.984414219856262207e+00,1.984212875366210938e+00,1.984011530876159668e+00,1.983810186386108398e+00,1.983609199523925781e+00,1.983408093452453613e+00,1.983206868171691895e+00,1.983005762100219727e+00,1.982804656028747559e+00,1.982603907585144043e+00,1.982402920722961426e+00,1.982201933860778809e+00,1.982000946998596191e+00,1.981800079345703125e+00,1.981599330902099609e+00,1.981398701667785645e+00,1.981197953224182129e+00,1.980997204780578613e+00,1.980796575546264648e+00,1.980596184730529785e+00,1.980395555496215820e+00,1.980195045471191406e+00,1.979994773864746094e+00,1.979794263839721680e+00,1.979593873023986816e+00,1.979393720626831055e+00,1.979193329811096191e+00,1.978993058204650879e+00,1.978793025016784668e+00,1.978592753410339355e+00,1.978392601013183594e+00,1.978192448616027832e+00,1.977992534637451172e+00,1.977792501449584961e+00,1.977592468261718750e+00,1.977392673492431641e+00,1.977192759513854980e+00,1.976992845535278320e+00,1.976793169975280762e+00,1.976593375205993652e+00,1.976393580436706543e+00,1.976194143295288086e+00,1.975994348526000977e+00,1.975794672966003418e+00,1.975595116615295410e+00,1.975395798683166504e+00,1.975196242332458496e+00,1.974996685981750488e+00,1.974797487258911133e+00,1.974598050117492676e+00,1.974398612976074219e+00,1.974199533462524414e+00,1.974000215530395508e+00,1.973801016807556152e+00,1.973602056503295898e+00,1.973402857780456543e+00,1.973203659057617188e+00,1.973004579544067383e+00,1.972805738449096680e+00,1.972606778144836426e+00,1.972407817840576172e+00,1.972209095954895020e+00
1.777588605880737305e+00,1.777427077293395996e+00,1.777265548706054688e+00,1.777104020118713379e+00,1.776942491531372070e+00,1.776781201362609863e+00,1.776619791984558105e+00,1.776458382606506348e+00,1.776297092437744141e+00,1.776135683059692383e+00,1.775974512100219727e+00,1.775813341140747070e+00,1.775652050971984863e+00,1.775490760803222656e+00,1.775329589843750000e+00,1.775168657302856445e+00,1.775007486343383789e+00,1.774846315383911133e+00,1.774685263633728027e+00,1.774524211883544922e+00,1.774363398551940918e+00,1.774202346801757812e+00,1.774041414260864258e+00,1.773880481719970703e+00,1.773719549179077148e+00,1.773558855056762695e+00,1.773398041725158691e+00,1.773237228393554688e+00,1.773076415061950684e+00,1.772915720939636230e+00,1.772755146026611328e+00,1.772594451904296875e+00,1.772433757781982422e+00,1.772273063659667969e+00,1.772112488746643066e+00,1.771952033042907715e+00,1.771791338920593262e+00,1.771631002426147461e+00,1.771470427513122559e+00,1.771309971809387207e+00,1.771149754524230957e+00,1.770989298820495605e+00,1.770828962326049805e+00,1.770668745040893555e+00,1.770508408546447754e+00,1.770348191261291504e+00,1.770187854766845703e+00,1.770027875900268555e+00,1.769867658615112305e+00,1.769707441329956055e+00,1.769547462463378906e+00,1.769387364387512207e+00,1.769227266311645508e+00,1.769067406654357910e+00,1.768907308578491211e+00,1.768747329711914062e+00,1.768587470054626465e+00,1.768427610397338867e+00,1.768267631530761719e+00,1.768107771873474121e+00,1.767948031425476074e+00,1.767788290977478027e+00,1.767628431320190430e+00,1.767468810081481934e+00,1.767309069633483887e+00,1.767149329185485840e+00,1.766989946365356445e+00,1.766830205917358398e+00,1.766670584678649902e+00,1.766510963439941406e+00,1.766351580619812012e+00,1.766192078590393066e+00,1.766032576560974121e+00,1.765873193740844727e+00,1.765713810920715332e+00,1.765554308891296387e+00,1.765395164489746094e+00,1.765235781669616699e+00,1.765076518058776855e+00,1.764917373657226562e+00
1.607425093650817871e+00,1.607292890548706055e+00,1.607161045074462891e+00,1.607028961181640625e+00,1.606896877288818359e+00,1.606764793395996094e+00,1.606632828712463379e+00,1.606500983238220215e+00,1.606369018554687500e+00,1.606237053871154785e+00,1.606105089187622070e+00,1.605973124504089355e+00,1.605841398239135742e+00,1.605709552764892578e+00,1.605577707290649414e+00,1.605445861816406250e+00,1.605314135551452637e+00,1.605182409286499023e+00,1.605050683021545410e+00,1.604918956756591797e+00,1.604787230491638184e+00,1.604655504226684570e+00,1.604524016380310059e+00,1.604392409324645996e+00,1.604260802268981934e+00,1.604129195213317871e+00,1.603997588157653809e+00,1.603866100311279297e+00,1.603734612464904785e+00,1.603603124618530273e+00,1.603471636772155762e+00,1.603340148925781250e+00,1.603208780288696289e+00,1.603077411651611328e+00,1.602945923805236816e+00,1.602814555168151855e+00,1.602683186531066895e+00,1.602552056312561035e+00,1.602420687675476074e+00,1.602289319038391113e+00,1.602158069610595703e+00,1.602026820182800293e+00,1.601895570755004883e+00,1.601764321327209473e+00,1.601633310317993164e+00,1.601502180099487305e+00,1.601370930671691895e+00,1.601240038871765137e+00,1.601108908653259277e+00,1.600977778434753418e+00,1.600846886634826660e+00,1.600715875625610352e+00,1.600584864616394043e+00,1.600453853607177734e+00,1.600322961807250977e+00,1.600192070007324219e+00,1.600061058998107910e+00,1.599930286407470703e+00,1.599799394607543945e+00,1.599668502807617188e+00,1.599537849426269531e+00,1.599406957626342773e+00,1.599276185035705566e+00,1.599145531654357910e+00,1.599014759063720703e+00,1.598883986473083496e+00,1.598753333091735840e+00,1.598622679710388184e+00,1.598492026329040527e+00,1.598361372947692871e+00,1.598230838775634766e+00,1.598100304603576660e+00,1.597969651222229004e+00,1.597839236259460449e+00,1.597708702087402344e+00,1.597578167915344238e+00,1.597447752952575684e+00,1.597317337989807129e+00,1.597186803817749023e+00,1.597056388854980469e+00
1.466993927955627441e+00,1.466883897781372070e+00,1.466773867607116699e+00,1.466663837432861328e+00,1.466553807258605957e+00,1.466444015502929688e+00,1.466333985328674316e+00,1.466224074363708496e+00,1.466114163398742676e+00,1.466004252433776855e+00,1.465894460678100586e+00,1.465784549713134766e+00,1.465674638748168945e+00,1.465564846992492676e+00,1.465455055236816406e+00,1.465345263481140137e+00,1.465235471725463867e+00,1.465125679969787598e+00,1.465015888214111328e+00,1.464906215667724609e+00,1.464796543121337891e+00,1.464686870574951172e+00,1.464577198028564453e+00,1.464467406272888184e+00,1.464357733726501465e+00,1.464248299598693848e+00,1.464138627052307129e+00,1.464028954505920410e+00,1.463919401168823242e+00,1.463809847831726074e+00,1.463700294494628906e+00,1.463590741157531738e+00,1.463481307029724121e+00,1.463371753692626953e+00,1.463262200355529785e+00,1.463152885437011719e+00,1.463043332099914551e+00,1.462933897972106934e+00,1.462824463844299316e+00,1.462715029716491699e+00,1.462605834007263184e+00,1.462496399879455566e+00,1.462386965751647949e+00,1.462277650833129883e+00,1.462168335914611816e+00,1.462059140205383301e+00,1.461949825286865234e+00,1.461840510368347168e+00,1.461731195449829102e+00,1.461621999740600586e+00,1.461512684822082520e+00,1.461403608322143555e+00,1.461294412612915039e+00,1.461185216903686523e+00,1.461076140403747559e+00,1.460967063903808594e+00,1.460857868194580078e+00,1.460748910903930664e+00,1.460639715194702148e+00,1.460530638694763184e+00,1.460421562194824219e+00,1.460312604904174805e+00,1.460203528404235840e+00,1.460094571113586426e+00,1.459985613822937012e+00,1.459876656532287598e+00,1.459767699241638184e+00,1.459658861160278320e+00,1.459549903869628906e+00,1.459440946578979492e+00,1.459332108497619629e+00,1.459223270416259766e+00,1.459114313125610352e+00,1.459005475044250488e+00,1.458896756172180176e+00,1.458787918090820312e+00,1.458679080009460449e+00,1.458570361137390137e+00,1.458461642265319824e+00,1.458352804183959961e+00
1.349128484725952148e+00,1.349035382270812988e+00,1.348942518234252930e+00,1.348849415779113770e+00,1.348756432533264160e+00,1.348663330078125000e+00,1.348570346832275391e+00,1.348477482795715332e+00,1.348384499549865723e+00,1.348291516304016113e+00,1.348198533058166504e+00,1.348105549812316895e+00,1.348012804985046387e+00,1.347919821739196777e+00,1.347826957702636719e+00,1.347734093666076660e+00,1.347641110420227051e+00,1.347548365592956543e+00,1.347455501556396484e+00,1.347362756729125977e+00,1.347269892692565918e+00,1.347177028656005859e+00,1.347084403038024902e+00,1.346991539001464844e+00,1.346898794174194336e+00,1.346806049346923828e+00,1.346713304519653320e+00,1.346620678901672363e+00,1.346527934074401855e+00,1.346435189247131348e+00,1.346342444419860840e+00,1.346249818801879883e+00,1.346157193183898926e+00,1.346064567565917969e+00,1.345971941947937012e+00,1.345879197120666504e+00,1.345786571502685547e+00,1.345694065093994141e+00,1.345601558685302734e+00,1.345508933067321777e+00,1.345416307449340820e+00,1.345323801040649414e+00,1.345231294631958008e+00,1.345138788223266602e+00,1.345046281814575195e+00,1.344953775405883789e+00,1.344861268997192383e+00,1.344768881797790527e+00,1.344676375389099121e+00,1.344583868980407715e+00,1.344491481781005859e+00,1.344398975372314453e+00,1.344306588172912598e+00,1.344214200973510742e+00,1.344121932983398438e+00,1.344029545783996582e+00,1.343937158584594727e+00,1.343844771385192871e+00,1.343752503395080566e+00,1.343660116195678711e+00,1.343567848205566406e+00,1.343475699424743652e+00,1.343383312225341797e+00,1.343291044235229492e+00,1.343198895454406738e+00,1.343106627464294434e+00,1.343014359474182129e+00,1.342922210693359375e+00,1.342830061912536621e+00,1.342737793922424316e+00,1.342645645141601562e+00,1.342553496360778809e+00,1.342461347579956055e+00,1.342369198799133301e+00,1.342277169227600098e+00,1.342185020446777344e+00,1.342092871665954590e+00,1.342000842094421387e+00,1.341908812522888184e+00,1.341816663742065430e+00
1.248794436454772949e+00,1.248714685440063477e+00,1.248634934425354004e+00,1.248555183410644531e+00,1.248475551605224609e+00,1.248395919799804688e+00,1.248316168785095215e+00,1.248236536979675293e+00,1.248156785964965820e+00,1.248077154159545898e+00,1.247997641563415527e+00,1.247918009757995605e+00,1.247838258743286133e+00,1.247758746147155762e+00,1.247679114341735840e+00,1.247599601745605469e+00,1.247519969940185547e+00,1.247440338134765625e+00,1.247360825538635254e+00,1.247281193733215332e+00,1.247201800346374512e+00,1.247122168540954590e+00,1.247042655944824219e+00,1.246963143348693848e+00,1.246883630752563477e+00,1.246804237365722656e+00,1.246724724769592285e+00,1.246645212173461914e+00,1.246565818786621094e+00,1.246486306190490723e+00,1.246406912803649902e+00,1.246327519416809082e+00,1.246248126029968262e+00,1.246168613433837891e+00,1.246089220046997070e+00,1.246009945869445801e+00,1.245930552482604980e+00,1.245851159095764160e+00,1.245771765708923340e+00,1.245692372322082520e+00,1.245613098144531250e+00,1.245533823966979980e+00,1.245454430580139160e+00,1.245375156402587891e+00,1.245295882225036621e+00,1.245216608047485352e+00,1.245137333869934082e+00,1.245058059692382812e+00,1.244978785514831543e+00,1.244899511337280273e+00,1.244820356369018555e+00,1.244741082191467285e+00,1.244661927223205566e+00,1.244582653045654297e+00,1.244503498077392578e+00,1.244424343109130859e+00,1.244345188140869141e+00,1.244265913963317871e+00,1.244186758995056152e+00,1.244107604026794434e+00,1.244028449058532715e+00,1.243949413299560547e+00,1.243870377540588379e+00,1.243791222572326660e+00,1.243712067604064941e+00,1.243633031845092773e+00,1.243553996086120605e+00,1.243474960327148438e+00,1.243395924568176270e+00,1.243316888809204102e+00,1.243237853050231934e+00,1.243158936500549316e+00,1.243079900741577148e+00,1.243000864982604980e+00,1.242921948432922363e+00,1.242842912673950195e+00,1.242763996124267578e+00,1.242684960365295410e+00,1.242606043815612793e+00,1.242527127265930176e+00
1.162350893020629883e+00,1.162281751632690430e+00,1.162212729454040527e+00,1.162143707275390625e+00,1.162074565887451172e+00,1.162005543708801270e+00,1.161936521530151367e+00,1.161867499351501465e+00,1.161798477172851562e+00,1.161729454994201660e+00,1.161660432815551758e+00,1.161591410636901855e+00,1.161522507667541504e+00,1.161453604698181152e+00,1.161384582519531250e+00,1.161315560340881348e+00,1.161246657371520996e+00,1.161177754402160645e+00,1.161108851432800293e+00,1.161039829254150391e+00,1.160970926284790039e+00,1.160902023315429688e+00,1.160833120346069336e+00,1.160764217376708984e+00,1.160695314407348633e+00,1.160626411437988281e+00,1.160557508468627930e+00,1.160488724708557129e+00,1.160419940948486328e+00,1.160351037979125977e+00,1.160282135009765625e+00,1.160213351249694824e+00,1.160144567489624023e+00,1.160075783729553223e+00,1.160006880760192871e+00,1.159938097000122070e+00,1.159869313240051270e+00,1.159800529479980469e+00,1.159731745719909668e+00,1.159662961959838867e+00,1.159594297409057617e+00,1.159525513648986816e+00,1.159456849098205566e+00,1.159388065338134766e+00,1.159319281578063965e+00,1.159250617027282715e+00,1.159181833267211914e+00,1.159113168716430664e+00,1.159044504165649414e+00,1.158975839614868164e+00,1.158907175064086914e+00,1.158838391304016113e+00,1.158769845962524414e+00,1.158701181411743164e+00,1.158632516860961914e+00,1.158563852310180664e+00,1.158495187759399414e+00,1.158426642417907715e+00,1.158358097076416016e+00,1.158289432525634766e+00,1.158220887184143066e+00,1.158152222633361816e+00,1.158083796501159668e+00,1.158015131950378418e+00,1.157946467399597168e+00,1.157878041267395020e+00,1.157809495925903320e+00,1.157740950584411621e+00,1.157672405242919922e+00,1.157603859901428223e+00,1.157535433769226074e+00,1.157466888427734375e+00,1.157398462295532227e+00,1.157329916954040527e+00,1.157261490821838379e+00,1.157193064689636230e+00,1.157124519348144531e+00,1.157056093215942383e+00,1.156987667083740234e+00,1.156919240951538086e+00
1.087100028991699219e+00,1.087039589881896973e+00,1.086979150772094727e+00,1.086918711662292480e+00,1.086858391761779785e+00,1.086797952651977539e+00,1.086737632751464844e+00,1.086677193641662598e+00,1.086616873741149902e+00,1.086556434631347656e+00,1.086496114730834961e+00,1.086435794830322266e+00,1.086375474929809570e+00,1.086315035820007324e+00,1.086254715919494629e+00,1.086194396018981934e+00,1.086134076118469238e+00,1.086073756217956543e+00,1.086013436317443848e+00,1.085953116416931152e+00,1.085892915725708008e+00,1.085832595825195312e+00,1.085772275924682617e+00,1.085712075233459473e+00,1.085651755332946777e+00,1.085591554641723633e+00,1.085531353950500488e+00,1.085471034049987793e+00,1.085410833358764648e+00,1.085350513458251953e+00,1.085290431976318359e+00,1.085230112075805664e+00,1.085169911384582520e+00,1.085109710693359375e+00,1.085049510002136230e+00,1.084989309310913086e+00,1.084929108619689941e+00,1.084869027137756348e+00,1.084808826446533203e+00,1.084748625755310059e+00,1.084688425064086914e+00,1.084628343582153320e+00,1.084568142890930176e+00,1.084507942199707031e+00,1.084447860717773438e+00,1.084387779235839844e+00,1.084327697753906250e+00,1.084267497062683105e+00,1.084207415580749512e+00,1.084147334098815918e+00,1.084087252616882324e+00,1.084027171134948730e+00,1.083967089653015137e+00,1.083907008171081543e+00,1.083846926689147949e+00,1.083786964416503906e+00,1.083726882934570312e+00,1.083666801452636719e+00,1.083606719970703125e+00,1.083546757698059082e+00,1.083486676216125488e+00,1.083426713943481445e+00,1.083366632461547852e+00,1.083306670188903809e+00,1.083246707916259766e+00,1.083186626434326172e+00,1.083126664161682129e+00,1.083066701889038086e+00,1.083006620407104492e+00,1.082946777343750000e+00,1.082886695861816406e+00,1.082826733589172363e+00,1.082766890525817871e+00,1.082706928253173828e+00,1.082646965980529785e+00,1.082587122917175293e+00,1.082527160644531250e+00,1.082467198371887207e+00,1.082407355308532715e+00,1.082347512245178223e+00
1.021000266075134277e+00,1.020946979522705078e+00,1.020893692970275879e+00,1.020840406417846680e+00,1.020787119865417480e+00,1.020733833312988281e+00,1.020680546760559082e+00,1.020627379417419434e+00,1.020574092864990234e+00,1.020520806312561035e+00,1.020467519760131836e+00,1.020414233207702637e+00,1.020361065864562988e+00,1.020307898521423340e+00,1.020254611968994141e+00,1.020201444625854492e+00,1.020148158073425293e+00,1.020094990730285645e+00,1.020041823387145996e+00,1.019988536834716797e+00,1.019935369491577148e+00,1.019882202148437500e+00,1.019829034805297852e+00,1.019775867462158203e+00,1.019722700119018555e+00,1.019669532775878906e+00,1.019616365432739258e+00,1.019563198089599609e+00,1.019510149955749512e+00,1.019456982612609863e+00,1.019403815269470215e+00,1.019350647926330566e+00,1.019297599792480469e+00,1.019244432449340820e+00,1.019191384315490723e+00,1.019138216972351074e+00,1.019085049629211426e+00,1.019032001495361328e+00,1.018978953361511230e+00,1.018925905227661133e+00,1.018872737884521484e+00,1.018819689750671387e+00,1.018766641616821289e+00,1.018713593482971191e+00,1.018660545349121094e+00,1.018607497215270996e+00,1.018554329872131348e+00,1.018501400947570801e+00,1.018448352813720703e+00,1.018395304679870605e+00,1.018342256546020508e+00,1.018289208412170410e+00,1.018236279487609863e+00,1.018183231353759766e+00,1.018130183219909668e+00,1.018077254295349121e+00,1.018024206161499023e+00,1.017971277236938477e+00,1.017918348312377930e+00,1.017865300178527832e+00,1.017812371253967285e+00,1.017759323120117188e+00,1.017706394195556641e+00,1.017653465270996094e+00,1.017600536346435547e+00,1.017547607421875000e+00,1.017494559288024902e+00,1.017441749572753906e+00,1.017388820648193359e+00,1.017335891723632812e+00,1.017282962799072266e+00,1.017230033874511719e+00,1.017177104949951172e+00,1.017124176025390625e+00,1.017071247100830078e+00,1.017018437385559082e+00,1.016965508460998535e+00,1.016912698745727539e+00,1.016859769821166992e+00,1.016806960105895996e+00
9.624780416488647461e-01,9.624306559562683105e-01,9.623832702636718750e-01,9.623358845710754395e-01,9.622885584831237793e-01,9.622412919998168945e-01,9.621939659118652344e-01,9.621466398239135742e-01,9.620992541313171387e-01,9.620519280433654785e-01,9.620046019554138184e-01,9.619572758674621582e-01,9.619099497795104980e-01,9.618626236915588379e-01,9.618153572082519531e-01,9.617681503295898438e-01,9.617208242416381836e-01,9.616735577583312988e-01,9.616262316703796387e-01,9.615789651870727539e-01,9.615316987037658691e-01,9.614844322204589844e-01,9.614371061325073242e-01,9.613898396492004395e-01,9.613425731658935547e-01,9.612954258918762207e-01,9.612481594085693359e-01,9.612009525299072266e-01,9.611536860466003418e-01,9.611064195632934570e-01,9.610592126846313477e-01,9.610120058059692383e-01,9.609647393226623535e-01,9.609175324440002441e-01,9.608703255653381348e-01,9.608231782913208008e-01,9.607759714126586914e-01,9.607287645339965820e-01,9.606815576553344727e-01,9.606344103813171387e-01,9.605872035026550293e-01,9.605399966239929199e-01,9.604928493499755859e-01,9.604456424713134766e-01,9.603984951972961426e-01,9.603514075279235840e-01,9.603042602539062500e-01,9.602571129798889160e-01,9.602099657058715820e-01,9.601628184318542480e-01,9.601156711578369141e-01,9.600685238838195801e-01,9.600213766098022461e-01,9.599742293357849121e-01,9.599270820617675781e-01,9.598801136016845703e-01,9.598329663276672363e-01,9.597858786582946777e-01,9.597387909889221191e-01,9.596916437149047852e-01,9.596445560455322266e-01,9.595974683761596680e-01,9.595503807067871094e-01,9.595032930374145508e-01,9.594563245773315430e-01,9.594092369079589844e-01,9.593621492385864258e-01,9.593151211738586426e-01,9.592680335044860840e-01,9.592210054397583008e-01,9.591739177703857422e-01,9.591268897056579590e-01,9.590798616409301758e-01,9.590327739715576172e-01,9.589858651161193848e-01,9.589388370513916016e-01,9.588918089866638184e-01,9.588447809219360352e-01,9.587978124618530273e-01,9.587507843971252441e-01
9.103008508682250977e-01,9.102584719657897949e-01,9.102162122726440430e-01,9.101738333702087402e-01,9.101314544677734375e-01,9.100891351699829102e-01,9.100467562675476074e-01,9.100043773651123047e-01,9.099620580673217773e-01,9.099196791648864746e-01,9.098773598670959473e-01,9.098350405693054199e-01,9.097927808761596680e-01,9.097504615783691406e-01,9.097081422805786133e-01,9.096658229827880859e-01,9.096235036849975586e-01,9.095811843872070312e-01,9.095388650894165039e-01,9.094966053962707520e-01,9.094542860984802246e-01,9.094119668006896973e-01,9.093697667121887207e-01,9.093275070190429688e-01,9.092851877212524414e-01,9.092429280281066895e-01,9.092006683349609375e-01,9.091584086418151855e-01,9.091160893440246582e-01,9.090738296508789062e-01,9.090315699577331543e-01,9.089893102645874023e-01,9.089471697807312012e-01,9.089049100875854492e-01,9.088626503944396973e-01,9.088204503059387207e-01,9.087781906127929688e-01,9.087359905242919922e-01,9.086937308311462402e-01,9.086515307426452637e-01,9.086092710494995117e-01,9.085670709609985352e-01,9.085249304771423340e-01,9.084827303886413574e-01,9.084405303001403809e-01,9.083983302116394043e-01,9.083561301231384277e-01,9.083139300346374512e-01,9.082717299461364746e-01,9.082295894622802734e-01,9.081873893737792969e-01,9.081451892852783203e-01,9.081031084060668945e-01,9.080609679222106934e-01,9.080187678337097168e-01,9.079766273498535156e-01,9.079344868659973145e-01,9.078922867774963379e-01,9.078501462936401367e-01,9.078080058097839355e-01,9.077658653259277344e-01,9.077237248420715332e-01,9.076817035675048828e-01,9.076395630836486816e-01,9.075974225997924805e-01,9.075552821159362793e-01,9.075132012367248535e-01,9.074710607528686523e-01,9.074289798736572266e-01,9.073868393898010254e-01,9.073447585105895996e-01,9.073026180267333984e-01,9.072606563568115234e-01,9.072185754776000977e-01,9.071764349937438965e-01,9.071343541145324707e-01,9.070922732353210449e-01,9.070501923561096191e-01,9.070081710815429688e-01,9.069660902023315430e-01
8.634900450706481934e-01,8.634518980979919434e-01,8.634137511253356934e-01,8.633756637573242188e-01,8.633375167846679688e-01,8.632994294166564941e-01,8.632612824440002441e-01,8.632231950759887695e-01,8.631851077079772949e-01,8.631470203399658203e-01,8.631089925765991211e-01,8.630709052085876465e-01,8.630328178405761719e-01,8.629947304725646973e-01,8.629566431045532227e-01,8.629185557365417480e-01,8.628804683685302734e-01,8.628423810005187988e-01,8.628042936325073242e-01,8.627662658691406250e-01,8.627282381057739258e-01,8.626902103424072266e-01,8.626521229743957520e-01,8.626140952110290527e-01,8.625760078430175781e-01,8.625379800796508789e-01,8.624999523162841797e-01,8.624619245529174805e-01,8.624238371849060059e-01,8.623858094215393066e-01,8.623479008674621582e-01,8.623098731040954590e-01,8.622718453407287598e-01,8.622338175773620605e-01,8.621957898139953613e-01,8.621577620506286621e-01,8.621197342872619629e-01,8.620817661285400391e-01,8.620437383651733398e-01,8.620057106018066406e-01,8.619678020477294922e-01,8.619298338890075684e-01,8.618918657302856445e-01,8.618538379669189453e-01,8.618158698081970215e-01,8.617779016494750977e-01,8.617398738861083984e-01,8.617019057273864746e-01,8.616639375686645508e-01,8.616259694099426270e-01,8.615881204605102539e-01,8.615501523017883301e-01,8.615121841430664062e-01,8.614742159843444824e-01,8.614363074302673340e-01,8.613983392715454102e-01,8.613603711128234863e-01,8.613224625587463379e-01,8.612844944000244141e-01,8.612466454505920410e-01,8.612087368965148926e-01,8.611708283424377441e-01,8.611328601837158203e-01,8.610949516296386719e-01,8.610570430755615234e-01,8.610191345214843750e-01,8.609812259674072266e-01,8.609433174133300781e-01,8.609054088592529297e-01,8.608675599098205566e-01,8.608297109603881836e-01,8.607918024063110352e-01,8.607538938522338867e-01,8.607159852981567383e-01,8.606781363487243652e-01,8.606402277946472168e-01,8.606023788452148438e-01,8.605644702911376953e-01,8.605266213417053223e-01,8.604888319969177246e-01
8.212580084800720215e-01,8.212235569953918457e-01,8.211890459060668945e-01,8.211545944213867188e-01,8.211200833320617676e-01,8.210856318473815918e-01,8.210511207580566406e-01,8.210167288780212402e-01,8.209822773933410645e-01,8.209478259086608887e-01,8.209133148193359375e-01,8.208788633346557617e-01,8.208444118499755859e-01,8.208099603652954102e-01,8.207755088806152344e-01,8.207410573959350586e-01,8.207066059112548828e-01,8.206722736358642578e-01,8.206378221511840820e-01,8.206033706665039062e-01,8.205689191818237305e-01,8.205345273017883301e-01,8.205000758171081543e-01,8.204656243324279785e-01,8.204312324523925781e-01,8.203967809677124023e-01,8.203623890876770020e-01,8.203280568122863770e-01,8.202936053276062012e-01,8.202592134475708008e-01,8.202248215675354004e-01,8.201904296875000000e-01,8.201560378074645996e-01,8.201215863227844238e-01,8.200871944427490234e-01,8.200528025627136230e-01,8.200184106826782227e-01,8.199841380119323730e-01,8.199497461318969727e-01,8.199153542518615723e-01,8.198809623718261719e-01,8.198466300964355469e-01,8.198122382164001465e-01,8.197778463363647461e-01,8.197435140609741211e-01,8.197091221809387207e-01,8.196747899055480957e-01,8.196405172348022461e-01,8.196061253547668457e-01,8.195717930793762207e-01,8.195374608039855957e-01,8.195030689239501953e-01,8.194687366485595703e-01,8.194344043731689453e-01,8.194000720977783203e-01,8.193657398223876953e-01,8.193314075469970703e-01,8.192971348762512207e-01,8.192628026008605957e-01,8.192284703254699707e-01,8.191941976547241211e-01,8.191598653793334961e-01,8.191255331039428711e-01,8.190912008285522461e-01,8.190569281578063965e-01,8.190225958824157715e-01,8.189883232116699219e-01,8.189541101455688477e-01,8.189197778701782227e-01,8.188855051994323730e-01,8.188511729240417480e-01,8.188169002532958984e-01,8.187826275825500488e-01,8.187483549118041992e-01,8.187140822410583496e-01,8.186798095703125000e-01,8.186454772949218750e-01,8.186113238334655762e-01,8.185770511627197266e-01,8.185427784919738770e-01
7.829644083976745605e-01,7.829331159591674805e-01,7.829017639160156250e-01,7.828704118728637695e-01,7.828390598297119141e-01,7.828077673912048340e-01,7.827764749526977539e-01,7.827451229095458984e-01,7.827137708663940430e-01,7.826824784278869629e-01,7.826511263847351074e-01,7.826197743415832520e-01,7.825884819030761719e-01,7.825571298599243164e-01,7.825258374214172363e-01,7.824946045875549316e-01,7.824632525444030762e-01,7.824319601058959961e-01,7.824006676673889160e-01,7.823693752288818359e-01,7.823380827903747559e-01,7.823067307472229004e-01,7.822754383087158203e-01,7.822441458702087402e-01,7.822128534317016602e-01,7.821816802024841309e-01,7.821503877639770508e-01,7.821190953254699707e-01,7.820878028869628906e-01,7.820565104484558105e-01,7.820252180099487305e-01,7.819939851760864258e-01,7.819626927375793457e-01,7.819314002990722656e-01,7.819001674652099609e-01,7.818689346313476562e-01,7.818377017974853516e-01,7.818064689636230469e-01,7.817751765251159668e-01,7.817439436912536621e-01,7.817126512527465820e-01,7.816814184188842773e-01,7.816501855850219727e-01,7.816189527511596680e-01,7.815877199172973633e-01,7.815565466880798340e-01,7.815253138542175293e-01,7.814940214157104492e-01,7.814627885818481445e-01,7.814316153526306152e-01,7.814003825187683105e-01,7.813691496849060059e-01,7.813379168510437012e-01,7.813066840171813965e-01,7.812754511833190918e-01,7.812443375587463379e-01,7.812131047248840332e-01,7.811819314956665039e-01,7.811506986618041992e-01,7.811195254325866699e-01,7.810882925987243652e-01,7.810571193695068359e-01,7.810258865356445312e-01,7.809947133064270020e-01,7.809635996818542480e-01,7.809323668479919434e-01,7.809011936187744141e-01,7.808700203895568848e-01,7.808388471603393555e-01,7.808076739311218262e-01,7.807765007019042969e-01,7.807453274726867676e-01,7.807141542434692383e-01,7.806829810142517090e-01,7.806518673896789551e-01,7.806206941604614258e-01,7.805895209312438965e-01,7.805584073066711426e-01,7.805272340774536133e-01,7.804960608482360840e-01
7.480828166007995605e-01,7.480542063713073730e-01,7.480256557464599609e-01,7.479970455169677734e-01,7.479684352874755859e-01,7.479398250579833984e-01,7.479112148284912109e-01,7.478826045989990234e-01,7.478539943695068359e-01,7.478253841400146484e-01,7.477968335151672363e-01,7.477682232856750488e-01,7.477396726608276367e-01,7.477111220359802246e-01,7.476825118064880371e-01,7.476539015769958496e-01,7.476253509521484375e-01,7.475967407226562500e-01,7.475681900978088379e-01,7.475395798683166504e-01,7.475110292434692383e-01,7.474824190139770508e-01,7.474539279937744141e-01,7.474253773689270020e-01,7.473967671394348145e-01,7.473682165145874023e-01,7.473396658897399902e-01,7.473111152648925781e-01,7.472825050354003906e-01,7.472539544105529785e-01,7.472254037857055664e-01,7.471968531608581543e-01,7.471683621406555176e-01,7.471398115158081055e-01,7.471112608909606934e-01,7.470827102661132812e-01,7.470542192459106445e-01,7.470256686210632324e-01,7.469971179962158203e-01,7.469685673713684082e-01,7.469400763511657715e-01,7.469115257263183594e-01,7.468830347061157227e-01,7.468545436859130859e-01,7.468259930610656738e-01,7.467975020408630371e-01,7.467689514160156250e-01,7.467404603958129883e-01,7.467119097709655762e-01,7.466834187507629395e-01,7.466548681259155273e-01,7.466263771057128906e-01,7.465979456901550293e-01,7.465694546699523926e-01,7.465409636497497559e-01,7.465124130249023438e-01,7.464839220046997070e-01,7.464554309844970703e-01,7.464269399642944336e-01,7.463984489440917969e-01,7.463699579238891602e-01,7.463414669036865234e-01,7.463130354881286621e-01,7.462845444679260254e-01,7.462561130523681641e-01,7.462276220321655273e-01,7.461991310119628906e-01,7.461706399917602539e-01,7.461422085762023926e-01,7.461137175559997559e-01,7.460852265357971191e-01,7.460567951202392578e-01,7.460283637046813965e-01,7.459999322891235352e-01,7.459714412689208984e-01,7.459430098533630371e-01,7.459145188331604004e-01,7.458860874176025391e-01,7.458576560020446777e-01,7.458291649818420410e-01
