3.215508222579956055e+00,3.178896427154541016e+00,3.143109083175659180e+00,3.108118534088134766e+00,3.073898792266845703e+00,3.040423870086669922e+00,3.007670402526855469e+00,2.975615262985229492e+00,2.944235801696777344e+00,2.913511514663696289e+00,2.883421897888183594e+00,2.853947401046752930e+00,2.825068950653076172e+00,2.796769380569458008e+00,2.769031286239624023e+00,2.741837978363037109e+00,2.715173482894897461e+00,2.689022779464721680e+00,2.663370847702026367e+00,2.638203859329223633e+00,2.613507747650146484e+00,2.589269876480102539e+00,2.565477609634399414e+00,2.542118310928344727e+00,2.519180774688720703e+00,2.496653079986572266e+00,2.474525213241577148e+00,2.452785968780517578e+00,2.431425333023071289e+00,2.410433530807495117e+00,2.389801025390625000e+00,2.369518995285034180e+00,2.349577903747558594e+00,2.329970121383666992e+00,2.310686588287353516e+00,2.291719675064086914e+00,2.273061752319335938e+00,2.254704952239990234e+00,2.236642360687255859e+00,2.218866825103759766e+00,2.201371669769287109e+00,2.184150218963623047e+00,2.167196273803710938e+00,2.150503396987915039e+00,2.134065628051757812e+00,2.117877244949340820e+00,2.101932764053344727e+00,2.086226463317871094e+00,2.070753097534179688e+00,2.055507659912109375e+00,2.040485143661499023e+00,2.025680303573608398e+00,2.011088848114013672e+00,1.996706485748291016e+00,1.982527971267700195e+00,1.968549609184265137e+00,1.954766750335693359e+00,1.941175818443298340e+00,1.927772402763366699e+00,1.914552927017211914e+00,1.901513338088989258e+00,1.888650417327880859e+00,1.875960111618041992e+00,1.863439202308654785e+00,1.851084589958190918e+00,1.838892459869384766e+00,1.826860070228576660e+00,1.814983963966369629e+00,1.803261399269104004e+00,1.791689157485961914e+00,1.780264616012573242e+00,1.768984675407409668e+00,1.757847070693969727e+00,1.746848583221435547e+00,1.735987067222595215e+00,1.725259542465209961e+00,1.714663863182067871e+00,1.704197645187377930e+00,1.693858385086059570e+00,1.683643817901611328e+00
3.215510368347167969e+00,3.178898572921752930e+00,3.143111228942871094e+00,3.108120679855346680e+00,3.073900699615478516e+00,3.040426015853881836e+00,3.007672309875488281e+00,2.975616931915283203e+00,2.944237709045410156e+00,2.913513422012329102e+00,2.883423566818237305e+00,2.853948831558227539e+00,2.825070619583129883e+00,2.796771049499511719e+00,2.769032955169677734e+00,2.741839647293090820e+00,2.715175151824951172e+00,2.689024209976196289e+00,2.663372278213500977e+00,2.638205289840698242e+00,2.613509178161621094e+00,2.589271306991577148e+00,2.565478801727294922e+00,2.542119741439819336e+00,2.519181728363037109e+00,2.496654510498046875e+00,2.474526405334472656e+00,2.452787160873413086e+00,2.431426525115966797e+00,2.410434722900390625e+00,2.389802217483520508e+00,2.369519948959350586e+00,2.349579095840454102e+00,2.329971075057983398e+00,2.310687780380249023e+00,2.291720867156982422e+00,2.273062705993652344e+00,2.254705905914306641e+00,2.236643314361572266e+00,2.218868017196655273e+00,2.201372623443603516e+00,2.184151411056518555e+00,2.167197227478027344e+00,2.150504350662231445e+00,2.134066581726074219e+00,2.117878198623657227e+00,2.101933717727661133e+00,2.086227416992187500e+00,2.070754051208496094e+00,2.055508375167846680e+00,2.040485858917236328e+00,2.025681257247924805e+00,2.011089801788330078e+00,1.996707201004028320e+00,1.982528924942016602e+00,1.968550324440002441e+00,1.954767704010009766e+00,1.941176533699035645e+00,1.927773237228393555e+00,1.914553642272949219e+00,1.901514172554016113e+00,1.888651013374328613e+00,1.875960707664489746e+00,1.863440036773681641e+00,1.851085186004638672e+00,1.838893294334411621e+00,1.826860666275024414e+00,1.814984798431396484e+00,1.803261995315551758e+00,1.791689872741699219e+00,1.780265212059020996e+00,1.768985509872436523e+00,1.757847666740417480e+00,1.746849179267883301e+00,1.735987544059753418e+00,1.725260138511657715e+00,1.714664578437805176e+00,1.704198122024536133e+00,1.693858981132507324e+00,1.683644294738769531e+00
3.215512514114379883e+00,3.178900718688964844e+00,3.143113374710083008e+00,3.108122587203979492e+00,3.073902606964111328e+00,3.040427923202514648e+00,3.007674217224121094e+00,2.975618839263916016e+00,2.944239616394042969e+00,2.913515090942382812e+00,2.883425235748291016e+00,2.853950500488281250e+00,2.825072288513183594e+00,2.796772718429565430e+00,2.769034624099731445e+00,2.741841077804565430e+00,2.715176582336425781e+00,2.689025878906250000e+00,2.663373708724975586e+00,2.638206720352172852e+00,2.613510608673095703e+00,2.589272737503051758e+00,2.565480232238769531e+00,2.542121171951293945e+00,2.519183158874511719e+00,2.496655702590942383e+00,2.474527597427368164e+00,2.452788352966308594e+00,2.431427717208862305e+00,2.410435914993286133e+00,2.389803409576416016e+00,2.369521141052246094e+00,2.349580287933349609e+00,2.329972267150878906e+00,2.310688734054565430e+00,2.291721820831298828e+00,2.273063659667968750e+00,2.254707098007202148e+00,2.236644506454467773e+00,2.218868970870971680e+00,2.201373577117919922e+00,2.184152364730834961e+00,2.167198181152343750e+00,2.150505304336547852e+00,2.134067535400390625e+00,2.117879152297973633e+00,2.101934671401977539e+00,2.086228132247924805e+00,2.070754766464233398e+00,2.055509328842163086e+00,2.040486574172973633e+00,2.025681972503662109e+00,2.011090517044067383e+00,1.996708035469055176e+00,1.982529640197753906e+00,1.968551278114318848e+00,1.954768419265747070e+00,1.941177368164062500e+00,1.927773952484130859e+00,1.914554238319396973e+00,1.901514887809753418e+00,1.888651728630065918e+00,1.875961542129516602e+00,1.863440632820129395e+00,1.851086020469665527e+00,1.838893890380859375e+00,1.826861500740051270e+00,1.814985275268554688e+00,1.803262829780578613e+00,1.791690468788146973e+00,1.780265808105468750e+00,1.768985986709594727e+00,1.757848143577575684e+00,1.746849894523620605e+00,1.735988140106201172e+00,1.725260853767395020e+00,1.714665174484252930e+00,1.704198837280273438e+00,1.693859577178955078e+00,1.683645009994506836e+00
3.215514659881591797e+00,3.178902864456176758e+00,3.143115282058715820e+00,3.108124732971191406e+00,3.073904514312744141e+00,3.040429830551147461e+00,3.007676124572753906e+00,2.975620746612548828e+00,2.944241285324096680e+00,2.913516998291015625e+00,2.883427143096923828e+00,2.853952169418334961e+00,2.825073957443237305e+00,2.796774387359619141e+00,2.769036054611206055e+00,2.741842746734619141e+00,2.715178251266479492e+00,2.689027309417724609e+00,2.663375139236450195e+00,2.638208150863647461e+00,2.613512039184570312e+00,2.589273929595947266e+00,2.565481424331665039e+00,2.542122125625610352e+00,2.519184589385986328e+00,2.496657133102416992e+00,2.474529027938842773e+00,2.452789545059204102e+00,2.431428909301757812e+00,2.410437107086181641e+00,2.389804601669311523e+00,2.369522333145141602e+00,2.349581480026245117e+00,2.329973220825195312e+00,2.310689687728881836e+00,2.291722774505615234e+00,2.273064851760864258e+00,2.254708051681518555e+00,2.236645460128784180e+00,2.218869924545288086e+00,2.201374769210815430e+00,2.184153318405151367e+00,2.167199134826660156e+00,2.150506258010864258e+00,2.134068250656127930e+00,2.117879867553710938e+00,2.101935386657714844e+00,2.086229085922241211e+00,2.070755720138549805e+00,2.055510282516479492e+00,2.040487527847290039e+00,2.025682926177978516e+00,2.011091470718383789e+00,1.996708750724792480e+00,1.982530593872070312e+00,1.968551993370056152e+00,1.954769015312194824e+00,1.941178083419799805e+00,1.927774548530578613e+00,1.914555072784423828e+00,1.901515483856201172e+00,1.888652563095092773e+00,1.875962257385253906e+00,1.863441467285156250e+00,1.851086616516113281e+00,1.838894605636596680e+00,1.826862096786499023e+00,1.814986109733581543e+00,1.803263425827026367e+00,1.791691064834594727e+00,1.780266523361206055e+00,1.768986582756042480e+00,1.757848978042602539e+00,1.746850371360778809e+00,1.735988855361938477e+00,1.725261330604553223e+00,1.714665770530700684e+00,1.704199433326721191e+00,1.693860173225402832e+00,1.683645486831665039e+00
3.215516805648803711e+00,3.178905010223388672e+00,3.143117427825927734e+00,3.108126640319824219e+00,3.073906660079956055e+00,3.040431737899780273e+00,3.007678031921386719e+00,2.975622177124023438e+00,2.944242954254150391e+00,2.913518428802490234e+00,2.883428573608398438e+00,2.853953838348388672e+00,2.825075626373291016e+00,2.796776056289672852e+00,2.769037723541259766e+00,2.741844177246093750e+00,2.715179681777954102e+00,2.689028739929199219e+00,2.663376808166503906e+00,2.638209342956542969e+00,2.613513469696044922e+00,2.589275360107421875e+00,2.565482854843139648e+00,2.542123556137084961e+00,2.519185781478881836e+00,2.496658325195312500e+00,2.474530220031738281e+00,2.452790975570678711e+00,2.431430101394653320e+00,2.410438299179077148e+00,2.389805555343627930e+00,2.369523525238037109e+00,2.349582433700561523e+00,2.329974412918090820e+00,2.310690879821777344e+00,2.291723966598510742e+00,2.273065805435180664e+00,2.254709005355834961e+00,2.236646413803100586e+00,2.218870878219604492e+00,2.201375722885131836e+00,2.184154272079467773e+00,2.167200088500976562e+00,2.150506973266601562e+00,2.134069204330444336e+00,2.117880821228027344e+00,2.101936340332031250e+00,2.086230039596557617e+00,2.070756435394287109e+00,2.055511236190795898e+00,2.040488481521606445e+00,2.025683641433715820e+00,2.011092424392700195e+00,1.996709465980529785e+00,1.982531189918518066e+00,1.968552589416503906e+00,1.954769968986511230e+00,1.941178798675537109e+00,1.927775502204895020e+00,1.914555788040161133e+00,1.901516437530517578e+00,1.888653159141540527e+00,1.875963091850280762e+00,1.863442063331604004e+00,1.851087450981140137e+00,1.838895201683044434e+00,1.826862692832946777e+00,1.814986705780029297e+00,1.803263902664184570e+00,1.791691780090332031e+00,1.780267119407653809e+00,1.768987298011779785e+00,1.757849454879760742e+00,1.746851086616516113e+00,1.735989451408386230e+00,1.725262045860290527e+00,1.714666366577148438e+00,1.704199910163879395e+00,1.693860769271850586e+00,1.683645963668823242e+00
3.215518951416015625e+00,3.178907155990600586e+00,3.143119573593139648e+00,3.108128786087036133e+00,3.073908567428588867e+00,3.040433406829833984e+00,3.007679700851440430e+00,2.975624084472656250e+00,2.944244623184204102e+00,2.913520336151123047e+00,2.883430242538452148e+00,2.853955507278442383e+00,2.825077295303344727e+00,2.796777486801147461e+00,2.769039392471313477e+00,2.741845846176147461e+00,2.715181112289428711e+00,2.689030170440673828e+00,2.663378000259399414e+00,2.638210773468017578e+00,2.613514661788940430e+00,2.589276790618896484e+00,2.565484285354614258e+00,2.542124986648559570e+00,2.519187211990356445e+00,2.496659755706787109e+00,2.474531412124633789e+00,2.452792167663574219e+00,2.431431293487548828e+00,2.410439491271972656e+00,2.389806747436523438e+00,2.369524478912353516e+00,2.349583625793457031e+00,2.329975605010986328e+00,2.310692071914672852e+00,2.291724920272827148e+00,2.273066997528076172e+00,2.254710197448730469e+00,2.236647605895996094e+00,2.218871831893920898e+00,2.201376676559448242e+00,2.184155225753784180e+00,2.167201042175292969e+00,2.150507926940917969e+00,2.134070158004760742e+00,2.117881774902343750e+00,2.101937294006347656e+00,2.086230754852294922e+00,2.070757389068603516e+00,2.055511951446533203e+00,2.040489196777343750e+00,2.025684356689453125e+00,2.011093139648437500e+00,1.996710419654846191e+00,1.982531905174255371e+00,1.968553543090820312e+00,1.954770684242248535e+00,1.941179633140563965e+00,1.927776098251342773e+00,1.914556622505187988e+00,1.901517033576965332e+00,1.888653993606567383e+00,1.875963687896728516e+00,1.863442778587341309e+00,1.851088047027587891e+00,1.838895916938781738e+00,1.826863408088684082e+00,1.814987301826477051e+00,1.803264737129211426e+00,1.791692376136779785e+00,1.780267834663391113e+00,1.768987894058227539e+00,1.757850170135498047e+00,1.746851682662963867e+00,1.735989928245544434e+00,1.725262641906738281e+00,1.714666843414306641e+00,1.704200625419616699e+00,1.693861246109008789e+00,1.683646678924560547e+00
3.215521097183227539e+00,3.178909063339233398e+00,3.143121242523193359e+00,3.108130455017089844e+00,3.073910236358642578e+00,3.040435314178466797e+00,3.007681608200073242e+00,2.975625991821289062e+00,2.944246530532836914e+00,2.913522005081176758e+00,2.883432149887084961e+00,2.853957176208496094e+00,2.825078964233398438e+00,2.796779155731201172e+00,2.769040822982788086e+00,2.741847276687622070e+00,2.715182542800903320e+00,2.689031600952148438e+00,2.663379430770874023e+00,2.638212203979492188e+00,2.613516092300415039e+00,2.589277982711791992e+00,2.565485477447509766e+00,2.542126178741455078e+00,2.519188404083251953e+00,2.496660709381103516e+00,2.474532604217529297e+00,2.452793121337890625e+00,2.431432485580444336e+00,2.410440683364868164e+00,2.389807939529418945e+00,2.369525671005249023e+00,2.349584817886352539e+00,2.329976558685302734e+00,2.310693025588989258e+00,2.291726112365722656e+00,2.273067951202392578e+00,2.254711151123046875e+00,2.236648559570312500e+00,2.218872785568237305e+00,2.201377630233764648e+00,2.184156179428100586e+00,2.167201995849609375e+00,2.150508880615234375e+00,2.134071111679077148e+00,2.117882728576660156e+00,2.101938247680664062e+00,2.086231708526611328e+00,2.070758342742919922e+00,2.055512666702270508e+00,2.040489912033081055e+00,2.025685310363769531e+00,2.011093854904174805e+00,1.996711134910583496e+00,1.982532858848571777e+00,1.968554258346557617e+00,1.954771518707275391e+00,1.941180348396301270e+00,1.927777051925659180e+00,1.914557337760925293e+00,1.901517629623413086e+00,1.888654708862304688e+00,1.875964283943176270e+00,1.863443613052368164e+00,1.851088643074035645e+00,1.838896632194519043e+00,1.826864004135131836e+00,1.814988136291503906e+00,1.803265333175659180e+00,1.791693210601806641e+00,1.780268430709838867e+00,1.768988609313964844e+00,1.757850766181945801e+00,1.746852278709411621e+00,1.735990643501281738e+00,1.725263118743896484e+00,1.714667558670043945e+00,1.704201102256774902e+00,1.693861961364746094e+00,1.683647155761718750e+00
3.215523004531860352e+00,3.178910970687866211e+00,3.143123388290405273e+00,3.108132362365722656e+00,3.073912143707275391e+00,3.040437221527099609e+00,3.007683515548706055e+00,2.975627899169921875e+00,2.944248199462890625e+00,2.913523674011230469e+00,2.883433818817138672e+00,2.853958845138549805e+00,2.825080394744873047e+00,2.796780586242675781e+00,2.769042253494262695e+00,2.741848707199096680e+00,2.715183973312377930e+00,2.689033031463623047e+00,2.663380861282348633e+00,2.638213634490966797e+00,2.613517522811889648e+00,2.589279413223266602e+00,2.565486907958984375e+00,2.542127370834350586e+00,2.519189596176147461e+00,2.496662139892578125e+00,2.474533796310424805e+00,2.452794551849365234e+00,2.431433677673339844e+00,2.410441875457763672e+00,2.389809131622314453e+00,2.369526863098144531e+00,2.349586009979248047e+00,2.329977750778198242e+00,2.310694217681884766e+00,2.291727066040039062e+00,2.273068904876708984e+00,2.254712104797363281e+00,2.236649513244628906e+00,2.218873977661132812e+00,2.201378583908081055e+00,2.184157133102416992e+00,2.167202949523925781e+00,2.150509834289550781e+00,2.134072065353393555e+00,2.117883682250976562e+00,2.101938962936401367e+00,2.086232423782348633e+00,2.070759057998657227e+00,2.055513620376586914e+00,2.040490865707397461e+00,2.025686264038085938e+00,2.011094808578491211e+00,1.996712088584899902e+00,1.982533574104309082e+00,1.968555212020874023e+00,1.954772233963012695e+00,1.941181182861328125e+00,1.927777647972106934e+00,1.914557933807373047e+00,1.901518583297729492e+00,1.888655304908752441e+00,1.875965118408203125e+00,1.863444209098815918e+00,1.851089477539062500e+00,1.838897228240966797e+00,1.826864838600158691e+00,1.814988613128662109e+00,1.803266048431396484e+00,1.791693687438964844e+00,1.780269026756286621e+00,1.768989205360412598e+00,1.757851362228393555e+00,1.746852993965148926e+00,1.735991239547729492e+00,1.725263833999633789e+00,1.714668154716491699e+00,1.704201817512512207e+00,1.693862438201904297e+00,1.683647871017456055e+00
3.215525150299072266e+00,3.178913116455078125e+00,3.143125295639038086e+00,3.108134508132934570e+00,3.073914289474487305e+00,3.040439128875732422e+00,3.007685422897338867e+00,2.975629568099975586e+00,2.944250106811523438e+00,2.913525342941284180e+00,2.883435249328613281e+00,2.853960514068603516e+00,2.825082063674926758e+00,2.796782255172729492e+00,2.769043922424316406e+00,2.741850376129150391e+00,2.715185642242431641e+00,2.689034700393676758e+00,2.663382530212402344e+00,2.638215303421020508e+00,2.613518953323364258e+00,2.589280605316162109e+00,2.565488100051879883e+00,2.542128801345825195e+00,2.519191026687622070e+00,2.496663331985473633e+00,2.474535226821899414e+00,2.452795743942260742e+00,2.431434869766235352e+00,2.410443067550659180e+00,2.389810323715209961e+00,2.369528055191040039e+00,2.349586963653564453e+00,2.329978704452514648e+00,2.310695171356201172e+00,2.291728258132934570e+00,2.273070096969604492e+00,2.254713296890258789e+00,2.236650466918945312e+00,2.218874931335449219e+00,2.201379537582397461e+00,2.184158086776733398e+00,2.167203903198242188e+00,2.150510787963867188e+00,2.134072780609130859e+00,2.117884397506713867e+00,2.101939916610717773e+00,2.086233377456665039e+00,2.070760011672973633e+00,2.055514574050903320e+00,2.040491819381713867e+00,2.025686979293823242e+00,2.011095523834228516e+00,1.996712803840637207e+00,1.982534527778625488e+00,1.968555808067321777e+00,1.954772949218750000e+00,1.941181898117065430e+00,1.927778363227844238e+00,1.914558887481689453e+00,1.901519179344177246e+00,1.888656139373779297e+00,1.875965714454650879e+00,1.863445043563842773e+00,1.851090073585510254e+00,1.838898062705993652e+00,1.826865434646606445e+00,1.814989209175109863e+00,1.803266644477844238e+00,1.791694283485412598e+00,1.780269742012023926e+00,1.768989801406860352e+00,1.757852077484130859e+00,1.746853470802307129e+00,1.735991954803466797e+00,1.725264310836791992e+00,1.714668750762939453e+00,1.704202294349670410e+00,1.693863153457641602e+00,1.683648347854614258e+00
3.215527296066284180e+00,3.178915262222290039e+00,3.143127441406250000e+00,3.108136415481567383e+00,3.073916196823120117e+00,3.040441036224365234e+00,3.007686853408813477e+00,2.975631237030029297e+00,2.944251775741577148e+00,2.913527011871337891e+00,2.883436918258666992e+00,2.853962182998657227e+00,2.825083732604980469e+00,2.796783924102783203e+00,2.769045591354370117e+00,2.741851806640625000e+00,2.715187072753906250e+00,2.689036130905151367e+00,2.663383722305297852e+00,2.638216495513916016e+00,2.613520383834838867e+00,2.589282035827636719e+00,2.565489530563354492e+00,2.542129993438720703e+00,2.519192218780517578e+00,2.496664762496948242e+00,2.474536418914794922e+00,2.452796936035156250e+00,2.431436061859130859e+00,2.410444259643554688e+00,2.389811515808105469e+00,2.369529008865356445e+00,2.349588155746459961e+00,2.329979896545410156e+00,2.310696363449096680e+00,2.291729211807250977e+00,2.273071050643920898e+00,2.254714250564575195e+00,2.236651659011840820e+00,2.218875885009765625e+00,2.201380729675292969e+00,2.184159040451049805e+00,2.167204856872558594e+00,2.150511741638183594e+00,2.134073734283447266e+00,2.117885351181030273e+00,2.101940870285034180e+00,2.086234331130981445e+00,2.070760965347290039e+00,2.055515527725219727e+00,2.040492534637451172e+00,2.025687932968139648e+00,2.011096477508544922e+00,1.996713519096374512e+00,1.982535243034362793e+00,1.968556523323059082e+00,1.954773783683776855e+00,1.941182613372802734e+00,1.927779197692871094e+00,1.914559483528137207e+00,1.901520013809204102e+00,1.888656735420227051e+00,1.875966548919677734e+00,1.863445639610290527e+00,1.851090908050537109e+00,1.838898658752441406e+00,1.826866030693054199e+00,1.814990043640136719e+00,1.803267240524291992e+00,1.791695117950439453e+00,1.780270338058471680e+00,1.768990516662597656e+00,1.757852673530578613e+00,1.746854186058044434e+00,1.735992431640625000e+00,1.725265026092529297e+00,1.714669346809387207e+00,1.704202890396118164e+00,1.693863630294799805e+00,1.683648943901062012e+00
3.215529441833496094e+00,3.178917407989501953e+00,3.143129587173461914e+00,3.108138561248779297e+00,3.073917865753173828e+00,3.040442705154418945e+00,3.007688760757446289e+00,2.975633144378662109e+00,2.944253444671630859e+00,2.913528919219970703e+00,2.883438825607299805e+00,2.853963851928710938e+00,2.825085401535034180e+00,2.796785593032836914e+00,2.769047021865844727e+00,2.741853475570678711e+00,2.715188503265380859e+00,2.689037322998046875e+00,2.663385152816772461e+00,2.638217926025390625e+00,2.613521814346313477e+00,2.589283466339111328e+00,2.565490961074829102e+00,2.542131423950195312e+00,2.519193649291992188e+00,2.496665954589843750e+00,2.474537611007690430e+00,2.452798128128051758e+00,2.431437253952026367e+00,2.410445213317871094e+00,2.389812707901000977e+00,2.369530200958251953e+00,2.349589109420776367e+00,2.329981088638305664e+00,2.310697317123413086e+00,2.291730403900146484e+00,2.273072242736816406e+00,2.254715204238891602e+00,2.236652612686157227e+00,2.218876838684082031e+00,2.201381444931030273e+00,2.184159994125366211e+00,2.167205810546875000e+00,2.150512695312500000e+00,2.134074687957763672e+00,2.117886304855346680e+00,2.101941585540771484e+00,2.086235284805297852e+00,2.070761680603027344e+00,2.055516242980957031e+00,2.040493488311767578e+00,2.025688648223876953e+00,2.011097192764282227e+00,1.996714472770690918e+00,1.982535958290100098e+00,1.968557476997375488e+00,1.954774498939514160e+00,1.941183447837829590e+00,1.927779912948608398e+00,1.914560317993164062e+00,1.901520729064941406e+00,1.888657689094543457e+00,1.875967264175415039e+00,1.863446235656738281e+00,1.851091504096984863e+00,1.838899254798889160e+00,1.826866865158081055e+00,1.814990639686584473e+00,1.803268074989318848e+00,1.791695594787597656e+00,1.780271053314208984e+00,1.768991112709045410e+00,1.757853388786315918e+00,1.746854782104492188e+00,1.735993027687072754e+00,1.725265622138977051e+00,1.714669823646545410e+00,1.704203486442565918e+00,1.693864107131958008e+00,1.683649539947509766e+00
3.215531587600708008e+00,3.178919315338134766e+00,3.143131256103515625e+00,3.108140230178833008e+00,3.073919773101806641e+00,3.040444612503051758e+00,3.007690668106079102e+00,2.975635051727294922e+00,2.944255352020263672e+00,2.913530588150024414e+00,2.883440494537353516e+00,2.853965520858764648e+00,2.825087070465087891e+00,2.796787023544311523e+00,2.769048452377319336e+00,2.741854906082153320e+00,2.715189933776855469e+00,2.689038991928100586e+00,2.663386583328247070e+00,2.638219356536865234e+00,2.613523006439208984e+00,2.589284896850585938e+00,2.565492153167724609e+00,2.542132854461669922e+00,2.519194841384887695e+00,2.496667146682739258e+00,2.474538803100585938e+00,2.452799320220947266e+00,2.431438446044921875e+00,2.410446405410766602e+00,2.389813899993896484e+00,2.369531393051147461e+00,2.349590301513671875e+00,2.329982280731201172e+00,2.310698509216308594e+00,2.291731357574462891e+00,2.273073196411132812e+00,2.254716157913208008e+00,2.236653566360473633e+00,2.218877792358398438e+00,2.201382398605346680e+00,2.184160947799682617e+00,2.167206764221191406e+00,2.150513648986816406e+00,2.134075641632080078e+00,2.117887258529663086e+00,2.101942539215087891e+00,2.086236238479614258e+00,2.070762395858764648e+00,2.055516958236694336e+00,2.040494203567504883e+00,2.025689363479614258e+00,2.011097908020019531e+00,1.996715188026428223e+00,1.982536911964416504e+00,1.968558192253112793e+00,1.954775452613830566e+00,1.941184163093566895e+00,1.927780747413635254e+00,1.914561033248901367e+00,1.901521325111389160e+00,1.888658285140991211e+00,1.875967860221862793e+00,1.863447070121765137e+00,1.851092100143432617e+00,1.838900089263916016e+00,1.826867461204528809e+00,1.814991474151611328e+00,1.803268551826477051e+00,1.791696429252624512e+00,1.780271649360656738e+00,1.768991589546203613e+00,1.757853865623474121e+00,1.746855378150939941e+00,1.735993742942810059e+00,1.725266098976135254e+00,1.714670538902282715e+00,1.704204082489013672e+00,1.693864822387695312e+00,1.683650016784667969e+00
3.215533494949340820e+00,3.178921222686767578e+00,3.143133401870727539e+00,3.108142137527465820e+00,3.073921680450439453e+00,3.040446519851684570e+00,3.007692575454711914e+00,2.975636720657348633e+00,2.944257020950317383e+00,2.913532257080078125e+00,2.883442163467407227e+00,2.853966951370239258e+00,2.825088500976562500e+00,2.796788454055786133e+00,2.769050121307373047e+00,2.741856336593627930e+00,2.715191602706909180e+00,2.689040422439575195e+00,2.663388013839721680e+00,2.638220787048339844e+00,2.613524436950683594e+00,2.589286327362060547e+00,2.565493583679199219e+00,2.542134046554565430e+00,2.519196033477783203e+00,2.496668338775634766e+00,2.474539995193481445e+00,2.452800512313842773e+00,2.431439638137817383e+00,2.410447597503662109e+00,2.389815092086791992e+00,2.369532585144042969e+00,2.349591493606567383e+00,2.329983234405517578e+00,2.310699462890625000e+00,2.291732311248779297e+00,2.273074150085449219e+00,2.254717350006103516e+00,2.236654520034790039e+00,2.218878984451293945e+00,2.201383590698242188e+00,2.184161901473999023e+00,2.167207717895507812e+00,2.150514602661132812e+00,2.134076595306396484e+00,2.117888212203979492e+00,2.101943492889404297e+00,2.086236953735351562e+00,2.070763349533081055e+00,2.055517911911010742e+00,2.040495157241821289e+00,2.025690317153930664e+00,2.011098861694335938e+00,1.996716141700744629e+00,1.982537627220153809e+00,1.968559145927429199e+00,1.954776167869567871e+00,1.941184759140014648e+00,1.927781462669372559e+00,1.914561629295349121e+00,1.901522159576416016e+00,1.888658881187438965e+00,1.875968694686889648e+00,1.863447666168212891e+00,1.851092934608459473e+00,1.838900685310363770e+00,1.826868295669555664e+00,1.814991950988769531e+00,1.803269386291503906e+00,1.791697025299072266e+00,1.780272245407104492e+00,1.768992424011230469e+00,1.757854461669921875e+00,1.746856093406677246e+00,1.735994219779968262e+00,1.725266814231872559e+00,1.714671015739440918e+00,1.704204797744750977e+00,1.693865299224853516e+00,1.683650732040405273e+00
3.215535640716552734e+00,3.178923368453979492e+00,3.143135309219360352e+00,3.108144283294677734e+00,3.073923826217651367e+00,3.040448427200317383e+00,3.007694482803344727e+00,2.975638628005981445e+00,2.944258689880371094e+00,2.913533926010131836e+00,2.883443593978881836e+00,2.853968620300292969e+00,2.825090169906616211e+00,2.796790122985839844e+00,2.769051790237426758e+00,2.741858005523681641e+00,2.715193033218383789e+00,2.689041852951049805e+00,2.663389682769775391e+00,2.638222217559814453e+00,2.613525867462158203e+00,2.589287519454956055e+00,2.565494775772094727e+00,2.542135238647460938e+00,2.519197463989257812e+00,2.496669769287109375e+00,2.474541425704956055e+00,2.452801942825317383e+00,2.431440830230712891e+00,2.410449028015136719e+00,2.389816284179687500e+00,2.369533777236938477e+00,2.349592447280883789e+00,2.329984188079833984e+00,2.310700654983520508e+00,2.291733503341674805e+00,2.273075342178344727e+00,2.254718303680419922e+00,2.236655712127685547e+00,2.218879938125610352e+00,2.201384544372558594e+00,2.184162855148315430e+00,2.167208671569824219e+00,2.150515317916870117e+00,2.134077548980712891e+00,2.117889165878295898e+00,2.101944208145141602e+00,2.086237907409667969e+00,2.070764303207397461e+00,2.055518865585327148e+00,2.040495872497558594e+00,2.025691270828247070e+00,2.011099576950073242e+00,1.996716856956481934e+00,1.982538461685180664e+00,1.968559741973876953e+00,1.954776763916015625e+00,1.941185712814331055e+00,1.927782058715820312e+00,1.914562582969665527e+00,1.901522874832153320e+00,1.888659715652465820e+00,1.875969290733337402e+00,1.863448500633239746e+00,1.851093530654907227e+00,1.838901519775390625e+00,1.826868891716003418e+00,1.814992547035217285e+00,1.803269982337951660e+00,1.791697502136230469e+00,1.780272960662841797e+00,1.768992900848388672e+00,1.757855176925659180e+00,1.746856570243835449e+00,1.735994935035705566e+00,1.725267410278320312e+00,1.714671730995178223e+00,1.704205274581909180e+00,1.693865895271301270e+00,1.683651208877563477e+00
3.215537786483764648e+00,3.178925514221191406e+00,3.143137454986572266e+00,3.108146190643310547e+00,3.073925733566284180e+00,3.040450334548950195e+00,3.007696151733398438e+00,2.975640296936035156e+00,2.944260358810424805e+00,2.913535594940185547e+00,2.883445501327514648e+00,2.853970289230346680e+00,2.825091838836669922e+00,2.796791791915893555e+00,2.769053220748901367e+00,2.741859436035156250e+00,2.715194702148437500e+00,2.689043521881103516e+00,2.663390874862670898e+00,2.638223409652709961e+00,2.613527297973632812e+00,2.589288949966430664e+00,2.565496206283569336e+00,2.542136669158935547e+00,2.519198656082153320e+00,2.496670961380004883e+00,2.474542617797851562e+00,2.452803134918212891e+00,2.431442260742187500e+00,2.410449981689453125e+00,2.389817237854003906e+00,2.369534730911254883e+00,2.349593639373779297e+00,2.329985380172729492e+00,2.310701608657836914e+00,2.291734457015991211e+00,2.273076295852661133e+00,2.254719495773315430e+00,2.236656665802001953e+00,2.218880891799926758e+00,2.201385498046875000e+00,2.184163808822631836e+00,2.167209625244140625e+00,2.150516510009765625e+00,2.134078502655029297e+00,2.117889881134033203e+00,2.101945161819458008e+00,2.086238861083984375e+00,2.070765256881713867e+00,2.055519580841064453e+00,2.040496826171875000e+00,2.025691986083984375e+00,2.011100530624389648e+00,1.996717572212219238e+00,1.982539176940917969e+00,1.968560457229614258e+00,1.954777717590332031e+00,1.941186428070068359e+00,1.927783012390136719e+00,1.914563179016113281e+00,1.901523709297180176e+00,1.888660430908203125e+00,1.875970125198364258e+00,1.863449215888977051e+00,1.851094126701354980e+00,1.838902115821838379e+00,1.826869487762451172e+00,1.814993381500244141e+00,1.803270578384399414e+00,1.791698336601257324e+00,1.780273556709289551e+00,1.768993735313415527e+00,1.757855772972106934e+00,1.746857285499572754e+00,1.735995531082153320e+00,1.725268125534057617e+00,1.714672327041625977e+00,1.704205751419067383e+00,1.693866491317749023e+00,1.683651804924011230e+00
3.215539932250976562e+00,3.178927659988403320e+00,3.143139600753784180e+00,3.108148336410522461e+00,3.073927402496337891e+00,3.040452003479003906e+00,3.007698059082031250e+00,2.975641965866088867e+00,2.944262266159057617e+00,2.913537502288818359e+00,2.883447170257568359e+00,2.853972196578979492e+00,2.825093507766723633e+00,2.796793460845947266e+00,2.769054889678955078e+00,2.741860866546630859e+00,2.715195894241333008e+00,2.689044713973999023e+00,2.663392305374145508e+00,2.638224840164184570e+00,2.613528728485107422e+00,2.589290380477905273e+00,2.565497398376464844e+00,2.542138099670410156e+00,2.519200086593627930e+00,2.496672391891479492e+00,2.474543809890747070e+00,2.452804088592529297e+00,2.431443214416503906e+00,2.410451173782348633e+00,2.389818429946899414e+00,2.369535923004150391e+00,2.349594831466674805e+00,2.329986572265625000e+00,2.310702800750732422e+00,2.291735649108886719e+00,2.273077487945556641e+00,2.254720449447631836e+00,2.236657619476318359e+00,2.218881845474243164e+00,2.201386451721191406e+00,2.184164762496948242e+00,2.167210578918457031e+00,2.150517463684082031e+00,2.134079456329345703e+00,2.117890834808349609e+00,2.101946115493774414e+00,2.086239576339721680e+00,2.070766210556030273e+00,2.055520534515380859e+00,2.040497541427612305e+00,2.025692701339721680e+00,2.011101245880126953e+00,1.996718525886535645e+00,1.982539892196655273e+00,1.968561410903930664e+00,1.954778432846069336e+00,1.941187262535095215e+00,1.927783608436584473e+00,1.914564013481140137e+00,1.901524305343627930e+00,1.888661265373229980e+00,1.875970840454101562e+00,1.863449811935424805e+00,1.851094961166381836e+00,1.838902711868286133e+00,1.826870203018188477e+00,1.814993977546691895e+00,1.803271293640136719e+00,1.791698932647705078e+00,1.780274271965026855e+00,1.768994212150573730e+00,1.757856488227844238e+00,1.746857881546020508e+00,1.735996007919311523e+00,1.725268602371215820e+00,1.714672803878784180e+00,1.704206466674804688e+00,1.693867087364196777e+00,1.683652400970458984e+00
3.215542078018188477e+00,3.178929328918457031e+00,3.143141269683837891e+00,3.108150005340576172e+00,3.073929309844970703e+00,3.040453910827636719e+00,3.007699966430664062e+00,2.975643873214721680e+00,2.944264173507690430e+00,2.913539171218872070e+00,2.883448839187622070e+00,2.853973865509033203e+00,2.825095176696777344e+00,2.796794891357421875e+00,2.769056320190429688e+00,2.741862535476684570e+00,2.715197563171386719e+00,2.689046382904052734e+00,2.663393735885620117e+00,2.638226509094238281e+00,2.613530158996582031e+00,2.589291572570800781e+00,2.565498828887939453e+00,2.542139291763305664e+00,2.519201040267944336e+00,2.496673345565795898e+00,2.474545001983642578e+00,2.452805519104003906e+00,2.431444406509399414e+00,2.410452365875244141e+00,2.389819622039794922e+00,2.369537115097045898e+00,2.349596023559570312e+00,2.329987764358520508e+00,2.310703992843627930e+00,2.291736841201782227e+00,2.273078441619873047e+00,2.254721403121948242e+00,2.236658573150634766e+00,2.218882799148559570e+00,2.201387405395507812e+00,2.184165716171264648e+00,2.167211532592773438e+00,2.150518417358398438e+00,2.134080410003662109e+00,2.117891788482666016e+00,2.101947069168090820e+00,2.086240530014038086e+00,2.070766925811767578e+00,2.055521249771118164e+00,2.040498495101928711e+00,2.025693655014038086e+00,2.011101961135864258e+00,1.996719241142272949e+00,1.982540845870971680e+00,1.968562126159667969e+00,1.954779267311096191e+00,1.941187977790832520e+00,1.927784562110900879e+00,1.914564728736877441e+00,1.901525020599365234e+00,1.888661861419677734e+00,1.875971436500549316e+00,1.863450646400451660e+00,1.851095557212829590e+00,1.838903546333312988e+00,1.826870799064636230e+00,1.814994812011718750e+00,1.803271889686584473e+00,1.791699647903442383e+00,1.780274868011474609e+00,1.768994808197021484e+00,1.757857084274291992e+00,1.746858358383178711e+00,1.735996723175048828e+00,1.725269198417663574e+00,1.714673519134521484e+00,1.704206943511962891e+00,1.693867683410644531e+00,1.683652997016906738e+00
3.215543985366821289e+00,3.178931474685668945e+00,3.143143415451049805e+00,3.108152151107788086e+00,3.073931455612182617e+00,3.040455818176269531e+00,3.007701873779296875e+00,2.975645780563354492e+00,2.944265842437744141e+00,2.913541078567504883e+00,2.883450269699096680e+00,2.853975296020507812e+00,2.825096607208251953e+00,2.796796560287475586e+00,2.769057750701904297e+00,2.741863965988159180e+00,2.715198993682861328e+00,2.689047813415527344e+00,2.663395404815673828e+00,2.638227939605712891e+00,2.613531589508056641e+00,2.589293003082275391e+00,2.565500020980834961e+00,2.542140483856201172e+00,2.519202470779418945e+00,2.496674776077270508e+00,2.474546194076538086e+00,2.452806711196899414e+00,2.431445598602294922e+00,2.410453557968139648e+00,2.389820814132690430e+00,2.369538307189941406e+00,2.349597215652465820e+00,2.329988718032836914e+00,2.310704946517944336e+00,2.291737794876098633e+00,2.273079395294189453e+00,2.254722356796264648e+00,2.236659526824951172e+00,2.218883991241455078e+00,2.201388359069824219e+00,2.184166908264160156e+00,2.167212486267089844e+00,2.150519371032714844e+00,2.134081363677978516e+00,2.117892742156982422e+00,2.101947784423828125e+00,2.086241245269775391e+00,2.070767641067504883e+00,2.055522203445434570e+00,2.040499210357666016e+00,2.025694370269775391e+00,2.011102914810180664e+00,1.996720194816589355e+00,1.982541561126708984e+00,1.968563079833984375e+00,1.954779982566833496e+00,1.941188693046569824e+00,1.927785158157348633e+00,1.914565443992614746e+00,1.901525855064392090e+00,1.888662576675415039e+00,1.875972270965576172e+00,1.863451242446899414e+00,1.851096391677856445e+00,1.838904142379760742e+00,1.826871633529663086e+00,1.814995288848876953e+00,1.803272724151611328e+00,1.791700243949890137e+00,1.780275464057922363e+00,1.768995523452758789e+00,1.757857561111450195e+00,1.746859192848205566e+00,1.735997319221496582e+00,1.725269913673400879e+00,1.714674115180969238e+00,1.704207658767700195e+00,1.693868279457092285e+00,1.683653593063354492e+00
3.215546131134033203e+00,3.178933620452880859e+00,3.143145322799682617e+00,3.108154058456420898e+00,3.073933362960815430e+00,3.040457963943481445e+00,3.007703781127929688e+00,2.975647687911987305e+00,2.944267511367797852e+00,2.913542509078979492e+00,2.883452177047729492e+00,2.853976964950561523e+00,2.825098276138305664e+00,2.796797990798950195e+00,2.769059419631958008e+00,2.741865634918212891e+00,2.715200662612915039e+00,2.689049243927001953e+00,2.663396835327148438e+00,2.638229370117187500e+00,2.613532781600952148e+00,2.589294195175170898e+00,2.565501451492309570e+00,2.542141914367675781e+00,2.519203901290893555e+00,2.496675968170166016e+00,2.474547624588012695e+00,2.452807903289794922e+00,2.431447029113769531e+00,2.410454750061035156e+00,2.389822006225585938e+00,2.369539260864257812e+00,2.349598169326782227e+00,2.329989671707153320e+00,2.310705900192260742e+00,2.291738748550415039e+00,2.273080587387084961e+00,2.254723548889160156e+00,2.236660718917846680e+00,2.218884944915771484e+00,2.201389551162719727e+00,2.184167861938476562e+00,2.167213439941406250e+00,2.150520086288452148e+00,2.134082078933715820e+00,2.117893695831298828e+00,2.101948738098144531e+00,2.086242198944091797e+00,2.070768594741821289e+00,2.055523157119750977e+00,2.040500164031982422e+00,2.025695323944091797e+00,2.011103868484497070e+00,1.996720910072326660e+00,1.982542514801025391e+00,1.968563675880432129e+00,1.954780697822570801e+00,1.941189527511596680e+00,1.927785873413085938e+00,1.914566278457641602e+00,1.901526451110839844e+00,1.888663411140441895e+00,1.875972867012023926e+00,1.863452076911926270e+00,1.851096987724304199e+00,1.838904976844787598e+00,1.826872229576110840e+00,1.814995884895324707e+00,1.803273200988769531e+00,1.791700839996337891e+00,1.780276179313659668e+00,1.768996119499206543e+00,1.757858276367187500e+00,1.746859669685363770e+00,1.735998034477233887e+00,1.725270390510559082e+00,1.714674711227416992e+00,1.704208254814147949e+00,1.693868756294250488e+00,1.683654069900512695e+00
3.215548276901245117e+00,3.178935766220092773e+00,3.143147468566894531e+00,3.108155965805053711e+00,3.073935270309448242e+00,3.040459871292114258e+00,3.007705211639404297e+00,2.975649118423461914e+00,2.944269180297851562e+00,2.913544178009033203e+00,2.883453845977783203e+00,2.853978633880615234e+00,2.825099945068359375e+00,2.796799659729003906e+00,2.769061088562011719e+00,2.741867065429687500e+00,2.715202093124389648e+00,2.689050674438476562e+00,2.663398027420043945e+00,2.638230562210083008e+00,2.613534212112426758e+00,2.589295625686645508e+00,2.565502882003784180e+00,2.542143106460571289e+00,2.519205093383789062e+00,2.496677398681640625e+00,2.474548816680908203e+00,2.452809095382690430e+00,2.431448221206665039e+00,2.410455942153930664e+00,2.389822959899902344e+00,2.369540452957153320e+00,2.349599361419677734e+00,2.329990863800048828e+00,2.310707092285156250e+00,2.291739940643310547e+00,2.273081541061401367e+00,2.254724502563476562e+00,2.236661672592163086e+00,2.218885898590087891e+00,2.201390266418457031e+00,2.184168577194213867e+00,2.167214393615722656e+00,2.150521039962768555e+00,2.134083032608032227e+00,2.117894411087036133e+00,2.101949691772460938e+00,2.086243152618408203e+00,2.070769548416137695e+00,2.055523872375488281e+00,2.040501117706298828e+00,2.025696277618408203e+00,2.011104583740234375e+00,1.996721625328063965e+00,1.982543230056762695e+00,1.968564391136169434e+00,1.954781532287597656e+00,1.941190242767333984e+00,1.927786707878112793e+00,1.914566874504089355e+00,1.901527404785156250e+00,1.888664007186889648e+00,1.875973701477050781e+00,1.863452672958374023e+00,1.851097583770751953e+00,1.838905572891235352e+00,1.826872825622558594e+00,1.814996719360351562e+00,1.803273797035217285e+00,1.791701555252075195e+00,1.780276775360107422e+00,1.768996834754943848e+00,1.757859110832214355e+00,1.746860384941101074e+00,1.735998749732971191e+00,1.725271105766296387e+00,1.714675426483154297e+00,1.704208850860595703e+00,1.693869590759277344e+00,1.683654785156250000e+00
3.215550422668457031e+00,3.178937673568725586e+00,3.143149614334106445e+00,3.108157873153686523e+00,3.073936939239501953e+00,3.040461540222167969e+00,3.007707118988037109e+00,2.975651025772094727e+00,2.944271087646484375e+00,2.913546085357666016e+00,2.883455514907836914e+00,2.853980302810668945e+00,2.825101613998413086e+00,2.796801328659057617e+00,2.769062757492065430e+00,2.741868495941162109e+00,2.715203523635864258e+00,2.689052104949951172e+00,2.663399457931518555e+00,2.638231992721557617e+00,2.613535642623901367e+00,2.589297056198120117e+00,2.565504074096679688e+00,2.542144536972045898e+00,2.519206523895263672e+00,2.496678590774536133e+00,2.474550008773803711e+00,2.452810287475585938e+00,2.431449174880981445e+00,2.410457134246826172e+00,2.389824151992797852e+00,2.369541645050048828e+00,2.349600315093994141e+00,2.329992055892944336e+00,2.310708284378051758e+00,2.291740894317626953e+00,2.273082733154296875e+00,2.254725694656372070e+00,2.236662626266479492e+00,2.218886852264404297e+00,2.201391220092773438e+00,2.184169530868530273e+00,2.167215347290039062e+00,2.150521993637084961e+00,2.134083986282348633e+00,2.117895364761352539e+00,2.101950645446777344e+00,2.086244106292724609e+00,2.070770502090454102e+00,2.055524826049804688e+00,2.040501832962036133e+00,2.025696992874145508e+00,2.011105298995971680e+00,1.996722579002380371e+00,1.982543945312500000e+00,1.968565344810485840e+00,1.954782247543334961e+00,1.941191077232360840e+00,1.927787423133850098e+00,1.914567828178405762e+00,1.901528000831604004e+00,1.888664603233337402e+00,1.875974416732788086e+00,1.863453507423400879e+00,1.851098656654357910e+00,1.838906288146972656e+00,1.826873779296875000e+00,1.814997553825378418e+00,1.803274631500244141e+00,1.791702389717102051e+00,1.780277490615844727e+00,1.768997550010681152e+00,1.757859587669372559e+00,1.746861100196838379e+00,1.735999226570129395e+00,1.725271821022033691e+00,1.714676022529602051e+00,1.704209566116333008e+00,1.693870186805725098e+00,1.683655500411987305e+00
3.215552568435668945e+00,3.178939580917358398e+00,3.143151283264160156e+00,3.108159780502319336e+00,3.073938846588134766e+00,3.040463447570800781e+00,3.007709026336669922e+00,2.975652933120727539e+00,2.944272756576538086e+00,2.913547754287719727e+00,2.883457422256469727e+00,2.853981971740722656e+00,2.825103044509887695e+00,2.796802759170532227e+00,2.769063949584960938e+00,2.741869926452636719e+00,2.715204954147338867e+00,2.689053535461425781e+00,2.663401126861572266e+00,2.638233423233032227e+00,2.613537073135375977e+00,2.589298486709594727e+00,2.565505504608154297e+00,2.542145967483520508e+00,2.519207477569580078e+00,2.496679782867431641e+00,2.474551200866699219e+00,2.452811479568481445e+00,2.431450366973876953e+00,2.410458326339721680e+00,2.389825344085693359e+00,2.369542837142944336e+00,2.349601507186889648e+00,2.329993247985839844e+00,2.310709238052368164e+00,2.291742086410522461e+00,2.273083686828613281e+00,2.254726409912109375e+00,2.236663579940795898e+00,2.218887805938720703e+00,2.201392412185668945e+00,2.184170722961425781e+00,2.167216300964355469e+00,2.150522947311401367e+00,2.134084939956665039e+00,2.117896318435668945e+00,2.101951599121093750e+00,2.086244821548461914e+00,2.070771217346191406e+00,2.055525541305541992e+00,2.040502786636352539e+00,2.025697708129882812e+00,2.011106252670288086e+00,1.996723294258117676e+00,1.982544779777526855e+00,1.968566298484802246e+00,1.954783201217651367e+00,1.941192030906677246e+00,1.927788257598876953e+00,1.914568662643432617e+00,1.901528835296630859e+00,1.888665676116943359e+00,1.875975251197814941e+00,1.863454341888427734e+00,1.851099252700805664e+00,1.838907003402709961e+00,1.826874375343322754e+00,1.814998149871826172e+00,1.803275346755981445e+00,1.791702866554260254e+00,1.780278205871582031e+00,1.768998146057128906e+00,1.757860302925109863e+00,1.746861696243286133e+00,1.735999941825866699e+00,1.725272297859191895e+00,1.714676737785339355e+00,1.704210162162780762e+00,1.693870663642883301e+00,1.683655977249145508e+00
3.215554475784301758e+00,3.178941726684570312e+00,3.143153429031372070e+00,3.108161926269531250e+00,3.073940992355346680e+00,3.040465354919433594e+00,3.007710933685302734e+00,2.975654840469360352e+00,2.944274663925170898e+00,2.913549661636352539e+00,2.883458852767944336e+00,2.853983402252197266e+00,2.825104713439941406e+00,2.796804428100585938e+00,2.769065618515014648e+00,2.741871595382690430e+00,2.715206384658813477e+00,2.689055204391479492e+00,2.663402557373046875e+00,2.638234853744506836e+00,2.613538503646850586e+00,2.589299917221069336e+00,2.565506696701049805e+00,2.542147159576416016e+00,2.519208908081054688e+00,2.496680974960327148e+00,2.474552392959594727e+00,2.452812671661376953e+00,2.431451797485351562e+00,2.410459518432617188e+00,2.389826536178588867e+00,2.369544029235839844e+00,2.349602699279785156e+00,2.329994201660156250e+00,2.310710191726684570e+00,2.291743040084838867e+00,2.273084640502929688e+00,2.254727602005004883e+00,2.236664772033691406e+00,2.218888998031616211e+00,2.201393365859985352e+00,2.184171676635742188e+00,2.167217254638671875e+00,2.150523900985717773e+00,2.134085893630981445e+00,2.117897272109985352e+00,2.101952552795410156e+00,2.086246013641357422e+00,2.070772409439086914e+00,2.055526733398437500e+00,2.040503740310668945e+00,2.025698661804199219e+00,2.011107206344604492e+00,1.996724247932434082e+00,1.982545733451843262e+00,1.968566894531250000e+00,1.954784035682678223e+00,1.941192626953125000e+00,1.927789211273193359e+00,1.914569377899169922e+00,1.901529788970947266e+00,1.888666391372680664e+00,1.875976085662841797e+00,1.863454937934875488e+00,1.851099848747253418e+00,1.838907718658447266e+00,1.826874971389770508e+00,1.814998865127563477e+00,1.803275942802429199e+00,1.791703701019287109e+00,1.780278801918029785e+00,1.768998861312866211e+00,1.757860898971557617e+00,1.746862411499023438e+00,1.736000537872314453e+00,1.725272893905639648e+00,1.714677214622497559e+00,1.704210638999938965e+00,1.693871378898620605e+00,1.683656454086303711e+00
3.215556621551513672e+00,3.178943872451782227e+00,3.143155336380004883e+00,3.108163833618164062e+00,3.073942899703979492e+00,3.040467262268066406e+00,3.007712841033935547e+00,2.975656509399414062e+00,2.944276332855224609e+00,2.913551092147827148e+00,2.883460521697998047e+00,2.853985309600830078e+00,2.825106382369995117e+00,2.796806097030639648e+00,2.769067287445068359e+00,2.741873264312744141e+00,2.715208053588867188e+00,2.689056634902954102e+00,2.663403987884521484e+00,2.638236045837402344e+00,2.613539695739746094e+00,2.589301109313964844e+00,2.565508127212524414e+00,2.542148351669311523e+00,2.519210100173950195e+00,2.496682405471801758e+00,2.474553823471069336e+00,2.452814102172851562e+00,2.431452989578247070e+00,2.410460710525512695e+00,2.389827728271484375e+00,2.369544982910156250e+00,2.349603652954101562e+00,2.329995155334472656e+00,2.310711383819580078e+00,2.291743993759155273e+00,2.273085832595825195e+00,2.254728555679321289e+00,2.236665964126586914e+00,2.218889951705932617e+00,2.201394557952880859e+00,2.184172868728637695e+00,2.167218446731567383e+00,2.150525093078613281e+00,2.134087085723876953e+00,2.117898464202880859e+00,2.101953506469726562e+00,2.086246967315673828e+00,2.070773124694824219e+00,2.055527448654174805e+00,2.040504455566406250e+00,2.025699615478515625e+00,2.011107921600341797e+00,1.996725201606750488e+00,1.982546448707580566e+00,1.968567848205566406e+00,1.954784750938415527e+00,1.941193580627441406e+00,1.927789807319641113e+00,1.914570212364196777e+00,1.901530385017395020e+00,1.888666987419128418e+00,1.875976681709289551e+00,1.863455533981323242e+00,1.851100683212280273e+00,1.838908314704895020e+00,1.826875805854797363e+00,1.814999461174011230e+00,1.803276777267456055e+00,1.791704297065734863e+00,1.780279517173767090e+00,1.768999457359313965e+00,1.757861495018005371e+00,1.746863007545471191e+00,1.736001133918762207e+00,1.725273609161376953e+00,1.714677691459655762e+00,1.704211354255676270e+00,1.693871855735778809e+00,1.683657169342041016e+00
3.215558767318725586e+00,3.178946018218994141e+00,3.143157482147216797e+00,3.108165979385375977e+00,3.073944807052612305e+00,3.040468931198120117e+00,3.007714509963989258e+00,2.975658178329467773e+00,2.944278001785278320e+00,2.913552761077880859e+00,2.883462190628051758e+00,2.853986978530883789e+00,2.825108051300048828e+00,2.796807765960693359e+00,2.769068717956542969e+00,2.741874694824218750e+00,2.715209484100341797e+00,2.689057826995849609e+00,2.663405179977416992e+00,2.638237714767456055e+00,2.613541126251220703e+00,2.589302539825439453e+00,2.565509557723999023e+00,2.542149782180786133e+00,2.519211530685424805e+00,2.496683597564697266e+00,2.474555015563964844e+00,2.452815294265747070e+00,2.431453943252563477e+00,2.410462141036987305e+00,2.389829158782958984e+00,2.369546413421630859e+00,2.349605083465576172e+00,2.329996824264526367e+00,2.310712575912475586e+00,2.291745424270629883e+00,2.273087024688720703e+00,2.254729747772216797e+00,2.236666917800903320e+00,2.218891143798828125e+00,2.201395511627197266e+00,2.184173822402954102e+00,2.167219400405883789e+00,2.150526046752929688e+00,2.134088039398193359e+00,2.117899417877197266e+00,2.101954221725463867e+00,2.086247682571411133e+00,2.070774078369140625e+00,2.055528402328491211e+00,2.040505409240722656e+00,2.025700569152832031e+00,2.011108875274658203e+00,1.996725916862487793e+00,1.982547402381896973e+00,1.968568563461303711e+00,1.954785704612731934e+00,1.941194295883178711e+00,1.927790522575378418e+00,1.914570808410644531e+00,1.901530981063842773e+00,1.888667821884155273e+00,1.875977277755737305e+00,1.863456368446350098e+00,1.851101279258728027e+00,1.838909149169921875e+00,1.826876401901245117e+00,1.815000295639038086e+00,1.803277373313903809e+00,1.791704893112182617e+00,1.780280113220214844e+00,1.769000053405761719e+00,1.757862210273742676e+00,1.746863484382629395e+00,1.736001849174499512e+00,1.725274085998535156e+00,1.714678406715393066e+00,1.704211831092834473e+00,1.693872570991516113e+00,1.683657646179199219e+00
3.215560913085937500e+00,3.178947925567626953e+00,3.143159627914428711e+00,3.108167648315429688e+00,3.073946475982666016e+00,3.040470838546752930e+00,3.007716417312622070e+00,2.975660085678100586e+00,2.944279909133911133e+00,2.913554668426513672e+00,2.883464097976684570e+00,2.853988647460937500e+00,2.825109720230102539e+00,2.796809196472167969e+00,2.769070148468017578e+00,2.741876125335693359e+00,2.715210914611816406e+00,2.689059495925903320e+00,2.663406610488891602e+00,2.638239145278930664e+00,2.613542556762695312e+00,2.589303970336914062e+00,2.565510988235473633e+00,2.542151212692260742e+00,2.519212961196899414e+00,2.496685028076171875e+00,2.474556446075439453e+00,2.452816724777221680e+00,2.431455612182617188e+00,2.410463333129882812e+00,2.389830350875854492e+00,2.369547605514526367e+00,2.349606037139892578e+00,2.329997777938842773e+00,2.310713768005371094e+00,2.291746377944946289e+00,2.273087978363037109e+00,2.254730939865112305e+00,2.236667871475219727e+00,2.218892097473144531e+00,2.201396465301513672e+00,2.184174776077270508e+00,2.167220354080200195e+00,2.150526762008666992e+00,2.134088754653930664e+00,2.117900133132934570e+00,2.101955175399780273e+00,2.086248636245727539e+00,2.070774793624877930e+00,2.055529356002807617e+00,2.040506362915039062e+00,2.025701284408569336e+00,2.011109590530395508e+00,1.996726870536804199e+00,1.982548117637634277e+00,1.968569278717041016e+00,1.954786419868469238e+00,1.941194891929626465e+00,1.927791357040405273e+00,1.914571523666381836e+00,1.901531934738159180e+00,1.888668537139892578e+00,1.875978112220764160e+00,1.863456964492797852e+00,1.851102113723754883e+00,1.838909745216369629e+00,1.826876997947692871e+00,1.815000891685485840e+00,1.803277850151062012e+00,1.791705608367919922e+00,1.780280709266662598e+00,1.769000768661499023e+00,1.757862687110900879e+00,1.746864199638366699e+00,1.736002326011657715e+00,1.725274801254272461e+00,1.714679002761840820e+00,1.704212546348571777e+00,1.693873047828674316e+00,1.683658123016357422e+00
3.215562820434570312e+00,3.178949832916259766e+00,3.143161296844482422e+00,3.108169555664062500e+00,3.073948621749877930e+00,3.040472745895385742e+00,3.007718324661254883e+00,2.975661993026733398e+00,2.944281578063964844e+00,2.913556337356567383e+00,2.883465766906738281e+00,2.853990316390991211e+00,2.825111627578735352e+00,2.796811103820800781e+00,2.769072294235229492e+00,2.741878032684326172e+00,2.715212821960449219e+00,2.689061164855957031e+00,2.663408517837524414e+00,2.638240814208984375e+00,2.613543987274169922e+00,2.589305400848388672e+00,2.565512418746948242e+00,2.542152643203735352e+00,2.519214391708374023e+00,2.496686458587646484e+00,2.474557876586914062e+00,2.452817916870117188e+00,2.431456804275512695e+00,2.410464286804199219e+00,2.389831304550170898e+00,2.369548559188842773e+00,2.349607229232788086e+00,2.329998731613159180e+00,2.310714960098266602e+00,2.291747570037841797e+00,2.273089170455932617e+00,2.254731893539428711e+00,2.236669063568115234e+00,2.218893051147460938e+00,2.201397418975830078e+00,2.184175729751586914e+00,2.167221069335937500e+00,2.150527954101562500e+00,2.134089708328247070e+00,2.117901086807250977e+00,2.101956129074096680e+00,2.086249589920043945e+00,2.070775747299194336e+00,2.055530071258544922e+00,2.040507078170776367e+00,2.025702238082885742e+00,2.011110305786132812e+00,1.996727585792541504e+00,1.982548832893371582e+00,1.968570232391357422e+00,1.954787015914916992e+00,1.941195845603942871e+00,1.927792072296142578e+00,1.914572358131408691e+00,1.901532530784606934e+00,1.888669371604919434e+00,1.875978827476501465e+00,1.863457798957824707e+00,1.851102709770202637e+00,1.838910341262817383e+00,1.826877832412719727e+00,1.815001368522644043e+00,1.803278684616088867e+00,1.791706204414367676e+00,1.780281424522399902e+00,1.769001364707946777e+00,1.757863521575927734e+00,1.746864795684814453e+00,1.736003041267395020e+00,1.725275397300720215e+00,1.714679479598999023e+00,1.704213023185729980e+00,1.693873524665832520e+00,1.683658838272094727e+00
3.215564966201782227e+00,3.178951978683471680e+00,3.143163442611694336e+00,3.108171701431274414e+00,3.073950767517089844e+00,3.040474891662597656e+00,3.007720470428466797e+00,2.975663900375366211e+00,2.944283723831176758e+00,2.913558483123779297e+00,2.883467674255371094e+00,2.853992223739624023e+00,2.825113296508789062e+00,2.796812772750854492e+00,2.769073724746704102e+00,2.741879463195800781e+00,2.715214252471923828e+00,2.689062595367431641e+00,2.663409948348999023e+00,2.638242244720458984e+00,2.613545417785644531e+00,2.589306831359863281e+00,2.565513849258422852e+00,2.542154073715209961e+00,2.519215583801269531e+00,2.496687650680541992e+00,2.474558830261230469e+00,2.452819108963012695e+00,2.431457757949829102e+00,2.410465478897094727e+00,2.389832496643066406e+00,2.369549751281738281e+00,2.349608421325683594e+00,2.329999923706054688e+00,2.310715913772583008e+00,2.291748762130737305e+00,2.273090124130249023e+00,2.254733085632324219e+00,2.236670017242431641e+00,2.218894004821777344e+00,2.201398372650146484e+00,2.184176683425903320e+00,2.167222023010253906e+00,2.150528907775878906e+00,2.134090662002563477e+00,2.117902040481567383e+00,2.101957082748413086e+00,2.086250543594360352e+00,2.070776700973510742e+00,2.055530786514282227e+00,2.040507793426513672e+00,2.025702953338623047e+00,2.011111259460449219e+00,1.996728301048278809e+00,1.982549786567687988e+00,1.968570828437805176e+00,1.954787969589233398e+00,1.941196441650390625e+00,1.927792906761169434e+00,1.914573073387145996e+00,1.901533365249633789e+00,1.888669967651367188e+00,1.875979423522949219e+00,1.863458514213562012e+00,1.851103305816650391e+00,1.838911175727844238e+00,1.826878428459167480e+00,1.815002202987670898e+00,1.803279280662536621e+00,1.791706919670104980e+00,1.780282020568847656e+00,1.769002079963684082e+00,1.757863998413085938e+00,1.746865272521972656e+00,1.736003637313842773e+00,1.725275874137878418e+00,1.714680194854736328e+00,1.704213619232177734e+00,1.693874239921569824e+00,1.683659315109252930e+00
3.215567350387573242e+00,3.178954362869262695e+00,3.143165826797485352e+00,3.108173847198486328e+00,3.073952674865722656e+00,3.040476799011230469e+00,3.007722377777099609e+00,2.975665807723999023e+00,2.944285631179809570e+00,2.913560152053833008e+00,2.883469343185424805e+00,2.853993892669677734e+00,2.825114727020263672e+00,2.796814203262329102e+00,2.769075155258178711e+00,2.741880893707275391e+00,2.715215682983398438e+00,2.689064264297485352e+00,2.663411378860473633e+00,2.638243675231933594e+00,2.613546848297119141e+00,2.589308261871337891e+00,2.565515279769897461e+00,2.542155265808105469e+00,2.519216775894165039e+00,2.496688842773437500e+00,2.474560260772705078e+00,2.452820301055908203e+00,2.431459188461303711e+00,2.410466670989990234e+00,2.389833688735961914e+00,2.369550943374633789e+00,2.349609613418579102e+00,2.330001115798950195e+00,2.310717105865478516e+00,2.291749477386474609e+00,2.273091077804565430e+00,2.254734039306640625e+00,2.236670970916748047e+00,2.218894958496093750e+00,2.201399326324462891e+00,2.184177637100219727e+00,2.167223215103149414e+00,2.150529861450195312e+00,2.134091615676879883e+00,2.117902994155883789e+00,2.101958036422729492e+00,2.086251258850097656e+00,2.070777416229248047e+00,2.055531740188598633e+00,2.040508747100830078e+00,2.025703668594360352e+00,2.011111974716186523e+00,1.996729254722595215e+00,1.982550501823425293e+00,1.968571782112121582e+00,1.954788684844970703e+00,1.941197395324707031e+00,1.927793622016906738e+00,1.914573669433593750e+00,1.901534080505371094e+00,1.888670563697814941e+00,1.875980257987976074e+00,1.863459110260009766e+00,1.851104140281677246e+00,1.838911771774291992e+00,1.826879143714904785e+00,1.815002799034118652e+00,1.803279995918273926e+00,1.791707515716552734e+00,1.780282616615295410e+00,1.769002676010131836e+00,1.757864594459533691e+00,1.746866106986999512e+00,1.736004114151000977e+00,1.725276589393615723e+00,1.714680671691894531e+00,1.704214215278625488e+00,1.693874716758728027e+00,1.683660030364990234e+00
3.215569496154785156e+00,3.178956508636474609e+00,3.143167734146118164e+00,3.108175992965698242e+00,3.073954820632934570e+00,3.040478706359863281e+00,3.007724046707153320e+00,2.975667715072631836e+00,2.944287300109863281e+00,2.913561820983886719e+00,2.883471012115478516e+00,2.853995323181152344e+00,2.825116395950317383e+00,2.796815872192382812e+00,2.769076824188232422e+00,2.741882562637329102e+00,2.715217351913452148e+00,2.689065694808959961e+00,2.663412809371948242e+00,2.638245105743408203e+00,2.613548278808593750e+00,2.589309453964233398e+00,2.565516233444213867e+00,2.542156457901000977e+00,2.519218206405639648e+00,2.496690273284912109e+00,2.474561452865600586e+00,2.452821493148803711e+00,2.431460380554199219e+00,2.410467863082885742e+00,2.389834880828857422e+00,2.369552135467529297e+00,2.349610805511474609e+00,2.330002069473266602e+00,2.310718059539794922e+00,2.291750669479370117e+00,2.273092269897460938e+00,2.254734992980957031e+00,2.236671924591064453e+00,2.218896150588989258e+00,2.201400518417358398e+00,2.184178590774536133e+00,2.167224168777465820e+00,2.150530815124511719e+00,2.134092330932617188e+00,2.117903709411621094e+00,2.101958751678466797e+00,2.086252212524414062e+00,2.070778369903564453e+00,2.055532693862915039e+00,2.040509700775146484e+00,2.025704622268676758e+00,2.011112928390502930e+00,1.996729969978332520e+00,1.982551455497741699e+00,1.968572497367858887e+00,1.954789280891418457e+00,1.941198110580444336e+00,1.927794337272644043e+00,1.914574623107910156e+00,1.901534676551818848e+00,1.888671517372131348e+00,1.875980854034423828e+00,1.863459944725036621e+00,1.851104736328125000e+00,1.838912606239318848e+00,1.826879739761352539e+00,1.815003395080566406e+00,1.803280591964721680e+00,1.791708111763000488e+00,1.780283331871032715e+00,1.769003152847290039e+00,1.757865309715270996e+00,1.746866583824157715e+00,1.736004829406738281e+00,1.725277185440063477e+00,1.714681386947631836e+00,1.704214811325073242e+00,1.693875432014465332e+00,1.683660507202148438e+00
3.215571641921997070e+00,3.178958654403686523e+00,3.143169879913330078e+00,3.108177900314331055e+00,3.073956727981567383e+00,3.040480613708496094e+00,3.007725954055786133e+00,2.975669145584106445e+00,2.944288969039916992e+00,2.913563489913940430e+00,2.883472681045532227e+00,2.853996992111206055e+00,2.825118064880371094e+00,2.796817541122436523e+00,2.769078493118286133e+00,2.741884231567382812e+00,2.715218782424926758e+00,2.689067125320434570e+00,2.663414239883422852e+00,2.638246297836303711e+00,2.613549709320068359e+00,2.589310884475708008e+00,2.565517663955688477e+00,2.542157888412475586e+00,2.519219398498535156e+00,2.496691465377807617e+00,2.474562644958496094e+00,2.452822923660278320e+00,2.431461572647094727e+00,2.410469293594360352e+00,2.389836072921752930e+00,2.369553089141845703e+00,2.349611759185791016e+00,2.330003261566162109e+00,2.310719251632690430e+00,2.291751861572265625e+00,2.273093223571777344e+00,2.254736185073852539e+00,2.236673116683959961e+00,2.218897104263305664e+00,2.201401472091674805e+00,2.184179544448852539e+00,2.167224884033203125e+00,2.150531530380249023e+00,2.134093284606933594e+00,2.117904663085937500e+00,2.101959705352783203e+00,2.086252927780151367e+00,2.070779323577880859e+00,2.055533647537231445e+00,2.040510416030883789e+00,2.025705575942993164e+00,2.011113643646240234e+00,1.996730685234069824e+00,1.982552051544189453e+00,1.968573212623596191e+00,1.954790234565734863e+00,1.941198706626892090e+00,1.927795171737670898e+00,1.914575219154357910e+00,1.901535511016845703e+00,1.888672113418579102e+00,1.875981688499450684e+00,1.863460540771484375e+00,1.851105570793151855e+00,1.838913202285766602e+00,1.826880335807800293e+00,1.815004229545593262e+00,1.803281188011169434e+00,1.791708827018737793e+00,1.780283927917480469e+00,1.769003987312316895e+00,1.757865905761718750e+00,1.746867299079895020e+00,1.736005425453186035e+00,1.725277900695800781e+00,1.714681982994079590e+00,1.704215288162231445e+00,1.693875908851623535e+00,1.683661103248596191e+00
3.215573787689208984e+00,3.178960561752319336e+00,3.143172025680541992e+00,3.108180046081542969e+00,3.073958396911621094e+00,3.040482282638549805e+00,3.007727622985839844e+00,2.975671052932739258e+00,2.944290637969970703e+00,2.913565158843994141e+00,2.883474349975585938e+00,2.853998899459838867e+00,2.825119733810424805e+00,2.796818971633911133e+00,2.769079923629760742e+00,2.741885662078857422e+00,2.715220212936401367e+00,2.689068555831909180e+00,2.663415670394897461e+00,2.638247728347778320e+00,2.613550901412963867e+00,2.589312314987182617e+00,2.565519094467163086e+00,2.542159080505371094e+00,2.519220829010009766e+00,2.496692657470703125e+00,2.474564075469970703e+00,2.452823877334594727e+00,2.431462526321411133e+00,2.410470247268676758e+00,2.389837265014648438e+00,2.369554281234741211e+00,2.349612951278686523e+00,2.330004215240478516e+00,2.310720443725585938e+00,2.291752815246582031e+00,2.273094415664672852e+00,2.254737138748168945e+00,2.236674070358276367e+00,2.218898057937622070e+00,2.201402187347412109e+00,2.184180498123168945e+00,2.167225837707519531e+00,2.150532484054565430e+00,2.134094238281250000e+00,2.117905616760253906e+00,2.101960659027099609e+00,2.086253881454467773e+00,2.070780038833618164e+00,2.055534362792968750e+00,2.040511131286621094e+00,2.025706291198730469e+00,2.011114597320556641e+00,1.996731638908386230e+00,1.982552766799926758e+00,1.968574166297912598e+00,1.954790949821472168e+00,1.941199660301208496e+00,1.927795886993408203e+00,1.914576053619384766e+00,1.901536226272583008e+00,1.888672947883605957e+00,1.875982284545898438e+00,1.863461136817932129e+00,1.851106166839599609e+00,1.838913798332214355e+00,1.826881170272827148e+00,1.815004706382751465e+00,1.803282022476196289e+00,1.791709423065185547e+00,1.780284643173217773e+00,1.769004464149475098e+00,1.757866621017456055e+00,1.746867895126342773e+00,1.736005902290344238e+00,1.725278377532958984e+00,1.714682459831237793e+00,1.704216003417968750e+00,1.693876504898071289e+00,1.683661699295043945e+00
3.215575933456420898e+00,3.178962469100952148e+00,3.143173694610595703e+00,3.108181715011596680e+00,3.073960304260253906e+00,3.040484189987182617e+00,3.007729530334472656e+00,2.975672960281372070e+00,2.944292545318603516e+00,2.913567066192626953e+00,2.883476257324218750e+00,2.854000568389892578e+00,2.825121402740478516e+00,2.796820402145385742e+00,2.769081354141235352e+00,2.741887092590332031e+00,2.715221643447875977e+00,2.689069986343383789e+00,2.663417100906372070e+00,2.638249158859252930e+00,2.613552331924438477e+00,2.589313745498657227e+00,2.565520524978637695e+00,2.542160511016845703e+00,2.519222021102905273e+00,2.496693849563598633e+00,2.474565029144287109e+00,2.452825069427490234e+00,2.431463718414306641e+00,2.410471439361572266e+00,2.389838457107543945e+00,2.369555473327636719e+00,2.349614143371582031e+00,2.330005407333374023e+00,2.310721397399902344e+00,2.291754007339477539e+00,2.273095369338989258e+00,2.254738092422485352e+00,2.236675024032592773e+00,2.218899011611938477e+00,2.201403379440307617e+00,2.184181451797485352e+00,2.167226791381835938e+00,2.150533437728881836e+00,2.134095191955566406e+00,2.117906570434570312e+00,2.101961612701416016e+00,2.086254835128784180e+00,2.070780992507934570e+00,2.055535078048706055e+00,2.040512084960937500e+00,2.025707006454467773e+00,2.011115312576293945e+00,1.996732354164123535e+00,1.982553720474243164e+00,1.968574762344360352e+00,1.954791784286499023e+00,1.941200256347656250e+00,1.927796721458435059e+00,1.914576768875122070e+00,1.901536822319030762e+00,1.888673543930053711e+00,1.875982999801635742e+00,1.863461971282958984e+00,1.851106882095336914e+00,1.838914632797241211e+00,1.826881766319274902e+00,1.815005540847778320e+00,1.803282499313354492e+00,1.791710138320922852e+00,1.780285239219665527e+00,1.769005060195922852e+00,1.757867217063903809e+00,1.746868371963500977e+00,1.736006617546081543e+00,1.725278854370117188e+00,1.714683175086975098e+00,1.704216480255126953e+00,1.693877100944519043e+00,1.683662176132202148e+00
3.215577840805053711e+00,3.178964614868164062e+00,3.143175840377807617e+00,3.108183622360229492e+00,3.073962211608886719e+00,3.040486335754394531e+00,3.007731437683105469e+00,2.975674867630004883e+00,2.944294214248657227e+00,2.913568735122680664e+00,2.883477687835693359e+00,2.854001998901367188e+00,2.825122833251953125e+00,2.796822071075439453e+00,2.769083023071289062e+00,2.741888523101806641e+00,2.715223073959350586e+00,2.689071416854858398e+00,2.663418531417846680e+00,2.638250589370727539e+00,2.613553762435913086e+00,2.589315176010131836e+00,2.565521717071533203e+00,2.542161703109741211e+00,2.519223213195800781e+00,2.496695280075073242e+00,2.474566459655761719e+00,2.452826499938964844e+00,2.431465148925781250e+00,2.410472631454467773e+00,2.389839649200439453e+00,2.369556665420532227e+00,2.349615097045898438e+00,2.330006599426269531e+00,2.310722351074218750e+00,2.291754961013793945e+00,2.273096323013305664e+00,2.254739046096801758e+00,2.236675977706909180e+00,2.218899965286254883e+00,2.201404333114624023e+00,2.184182405471801758e+00,2.167227983474731445e+00,2.150534391403198242e+00,2.134096145629882812e+00,2.117907285690307617e+00,2.101962327957153320e+00,2.086255550384521484e+00,2.070781707763671875e+00,2.055536031723022461e+00,2.040513038635253906e+00,2.025707960128784180e+00,2.011116266250610352e+00,1.996733307838439941e+00,1.982554435729980469e+00,1.968575716018676758e+00,1.954792499542236328e+00,1.941200971603393555e+00,1.927797436714172363e+00,1.914577364921569824e+00,1.901537656784057617e+00,1.888674259185791016e+00,1.875983834266662598e+00,1.863462567329406738e+00,1.851107597351074219e+00,1.838915228843688965e+00,1.826882600784301758e+00,1.815006136894226074e+00,1.803283095359802246e+00,1.791710734367370605e+00,1.780285835266113281e+00,1.769005775451660156e+00,1.757867693901062012e+00,1.746869206428527832e+00,1.736007213592529297e+00,1.725279569625854492e+00,1.714683651924133301e+00,1.704217195510864258e+00,1.693877696990966797e+00,1.683662891387939453e+00
3.215579986572265625e+00,3.178966760635375977e+00,3.143177747726440430e+00,3.108185768127441406e+00,3.073964357376098633e+00,3.040488243103027344e+00,3.007733345031738281e+00,2.975676536560058594e+00,2.944295883178710938e+00,2.913570404052734375e+00,2.883479356765747070e+00,2.854003667831420898e+00,2.825124502182006836e+00,2.796823740005493164e+00,2.769084692001342773e+00,2.741890192031860352e+00,2.715224742889404297e+00,2.689073085784912109e+00,2.663419961929321289e+00,2.638252019882202148e+00,2.613555192947387695e+00,2.589316368103027344e+00,2.565522909164428711e+00,2.542163133621215820e+00,2.519224643707275391e+00,2.496696472167968750e+00,2.474567651748657227e+00,2.452827692031860352e+00,2.431466341018676758e+00,2.410473823547363281e+00,2.389840841293334961e+00,2.369557619094848633e+00,2.349616289138793945e+00,2.330007553100585938e+00,2.310723543167114258e+00,2.291755914688110352e+00,2.273097515106201172e+00,2.254740238189697266e+00,2.236677169799804688e+00,2.218901157379150391e+00,2.201405286788940430e+00,2.184183359146118164e+00,2.167228937149047852e+00,2.150535345077514648e+00,2.134097099304199219e+00,2.117908239364624023e+00,2.101963281631469727e+00,2.086256504058837891e+00,2.070782661437988281e+00,2.055536985397338867e+00,2.040513753890991211e+00,2.025708675384521484e+00,2.011116981506347656e+00,1.996734023094177246e+00,1.982555150985717773e+00,1.968576431274414062e+00,1.954793214797973633e+00,1.941201925277709961e+00,1.927798032760620117e+00,1.914578318595886230e+00,1.901538372039794922e+00,1.888675093650817871e+00,1.875984430313110352e+00,1.863463401794433594e+00,1.851108312606811523e+00,1.838916063308715820e+00,1.826883196830749512e+00,1.815006732940673828e+00,1.803283929824829102e+00,1.791711330413818359e+00,1.780286550521850586e+00,1.769006371498107910e+00,1.757868409156799316e+00,1.746869683265686035e+00,1.736007928848266602e+00,1.725280165672302246e+00,1.714684367179870605e+00,1.704217672348022461e+00,1.693878173828125000e+00,1.683663368225097656e+00
3.082745790481567383e+00,3.082260370254516602e+00,3.081775188446044922e+00,3.081289768218994141e+00,3.073966264724731445e+00,3.040489912033081055e+00,3.007735013961791992e+00,2.975678205490112305e+00,2.944297552108764648e+00,2.913572072982788086e+00,2.883481025695800781e+00,2.854005336761474609e+00,2.825126171112060547e+00,2.796825408935546875e+00,2.769086122512817383e+00,2.741891860961914062e+00,2.715226173400878906e+00,2.689074277877807617e+00,2.663421392440795898e+00,2.638253450393676758e+00,2.613556623458862305e+00,2.589317560195922852e+00,2.565524339675903320e+00,2.542164325714111328e+00,2.519225835800170898e+00,2.496697664260864258e+00,2.474568843841552734e+00,2.452828884124755859e+00,2.431467294692993164e+00,2.410475015640258789e+00,2.389841794967651367e+00,2.369558811187744141e+00,2.349617242813110352e+00,2.330008745193481445e+00,2.310724735260009766e+00,2.291757106781005859e+00,2.273098468780517578e+00,2.254741191864013672e+00,2.236678123474121094e+00,2.218902111053466797e+00,2.201406240463256836e+00,2.184184312820434570e+00,2.167229652404785156e+00,2.150536298751831055e+00,2.134098052978515625e+00,2.117909193038940430e+00,2.101964235305786133e+00,2.086257457733154297e+00,2.070783615112304688e+00,2.055537939071655273e+00,2.040514707565307617e+00,2.025709629058837891e+00,2.011117696762084961e+00,1.996734738349914551e+00,1.982556104660034180e+00,1.968577146530151367e+00,1.954794168472290039e+00,1.941202521324157715e+00,1.927798986434936523e+00,1.914578914642333984e+00,1.901539206504821777e+00,1.888675689697265625e+00,1.875985264778137207e+00,1.863464117050170898e+00,1.851108908653259277e+00,1.838916659355163574e+00,1.826883792877197266e+00,1.815007567405700684e+00,1.803284525871276855e+00,1.791712045669555664e+00,1.780287146568298340e+00,1.769007086753845215e+00,1.757869005203247070e+00,1.746870398521423340e+00,1.736008405685424805e+00,1.725280642509460449e+00,1.714684963226318359e+00,1.704218268394470215e+00,1.693878889083862305e+00,1.683663964271545410e+00
2.604584455490112305e+00,2.604238033294677734e+00,2.603891372680664062e+00,2.603545188903808594e+00,2.603198766708374023e+00,2.602852582931518555e+00,2.602506399154663086e+00,2.602160453796386719e+00,2.601814508438110352e+00,2.601468563079833984e+00,2.601123094558715820e+00,2.600777149200439453e+00,2.600431680679321289e+00,2.600086212158203125e+00,2.599740982055664062e+00,2.599395513534545898e+00,2.599050521850585938e+00,2.598705053329467773e+00,2.598360300064086914e+00,2.598015308380126953e+00,2.597670555114746094e+00,2.589318990707397461e+00,2.565525770187377930e+00,2.542165756225585938e+00,2.519227266311645508e+00,2.496699094772338867e+00,2.474570035934448242e+00,2.452830076217651367e+00,2.431468486785888672e+00,2.410476207733154297e+00,2.389842987060546875e+00,2.369560003280639648e+00,2.349618434906005859e+00,2.330009937286376953e+00,2.310725688934326172e+00,2.291758298873901367e+00,2.273099660873413086e+00,2.254742145538330078e+00,2.236679077148437500e+00,2.218903064727783203e+00,2.201407194137573242e+00,2.184185266494750977e+00,2.167230606079101562e+00,2.150537252426147461e+00,2.134099006652832031e+00,2.117910146713256836e+00,2.101965188980102539e+00,2.086258411407470703e+00,2.070784568786621094e+00,2.055538654327392578e+00,2.040515422821044922e+00,2.025710344314575195e+00,2.011118650436401367e+00,1.996735692024230957e+00,1.982556819915771484e+00,1.968578100204467773e+00,1.954794764518737793e+00,1.941203474998474121e+00,1.927799582481384277e+00,1.914579749107360840e+00,1.901539921760559082e+00,1.888676404953002930e+00,1.875985860824584961e+00,1.863464713096618652e+00,1.851109743118286133e+00,1.838917255401611328e+00,1.826884508132934570e+00,1.815008044242858887e+00,1.803285241127014160e+00,1.791712641716003418e+00,1.780287861824035645e+00,1.769007682800292969e+00,1.757869601249694824e+00,1.746870994567871094e+00,1.736009001731872559e+00,1.725281357765197754e+00,1.714685440063476562e+00,1.704218983650207520e+00,1.693879365921020508e+00,1.683664560317993164e+00
2.254838943481445312e+00,2.254579067230224609e+00,2.254319429397583008e+00,2.254059791564941406e+00,2.253800392150878906e+00,2.253540754318237305e+00,2.253281354904174805e+00,2.253021955490112305e+00,2.252762556076049805e+00,2.252503395080566406e+00,2.252243995666503906e+00,2.251985073089599609e+00,2.251725912094116211e+00,2.251466989517211914e+00,2.251207828521728516e+00,2.250948905944824219e+00,2.250689983367919922e+00,2.250431299209594727e+00,2.250172615051269531e+00,2.249913930892944336e+00,2.249655246734619141e+00,2.249396800994873047e+00,2.249138355255126953e+00,2.248879671096801758e+00,2.248621463775634766e+00,2.248363018035888672e+00,2.248104810714721680e+00,2.247846841812133789e+00,2.247588396072387695e+00,2.247330427169799805e+00,2.247072458267211914e+00,2.246814489364624023e+00,2.246556520462036133e+00,2.246298789978027344e+00,2.246040821075439453e+00,2.245783090591430664e+00,2.245525360107421875e+00,2.245267868041992188e+00,2.236680030822753906e+00,2.218904018402099609e+00,2.201408147811889648e+00,2.184186220169067383e+00,2.167231559753417969e+00,2.150538206100463867e+00,2.134099960327148438e+00,2.117911100387573242e+00,2.101965904235839844e+00,2.086259126663208008e+00,2.070785284042358398e+00,2.055539369583129883e+00,2.040516376495361328e+00,2.025711297988891602e+00,2.011119365692138672e+00,1.996736407279968262e+00,1.982557773590087891e+00,1.968578696250915527e+00,1.954795718193054199e+00,1.941204190254211426e+00,1.927800297737121582e+00,1.914580464363098145e+00,1.901540517807006836e+00,1.888677239418029785e+00,1.875986576080322266e+00,1.863465547561645508e+00,1.851110339164733887e+00,1.838918089866638184e+00,1.826885104179382324e+00,1.815008878707885742e+00,1.803285837173461914e+00,1.791713237762451172e+00,1.780288457870483398e+00,1.769008278846740723e+00,1.757870316505432129e+00,1.746871471405029297e+00,1.736009716987609863e+00,1.725281953811645508e+00,1.714686155319213867e+00,1.704219460487365723e+00,1.693880081176757812e+00,1.683665156364440918e+00
1.987901806831359863e+00,1.987699985504150391e+00,1.987498164176940918e+00,1.987296462059020996e+00,1.987094759941101074e+00,1.986892819404602051e+00,1.986691236495971680e+00,1.986489653587341309e+00,1.986288070678710938e+00,1.986086368560791016e+00,1.985884904861450195e+00,1.985683441162109375e+00,1.985482096672058105e+00,1.985280513763427734e+00,1.985079169273376465e+00,1.984877943992614746e+00,1.984676718711853027e+00,1.984475493431091309e+00,1.984274029731750488e+00,1.984073042869567871e+00,1.983871936798095703e+00,1.983670949935913086e+00,1.983469724655151367e+00,1.983268737792968750e+00,1.983067870140075684e+00,1.982867002487182617e+00,1.982666134834289551e+00,1.982465147972106934e+00,1.982264399528503418e+00,1.982063770294189453e+00,1.981863141059875488e+00,1.981662273406982422e+00,1.981461644172668457e+00,1.981261134147644043e+00,1.981060624122619629e+00,1.980860233306884766e+00,1.980659484863281250e+00,1.980459213256835938e+00,1.980258822441101074e+00,1.980058550834655762e+00,1.979858040809631348e+00,1.979657888412475586e+00,1.979457736015319824e+00,1.979257583618164062e+00,1.979057192802429199e+00,1.978857159614562988e+00,1.978657126426696777e+00,1.978457212448120117e+00,1.978257298469543457e+00,1.978057146072387695e+00,1.977857351303100586e+00,1.977657437324523926e+00,1.977457761764526367e+00,1.977257728576660156e+00,1.977058053016662598e+00,1.968579411506652832e+00,1.954796433448791504e+00,1.941204786300659180e+00,1.927801132202148438e+00,1.914581060409545898e+00,1.901541352272033691e+00,1.888677835464477539e+00,1.875987410545349121e+00,1.863466143608093262e+00,1.851111173629760742e+00,1.838918685913085938e+00,1.826885938644409180e+00,1.815009474754333496e+00,1.803286433219909668e+00,1.791714072227478027e+00,1.780289053916931152e+00,1.769008994102478027e+00,1.757870793342590332e+00,1.746872186660766602e+00,1.736010193824768066e+00,1.725282669067382812e+00,1.714686632156372070e+00,1.704220175743103027e+00,1.693880558013916016e+00,1.683665633201599121e+00
1.777477025985717773e+00,1.777315616607666016e+00,1.777154326438903809e+00,1.776992917060852051e+00,1.776831507682800293e+00,1.776670217514038086e+00,1.776509046554565430e+00,1.776347875595092773e+00,1.776186466217041016e+00,1.776025295257568359e+00,1.775864243507385254e+00,1.775703191757202148e+00,1.775542140007019043e+00,1.775380849838256836e+00,1.775219917297363281e+00,1.775058984756469727e+00,1.774898052215576172e+00,1.774736881256103516e+00,1.774576067924499512e+00,1.774415135383605957e+00,1.774254322052001953e+00,1.774093389511108398e+00,1.773932576179504395e+00,1.773771882057189941e+00,1.773611187934875488e+00,1.773450493812561035e+00,1.773289680480957031e+00,1.773129105567932129e+00,1.772968530654907227e+00,1.772807955741882324e+00,1.772647261619567871e+00,1.772486686706542969e+00,1.772326231002807617e+00,1.772165775299072266e+00,1.772005438804626465e+00,1.771844863891601562e+00,1.771684527397155762e+00,1.771524190902709961e+00,1.771363854408264160e+00,1.771203398704528809e+00,1.771043181419372559e+00,1.770882964134216309e+00,1.770722746849060059e+00,1.770562648773193359e+00,1.770402312278747559e+00,1.770242214202880859e+00,1.770082116127014160e+00,1.769922137260437012e+00,1.769761919975280762e+00,1.769601941108703613e+00,1.769441962242126465e+00,1.769282102584838867e+00,1.769122242927551270e+00,1.768962144851684570e+00,1.768802285194396973e+00,1.768642544746398926e+00,1.768482804298400879e+00,1.768322825431823730e+00,1.768163084983825684e+00,1.768003463745117188e+00,1.767843723297119141e+00,1.767683982849121094e+00,1.767524361610412598e+00,1.767364740371704102e+00,1.767205238342285156e+00,1.767045736312866211e+00,1.766885995864868164e+00,1.766726613044738770e+00,1.766567111015319824e+00,1.766407728195190430e+00,1.766248226165771484e+00,1.766088843345642090e+00,1.757871627807617188e+00,1.746872782707214355e+00,1.736010909080505371e+00,1.725283145904541016e+00,1.714687228202819824e+00,1.704220652580261230e+00,1.693881034851074219e+00,1.683666348457336426e+00
1.607336044311523438e+00,1.607204079627990723e+00,1.607072114944458008e+00,1.606940150260925293e+00,1.606808185577392578e+00,1.606676340103149414e+00,1.606544494628906250e+00,1.606412529945373535e+00,1.606280684471130371e+00,1.606148958206176758e+00,1.606017112731933594e+00,1.605885386466979980e+00,1.605753540992736816e+00,1.605621814727783203e+00,1.605490088462829590e+00,1.605358481407165527e+00,1.605226755142211914e+00,1.605095028877258301e+00,1.604963541030883789e+00,1.604831933975219727e+00,1.604700326919555664e+00,1.604568719863891602e+00,1.604437232017517090e+00,1.604305744171142578e+00,1.604174256324768066e+00,1.604042649269104004e+00,1.603911280632019043e+00,1.603779792785644531e+00,1.603648424148559570e+00,1.603517055511474609e+00,1.603385567665100098e+00,1.603254318237304688e+00,1.603123068809509277e+00,1.602991700172424316e+00,1.602860331535339355e+00,1.602729082107543945e+00,1.602597951889038086e+00,1.602466702461242676e+00,1.602335453033447266e+00,1.602204322814941406e+00,1.602073192596435547e+00,1.601942062377929688e+00,1.601811051368713379e+00,1.601679801940917969e+00,1.601548790931701660e+00,1.601417779922485352e+00,1.601286768913269043e+00,1.601155638694763184e+00,1.601024746894836426e+00,1.600893735885620117e+00,1.600762844085693359e+00,1.600631952285766602e+00,1.600500941276550293e+00,1.600370168685913086e+00,1.600239396095275879e+00,1.600108504295349121e+00,1.599977612495422363e+00,1.599846839904785156e+00,1.599716067314147949e+00,1.599585413932800293e+00,1.599454641342163086e+00,1.599323868751525879e+00,1.599193215370178223e+00,1.599062561988830566e+00,1.598932027816772461e+00,1.598801255226135254e+00,1.598670721054077148e+00,1.598540186882019043e+00,1.598409652709960938e+00,1.598278999328613281e+00,1.598148584365844727e+00,1.598018050193786621e+00,1.597887635231018066e+00,1.597757220268249512e+00,1.597626686096191406e+00,1.597496271133422852e+00,1.597365975379943848e+00,1.597235679626464844e+00,1.597105145454406738e+00,1.596974849700927734e+00
1.466921567916870117e+00,1.466811656951904297e+00,1.466701626777648926e+00,1.466591835021972656e+00,1.466481924057006836e+00,1.466372132301330566e+00,1.466262102127075195e+00,1.466152310371398926e+00,1.466042518615722656e+00,1.465932726860046387e+00,1.465822935104370117e+00,1.465713143348693848e+00,1.465603351593017578e+00,1.465493679046630859e+00,1.465384006500244141e+00,1.465274095535278320e+00,1.465164422988891602e+00,1.465054869651794434e+00,1.464945197105407715e+00,1.464835524559020996e+00,1.464725852012634277e+00,1.464616298675537109e+00,1.464506745338439941e+00,1.464397192001342773e+00,1.464287519454956055e+00,1.464177966117858887e+00,1.464068412780761719e+00,1.463958978652954102e+00,1.463849544525146484e+00,1.463739991188049316e+00,1.463630557060241699e+00,1.463521122932434082e+00,1.463411688804626465e+00,1.463302135467529297e+00,1.463192820549011230e+00,1.463083386421203613e+00,1.462974071502685547e+00,1.462864756584167480e+00,1.462755322456359863e+00,1.462646126747131348e+00,1.462536811828613281e+00,1.462427496910095215e+00,1.462318181991577148e+00,1.462208986282348633e+00,1.462099790573120117e+00,1.461990594863891602e+00,1.461881279945373535e+00,1.461772084236145020e+00,1.461663007736206055e+00,1.461553812026977539e+00,1.461444735527038574e+00,1.461335539817810059e+00,1.461226463317871094e+00,1.461117386817932129e+00,1.461008310317993164e+00,1.460899233818054199e+00,1.460790157318115234e+00,1.460681200027465820e+00,1.460572242736816406e+00,1.460463285446166992e+00,1.460354208946228027e+00,1.460245251655578613e+00,1.460136294364929199e+00,1.460027456283569336e+00,1.459918498992919922e+00,1.459809541702270508e+00,1.459700703620910645e+00,1.459591865539550781e+00,1.459483027458190918e+00,1.459374189376831055e+00,1.459265351295471191e+00,1.459156632423400879e+00,1.459047794342041016e+00,1.458938956260681152e+00,1.458830237388610840e+00,1.458721518516540527e+00,1.458612918853759766e+00,1.458504199981689453e+00,1.458395481109619141e+00,1.458286762237548828e+00
1.349068999290466309e+00,1.348975896835327148e+00,1.348882913589477539e+00,1.348790049552917480e+00,1.348697066307067871e+00,1.348604202270507812e+00,1.348511219024658203e+00,1.348418235778808594e+00,1.348325371742248535e+00,1.348232507705688477e+00,1.348139643669128418e+00,1.348046779632568359e+00,1.347953915596008301e+00,1.347861170768737793e+00,1.347768306732177734e+00,1.347675442695617676e+00,1.347582697868347168e+00,1.347489953041076660e+00,1.347397208213806152e+00,1.347304344177246094e+00,1.347211718559265137e+00,1.347118973731994629e+00,1.347026348114013672e+00,1.346933484077453613e+00,1.346840858459472656e+00,1.346748232841491699e+00,1.346655488014221191e+00,1.346562862396240234e+00,1.346470236778259277e+00,1.346377611160278320e+00,1.346284985542297363e+00,1.346192479133605957e+00,1.346099734306335449e+00,1.346007227897644043e+00,1.345914721488952637e+00,1.345822095870971680e+00,1.345729589462280273e+00,1.345636963844299316e+00,1.345544576644897461e+00,1.345452070236206055e+00,1.345359563827514648e+00,1.345267057418823242e+00,1.345174551010131836e+00,1.345082163810729980e+00,1.344989776611328125e+00,1.344897389411926270e+00,1.344804883003234863e+00,1.344712495803833008e+00,1.344620108604431152e+00,1.344527721405029297e+00,1.344435334205627441e+00,1.344342947006225586e+00,1.344250679016113281e+00,1.344158411026000977e+00,1.344066023826599121e+00,1.343973755836486816e+00,1.343881487846374512e+00,1.343789219856262207e+00,1.343696951866149902e+00,1.343604683876037598e+00,1.343512415885925293e+00,1.343420267105102539e+00,1.343327999114990234e+00,1.343235731124877930e+00,1.343143582344055176e+00,1.343051433563232422e+00,1.342959284782409668e+00,1.342867255210876465e+00,1.342774987220764160e+00,1.342682838439941406e+00,1.342590808868408203e+00,1.342498779296875000e+00,1.342406630516052246e+00,1.342314481735229492e+00,1.342222452163696289e+00,1.342130422592163086e+00,1.342038512229919434e+00,1.341946363449096680e+00,1.341854333877563477e+00,1.341762423515319824e+00
1.248744606971740723e+00,1.248664975166320801e+00,1.248585343360900879e+00,1.248505711555480957e+00,1.248426079750061035e+00,1.248346328735351562e+00,1.248266816139221191e+00,1.248187184333801270e+00,1.248107671737670898e+00,1.248027920722961426e+00,1.247948408126831055e+00,1.247868895530700684e+00,1.247789263725280762e+00,1.247709751129150391e+00,1.247630119323730469e+00,1.247550606727600098e+00,1.247471213340759277e+00,1.247391700744628906e+00,1.247312068939208984e+00,1.247232675552368164e+00,1.247153162956237793e+00,1.247073769569396973e+00,1.246994256973266602e+00,1.246914744377136230e+00,1.246835350990295410e+00,1.246755957603454590e+00,1.246676564216613770e+00,1.246597051620483398e+00,1.246517658233642578e+00,1.246438384056091309e+00,1.246358990669250488e+00,1.246279597282409668e+00,1.246200203895568848e+00,1.246120929718017578e+00,1.246041536331176758e+00,1.245962262153625488e+00,1.245882868766784668e+00,1.245803594589233398e+00,1.245724320411682129e+00,1.245645046234130859e+00,1.245565772056579590e+00,1.245486497879028320e+00,1.245407223701477051e+00,1.245328068733215332e+00,1.245248794555664062e+00,1.245169520378112793e+00,1.245090365409851074e+00,1.245011091232299805e+00,1.244931936264038086e+00,1.244852662086486816e+00,1.244773507118225098e+00,1.244694352149963379e+00,1.244615316390991211e+00,1.244536161422729492e+00,1.244456887245178223e+00,1.244377851486206055e+00,1.244298696517944336e+00,1.244219660758972168e+00,1.244140505790710449e+00,1.244061470031738281e+00,1.243982434272766113e+00,1.243903398513793945e+00,1.243824362754821777e+00,1.243745207786560059e+00,1.243666172027587891e+00,1.243587136268615723e+00,1.243508219718933105e+00,1.243429064750671387e+00,1.243350148200988770e+00,1.243271231651306152e+00,1.243192195892333984e+00,1.243113160133361816e+00,1.243034243583679199e+00,1.242955327033996582e+00,1.242876410484313965e+00,1.242797493934631348e+00,1.242718577384948730e+00,1.242639660835266113e+00,1.242560863494873047e+00,1.242481946945190430e+00
1.162308931350708008e+00,1.162239909172058105e+00,1.162170886993408203e+00,1.162101864814758301e+00,1.162032842636108398e+00,1.161963820457458496e+00,1.161894917488098145e+00,1.161825895309448242e+00,1.161756873130798340e+00,1.161687970161437988e+00,1.161619067192077637e+00,1.161550164222717285e+00,1.161481261253356934e+00,1.161412239074707031e+00,1.161343336105346680e+00,1.161274433135986328e+00,1.161205530166625977e+00,1.161136627197265625e+00,1.161067724227905273e+00,1.160998821258544922e+00,1.160930037498474121e+00,1.160861134529113770e+00,1.160792231559753418e+00,1.160723447799682617e+00,1.160654664039611816e+00,1.160585880279541016e+00,1.160516977310180664e+00,1.160448193550109863e+00,1.160379409790039062e+00,1.160310626029968262e+00,1.160241842269897461e+00,1.160172939300537109e+00,1.160104274749755859e+00,1.160035490989685059e+00,1.159966707229614258e+00,1.159897923469543457e+00,1.159829258918762207e+00,1.159760475158691406e+00,1.159691810607910156e+00,1.159623146057128906e+00,1.159554362297058105e+00,1.159485697746276855e+00,1.159417033195495605e+00,1.159348368644714355e+00,1.159279584884643555e+00,1.159210920333862305e+00,1.159142255783081055e+00,1.159073710441589355e+00,1.159004926681518555e+00,1.158936381340026855e+00,1.158867716789245605e+00,1.158799171447753906e+00,1.158730506896972656e+00,1.158661842346191406e+00,1.158593297004699707e+00,1.158524751663208008e+00,1.158456206321716309e+00,1.158387541770935059e+00,1.158318996429443359e+00,1.158250570297241211e+00,1.158182024955749512e+00,1.158113479614257812e+00,1.158044934272766113e+00,1.157976388931274414e+00,1.157907962799072266e+00,1.157839417457580566e+00,1.157770872116088867e+00,1.157702445983886719e+00,1.157633900642395020e+00,1.157565474510192871e+00,1.157497048377990723e+00,1.157428503036499023e+00,1.157360076904296875e+00,1.157291650772094727e+00,1.157223343849182129e+00,1.157154798507690430e+00,1.157086372375488281e+00,1.157018065452575684e+00,1.156949639320373535e+00,1.156881213188171387e+00
1.087064385414123535e+00,1.087003946304321289e+00,1.086943626403808594e+00,1.086883187294006348e+00,1.086822867393493652e+00,1.086762547492980957e+00,1.086702227592468262e+00,1.086641907691955566e+00,1.086581468582153320e+00,1.086521148681640625e+00,1.086460947990417480e+00,1.086400628089904785e+00,1.086340188980102539e+00,1.086279988288879395e+00,1.086219668388366699e+00,1.086159467697143555e+00,1.086099147796630859e+00,1.086038827896118164e+00,1.085978627204895020e+00,1.085918426513671875e+00,1.085858106613159180e+00,1.085797786712646484e+00,1.085737586021423340e+00,1.085677385330200195e+00,1.085617184638977051e+00,1.085556983947753906e+00,1.085496783256530762e+00,1.085436582565307617e+00,1.085376381874084473e+00,1.085316181182861328e+00,1.085255980491638184e+00,1.085195779800415039e+00,1.085135698318481445e+00,1.085075497627258301e+00,1.085015296936035156e+00,1.084955215454101562e+00,1.084895014762878418e+00,1.084834933280944824e+00,1.084774851799011230e+00,1.084714651107788086e+00,1.084654569625854492e+00,1.084594488143920898e+00,1.084534406661987305e+00,1.084474205970764160e+00,1.084414124488830566e+00,1.084354043006896973e+00,1.084293961524963379e+00,1.084233999252319336e+00,1.084173798561096191e+00,1.084113836288452148e+00,1.084053754806518555e+00,1.083993792533874512e+00,1.083933711051940918e+00,1.083873629570007324e+00,1.083813667297363281e+00,1.083753705024719238e+00,1.083693623542785645e+00,1.083633661270141602e+00,1.083573579788208008e+00,1.083513617515563965e+00,1.083453655242919922e+00,1.083393692970275879e+00,1.083333730697631836e+00,1.083273768424987793e+00,1.083213806152343750e+00,1.083153843879699707e+00,1.083093881607055664e+00,1.083033919334411621e+00,1.082974076271057129e+00,1.082914113998413086e+00,1.082854151725769043e+00,1.082794308662414551e+00,1.082734346389770508e+00,1.082674503326416016e+00,1.082614541053771973e+00,1.082554697990417480e+00,1.082494854927062988e+00,1.082435011863708496e+00,1.082375168800354004e+00,1.082315206527709961e+00
1.020969629287719727e+00,1.020916461944580078e+00,1.020863175392150879e+00,1.020809888839721680e+00,1.020756721496582031e+00,1.020703434944152832e+00,1.020650267601013184e+00,1.020596981048583984e+00,1.020543813705444336e+00,1.020490527153015137e+00,1.020437359809875488e+00,1.020384073257446289e+00,1.020330905914306641e+00,1.020277738571166992e+00,1.020224571228027344e+00,1.020171403884887695e+00,1.020118236541748047e+00,1.020065069198608398e+00,1.020011901855468750e+00,1.019958734512329102e+00,1.019905567169189453e+00,1.019852399826049805e+00,1.019799351692199707e+00,1.019746184349060059e+00,1.019693136215209961e+00,1.019639849662780762e+00,1.019586801528930664e+00,1.019533753395080566e+00,1.019480586051940918e+00,1.019427418708801270e+00,1.019374370574951172e+00,1.019321322441101074e+00,1.019268274307250977e+00,1.019215106964111328e+00,1.019162058830261230e+00,1.019109010696411133e+00,1.019055962562561035e+00,1.019002914428710938e+00,1.018949747085571289e+00,1.018896818161010742e+00,1.018843770027160645e+00,1.018790721893310547e+00,1.018737673759460449e+00,1.018684625625610352e+00,1.018631577491760254e+00,1.018578648567199707e+00,1.018525600433349609e+00,1.018472552299499512e+00,1.018419623374938965e+00,1.018366575241088867e+00,1.018313646316528320e+00,1.018260598182678223e+00,1.018207669258117676e+00,1.018154740333557129e+00,1.018101811408996582e+00,1.018048763275146484e+00,1.017995834350585938e+00,1.017942905426025391e+00,1.017889976501464844e+00,1.017837047576904297e+00,1.017783999443054199e+00,1.017731189727783203e+00,1.017678260803222656e+00,1.017625331878662109e+00,1.017572402954101562e+00,1.017519474029541016e+00,1.017466545104980469e+00,1.017413735389709473e+00,1.017360806465148926e+00,1.017307877540588379e+00,1.017255067825317383e+00,1.017202258110046387e+00,1.017149329185485840e+00,1.017096400260925293e+00,1.017043590545654297e+00,1.016990780830383301e+00,1.016937971115112305e+00,1.016885161399841309e+00,1.016832232475280762e+00,1.016779422760009766e+00
