3.099843978881835938e+00,3.178510904312133789e+00,3.261266469955444336e+00,3.348445653915405273e+00,3.440413475036621094e+00,3.537576198577880859e+00,3.640386343002319336e+00,3.749351501464843750e+00,3.865040779113769531e+00,3.988096952438354492e+00,4.119246006011962891e+00,4.259315013885498047e+00,4.409244060516357422e+00,4.570114135742187500e+00,4.743166923522949219e+00,4.929841518402099609e+00,5.000000000000000000e+00,5.000000000000000000e+00,5.000000000000000000e+00,5.000000000000000000e+00,5.000000000000000000e+00,5.000000000000000000e+00,5.000000000000000000e+00,5.000000000000000000e+00,5.000000000000000000e+00,5.000000000000000000e+00,5.000000000000000000e+00,5.000000000000000000e+00,5.000000000000000000e+00,5.000000000000000000e+00,5.000000000000000000e+00,5.000000000000000000e+00,5.000000000000000000e+00,5.000000000000000000e+00,5.000000000000000000e+00,5.000000000000000000e+00,5.000000000000000000e+00,5.000000000000000000e+00,5.000000000000000000e+00,5.000000000000000000e+00,5.000000000000000000e+00,5.000000000000000000e+00,5.000000000000000000e+00,5.000000000000000000e+00,5.000000000000000000e+00,5.000000000000000000e+00,5.000000000000000000e+00,5.000000000000000000e+00,5.000000000000000000e+00,5.000000000000000000e+00,5.000000000000000000e+00,5.000000000000000000e+00,5.000000000000000000e+00,5.000000000000000000e+00,5.000000000000000000e+00,5.000000000000000000e+00,5.000000000000000000e+00,5.000000000000000000e+00,5.000000000000000000e+00,5.000000000000000000e+00,5.000000000000000000e+00,5.000000000000000000e+00,5.000000000000000000e+00,5.000000000000000000e+00,5.000000000000000000e+00,5.000000000000000000e+00,5.000000000000000000e+00,5.000000000000000000e+00,5.000000000000000000e+00,5.000000000000000000e+00,4.841389179229736328e+00,4.683028221130371094e+00,4.534796714782714844e+00,4.395672798156738281e+00,4.264831066131591797e+00,4.141553401947021484e+00,4.025202751159667969e+00,3.915210485458374023e+00,3.811069965362548828e+00,3.712325811386108398e+00
3.099777698516845703e+00,3.178441047668457031e+00,3.261200666427612305e+00,3.348376750946044922e+00,3.440341234207153320e+00,3.537499427795410156e+00,3.640305519104003906e+00,3.749265193939208984e+00,3.864949464797973633e+00,3.987999200820922852e+00,4.119142055511474609e+00,4.259203910827636719e+00,4.409125328063964844e+00,4.569986343383789062e+00,4.743029117584228516e+00,4.929692745208740234e+00,5.000000000000000000e+00,5.000000000000000000e+00,5.000000000000000000e+00,5.000000000000000000e+00,5.000000000000000000e+00,5.000000000000000000e+00,5.000000000000000000e+00,5.000000000000000000e+00,5.000000000000000000e+00,5.000000000000000000e+00,5.000000000000000000e+00,5.000000000000000000e+00,5.000000000000000000e+00,5.000000000000000000e+00,5.000000000000000000e+00,5.000000000000000000e+00,5.000000000000000000e+00,5.000000000000000000e+00,5.000000000000000000e+00,5.000000000000000000e+00,5.000000000000000000e+00,5.000000000000000000e+00,5.000000000000000000e+00,5.000000000000000000e+00,5.000000000000000000e+00,5.000000000000000000e+00,5.000000000000000000e+00,5.000000000000000000e+00,5.000000000000000000e+00,5.000000000000000000e+00,5.000000000000000000e+00,5.000000000000000000e+00,5.000000000000000000e+00,5.000000000000000000e+00,5.000000000000000000e+00,5.000000000000000000e+00,5.000000000000000000e+00,5.000000000000000000e+00,5.000000000000000000e+00,5.000000000000000000e+00,5.000000000000000000e+00,5.000000000000000000e+00,5.000000000000000000e+00,5.000000000000000000e+00,5.000000000000000000e+00,5.000000000000000000e+00,5.000000000000000000e+00,5.000000000000000000e+00,5.000000000000000000e+00,5.000000000000000000e+00,5.000000000000000000e+00,5.000000000000000000e+00,5.000000000000000000e+00,5.000000000000000000e+00,4.841391563415527344e+00,4.683147430419921875e+00,4.534920692443847656e+00,4.395789623260498047e+00,4.264941215515136719e+00,4.141657352447509766e+00,4.025300502777099609e+00,3.915303230285644531e+00,3.811157941818237305e+00,3.712409257888793945e+00
3.099711179733276367e+00,3.178371191024780273e+00,3.261126756668090820e+00,3.348307609558105469e+00,3.440268516540527344e+00,3.537423133850097656e+00,3.640224218368530273e+00,3.749179363250732422e+00,3.864857673645019531e+00,3.987902164459228516e+00,4.119038581848144531e+00,4.259092807769775391e+00,4.409006118774414062e+00,4.569858551025390625e+00,4.742891311645507812e+00,4.929543495178222656e+00,5.000000000000000000e+00,5.000000000000000000e+00,5.000000000000000000e+00,5.000000000000000000e+00,5.000000000000000000e+00,5.000000000000000000e+00,5.000000000000000000e+00,5.000000000000000000e+00,5.000000000000000000e+00,5.000000000000000000e+00,5.000000000000000000e+00,5.000000000000000000e+00,5.000000000000000000e+00,5.000000000000000000e+00,5.000000000000000000e+00,5.000000000000000000e+00,5.000000000000000000e+00,5.000000000000000000e+00,5.000000000000000000e+00,5.000000000000000000e+00,5.000000000000000000e+00,5.000000000000000000e+00,5.000000000000000000e+00,5.000000000000000000e+00,5.000000000000000000e+00,5.000000000000000000e+00,5.000000000000000000e+00,5.000000000000000000e+00,5.000000000000000000e+00,5.000000000000000000e+00,5.000000000000000000e+00,5.000000000000000000e+00,5.000000000000000000e+00,5.000000000000000000e+00,5.000000000000000000e+00,5.000000000000000000e+00,5.000000000000000000e+00,5.000000000000000000e+00,5.000000000000000000e+00,5.000000000000000000e+00,5.000000000000000000e+00,5.000000000000000000e+00,5.000000000000000000e+00,5.000000000000000000e+00,5.000000000000000000e+00,5.000000000000000000e+00,5.000000000000000000e+00,5.000000000000000000e+00,5.000000000000000000e+00,5.000000000000000000e+00,5.000000000000000000e+00,5.000000000000000000e+00,5.000000000000000000e+00,5.000000000000000000e+00,4.841533184051513672e+00,4.683279991149902344e+00,4.535045146942138672e+00,4.395906448364257812e+00,4.265050888061523438e+00,4.141760826110839844e+00,4.025398254394531250e+00,3.915395975112915039e+00,3.811245679855346680e+00,3.712492465972900391e+00
3.099644660949707031e+00,3.178300857543945312e+00,3.261053323745727539e+00,3.348230123519897461e+00,3.440195798873901367e+00,3.537346124649047852e+00,3.640143156051635742e+00,3.749093055725097656e+00,3.864766359329223633e+00,3.987804412841796875e+00,4.118934631347656250e+00,4.258981704711914062e+00,4.408887386322021484e+00,4.569730281829833984e+00,4.742753505706787109e+00,4.929394721984863281e+00,5.000000000000000000e+00,5.000000000000000000e+00,5.000000000000000000e+00,5.000000000000000000e+00,5.000000000000000000e+00,5.000000000000000000e+00,5.000000000000000000e+00,5.000000000000000000e+00,5.000000000000000000e+00,5.000000000000000000e+00,5.000000000000000000e+00,5.000000000000000000e+00,5.000000000000000000e+00,5.000000000000000000e+00,5.000000000000000000e+00,5.000000000000000000e+00,5.000000000000000000e+00,5.000000000000000000e+00,5.000000000000000000e+00,5.000000000000000000e+00,5.000000000000000000e+00,5.000000000000000000e+00,5.000000000000000000e+00,5.000000000000000000e+00,5.000000000000000000e+00,5.000000000000000000e+00,5.000000000000000000e+00,5.000000000000000000e+00,5.000000000000000000e+00,5.000000000000000000e+00,5.000000000000000000e+00,5.000000000000000000e+00,5.000000000000000000e+00,5.000000000000000000e+00,5.000000000000000000e+00,5.000000000000000000e+00,5.000000000000000000e+00,5.000000000000000000e+00,5.000000000000000000e+00,5.000000000000000000e+00,5.000000000000000000e+00,5.000000000000000000e+00,5.000000000000000000e+00,5.000000000000000000e+00,5.000000000000000000e+00,5.000000000000000000e+00,5.000000000000000000e+00,5.000000000000000000e+00,5.000000000000000000e+00,5.000000000000000000e+00,5.000000000000000000e+00,5.000000000000000000e+00,5.000000000000000000e+00,5.000000000000000000e+00,4.841674804687500000e+00,4.683412551879882812e+00,4.535169601440429688e+00,4.396022796630859375e+00,4.265161037445068359e+00,4.141864299774169922e+00,4.025496482849121094e+00,3.915488719940185547e+00,3.811333656311035156e+00,3.712575912475585938e+00
3.099578142166137695e+00,3.178231000900268555e+00,3.260979890823364258e+00,3.348152160644531250e+00,3.440113782882690430e+00,3.537269353866577148e+00,3.640061855316162109e+00,3.749007225036621094e+00,3.864674806594848633e+00,3.987707376480102539e+00,4.118830680847167969e+00,4.258870601654052734e+00,4.408768177032470703e+00,4.569602489471435547e+00,4.742616176605224609e+00,4.929245948791503906e+00,5.000000000000000000e+00,5.000000000000000000e+00,5.000000000000000000e+00,5.000000000000000000e+00,5.000000000000000000e+00,5.000000000000000000e+00,5.000000000000000000e+00,5.000000000000000000e+00,5.000000000000000000e+00,5.000000000000000000e+00,5.000000000000000000e+00,5.000000000000000000e+00,5.000000000000000000e+00,5.000000000000000000e+00,5.000000000000000000e+00,5.000000000000000000e+00,5.000000000000000000e+00,5.000000000000000000e+00,5.000000000000000000e+00,5.000000000000000000e+00,5.000000000000000000e+00,5.000000000000000000e+00,5.000000000000000000e+00,5.000000000000000000e+00,5.000000000000000000e+00,5.000000000000000000e+00,5.000000000000000000e+00,5.000000000000000000e+00,5.000000000000000000e+00,5.000000000000000000e+00,5.000000000000000000e+00,5.000000000000000000e+00,5.000000000000000000e+00,5.000000000000000000e+00,5.000000000000000000e+00,5.000000000000000000e+00,5.000000000000000000e+00,5.000000000000000000e+00,5.000000000000000000e+00,5.000000000000000000e+00,5.000000000000000000e+00,5.000000000000000000e+00,5.000000000000000000e+00,5.000000000000000000e+00,5.000000000000000000e+00,5.000000000000000000e+00,5.000000000000000000e+00,5.000000000000000000e+00,5.000000000000000000e+00,5.000000000000000000e+00,5.000000000000000000e+00,5.000000000000000000e+00,5.000000000000000000e+00,5.000000000000000000e+00,4.841816425323486328e+00,4.683545112609863281e+00,4.535293579101562500e+00,4.396139621734619141e+00,4.265270709991455078e+00,4.141968250274658203e+00,4.025594711303710938e+00,3.915581464767456055e+00,3.811425447463989258e+00,3.712668657302856445e+00
3.099511623382568359e+00,3.178161144256591797e+00,3.260905981063842773e+00,3.348074674606323242e+00,3.440031766891479492e+00,3.537182807922363281e+00,3.639980554580688477e+00,3.748920917510986328e+00,3.864583492279052734e+00,3.987609624862670898e+00,4.118726730346679688e+00,4.258759498596191406e+00,4.408649444580078125e+00,4.569474697113037109e+00,4.742478370666503906e+00,4.929097175598144531e+00,5.000000000000000000e+00,5.000000000000000000e+00,5.000000000000000000e+00,5.000000000000000000e+00,5.000000000000000000e+00,5.000000000000000000e+00,5.000000000000000000e+00,5.000000000000000000e+00,5.000000000000000000e+00,3.743654966354370117e+00,3.787683010101318359e+00,5.000000000000000000e+00,5.000000000000000000e+00,5.000000000000000000e+00,5.000000000000000000e+00,5.000000000000000000e+00,5.000000000000000000e+00,5.000000000000000000e+00,5.000000000000000000e+00,5.000000000000000000e+00,5.000000000000000000e+00,5.000000000000000000e+00,5.000000000000000000e+00,5.000000000000000000e+00,5.000000000000000000e+00,5.000000000000000000e+00,5.000000000000000000e+00,5.000000000000000000e+00,5.000000000000000000e+00,5.000000000000000000e+00,5.000000000000000000e+00,5.000000000000000000e+00,5.000000000000000000e+00,5.000000000000000000e+00,5.000000000000000000e+00,5.000000000000000000e+00,5.000000000000000000e+00,5.000000000000000000e+00,5.000000000000000000e+00,5.000000000000000000e+00,5.000000000000000000e+00,5.000000000000000000e+00,5.000000000000000000e+00,5.000000000000000000e+00,5.000000000000000000e+00,5.000000000000000000e+00,5.000000000000000000e+00,5.000000000000000000e+00,5.000000000000000000e+00,5.000000000000000000e+00,5.000000000000000000e+00,5.000000000000000000e+00,5.000000000000000000e+00,5.000000000000000000e+00,4.841958045959472656e+00,4.683677673339843750e+00,4.535418033599853516e+00,4.396256923675537109e+00,4.265380859375000000e+00,4.142073631286621094e+00,4.025701045989990234e+00,3.915688514709472656e+00,3.811528921127319336e+00,3.712766885757446289e+00
3.099445104598999023e+00,3.178091049194335938e+00,3.260832548141479492e+00,3.347997188568115234e+00,3.439949989318847656e+00,3.537096023559570312e+00,3.639888763427734375e+00,3.748835086822509766e+00,3.864491939544677734e+00,3.987512588500976562e+00,4.118622779846191406e+00,4.258648395538330078e+00,4.408530235290527344e+00,4.569346904754638672e+00,4.742340564727783203e+00,4.928948402404785156e+00,5.000000000000000000e+00,5.000000000000000000e+00,5.000000000000000000e+00,5.000000000000000000e+00,5.000000000000000000e+00,5.000000000000000000e+00,5.000000000000000000e+00,5.000000000000000000e+00,5.000000000000000000e+00,3.755368471145629883e+00,3.784767150878906250e+00,5.000000000000000000e+00,5.000000000000000000e+00,5.000000000000000000e+00,5.000000000000000000e+00,5.000000000000000000e+00,5.000000000000000000e+00,5.000000000000000000e+00,5.000000000000000000e+00,5.000000000000000000e+00,5.000000000000000000e+00,5.000000000000000000e+00,5.000000000000000000e+00,5.000000000000000000e+00,5.000000000000000000e+00,5.000000000000000000e+00,5.000000000000000000e+00,5.000000000000000000e+00,5.000000000000000000e+00,5.000000000000000000e+00,5.000000000000000000e+00,5.000000000000000000e+00,5.000000000000000000e+00,5.000000000000000000e+00,5.000000000000000000e+00,5.000000000000000000e+00,5.000000000000000000e+00,5.000000000000000000e+00,5.000000000000000000e+00,5.000000000000000000e+00,5.000000000000000000e+00,5.000000000000000000e+00,5.000000000000000000e+00,5.000000000000000000e+00,5.000000000000000000e+00,5.000000000000000000e+00,5.000000000000000000e+00,5.000000000000000000e+00,5.000000000000000000e+00,5.000000000000000000e+00,5.000000000000000000e+00,5.000000000000000000e+00,5.000000000000000000e+00,5.000000000000000000e+00,4.842100143432617188e+00,4.683810234069824219e+00,4.535542488098144531e+00,4.396380424499511719e+00,4.265505313873291016e+00,4.142196178436279297e+00,4.025816917419433594e+00,3.915798187255859375e+00,3.811632871627807617e+00,3.712865591049194336e+00
3.099378585815429688e+00,3.178021192550659180e+00,3.260758876800537109e+00,3.347919702529907227e+00,3.439867973327636719e+00,3.537009477615356445e+00,3.639797210693359375e+00,3.748737812042236328e+00,3.864400625228881836e+00,3.987414836883544922e+00,4.118518829345703125e+00,4.258537292480468750e+00,4.408411026000976562e+00,4.569219112396240234e+00,4.742202758789062500e+00,4.928799629211425781e+00,5.000000000000000000e+00,5.000000000000000000e+00,5.000000000000000000e+00,5.000000000000000000e+00,5.000000000000000000e+00,5.000000000000000000e+00,5.000000000000000000e+00,5.000000000000000000e+00,5.000000000000000000e+00,3.765645742416381836e+00,3.805142164230346680e+00,5.000000000000000000e+00,5.000000000000000000e+00,5.000000000000000000e+00,5.000000000000000000e+00,5.000000000000000000e+00,5.000000000000000000e+00,5.000000000000000000e+00,5.000000000000000000e+00,5.000000000000000000e+00,5.000000000000000000e+00,5.000000000000000000e+00,5.000000000000000000e+00,5.000000000000000000e+00,5.000000000000000000e+00,5.000000000000000000e+00,5.000000000000000000e+00,5.000000000000000000e+00,5.000000000000000000e+00,5.000000000000000000e+00,5.000000000000000000e+00,5.000000000000000000e+00,5.000000000000000000e+00,5.000000000000000000e+00,5.000000000000000000e+00,5.000000000000000000e+00,5.000000000000000000e+00,5.000000000000000000e+00,5.000000000000000000e+00,5.000000000000000000e+00,5.000000000000000000e+00,5.000000000000000000e+00,5.000000000000000000e+00,5.000000000000000000e+00,5.000000000000000000e+00,5.000000000000000000e+00,5.000000000000000000e+00,5.000000000000000000e+00,5.000000000000000000e+00,5.000000000000000000e+00,5.000000000000000000e+00,5.000000000000000000e+00,5.000000000000000000e+00,5.000000000000000000e+00,4.842246532440185547e+00,4.683956623077392578e+00,4.535688400268554688e+00,4.396518707275390625e+00,4.265635013580322266e+00,4.142318725585937500e+00,4.025932312011718750e+00,3.915907382965087891e+00,3.811736345291137695e+00,3.712963819503784180e+00
3.099312067031860352e+00,3.177951574325561523e+00,3.260685443878173828e+00,3.347841978073120117e+00,3.439785957336425781e+00,3.536922931671142578e+00,3.639705657958984375e+00,3.748640298843383789e+00,3.864297389984130859e+00,3.987318277359008789e+00,4.118415355682373047e+00,4.258426189422607422e+00,4.408292293548583984e+00,4.569091320037841797e+00,4.742064952850341797e+00,4.928650856018066406e+00,5.000000000000000000e+00,5.000000000000000000e+00,5.000000000000000000e+00,5.000000000000000000e+00,5.000000000000000000e+00,5.000000000000000000e+00,5.000000000000000000e+00,5.000000000000000000e+00,5.000000000000000000e+00,5.000000000000000000e+00,3.772374868392944336e+00,3.775037288665771484e+00,3.728835105895996094e+00,5.000000000000000000e+00,5.000000000000000000e+00,5.000000000000000000e+00,5.000000000000000000e+00,5.000000000000000000e+00,5.000000000000000000e+00,5.000000000000000000e+00,5.000000000000000000e+00,5.000000000000000000e+00,5.000000000000000000e+00,5.000000000000000000e+00,5.000000000000000000e+00,5.000000000000000000e+00,5.000000000000000000e+00,5.000000000000000000e+00,5.000000000000000000e+00,5.000000000000000000e+00,5.000000000000000000e+00,5.000000000000000000e+00,5.000000000000000000e+00,5.000000000000000000e+00,5.000000000000000000e+00,5.000000000000000000e+00,5.000000000000000000e+00,5.000000000000000000e+00,5.000000000000000000e+00,5.000000000000000000e+00,5.000000000000000000e+00,5.000000000000000000e+00,5.000000000000000000e+00,5.000000000000000000e+00,5.000000000000000000e+00,5.000000000000000000e+00,5.000000000000000000e+00,5.000000000000000000e+00,5.000000000000000000e+00,5.000000000000000000e+00,5.000000000000000000e+00,5.000000000000000000e+00,5.000000000000000000e+00,5.000000000000000000e+00,4.842413902282714844e+00,4.684113025665283203e+00,4.535835266113281250e+00,4.396656513214111328e+00,4.265764713287353516e+00,4.142441272735595703e+00,4.026048183441162109e+00,3.916017055511474609e+00,3.811840295791625977e+00,3.713062286376953125e+00
3.099245548248291016e+00,3.177881717681884766e+00,3.260611534118652344e+00,3.347764492034912109e+00,3.439704179763793945e+00,3.536836385726928711e+00,3.639613628387451172e+00,3.748543024063110352e+00,3.864194154739379883e+00,3.987208366394042969e+00,4.118311405181884766e+00,4.258315086364746094e+00,4.408173084259033203e+00,4.568963527679443359e+00,4.741927146911621094e+00,4.928502082824707031e+00,5.000000000000000000e+00,5.000000000000000000e+00,5.000000000000000000e+00,5.000000000000000000e+00,5.000000000000000000e+00,5.000000000000000000e+00,5.000000000000000000e+00,5.000000000000000000e+00,3.829105377197265625e+00,3.769261598587036133e+00,3.738943338394165039e+00,3.738095760345458984e+00,3.729751110076904297e+00,3.742992401123046875e+00,5.000000000000000000e+00,5.000000000000000000e+00,5.000000000000000000e+00,5.000000000000000000e+00,5.000000000000000000e+00,5.000000000000000000e+00,5.000000000000000000e+00,5.000000000000000000e+00,5.000000000000000000e+00,5.000000000000000000e+00,5.000000000000000000e+00,5.000000000000000000e+00,5.000000000000000000e+00,5.000000000000000000e+00,5.000000000000000000e+00,5.000000000000000000e+00,5.000000000000000000e+00,5.000000000000000000e+00,5.000000000000000000e+00,5.000000000000000000e+00,5.000000000000000000e+00,5.000000000000000000e+00,5.000000000000000000e+00,5.000000000000000000e+00,5.000000000000000000e+00,5.000000000000000000e+00,5.000000000000000000e+00,5.000000000000000000e+00,5.000000000000000000e+00,5.000000000000000000e+00,5.000000000000000000e+00,5.000000000000000000e+00,5.000000000000000000e+00,5.000000000000000000e+00,5.000000000000000000e+00,5.000000000000000000e+00,5.000000000000000000e+00,5.000000000000000000e+00,5.000000000000000000e+00,5.000000000000000000e+00,4.842581272125244141e+00,4.684269905090332031e+00,4.535982131958007812e+00,4.396794319152832031e+00,4.265894889831542969e+00,4.142563819885253906e+00,4.026163578033447266e+00,3.916126251220703125e+00,3.811943769454956055e+00,3.713160514831542969e+00
3.099179267883300781e+00,3.177811384201049805e+00,3.260538101196289062e+00,3.347687005996704102e+00,3.439622402191162109e+00,3.536749601364135742e+00,3.639522075653076172e+00,3.748445987701416016e+00,3.864090919494628906e+00,3.987097978591918945e+00,4.118194580078125000e+00,4.258204460144042969e+00,4.408054351806640625e+00,4.568835258483886719e+00,4.741789817810058594e+00,4.928353309631347656e+00,5.000000000000000000e+00,5.000000000000000000e+00,5.000000000000000000e+00,5.000000000000000000e+00,5.000000000000000000e+00,5.000000000000000000e+00,5.000000000000000000e+00,3.895240545272827148e+00,3.759753227233886719e+00,3.730907678604125977e+00,3.719480514526367188e+00,3.739313840866088867e+00,3.737712144851684570e+00,3.739140033721923828e+00,5.000000000000000000e+00,5.000000000000000000e+00,5.000000000000000000e+00,5.000000000000000000e+00,5.000000000000000000e+00,5.000000000000000000e+00,5.000000000000000000e+00,5.000000000000000000e+00,5.000000000000000000e+00,5.000000000000000000e+00,5.000000000000000000e+00,5.000000000000000000e+00,5.000000000000000000e+00,5.000000000000000000e+00,5.000000000000000000e+00,5.000000000000000000e+00,5.000000000000000000e+00,5.000000000000000000e+00,5.000000000000000000e+00,5.000000000000000000e+00,5.000000000000000000e+00,5.000000000000000000e+00,5.000000000000000000e+00,5.000000000000000000e+00,5.000000000000000000e+00,5.000000000000000000e+00,5.000000000000000000e+00,5.000000000000000000e+00,5.000000000000000000e+00,5.000000000000000000e+00,5.000000000000000000e+00,5.000000000000000000e+00,5.000000000000000000e+00,5.000000000000000000e+00,5.000000000000000000e+00,5.000000000000000000e+00,5.000000000000000000e+00,5.000000000000000000e+00,5.000000000000000000e+00,5.000000000000000000e+00,4.842748641967773438e+00,4.684426307678222656e+00,4.536128997802734375e+00,4.396932601928710938e+00,4.266024589538574219e+00,4.142686367034912109e+00,4.026279449462890625e+00,3.916235923767089844e+00,3.812047719955444336e+00,3.713259220123291016e+00
3.099112510681152344e+00,3.177741765975952148e+00,3.260464668273925781e+00,3.347609519958496094e+00,3.439540386199951172e+00,3.536663055419921875e+00,3.639430522918701172e+00,3.748348712921142578e+00,3.863987207412719727e+00,3.986988067626953125e+00,4.118077278137207031e+00,4.258079528808593750e+00,4.407935142517089844e+00,4.568707466125488281e+00,4.741652011871337891e+00,4.928204536437988281e+00,5.000000000000000000e+00,5.000000000000000000e+00,5.000000000000000000e+00,5.000000000000000000e+00,5.000000000000000000e+00,5.000000000000000000e+00,5.000000000000000000e+00,3.930598258972167969e+00,3.752852916717529297e+00,3.723681211471557617e+00,3.732224225997924805e+00,3.748829126358032227e+00,3.729872465133666992e+00,3.725805044174194336e+00,5.000000000000000000e+00,5.000000000000000000e+00,5.000000000000000000e+00,5.000000000000000000e+00,5.000000000000000000e+00,5.000000000000000000e+00,5.000000000000000000e+00,5.000000000000000000e+00,5.000000000000000000e+00,5.000000000000000000e+00,5.000000000000000000e+00,5.000000000000000000e+00,5.000000000000000000e+00,5.000000000000000000e+00,5.000000000000000000e+00,5.000000000000000000e+00,5.000000000000000000e+00,5.000000000000000000e+00,5.000000000000000000e+00,5.000000000000000000e+00,5.000000000000000000e+00,5.000000000000000000e+00,5.000000000000000000e+00,5.000000000000000000e+00,5.000000000000000000e+00,5.000000000000000000e+00,5.000000000000000000e+00,5.000000000000000000e+00,5.000000000000000000e+00,5.000000000000000000e+00,5.000000000000000000e+00,5.000000000000000000e+00,5.000000000000000000e+00,5.000000000000000000e+00,5.000000000000000000e+00,5.000000000000000000e+00,5.000000000000000000e+00,5.000000000000000000e+00,5.000000000000000000e+00,5.000000000000000000e+00,4.842916011810302734e+00,4.684583187103271484e+00,4.536275863647460938e+00,4.397070407867431641e+00,4.266154766082763672e+00,4.142808914184570312e+00,4.026395320892333984e+00,3.916345357894897461e+00,3.812151193618774414e+00,3.713357448577880859e+00
3.099046230316162109e+00,3.177671909332275391e+00,3.260390996932983398e+00,3.347531557083129883e+00,3.439458608627319336e+00,3.536576747894287109e+00,3.639338970184326172e+00,3.748251199722290039e+00,3.863883972167968750e+00,3.986878156661987305e+00,4.117959976196289062e+00,4.257954120635986328e+00,4.407802104949951172e+00,4.568579673767089844e+00,4.741514205932617188e+00,4.928055763244628906e+00,5.000000000000000000e+00,5.000000000000000000e+00,5.000000000000000000e+00,5.000000000000000000e+00,5.000000000000000000e+00,5.000000000000000000e+00,5.000000000000000000e+00,5.000000000000000000e+00,3.756777763366699219e+00,3.724683761596679688e+00,3.726427316665649414e+00,3.758842468261718750e+00,3.732735872268676758e+00,3.723178863525390625e+00,5.000000000000000000e+00,5.000000000000000000e+00,5.000000000000000000e+00,5.000000000000000000e+00,5.000000000000000000e+00,5.000000000000000000e+00,5.000000000000000000e+00,5.000000000000000000e+00,5.000000000000000000e+00,5.000000000000000000e+00,5.000000000000000000e+00,5.000000000000000000e+00,5.000000000000000000e+00,5.000000000000000000e+00,5.000000000000000000e+00,5.000000000000000000e+00,5.000000000000000000e+00,5.000000000000000000e+00,5.000000000000000000e+00,5.000000000000000000e+00,5.000000000000000000e+00,5.000000000000000000e+00,5.000000000000000000e+00,5.000000000000000000e+00,5.000000000000000000e+00,5.000000000000000000e+00,5.000000000000000000e+00,5.000000000000000000e+00,5.000000000000000000e+00,5.000000000000000000e+00,5.000000000000000000e+00,5.000000000000000000e+00,5.000000000000000000e+00,5.000000000000000000e+00,5.000000000000000000e+00,5.000000000000000000e+00,5.000000000000000000e+00,5.000000000000000000e+00,5.000000000000000000e+00,5.000000000000000000e+00,4.843083381652832031e+00,4.684739589691162109e+00,4.536422729492187500e+00,4.397208690643310547e+00,4.266284465789794922e+00,4.142931461334228516e+00,4.026510715484619141e+00,3.916455030441284180e+00,3.812255144119262695e+00,3.713455915451049805e+00
3.098979711532592773e+00,3.177601814270019531e+00,3.260317325592041016e+00,3.347454071044921875e+00,3.439376831054687500e+00,3.536489725112915039e+00,3.639246940612792969e+00,3.748154163360595703e+00,3.863780736923217773e+00,3.986767768859863281e+00,4.117842197418212891e+00,4.257828235626220703e+00,4.407667160034179688e+00,4.568436622619628906e+00,4.741376399993896484e+00,4.927906990051269531e+00,5.000000000000000000e+00,5.000000000000000000e+00,5.000000000000000000e+00,5.000000000000000000e+00,5.000000000000000000e+00,5.000000000000000000e+00,5.000000000000000000e+00,5.000000000000000000e+00,3.753914356231689453e+00,3.727602005004882812e+00,3.724907398223876953e+00,3.766361474990844727e+00,5.000000000000000000e+00,3.707185506820678711e+00,5.000000000000000000e+00,5.000000000000000000e+00,5.000000000000000000e+00,5.000000000000000000e+00,5.000000000000000000e+00,5.000000000000000000e+00,5.000000000000000000e+00,5.000000000000000000e+00,5.000000000000000000e+00,5.000000000000000000e+00,5.000000000000000000e+00,5.000000000000000000e+00,5.000000000000000000e+00,5.000000000000000000e+00,5.000000000000000000e+00,5.000000000000000000e+00,5.000000000000000000e+00,5.000000000000000000e+00,5.000000000000000000e+00,5.000000000000000000e+00,5.000000000000000000e+00,5.000000000000000000e+00,5.000000000000000000e+00,5.000000000000000000e+00,5.000000000000000000e+00,5.000000000000000000e+00,5.000000000000000000e+00,5.000000000000000000e+00,5.000000000000000000e+00,5.000000000000000000e+00,5.000000000000000000e+00,5.000000000000000000e+00,5.000000000000000000e+00,5.000000000000000000e+00,5.000000000000000000e+00,5.000000000000000000e+00,5.000000000000000000e+00,5.000000000000000000e+00,5.000000000000000000e+00,5.000000000000000000e+00,4.843250751495361328e+00,4.684896469116210938e+00,4.536569595336914062e+00,4.397346496582031250e+00,4.266414642333984375e+00,4.143053531646728516e+00,4.026626586914062500e+00,3.916564226150512695e+00,3.812358617782592773e+00,3.713554143905639648e+00
3.098875045776367188e+00,3.177514076232910156e+00,3.260243892669677734e+00,3.347376585006713867e+00,3.439294576644897461e+00,3.536403417587280273e+00,3.639155387878417969e+00,3.748056888580322266e+00,3.863677024841308594e+00,3.986657857894897461e+00,4.117724895477294922e+00,4.257703304290771484e+00,4.407532691955566406e+00,4.568292617797851562e+00,4.741222858428955078e+00,4.927758693695068359e+00,5.000000000000000000e+00,5.000000000000000000e+00,5.000000000000000000e+00,5.000000000000000000e+00,5.000000000000000000e+00,5.000000000000000000e+00,5.000000000000000000e+00,5.000000000000000000e+00,3.742532968521118164e+00,3.716875791549682617e+00,3.731178760528564453e+00,3.759727954864501953e+00,3.671914815902709961e+00,3.670946836471557617e+00,5.000000000000000000e+00,5.000000000000000000e+00,5.000000000000000000e+00,5.000000000000000000e+00,5.000000000000000000e+00,5.000000000000000000e+00,5.000000000000000000e+00,5.000000000000000000e+00,5.000000000000000000e+00,5.000000000000000000e+00,5.000000000000000000e+00,5.000000000000000000e+00,5.000000000000000000e+00,5.000000000000000000e+00,5.000000000000000000e+00,5.000000000000000000e+00,5.000000000000000000e+00,5.000000000000000000e+00,5.000000000000000000e+00,5.000000000000000000e+00,5.000000000000000000e+00,5.000000000000000000e+00,5.000000000000000000e+00,5.000000000000000000e+00,5.000000000000000000e+00,5.000000000000000000e+00,5.000000000000000000e+00,5.000000000000000000e+00,5.000000000000000000e+00,5.000000000000000000e+00,5.000000000000000000e+00,5.000000000000000000e+00,5.000000000000000000e+00,5.000000000000000000e+00,5.000000000000000000e+00,5.000000000000000000e+00,5.000000000000000000e+00,5.000000000000000000e+00,5.000000000000000000e+00,5.000000000000000000e+00,4.843418121337890625e+00,4.685052871704101562e+00,4.536716461181640625e+00,4.397484779357910156e+00,4.266544342041015625e+00,4.143176078796386719e+00,4.026742458343505859e+00,3.916673898696899414e+00,3.812462568283081055e+00,3.713652849197387695e+00
3.098759889602661133e+00,3.177393198013305664e+00,3.260121107101440430e+00,3.347272157669067383e+00,3.439210653305053711e+00,3.536316871643066406e+00,3.639063835144042969e+00,3.747959375381469727e+00,3.863573789596557617e+00,3.986547946929931641e+00,4.117607593536376953e+00,4.257577419281005859e+00,4.407398223876953125e+00,4.568147659301757812e+00,4.741067409515380859e+00,4.927592754364013672e+00,5.000000000000000000e+00,5.000000000000000000e+00,5.000000000000000000e+00,5.000000000000000000e+00,5.000000000000000000e+00,5.000000000000000000e+00,5.000000000000000000e+00,5.000000000000000000e+00,3.772939205169677734e+00,3.731283426284790039e+00,3.727746009826660156e+00,3.742050170898437500e+00,3.617414236068725586e+00,5.000000000000000000e+00,5.000000000000000000e+00,5.000000000000000000e+00,5.000000000000000000e+00,5.000000000000000000e+00,5.000000000000000000e+00,5.000000000000000000e+00,5.000000000000000000e+00,5.000000000000000000e+00,5.000000000000000000e+00,5.000000000000000000e+00,5.000000000000000000e+00,5.000000000000000000e+00,5.000000000000000000e+00,5.000000000000000000e+00,5.000000000000000000e+00,5.000000000000000000e+00,5.000000000000000000e+00,5.000000000000000000e+00,5.000000000000000000e+00,5.000000000000000000e+00,5.000000000000000000e+00,5.000000000000000000e+00,5.000000000000000000e+00,5.000000000000000000e+00,5.000000000000000000e+00,5.000000000000000000e+00,5.000000000000000000e+00,5.000000000000000000e+00,5.000000000000000000e+00,5.000000000000000000e+00,5.000000000000000000e+00,5.000000000000000000e+00,5.000000000000000000e+00,5.000000000000000000e+00,5.000000000000000000e+00,5.000000000000000000e+00,5.000000000000000000e+00,5.000000000000000000e+00,5.000000000000000000e+00,5.000000000000000000e+00,4.843585491180419922e+00,4.685209751129150391e+00,4.536863327026367188e+00,4.397622585296630859e+00,4.266674041748046875e+00,4.143298625946044922e+00,4.026857852935791016e+00,3.916783094406127930e+00,3.812566041946411133e+00,3.713751077651977539e+00
3.098655700683593750e+00,3.177272081375122070e+00,3.259993553161621094e+00,3.347137689590454102e+00,3.439068555831909180e+00,3.536191940307617188e+00,3.638961315155029297e+00,3.747862339019775391e+00,3.863470554351806641e+00,3.986438035964965820e+00,4.117490291595458984e+00,4.257452011108398438e+00,4.407263755798339844e+00,4.568003654479980469e+00,4.740911483764648438e+00,4.927424907684326172e+00,5.000000000000000000e+00,5.000000000000000000e+00,5.000000000000000000e+00,5.000000000000000000e+00,5.000000000000000000e+00,5.000000000000000000e+00,5.000000000000000000e+00,3.769106388092041016e+00,3.744678020477294922e+00,3.781085252761840820e+00,3.736253261566162109e+00,3.742605924606323242e+00,3.557231426239013672e+00,5.000000000000000000e+00,5.000000000000000000e+00,5.000000000000000000e+00,5.000000000000000000e+00,5.000000000000000000e+00,5.000000000000000000e+00,5.000000000000000000e+00,5.000000000000000000e+00,5.000000000000000000e+00,5.000000000000000000e+00,5.000000000000000000e+00,5.000000000000000000e+00,5.000000000000000000e+00,5.000000000000000000e+00,5.000000000000000000e+00,5.000000000000000000e+00,5.000000000000000000e+00,5.000000000000000000e+00,5.000000000000000000e+00,5.000000000000000000e+00,5.000000000000000000e+00,5.000000000000000000e+00,5.000000000000000000e+00,5.000000000000000000e+00,5.000000000000000000e+00,5.000000000000000000e+00,5.000000000000000000e+00,5.000000000000000000e+00,5.000000000000000000e+00,5.000000000000000000e+00,5.000000000000000000e+00,5.000000000000000000e+00,5.000000000000000000e+00,5.000000000000000000e+00,5.000000000000000000e+00,5.000000000000000000e+00,5.000000000000000000e+00,5.000000000000000000e+00,5.000000000000000000e+00,5.000000000000000000e+00,5.000000000000000000e+00,4.843752861022949219e+00,4.685366630554199219e+00,4.537010192871093750e+00,4.397760391235351562e+00,4.266804218292236328e+00,4.143421173095703125e+00,4.026973724365234375e+00,3.916893005371093750e+00,3.812670230865478516e+00,3.713849782943725586e+00
3.098589658737182617e+00,3.177191734313964844e+00,3.259885311126708984e+00,3.347003459930419922e+00,3.438926935195922852e+00,3.536042213439941406e+00,3.638802289962768555e+00,3.747713327407836914e+00,3.863345146179199219e+00,3.986327886581420898e+00,4.117372989654541016e+00,4.257326602935791016e+00,4.407129287719726562e+00,4.567859172821044922e+00,4.740756034851074219e+00,4.927256584167480469e+00,5.000000000000000000e+00,5.000000000000000000e+00,5.000000000000000000e+00,5.000000000000000000e+00,5.000000000000000000e+00,5.000000000000000000e+00,5.000000000000000000e+00,3.694422245025634766e+00,3.702868700027465820e+00,3.763859987258911133e+00,3.738897562026977539e+00,3.491160869598388672e+00,3.537849426269531250e+00,5.000000000000000000e+00,5.000000000000000000e+00,5.000000000000000000e+00,5.000000000000000000e+00,5.000000000000000000e+00,5.000000000000000000e+00,5.000000000000000000e+00,5.000000000000000000e+00,5.000000000000000000e+00,5.000000000000000000e+00,5.000000000000000000e+00,5.000000000000000000e+00,5.000000000000000000e+00,5.000000000000000000e+00,5.000000000000000000e+00,5.000000000000000000e+00,5.000000000000000000e+00,5.000000000000000000e+00,5.000000000000000000e+00,5.000000000000000000e+00,5.000000000000000000e+00,5.000000000000000000e+00,5.000000000000000000e+00,5.000000000000000000e+00,5.000000000000000000e+00,5.000000000000000000e+00,5.000000000000000000e+00,5.000000000000000000e+00,5.000000000000000000e+00,5.000000000000000000e+00,5.000000000000000000e+00,5.000000000000000000e+00,5.000000000000000000e+00,5.000000000000000000e+00,5.000000000000000000e+00,5.000000000000000000e+00,5.000000000000000000e+00,5.000000000000000000e+00,5.000000000000000000e+00,5.000000000000000000e+00,5.000000000000000000e+00,4.843920707702636719e+00,4.685523033142089844e+00,4.537157058715820312e+00,4.397898674011230469e+00,4.266933917999267578e+00,4.143543720245361328e+00,4.027089595794677734e+00,3.917002201080322266e+00,3.812773704528808594e+00,3.713948011398315430e+00
3.098523616790771484e+00,3.177122116088867188e+00,3.259812116622924805e+00,3.346920967102050781e+00,3.438813447952270508e+00,3.535894393920898438e+00,3.638643264770507812e+00,3.747545003890991211e+00,3.863166332244873047e+00,3.986149311065673828e+00,4.117219448089599609e+00,4.257201194763183594e+00,4.406994819641113281e+00,4.567714691162109375e+00,4.740600585937500000e+00,4.927088737487792969e+00,5.000000000000000000e+00,5.000000000000000000e+00,5.000000000000000000e+00,5.000000000000000000e+00,5.000000000000000000e+00,5.000000000000000000e+00,5.000000000000000000e+00,3.672074556350708008e+00,3.692864418029785156e+00,3.774631500244140625e+00,3.754545450210571289e+00,3.761552810668945312e+00,3.819341659545898438e+00,5.000000000000000000e+00,5.000000000000000000e+00,5.000000000000000000e+00,5.000000000000000000e+00,5.000000000000000000e+00,5.000000000000000000e+00,5.000000000000000000e+00,5.000000000000000000e+00,5.000000000000000000e+00,5.000000000000000000e+00,5.000000000000000000e+00,5.000000000000000000e+00,5.000000000000000000e+00,5.000000000000000000e+00,5.000000000000000000e+00,5.000000000000000000e+00,5.000000000000000000e+00,5.000000000000000000e+00,5.000000000000000000e+00,5.000000000000000000e+00,5.000000000000000000e+00,5.000000000000000000e+00,5.000000000000000000e+00,5.000000000000000000e+00,5.000000000000000000e+00,5.000000000000000000e+00,5.000000000000000000e+00,5.000000000000000000e+00,5.000000000000000000e+00,5.000000000000000000e+00,5.000000000000000000e+00,5.000000000000000000e+00,5.000000000000000000e+00,5.000000000000000000e+00,5.000000000000000000e+00,5.000000000000000000e+00,5.000000000000000000e+00,5.000000000000000000e+00,5.000000000000000000e+00,5.000000000000000000e+00,5.000000000000000000e+00,4.844088077545166016e+00,4.685679912567138672e+00,4.537303924560546875e+00,4.398036956787109375e+00,4.267064094543457031e+00,4.143666267395019531e+00,4.027205467224121094e+00,3.917111873626708984e+00,3.812877655029296875e+00,3.714046716690063477e+00
3.098457574844360352e+00,3.177052736282348633e+00,3.259738922119140625e+00,3.346844196319580078e+00,3.438732147216796875e+00,3.535808324813842773e+00,3.638524770736694336e+00,3.747387647628784180e+00,3.862987279891967773e+00,3.985958337783813477e+00,4.117016315460205078e+00,4.256985664367675781e+00,4.406806945800781250e+00,4.567558765411376953e+00,4.740445137023925781e+00,4.926920413970947266e+00,5.000000000000000000e+00,5.000000000000000000e+00,5.000000000000000000e+00,5.000000000000000000e+00,5.000000000000000000e+00,5.000000000000000000e+00,5.000000000000000000e+00,3.645869970321655273e+00,3.684328079223632812e+00,5.000000000000000000e+00,3.796266078948974609e+00,3.781780481338500977e+00,3.845080852508544922e+00,5.000000000000000000e+00,5.000000000000000000e+00,5.000000000000000000e+00,5.000000000000000000e+00,5.000000000000000000e+00,5.000000000000000000e+00,5.000000000000000000e+00,5.000000000000000000e+00,5.000000000000000000e+00,5.000000000000000000e+00,5.000000000000000000e+00,5.000000000000000000e+00,5.000000000000000000e+00,5.000000000000000000e+00,5.000000000000000000e+00,5.000000000000000000e+00,5.000000000000000000e+00,5.000000000000000000e+00,5.000000000000000000e+00,5.000000000000000000e+00,5.000000000000000000e+00,5.000000000000000000e+00,5.000000000000000000e+00,5.000000000000000000e+00,5.000000000000000000e+00,5.000000000000000000e+00,5.000000000000000000e+00,5.000000000000000000e+00,5.000000000000000000e+00,5.000000000000000000e+00,5.000000000000000000e+00,5.000000000000000000e+00,5.000000000000000000e+00,5.000000000000000000e+00,5.000000000000000000e+00,5.000000000000000000e+00,5.000000000000000000e+00,5.000000000000000000e+00,5.000000000000000000e+00,5.000000000000000000e+00,5.000000000000000000e+00,4.844255447387695312e+00,4.685836791992187500e+00,4.537451267242431641e+00,4.398174762725830078e+00,4.267193794250488281e+00,4.143788814544677734e+00,4.027320861816406250e+00,3.917221307754516602e+00,3.812978982925415039e+00,3.714136600494384766e+00
3.098391294479370117e+00,3.176983118057250977e+00,3.259665727615356445e+00,3.346766948699951172e+00,3.438651084899902344e+00,3.535722255706787109e+00,3.638433694839477539e+00,3.747291088104248047e+00,3.862863063812255859e+00,3.985790729522705078e+00,4.116813182830810547e+00,4.256768226623535156e+00,4.406573772430419922e+00,4.567308425903320312e+00,4.740212917327880859e+00,4.926723957061767578e+00,5.000000000000000000e+00,5.000000000000000000e+00,5.000000000000000000e+00,5.000000000000000000e+00,5.000000000000000000e+00,5.000000000000000000e+00,3.616028547286987305e+00,3.618780612945556641e+00,3.672438859939575195e+00,5.000000000000000000e+00,3.828939676284790039e+00,3.801352500915527344e+00,3.873537302017211914e+00,5.000000000000000000e+00,5.000000000000000000e+00,5.000000000000000000e+00,5.000000000000000000e+00,5.000000000000000000e+00,5.000000000000000000e+00,5.000000000000000000e+00,5.000000000000000000e+00,5.000000000000000000e+00,5.000000000000000000e+00,5.000000000000000000e+00,5.000000000000000000e+00,5.000000000000000000e+00,5.000000000000000000e+00,5.000000000000000000e+00,5.000000000000000000e+00,5.000000000000000000e+00,5.000000000000000000e+00,5.000000000000000000e+00,5.000000000000000000e+00,5.000000000000000000e+00,5.000000000000000000e+00,5.000000000000000000e+00,5.000000000000000000e+00,5.000000000000000000e+00,5.000000000000000000e+00,5.000000000000000000e+00,5.000000000000000000e+00,5.000000000000000000e+00,5.000000000000000000e+00,5.000000000000000000e+00,5.000000000000000000e+00,5.000000000000000000e+00,5.000000000000000000e+00,5.000000000000000000e+00,5.000000000000000000e+00,5.000000000000000000e+00,5.000000000000000000e+00,5.000000000000000000e+00,5.000000000000000000e+00,5.000000000000000000e+00,4.844422817230224609e+00,4.685993194580078125e+00,4.537598133087158203e+00,4.398313045501708984e+00,4.267323970794677734e+00,4.143911361694335938e+00,4.027430534362792969e+00,3.917318105697631836e+00,3.813066482543945312e+00,3.714219808578491211e+00
3.098325490951538086e+00,3.176913738250732422e+00,3.259592533111572266e+00,3.346689939498901367e+00,3.438569545745849609e+00,3.535636425018310547e+00,3.638342618942260742e+00,3.747194290161132812e+00,3.862760305404663086e+00,3.985681533813476562e+00,4.116682529449462891e+00,4.256587982177734375e+00,4.406341075897216797e+00,4.567058086395263672e+00,4.739943504333496094e+00,4.926432609558105469e+00,5.000000000000000000e+00,5.000000000000000000e+00,5.000000000000000000e+00,5.000000000000000000e+00,5.000000000000000000e+00,5.000000000000000000e+00,3.604698657989501953e+00,3.611931800842285156e+00,3.717798709869384766e+00,5.000000000000000000e+00,5.000000000000000000e+00,3.815849065780639648e+00,3.899084568023681641e+00,5.000000000000000000e+00,5.000000000000000000e+00,5.000000000000000000e+00,5.000000000000000000e+00,5.000000000000000000e+00,5.000000000000000000e+00,5.000000000000000000e+00,5.000000000000000000e+00,5.000000000000000000e+00,5.000000000000000000e+00,5.000000000000000000e+00,5.000000000000000000e+00,5.000000000000000000e+00,5.000000000000000000e+00,5.000000000000000000e+00,5.000000000000000000e+00,5.000000000000000000e+00,5.000000000000000000e+00,5.000000000000000000e+00,5.000000000000000000e+00,5.000000000000000000e+00,5.000000000000000000e+00,5.000000000000000000e+00,5.000000000000000000e+00,5.000000000000000000e+00,5.000000000000000000e+00,5.000000000000000000e+00,5.000000000000000000e+00,5.000000000000000000e+00,5.000000000000000000e+00,5.000000000000000000e+00,5.000000000000000000e+00,5.000000000000000000e+00,5.000000000000000000e+00,5.000000000000000000e+00,5.000000000000000000e+00,5.000000000000000000e+00,5.000000000000000000e+00,5.000000000000000000e+00,5.000000000000000000e+00,5.000000000000000000e+00,4.844590663909912109e+00,4.686150074005126953e+00,4.537744998931884766e+00,4.398447036743164062e+00,4.267442226409912109e+00,4.144015789031982422e+00,4.027528285980224609e+00,3.917410612106323242e+00,3.813153982162475586e+00,3.714303255081176758e+00
3.098259449005126953e+00,3.176844596862792969e+00,3.259519577026367188e+00,3.346612691879272461e+00,3.438488245010375977e+00,3.535550355911254883e+00,3.638251781463623047e+00,3.747097730636596680e+00,3.862657546997070312e+00,3.985572099685668945e+00,4.116566181182861328e+00,4.256463527679443359e+00,4.406203746795654297e+00,4.566864490509033203e+00,4.739683628082275391e+00,4.926141738891601562e+00,5.000000000000000000e+00,5.000000000000000000e+00,5.000000000000000000e+00,5.000000000000000000e+00,5.000000000000000000e+00,5.000000000000000000e+00,3.638868331909179688e+00,3.617146253585815430e+00,5.000000000000000000e+00,5.000000000000000000e+00,5.000000000000000000e+00,3.835337638854980469e+00,3.913682222366333008e+00,5.000000000000000000e+00,5.000000000000000000e+00,5.000000000000000000e+00,5.000000000000000000e+00,5.000000000000000000e+00,5.000000000000000000e+00,5.000000000000000000e+00,5.000000000000000000e+00,5.000000000000000000e+00,5.000000000000000000e+00,5.000000000000000000e+00,5.000000000000000000e+00,5.000000000000000000e+00,5.000000000000000000e+00,5.000000000000000000e+00,5.000000000000000000e+00,5.000000000000000000e+00,5.000000000000000000e+00,5.000000000000000000e+00,5.000000000000000000e+00,5.000000000000000000e+00,5.000000000000000000e+00,5.000000000000000000e+00,5.000000000000000000e+00,5.000000000000000000e+00,5.000000000000000000e+00,5.000000000000000000e+00,5.000000000000000000e+00,5.000000000000000000e+00,5.000000000000000000e+00,5.000000000000000000e+00,5.000000000000000000e+00,5.000000000000000000e+00,5.000000000000000000e+00,5.000000000000000000e+00,5.000000000000000000e+00,5.000000000000000000e+00,5.000000000000000000e+00,5.000000000000000000e+00,5.000000000000000000e+00,5.000000000000000000e+00,4.844758033752441406e+00,4.686297416687011719e+00,4.537874221801757812e+00,4.398563861846923828e+00,4.267552375793457031e+00,4.144119262695312500e+00,4.027626037597656250e+00,3.917502880096435547e+00,3.813241958618164062e+00,3.714386224746704102e+00
3.098193407058715820e+00,3.176774978637695312e+00,3.259446620941162109e+00,3.346535682678222656e+00,3.438406705856323242e+00,3.535464286804199219e+00,3.638160705566406250e+00,3.747000932693481445e+00,3.862555027008056641e+00,3.985462665557861328e+00,4.116449356079101562e+00,4.256339073181152344e+00,4.406070232391357422e+00,4.566720485687255859e+00,4.739529132843017578e+00,4.925930976867675781e+00,5.000000000000000000e+00,5.000000000000000000e+00,5.000000000000000000e+00,5.000000000000000000e+00,5.000000000000000000e+00,5.000000000000000000e+00,3.651156663894653320e+00,3.624111890792846680e+00,3.708087444305419922e+00,5.000000000000000000e+00,5.000000000000000000e+00,3.915113210678100586e+00,3.927912950515747070e+00,5.000000000000000000e+00,5.000000000000000000e+00,5.000000000000000000e+00,5.000000000000000000e+00,5.000000000000000000e+00,5.000000000000000000e+00,5.000000000000000000e+00,5.000000000000000000e+00,5.000000000000000000e+00,5.000000000000000000e+00,5.000000000000000000e+00,5.000000000000000000e+00,5.000000000000000000e+00,5.000000000000000000e+00,5.000000000000000000e+00,5.000000000000000000e+00,5.000000000000000000e+00,5.000000000000000000e+00,5.000000000000000000e+00,5.000000000000000000e+00,5.000000000000000000e+00,5.000000000000000000e+00,5.000000000000000000e+00,5.000000000000000000e+00,5.000000000000000000e+00,5.000000000000000000e+00,5.000000000000000000e+00,5.000000000000000000e+00,5.000000000000000000e+00,5.000000000000000000e+00,5.000000000000000000e+00,5.000000000000000000e+00,5.000000000000000000e+00,5.000000000000000000e+00,5.000000000000000000e+00,5.000000000000000000e+00,5.000000000000000000e+00,5.000000000000000000e+00,5.000000000000000000e+00,5.000000000000000000e+00,5.000000000000000000e+00,4.844899654388427734e+00,4.686429500579833984e+00,4.537998199462890625e+00,4.398680210113525391e+00,4.267662048339843750e+00,4.144222736358642578e+00,4.027723789215087891e+00,3.917595863342285156e+00,3.813329696655273438e+00,3.714469194412231445e+00
3.098127365112304688e+00,3.176705598831176758e+00,3.259373426437377930e+00,3.346458911895751953e+00,3.438325405120849609e+00,3.535378217697143555e+00,3.638069629669189453e+00,3.746904850006103516e+00,3.862452268600463867e+00,3.985353469848632812e+00,4.116333007812500000e+00,4.256214141845703125e+00,4.405936717987060547e+00,4.566576957702636719e+00,4.739374637603759766e+00,4.925763607025146484e+00,5.000000000000000000e+00,5.000000000000000000e+00,5.000000000000000000e+00,5.000000000000000000e+00,5.000000000000000000e+00,5.000000000000000000e+00,3.617476701736450195e+00,3.611400365829467773e+00,5.000000000000000000e+00,5.000000000000000000e+00,5.000000000000000000e+00,5.000000000000000000e+00,3.965275049209594727e+00,4.066010475158691406e+00,5.000000000000000000e+00,5.000000000000000000e+00,5.000000000000000000e+00,5.000000000000000000e+00,5.000000000000000000e+00,5.000000000000000000e+00,5.000000000000000000e+00,5.000000000000000000e+00,5.000000000000000000e+00,5.000000000000000000e+00,5.000000000000000000e+00,5.000000000000000000e+00,5.000000000000000000e+00,5.000000000000000000e+00,5.000000000000000000e+00,5.000000000000000000e+00,5.000000000000000000e+00,5.000000000000000000e+00,5.000000000000000000e+00,5.000000000000000000e+00,5.000000000000000000e+00,5.000000000000000000e+00,5.000000000000000000e+00,5.000000000000000000e+00,5.000000000000000000e+00,5.000000000000000000e+00,5.000000000000000000e+00,5.000000000000000000e+00,5.000000000000000000e+00,5.000000000000000000e+00,5.000000000000000000e+00,5.000000000000000000e+00,5.000000000000000000e+00,5.000000000000000000e+00,5.000000000000000000e+00,5.000000000000000000e+00,5.000000000000000000e+00,5.000000000000000000e+00,5.000000000000000000e+00,5.000000000000000000e+00,4.845040798187255859e+00,4.686562061309814453e+00,4.538122653961181641e+00,4.398797035217285156e+00,4.267771720886230469e+00,4.144326210021972656e+00,4.027821540832519531e+00,3.917688131332397461e+00,3.813417196273803711e+00,3.714552640914916992e+00
3.098061323165893555e+00,3.176636219024658203e+00,3.259300470352172852e+00,3.346381902694702148e+00,3.438244342803955078e+00,3.535292148590087891e+00,3.637978315353393555e+00,3.746808052062988281e+00,3.862349987030029297e+00,3.985244035720825195e+00,4.116216182708740234e+00,4.256089210510253906e+00,4.405803203582763672e+00,4.566433906555175781e+00,4.739220142364501953e+00,4.925597190856933594e+00,5.000000000000000000e+00,5.000000000000000000e+00,5.000000000000000000e+00,5.000000000000000000e+00,5.000000000000000000e+00,5.000000000000000000e+00,3.593877553939819336e+00,3.604778528213500977e+00,5.000000000000000000e+00,5.000000000000000000e+00,5.000000000000000000e+00,5.000000000000000000e+00,3.996367931365966797e+00,4.058547019958496094e+00,5.000000000000000000e+00,5.000000000000000000e+00,5.000000000000000000e+00,5.000000000000000000e+00,5.000000000000000000e+00,5.000000000000000000e+00,5.000000000000000000e+00,5.000000000000000000e+00,5.000000000000000000e+00,5.000000000000000000e+00,5.000000000000000000e+00,5.000000000000000000e+00,5.000000000000000000e+00,5.000000000000000000e+00,5.000000000000000000e+00,5.000000000000000000e+00,5.000000000000000000e+00,5.000000000000000000e+00,5.000000000000000000e+00,5.000000000000000000e+00,5.000000000000000000e+00,5.000000000000000000e+00,5.000000000000000000e+00,5.000000000000000000e+00,5.000000000000000000e+00,5.000000000000000000e+00,5.000000000000000000e+00,5.000000000000000000e+00,5.000000000000000000e+00,5.000000000000000000e+00,5.000000000000000000e+00,5.000000000000000000e+00,5.000000000000000000e+00,5.000000000000000000e+00,5.000000000000000000e+00,5.000000000000000000e+00,5.000000000000000000e+00,5.000000000000000000e+00,5.000000000000000000e+00,5.000000000000000000e+00,4.845182895660400391e+00,4.686694622039794922e+00,4.538246631622314453e+00,4.398913860321044922e+00,4.267881870269775391e+00,4.144430160522460938e+00,4.027919769287109375e+00,3.917780637741088867e+00,3.813505172729492188e+00,3.714635848999023438e+00
3.097995519638061523e+00,3.176566600799560547e+00,3.259227275848388672e+00,3.346304893493652344e+00,3.438163042068481445e+00,3.535206317901611328e+00,3.637887239456176758e+00,3.746711492538452148e+00,3.862247228622436523e+00,3.985135078430175781e+00,4.116099834442138672e+00,4.255965232849121094e+00,4.405669689178466797e+00,4.566290378570556641e+00,4.739066123962402344e+00,4.925430297851562500e+00,5.000000000000000000e+00,5.000000000000000000e+00,5.000000000000000000e+00,5.000000000000000000e+00,5.000000000000000000e+00,5.000000000000000000e+00,3.601436138153076172e+00,3.602471590042114258e+00,5.000000000000000000e+00,5.000000000000000000e+00,5.000000000000000000e+00,5.000000000000000000e+00,4.042809963226318359e+00,4.092680931091308594e+00,5.000000000000000000e+00,5.000000000000000000e+00,5.000000000000000000e+00,5.000000000000000000e+00,5.000000000000000000e+00,5.000000000000000000e+00,5.000000000000000000e+00,5.000000000000000000e+00,5.000000000000000000e+00,5.000000000000000000e+00,5.000000000000000000e+00,5.000000000000000000e+00,5.000000000000000000e+00,5.000000000000000000e+00,5.000000000000000000e+00,5.000000000000000000e+00,5.000000000000000000e+00,5.000000000000000000e+00,5.000000000000000000e+00,5.000000000000000000e+00,5.000000000000000000e+00,5.000000000000000000e+00,5.000000000000000000e+00,5.000000000000000000e+00,5.000000000000000000e+00,5.000000000000000000e+00,5.000000000000000000e+00,5.000000000000000000e+00,5.000000000000000000e+00,5.000000000000000000e+00,5.000000000000000000e+00,5.000000000000000000e+00,5.000000000000000000e+00,5.000000000000000000e+00,5.000000000000000000e+00,5.000000000000000000e+00,5.000000000000000000e+00,5.000000000000000000e+00,5.000000000000000000e+00,5.000000000000000000e+00,4.845324516296386719e+00,4.686827182769775391e+00,4.538370609283447266e+00,4.399030685424804688e+00,4.267991542816162109e+00,4.144533634185791016e+00,4.028017044067382812e+00,3.917873382568359375e+00,3.813592672348022461e+00,3.714719295501708984e+00
3.097929477691650391e+00,3.176497459411621094e+00,3.259154081344604492e+00,3.346227645874023438e+00,3.438081741333007812e+00,3.535120487213134766e+00,3.637796163558959961e+00,3.746614933013916016e+00,3.862144470214843750e+00,3.985025882720947266e+00,4.115983486175537109e+00,4.255840301513671875e+00,4.405536174774169922e+00,4.566146850585937500e+00,4.738911151885986328e+00,4.925262928009033203e+00,5.000000000000000000e+00,5.000000000000000000e+00,5.000000000000000000e+00,5.000000000000000000e+00,5.000000000000000000e+00,5.000000000000000000e+00,3.588312149047851562e+00,3.600042104721069336e+00,5.000000000000000000e+00,5.000000000000000000e+00,5.000000000000000000e+00,5.000000000000000000e+00,5.000000000000000000e+00,4.136791706085205078e+00,5.000000000000000000e+00,5.000000000000000000e+00,5.000000000000000000e+00,5.000000000000000000e+00,5.000000000000000000e+00,5.000000000000000000e+00,5.000000000000000000e+00,5.000000000000000000e+00,5.000000000000000000e+00,5.000000000000000000e+00,5.000000000000000000e+00,5.000000000000000000e+00,5.000000000000000000e+00,5.000000000000000000e+00,5.000000000000000000e+00,5.000000000000000000e+00,5.000000000000000000e+00,5.000000000000000000e+00,5.000000000000000000e+00,5.000000000000000000e+00,5.000000000000000000e+00,5.000000000000000000e+00,5.000000000000000000e+00,5.000000000000000000e+00,5.000000000000000000e+00,5.000000000000000000e+00,5.000000000000000000e+00,5.000000000000000000e+00,5.000000000000000000e+00,5.000000000000000000e+00,5.000000000000000000e+00,5.000000000000000000e+00,5.000000000000000000e+00,5.000000000000000000e+00,5.000000000000000000e+00,5.000000000000000000e+00,5.000000000000000000e+00,5.000000000000000000e+00,5.000000000000000000e+00,5.000000000000000000e+00,4.845466136932373047e+00,4.686959266662597656e+00,4.538495063781738281e+00,4.399147033691406250e+00,4.268101692199707031e+00,4.144637107849121094e+00,4.028115272521972656e+00,3.917965888977050781e+00,3.813680648803710938e+00,3.714802265167236328e+00
3.097863435745239258e+00,3.176428079605102539e+00,3.259081363677978516e+00,3.346150636672973633e+00,3.438000202178955078e+00,3.535034418106079102e+00,3.637705564498901367e+00,3.746518135070800781e+00,3.862041950225830078e+00,3.984916448593139648e+00,4.115866661071777344e+00,4.255715847015380859e+00,4.405402660369873047e+00,4.566003799438476562e+00,4.738756656646728516e+00,4.855075359344482422e+00,4.853869915008544922e+00,4.852664947509765625e+00,4.851461410522460938e+00,4.850257396697998047e+00,4.849054813385009766e+00,4.847852230072021484e+00,3.522912979125976562e+00,3.598064184188842773e+00,4.844248771667480469e+00,4.843049049377441406e+00,4.841849327087402344e+00,4.840651035308837891e+00,4.059878826141357422e+00,4.838254928588867188e+00,4.837058067321777344e+00,4.835861682891845703e+00,4.834665775299072266e+00,4.833470821380615234e+00,4.832275867462158203e+00,4.831081867218017578e+00,4.829888343811035156e+00,4.828695774078369141e+00,4.827503681182861328e+00,4.826311588287353516e+00,4.825120925903320312e+00,4.823930263519287109e+00,4.822740077972412109e+00,4.821551322937011719e+00,4.820362091064453125e+00,4.819174289703369141e+00,4.817986488342285156e+00,4.816799640655517578e+00,4.815613269805908203e+00,4.814427375793457031e+00,4.813241958618164062e+00,4.812057495117187500e+00,4.810873508453369141e+00,4.809689998626708984e+00,4.808506965637207031e+00,4.807324886322021484e+00,4.806142807006835938e+00,4.804961681365966797e+00,4.803781509399414062e+00,4.802601337432861328e+00,4.801421642303466797e+00,4.800242900848388672e+00,4.799064636230468750e+00,4.797887325286865234e+00,4.796710014343261719e+00,4.795533657073974609e+00,4.794357299804687500e+00,4.793181896209716797e+00,4.792007446289062500e+00,4.790832996368408203e+00,4.789659500122070312e+00,4.687091827392578125e+00,4.538619518280029297e+00,4.399263858795166016e+00,4.268211364746093750e+00,4.144740581512451172e+00,4.028213024139404297e+00,3.918058872222900391e+00,3.813768148422241211e+00,3.714885473251342773e+00
3.097797393798828125e+00,3.176358461380004883e+00,3.259008169174194336e+00,3.346073627471923828e+00,3.437918901443481445e+00,3.534948587417602539e+00,3.637614488601684570e+00,3.746422052383422852e+00,3.771236658096313477e+00,3.770509004592895508e+00,3.769782066345214844e+00,3.769055604934692383e+00,3.768329143524169922e+00,3.767603158950805664e+00,3.766876935958862305e+00,3.766151428222656250e+00,3.765426158905029297e+00,3.764701128005981445e+00,3.763976573944091797e+00,3.763251781463623047e+00,3.762527465820312500e+00,3.761803627014160156e+00,3.761080265045166016e+00,3.611326932907104492e+00,3.759633541107177734e+00,3.758910655975341797e+00,3.758188247680664062e+00,3.757466077804565430e+00,3.756744146347045898e+00,3.756022214889526367e+00,3.755300760269165039e+00,3.754579782485961914e+00,3.753859043121337891e+00,3.753138542175292969e+00,3.752417802810668945e+00,3.751697778701782227e+00,3.750978231430053711e+00,3.750258684158325195e+00,3.749539613723754883e+00,3.748820304870605469e+00,3.748101711273193359e+00,3.747383594512939453e+00,3.746665477752685547e+00,3.745947599411010742e+00,3.745229721069335938e+00,3.744512557983398438e+00,3.743795633316040039e+00,3.743078947067260742e+00,3.742362737655639648e+00,3.741646051406860352e+00,3.740930318832397461e+00,3.740214824676513672e+00,3.739499568939208984e+00,3.738784551620483398e+00,3.738069534301757812e+00,3.737354993820190430e+00,3.736640691757202148e+00,3.735926866531372070e+00,3.735213279724121094e+00,3.734499454498291016e+00,3.733786344528198242e+00,3.733073472976684570e+00,3.732360839843750000e+00,3.731648683547973633e+00,3.730936288833618164e+00,3.730224370956420898e+00,3.729512929916381836e+00,3.728801727294921875e+00,3.728090763092041016e+00,3.727379798889160156e+00,3.726669311523437500e+00,3.725959300994873047e+00,3.725249528884887695e+00,3.724539756774902344e+00,3.723830223083496094e+00,3.723121166229248047e+00,3.722412347793579102e+00,3.721703767776489258e+00,3.720995664596557617e+00,3.714968919754028320e+00
3.083480596542358398e+00,3.082994461059570312e+00,3.082508325576782227e+00,3.082022428512573242e+00,3.081536769866943359e+00,3.081051111221313477e+00,3.080565452575683594e+00,3.080080032348632812e+00,3.079595088958740234e+00,3.079110145568847656e+00,3.078625202178955078e+00,3.078140258789062500e+00,3.077655792236328125e+00,3.077171564102172852e+00,3.076687335968017578e+00,3.076203346252441406e+00,3.075719118118286133e+00,3.075235366821289062e+00,3.074751853942871094e+00,3.074268579483032227e+00,3.073785305023193359e+00,3.073301792144775391e+00,3.072818756103515625e+00,3.072335958480834961e+00,3.071853399276733398e+00,3.071370840072631836e+00,3.070888280868530273e+00,3.070405960083007812e+00,3.069923877716064453e+00,3.069442033767700195e+00,3.068960428237915039e+00,3.068478345870971680e+00,3.067996978759765625e+00,3.067515611648559570e+00,3.067034482955932617e+00,3.066553592681884766e+00,3.066072463989257812e+00,3.065591812133789062e+00,3.065111398696899414e+00,3.064630985260009766e+00,3.064150810241699219e+00,3.063670396804809570e+00,3.063190460205078125e+00,3.062710523605346680e+00,3.062231063842773438e+00,3.061751604080200195e+00,3.061271905899047852e+00,3.060792684555053711e+00,3.060313701629638672e+00,3.059834718704223633e+00,3.059355974197387695e+00,3.058877229690551758e+00,3.058398723602294922e+00,3.057920455932617188e+00,3.057442188262939453e+00,3.056964397430419922e+00,3.056486129760742188e+00,3.056008577346801758e+00,3.055531024932861328e+00,3.055053472518920898e+00,3.054576396942138672e+00,3.054098844528198242e+00,3.053622007369995117e+00,3.053145170211791992e+00,3.052668571472167969e+00,3.052191972732543945e+00,3.051715373992919922e+00,3.051239252090454102e+00,3.050763130187988281e+00,3.050287246704101562e+00,3.049811601638793945e+00,3.049335718154907227e+00,3.048860073089599609e+00,3.048384904861450195e+00,3.047909736633300781e+00,3.047434806823730469e+00,3.046959638595581055e+00,3.046484947204589844e+00,3.046010255813598633e+00,3.045535802841186523e+00
2.605103731155395508e+00,2.604756832122802734e+00,2.604409933090209961e+00,2.604063034057617188e+00,2.603716135025024414e+00,2.603369474411010742e+00,2.603023052215576172e+00,2.602676630020141602e+00,2.602329969406127930e+00,2.601983547210693359e+00,2.601637363433837891e+00,2.601291179656982422e+00,2.600945234298706055e+00,2.600599288940429688e+00,2.600253105163574219e+00,2.599907398223876953e+00,2.599561929702758789e+00,2.599216222763061523e+00,2.598870754241943359e+00,2.598525285720825195e+00,2.598180055618286133e+00,2.597834825515747070e+00,2.597489595413208008e+00,2.597144603729248047e+00,2.596799612045288086e+00,2.596454858779907227e+00,2.596110105514526367e+00,2.595765352249145508e+00,2.595420837402343750e+00,2.595076322555541992e+00,2.594731807708740234e+00,2.594387531280517578e+00,2.594043493270874023e+00,2.593699455261230469e+00,2.593355178833007812e+00,2.593011140823364258e+00,2.592667341232299805e+00,2.592323780059814453e+00,2.591979980468750000e+00,2.591636419296264648e+00,2.591292858123779297e+00,2.590949535369873047e+00,2.590606212615966797e+00,2.590263128280639648e+00,2.589919805526733398e+00,2.589576959609985352e+00,2.589233875274658203e+00,2.588891029357910156e+00,2.588548421859741211e+00,2.588205575942993164e+00,2.587862968444824219e+00,2.587520599365234375e+00,2.587178230285644531e+00,2.586836099624633789e+00,2.586493730545043945e+00,2.586151599884033203e+00,2.585809469223022461e+00,2.585467576980590820e+00,2.585125923156738281e+00,2.584784030914306641e+00,2.584442377090454102e+00,2.584100723266601562e+00,2.583759307861328125e+00,2.583417892456054688e+00,2.583076477050781250e+00,2.582735300064086914e+00,2.582394361495971680e+00,2.582053184509277344e+00,2.581712245941162109e+00,2.581371307373046875e+00,2.581030607223510742e+00,2.580689907073974609e+00,2.580349445343017578e+00,2.580008983612060547e+00,2.579668283462524414e+00,2.579328060150146484e+00,2.578987836837768555e+00,2.578647851943969727e+00,2.578307867050170898e+00,2.577967643737792969e+00
2.255224227905273438e+00,2.254964351654052734e+00,2.254704236984252930e+00,2.254444122314453125e+00,2.254184246063232422e+00,2.253924369812011719e+00,2.253664731979370117e+00,2.253404855728149414e+00,2.253145217895507812e+00,2.252885818481445312e+00,2.252626180648803711e+00,2.252366542816162109e+00,2.252106904983520508e+00,2.251847743988037109e+00,2.251588344573974609e+00,2.251329183578491211e+00,2.251069784164428711e+00,2.250810623168945312e+00,2.250551700592041016e+00,2.250292539596557617e+00,2.250033617019653320e+00,2.249774694442749023e+00,2.249515771865844727e+00,2.249257087707519531e+00,2.248998403549194336e+00,2.248739719390869141e+00,2.248481035232543945e+00,2.248222589492797852e+00,2.247964143753051758e+00,2.247705698013305664e+00,2.247447252273559570e+00,2.247188806533813477e+00,2.246930599212646484e+00,2.246672391891479492e+00,2.246414422988891602e+00,2.246156215667724609e+00,2.245898246765136719e+00,2.245640277862548828e+00,2.245382308959960938e+00,2.245124578475952148e+00,2.244866847991943359e+00,2.244608879089355469e+00,2.244351387023925781e+00,2.244093656539916992e+00,2.243836164474487305e+00,2.243578672409057617e+00,2.243321180343627930e+00,2.243063926696777344e+00,2.242806673049926758e+00,2.242549419403076172e+00,2.242292165756225586e+00,2.242034912109375000e+00,2.241777896881103516e+00,2.241520881652832031e+00,2.241264104843139648e+00,2.241007089614868164e+00,2.240750312805175781e+00,2.240493535995483398e+00,2.240236759185791016e+00,2.239980220794677734e+00,2.239723682403564453e+00,2.239466905593872070e+00,2.239210367202758789e+00,2.238954067230224609e+00,2.238697767257690430e+00,2.238441467285156250e+00,2.238185167312622070e+00,2.237928867340087891e+00,2.237672805786132812e+00,2.237416744232177734e+00,2.237160921096801758e+00,2.236904859542846680e+00,2.236648797988891602e+00,2.236392974853515625e+00,2.236137390136718750e+00,2.235881567001342773e+00,2.235625743865966797e+00,2.235370159149169922e+00,2.235114812850952148e+00,2.234859228134155273e+00
1.988198399543762207e+00,1.987996339797973633e+00,1.987794160842895508e+00,1.987592101097106934e+00,1.987390160560607910e+00,1.987188220024108887e+00,1.986986279487609863e+00,1.986784338951110840e+00,1.986582517623901367e+00,1.986380696296691895e+00,1.986178994178771973e+00,1.985977292060852051e+00,1.985775589942932129e+00,1.985573887825012207e+00,1.985372066497802734e+00,1.985170602798461914e+00,1.984969019889831543e+00,1.984767556190490723e+00,1.984566092491149902e+00,1.984364390373229980e+00,1.984163045883178711e+00,1.983961820602416992e+00,1.983760476112365723e+00,1.983559250831604004e+00,1.983358144760131836e+00,1.983156919479370117e+00,1.982955813407897949e+00,1.982754826545715332e+00,1.982553720474243164e+00,1.982352495193481445e+00,1.982151627540588379e+00,1.981950640678405762e+00,1.981749773025512695e+00,1.981549024581909180e+00,1.981348156929016113e+00,1.981147408485412598e+00,1.980946779251098633e+00,1.980746030807495117e+00,1.980545401573181152e+00,1.980344653129577637e+00,1.980144143104553223e+00,1.979943513870239258e+00,1.979743123054504395e+00,1.979542732238769531e+00,1.979342341423034668e+00,1.979141950607299805e+00,1.978941679000854492e+00,1.978741407394409180e+00,1.978541135787963867e+00,1.978340744972229004e+00,1.978140592575073242e+00,1.977940559387207031e+00,1.977740526199340820e+00,1.977540493011474609e+00,1.977340459823608398e+00,1.977140545845031738e+00,1.976940631866455078e+00,1.976740837097167969e+00,1.976541042327880859e+00,1.976341009140014648e+00,1.976141214370727539e+00,1.975941538810729980e+00,1.975741863250732422e+00,1.975542306900024414e+00,1.975342750549316406e+00,1.975143194198608398e+00,1.974943637847900391e+00,1.974744200706481934e+00,1.974544763565063477e+00,1.974345207214355469e+00,1.974145889282226562e+00,1.973946571350097656e+00,1.973747372627258301e+00,1.973548173904418945e+00,1.973348975181579590e+00,1.973149895668029785e+00,1.972950816154479980e+00,1.972751736640930176e+00,1.972552657127380371e+00,1.972353458404541016e+00
1.777711629867553711e+00,1.777550101280212402e+00,1.777388453483581543e+00,1.777226924896240234e+00,1.777065396308898926e+00,1.776903986930847168e+00,1.776742458343505859e+00,1.776581048965454102e+00,1.776419639587402344e+00,1.776258349418640137e+00,1.776096940040588379e+00,1.775935649871826172e+00,1.775774359703063965e+00,1.775613069534301758e+00,1.775451898574829102e+00,1.775290727615356445e+00,1.775129556655883789e+00,1.774968266487121582e+00,1.774807095527648926e+00,1.774646043777465820e+00,1.774484992027282715e+00,1.774323821067810059e+00,1.774162769317626953e+00,1.774001836776733398e+00,1.773840904235839844e+00,1.773679971694946289e+00,1.773519158363342285e+00,1.773358345031738281e+00,1.773197531700134277e+00,1.773036718368530273e+00,1.772875905036926270e+00,1.772714972496032715e+00,1.772554278373718262e+00,1.772393703460693359e+00,1.772233009338378906e+00,1.772072434425354004e+00,1.771911859512329102e+00,1.771751284599304199e+00,1.771590709686279297e+00,1.771430253982543945e+00,1.771269798278808594e+00,1.771109223365783691e+00,1.770948767662048340e+00,1.770788431167602539e+00,1.770627975463867188e+00,1.770467758178710938e+00,1.770307421684265137e+00,1.770147204399108887e+00,1.769986867904663086e+00,1.769826769828796387e+00,1.769666552543640137e+00,1.769506216049194336e+00,1.769346117973327637e+00,1.769186019897460938e+00,1.769025921821594238e+00,1.768865942955017090e+00,1.768705964088439941e+00,1.768545985221862793e+00,1.768386006355285645e+00,1.768226146697998047e+00,1.768066167831420898e+00,1.767906188964843750e+00,1.767746329307556152e+00,1.767586588859558105e+00,1.767426729202270508e+00,1.767266988754272461e+00,1.767107367515563965e+00,1.766947627067565918e+00,1.766788005828857422e+00,1.766628384590148926e+00,1.766468763351440430e+00,1.766309022903442383e+00,1.766149520874023438e+00,1.765990018844604492e+00,1.765830516815185547e+00,1.765671014785766602e+00,1.765511631965637207e+00,1.765352249145507812e+00,1.765192866325378418e+00,1.765033602714538574e+00
1.607526063919067383e+00,1.607393980026245117e+00,1.607261896133422852e+00,1.607129693031311035e+00,1.606997489929199219e+00,1.606865406036376953e+00,1.606733441352844238e+00,1.606601357460021973e+00,1.606469392776489258e+00,1.606337428092956543e+00,1.606205463409423828e+00,1.606073617935180664e+00,1.605941653251647949e+00,1.605809807777404785e+00,1.605677962303161621e+00,1.605546116828918457e+00,1.605414271354675293e+00,1.605282425880432129e+00,1.605150699615478516e+00,1.605018973350524902e+00,1.604887008666992188e+00,1.604755282402038574e+00,1.604623675346374512e+00,1.604491949081420898e+00,1.604360222816467285e+00,1.604228496551513672e+00,1.604096889495849609e+00,1.603965401649475098e+00,1.603833794593811035e+00,1.603702306747436523e+00,1.603570699691772461e+00,1.603439211845397949e+00,1.603307723999023438e+00,1.603176355361938477e+00,1.603044748306274414e+00,1.602913379669189453e+00,1.602782011032104492e+00,1.602650642395019531e+00,1.602519273757934570e+00,1.602387905120849609e+00,1.602256655693054199e+00,1.602125287055969238e+00,1.601994037628173828e+00,1.601862907409667969e+00,1.601731538772583008e+00,1.601600289344787598e+00,1.601469159126281738e+00,1.601338028907775879e+00,1.601206898689270020e+00,1.601075768470764160e+00,1.600944638252258301e+00,1.600813627243041992e+00,1.600682497024536133e+00,1.600551486015319824e+00,1.600420355796813965e+00,1.600289463996887207e+00,1.600158452987670898e+00,1.600027561187744141e+00,1.599896550178527832e+00,1.599765658378601074e+00,1.599634766578674316e+00,1.599503993988037109e+00,1.599373102188110352e+00,1.599242329597473145e+00,1.599111437797546387e+00,1.598980665206909180e+00,1.598849892616271973e+00,1.598719120025634766e+00,1.598588466644287109e+00,1.598457813262939453e+00,1.598327159881591797e+00,1.598196506500244141e+00,1.598065853118896484e+00,1.597935318946838379e+00,1.597804546356201172e+00,1.597674012184143066e+00,1.597543478012084961e+00,1.597412943840026855e+00,1.597282528877258301e+00,1.597151994705200195e+00
1.467078208923339844e+00,1.466968178749084473e+00,1.466858148574829102e+00,1.466748118400573730e+00,1.466638088226318359e+00,1.466528058052062988e+00,1.466418147087097168e+00,1.466307997703552246e+00,1.466198086738586426e+00,1.466088175773620605e+00,1.465978264808654785e+00,1.465868353843688965e+00,1.465758442878723145e+00,1.465648531913757324e+00,1.465538740158081055e+00,1.465428829193115234e+00,1.465319037437438965e+00,1.465209245681762695e+00,1.465099453926086426e+00,1.464989662170410156e+00,1.464879989624023438e+00,1.464770197868347168e+00,1.464660525321960449e+00,1.464550852775573730e+00,1.464440941810607910e+00,1.464331269264221191e+00,1.464221715927124023e+00,1.464111924171447754e+00,1.464002251625061035e+00,1.463892698287963867e+00,1.463783144950866699e+00,1.463673591613769531e+00,1.463564038276672363e+00,1.463454484939575195e+00,1.463344931602478027e+00,1.463235378265380859e+00,1.463125824928283691e+00,1.463016390800476074e+00,1.462906837463378906e+00,1.462797403335571289e+00,1.462687969207763672e+00,1.462578654289245605e+00,1.462469220161437988e+00,1.462359905242919922e+00,1.462250471115112305e+00,1.462141156196594238e+00,1.462031722068786621e+00,1.461922407150268555e+00,1.461813092231750488e+00,1.461703896522521973e+00,1.461594581604003906e+00,1.461485385894775391e+00,1.461376190185546875e+00,1.461266875267028809e+00,1.461157679557800293e+00,1.461048603057861328e+00,1.460939288139343262e+00,1.460830092430114746e+00,1.460721015930175781e+00,1.460611939430236816e+00,1.460502743721008301e+00,1.460393667221069336e+00,1.460284709930419922e+00,1.460175633430480957e+00,1.460066556930541992e+00,1.459957599639892578e+00,1.459848403930664062e+00,1.459739446640014648e+00,1.459630489349365234e+00,1.459521532058715820e+00,1.459412574768066406e+00,1.459303736686706543e+00,1.459194779396057129e+00,1.459085941314697266e+00,1.458977103233337402e+00,1.458868145942687988e+00,1.458759188652038574e+00,1.458650469779968262e+00,1.458541631698608398e+00,1.458432793617248535e+00
1.349200010299682617e+00,1.349106907844543457e+00,1.349013805389404297e+00,1.348920822143554688e+00,1.348827719688415527e+00,1.348734736442565918e+00,1.348641633987426758e+00,1.348548650741577148e+00,1.348455667495727539e+00,1.348362684249877930e+00,1.348269581794738770e+00,1.348176598548889160e+00,1.348083734512329102e+00,1.347990751266479492e+00,1.347897887229919434e+00,1.347804903984069824e+00,1.347712039947509766e+00,1.347619175910949707e+00,1.347526311874389648e+00,1.347433447837829590e+00,1.347340703010559082e+00,1.347247838973999023e+00,1.347154974937438965e+00,1.347062230110168457e+00,1.346969366073608398e+00,1.346876621246337891e+00,1.346783876419067383e+00,1.346691012382507324e+00,1.346598267555236816e+00,1.346505522727966309e+00,1.346412777900695801e+00,1.346320033073425293e+00,1.346227288246154785e+00,1.346134662628173828e+00,1.346041917800903320e+00,1.345949292182922363e+00,1.345856666564941406e+00,1.345764040946960449e+00,1.345671415328979492e+00,1.345578789710998535e+00,1.345486164093017578e+00,1.345393538475036621e+00,1.345301032066345215e+00,1.345208406448364258e+00,1.345115900039672852e+00,1.345023393630981445e+00,1.344930887222290039e+00,1.344838380813598633e+00,1.344745874404907227e+00,1.344653367996215820e+00,1.344560861587524414e+00,1.344468355178833008e+00,1.344375967979431152e+00,1.344283580780029297e+00,1.344191074371337891e+00,1.344098687171936035e+00,1.344006299972534180e+00,1.343913912773132324e+00,1.343821644783020020e+00,1.343729138374328613e+00,1.343636870384216309e+00,1.343544483184814453e+00,1.343452215194702148e+00,1.343359947204589844e+00,1.343267560005187988e+00,1.343175292015075684e+00,1.343083024024963379e+00,1.342990875244140625e+00,1.342898607254028320e+00,1.342806220054626465e+00,1.342714071273803711e+00,1.342621803283691406e+00,1.342529654502868652e+00,1.342437505722045898e+00,1.342345356941223145e+00,1.342253208160400391e+00,1.342161059379577637e+00,1.342068910598754883e+00,1.341976881027221680e+00,1.341884613037109375e+00
1.248855710029602051e+00,1.248776078224182129e+00,1.248696327209472656e+00,1.248616576194763184e+00,1.248536825180053711e+00,1.248457074165344238e+00,1.248377442359924316e+00,1.248297691345214844e+00,1.248218059539794922e+00,1.248138308525085449e+00,1.248058676719665527e+00,1.247979044914245605e+00,1.247899413108825684e+00,1.247819662094116211e+00,1.247740030288696289e+00,1.247660398483276367e+00,1.247580766677856445e+00,1.247501254081726074e+00,1.247421622276306152e+00,1.247342109680175781e+00,1.247262477874755859e+00,1.247182965278625488e+00,1.247103452682495117e+00,1.247023820877075195e+00,1.246944308280944824e+00,1.246864795684814453e+00,1.246785283088684082e+00,1.246705889701843262e+00,1.246626377105712891e+00,1.246546864509582520e+00,1.246467351913452148e+00,1.246387839317321777e+00,1.246308445930480957e+00,1.246229052543640137e+00,1.246149539947509766e+00,1.246070027351379395e+00,1.245990633964538574e+00,1.245911240577697754e+00,1.245831966400146484e+00,1.245752573013305664e+00,1.245673179626464844e+00,1.245593786239624023e+00,1.245514392852783203e+00,1.245435118675231934e+00,1.245355725288391113e+00,1.245276451110839844e+00,1.245197176933288574e+00,1.245117902755737305e+00,1.245038509368896484e+00,1.244959354400634766e+00,1.244880080223083496e+00,1.244800686836242676e+00,1.244721412658691406e+00,1.244642257690429688e+00,1.244562983512878418e+00,1.244483828544616699e+00,1.244404554367065430e+00,1.244325399398803711e+00,1.244246244430541992e+00,1.244167089462280273e+00,1.244087934494018555e+00,1.244008660316467285e+00,1.243929505348205566e+00,1.243850350379943848e+00,1.243771314620971680e+00,1.243692159652709961e+00,1.243613123893737793e+00,1.243533968925476074e+00,1.243454933166503906e+00,1.243375897407531738e+00,1.243296742439270020e+00,1.243217706680297852e+00,1.243138670921325684e+00,1.243059635162353516e+00,1.242980599403381348e+00,1.242901563644409180e+00,1.242822527885437012e+00,1.242743611335754395e+00,1.242664575576782227e+00,1.242585659027099609e+00
1.162404179573059082e+00,1.162335038185119629e+00,1.162266016006469727e+00,1.162196874618530273e+00,1.162127852439880371e+00,1.162058711051940918e+00,1.161989688873291016e+00,1.161920666694641113e+00,1.161851644515991211e+00,1.161782622337341309e+00,1.161713600158691406e+00,1.161644577980041504e+00,1.161575555801391602e+00,1.161506533622741699e+00,1.161437511444091797e+00,1.161368608474731445e+00,1.161299467086791992e+00,1.161230564117431641e+00,1.161161541938781738e+00,1.161092638969421387e+00,1.161023736000061035e+00,1.160954713821411133e+00,1.160885810852050781e+00,1.160816907882690430e+00,1.160748004913330078e+00,1.160679101943969727e+00,1.160610198974609375e+00,1.160541296005249023e+00,1.160472512245178223e+00,1.160403609275817871e+00,1.160334706306457520e+00,1.160265922546386719e+00,1.160197019577026367e+00,1.160128116607666016e+00,1.160059332847595215e+00,1.159990429878234863e+00,1.159921646118164062e+00,1.159852862358093262e+00,1.159783959388732910e+00,1.159715175628662109e+00,1.159646391868591309e+00,1.159577608108520508e+00,1.159508943557739258e+00,1.159440159797668457e+00,1.159371256828308105e+00,1.159302592277526855e+00,1.159233808517456055e+00,1.159165143966674805e+00,1.159096360206604004e+00,1.159027695655822754e+00,1.158959031105041504e+00,1.158890366554260254e+00,1.158821582794189453e+00,1.158752918243408203e+00,1.158684253692626953e+00,1.158615589141845703e+00,1.158546924591064453e+00,1.158478260040283203e+00,1.158409595489501953e+00,1.158341050148010254e+00,1.158272385597229004e+00,1.158203840255737305e+00,1.158135175704956055e+00,1.158066630363464355e+00,1.157997965812683105e+00,1.157929420471191406e+00,1.157860875129699707e+00,1.157792329788208008e+00,1.157723784446716309e+00,1.157655239105224609e+00,1.157586693763732910e+00,1.157518148422241211e+00,1.157449603080749512e+00,1.157381176948547363e+00,1.157312512397766113e+00,1.157244086265563965e+00,1.157175540924072266e+00,1.157107114791870117e+00,1.157038569450378418e+00,1.156970143318176270e+00
1.087146759033203125e+00,1.087086319923400879e+00,1.087026000022888184e+00,1.086965441703796387e+00,1.086905002593994141e+00,1.086844563484191895e+00,1.086784243583679199e+00,1.086723804473876953e+00,1.086663365364074707e+00,1.086603045463562012e+00,1.086542606353759766e+00,1.086482286453247070e+00,1.086421966552734375e+00,1.086361527442932129e+00,1.086301207542419434e+00,1.086240887641906738e+00,1.086180567741394043e+00,1.086120247840881348e+00,1.086059927940368652e+00,1.085999608039855957e+00,1.085939168930053711e+00,1.085878849029541016e+00,1.085818529129028320e+00,1.085758328437805176e+00,1.085698008537292480e+00,1.085637688636779785e+00,1.085577487945556641e+00,1.085517168045043945e+00,1.085456967353820801e+00,1.085396647453308105e+00,1.085336446762084961e+00,1.085276246070861816e+00,1.085215926170349121e+00,1.085155725479125977e+00,1.085095524787902832e+00,1.085035324096679688e+00,1.084975004196166992e+00,1.084914803504943848e+00,1.084854602813720703e+00,1.084794521331787109e+00,1.084734320640563965e+00,1.084674119949340820e+00,1.084613919258117676e+00,1.084553718566894531e+00,1.084493517875671387e+00,1.084433436393737793e+00,1.084373235702514648e+00,1.084313035011291504e+00,1.084252953529357910e+00,1.084192872047424316e+00,1.084132671356201172e+00,1.084072589874267578e+00,1.084012508392333984e+00,1.083952426910400391e+00,1.083892345428466797e+00,1.083832263946533203e+00,1.083772182464599609e+00,1.083712100982666016e+00,1.083652019500732422e+00,1.083591938018798828e+00,1.083531975746154785e+00,1.083471894264221191e+00,1.083411812782287598e+00,1.083351850509643555e+00,1.083291769027709961e+00,1.083231806755065918e+00,1.083171725273132324e+00,1.083111763000488281e+00,1.083051681518554688e+00,1.082991719245910645e+00,1.082931756973266602e+00,1.082871794700622559e+00,1.082811832427978516e+00,1.082751870155334473e+00,1.082691907882690430e+00,1.082631945610046387e+00,1.082571983337402344e+00,1.082512021064758301e+00,1.082452058792114258e+00,1.082392215728759766e+00
1.021041631698608398e+00,1.020988345146179199e+00,1.020935058593750000e+00,1.020881652832031250e+00,1.020828366279602051e+00,1.020775079727172852e+00,1.020721793174743652e+00,1.020668506622314453e+00,1.020615220069885254e+00,1.020561933517456055e+00,1.020508646965026855e+00,1.020455479621887207e+00,1.020402193069458008e+00,1.020348906517028809e+00,1.020295739173889160e+00,1.020242452621459961e+00,1.020189285278320312e+00,1.020135998725891113e+00,1.020082831382751465e+00,1.020029544830322266e+00,1.019976377487182617e+00,1.019923210144042969e+00,1.019869923591613770e+00,1.019816756248474121e+00,1.019763588905334473e+00,1.019710421562194824e+00,1.019657254219055176e+00,1.019603967666625977e+00,1.019550919532775879e+00,1.019497752189636230e+00,1.019444584846496582e+00,1.019391417503356934e+00,1.019338250160217285e+00,1.019285082817077637e+00,1.019232034683227539e+00,1.019178867340087891e+00,1.019125819206237793e+00,1.019072651863098145e+00,1.019019603729248047e+00,1.018966436386108398e+00,1.018913269042968750e+00,1.018860220909118652e+00,1.018807053565979004e+00,1.018754005432128906e+00,1.018700957298278809e+00,1.018647909164428711e+00,1.018594741821289062e+00,1.018541693687438965e+00,1.018488645553588867e+00,1.018435597419738770e+00,1.018382549285888672e+00,1.018329501152038574e+00,1.018276453018188477e+00,1.018223404884338379e+00,1.018170356750488281e+00,1.018117427825927734e+00,1.018064379692077637e+00,1.018011331558227539e+00,1.017958402633666992e+00,1.017905354499816895e+00,1.017852306365966797e+00,1.017799377441406250e+00,1.017746329307556152e+00,1.017693400382995605e+00,1.017640471458435059e+00,1.017587542533874512e+00,1.017534494400024414e+00,1.017481565475463867e+00,1.017428636550903320e+00,1.017375707626342773e+00,1.017322778701782227e+00,1.017269849777221680e+00,1.017216920852661133e+00,1.017163991928100586e+00,1.017111063003540039e+00,1.017058134078979492e+00,1.017005205154418945e+00,1.016952395439147949e+00,1.016899466514587402e+00,1.016846537590026855e+00
9.625149369239807129e-01,9.624675512313842773e-01,9.624201655387878418e-01,9.623727798461914062e-01,9.623253941535949707e-01,9.622780680656433105e-01,9.622306823730468750e-01,9.621833562850952148e-01,9.621360301971435547e-01,9.620885848999023438e-01,9.620412588119506836e-01,9.619939327239990234e-01,9.619466066360473633e-01,9.618992805480957031e-01,9.618519544601440430e-01,9.618046283721923828e-01,9.617573618888854980e-01,9.617100358009338379e-01,9.616627693176269531e-01,9.616154432296752930e-01,9.615681767463684082e-01,9.615208506584167480e-01,9.614735841751098633e-01,9.614263176918029785e-01,9.613790512084960938e-01,9.613317847251892090e-01,9.612845182418823242e-01,9.612373113632202148e-01,9.611900448799133301e-01,9.611427783966064453e-01,9.610955715179443359e-01,9.610483050346374512e-01,9.610010981559753418e-01,9.609538316726684570e-01,9.609066247940063477e-01,9.608594179153442383e-01,9.608122110366821289e-01,9.607650041580200195e-01,9.607177972793579102e-01,9.606705904006958008e-01,9.606233835220336914e-01,9.605761766433715820e-01,9.605289101600646973e-01,9.604817032814025879e-01,9.604345560073852539e-01,9.603873491287231445e-01,9.603402018547058105e-01,9.602930545806884766e-01,9.602459073066711426e-01,9.601987600326538086e-01,9.601515531539916992e-01,9.601043462753295898e-01,9.600571990013122559e-01,9.600100517272949219e-01,9.599629044532775879e-01,9.599158167839050293e-01,9.598686695098876953e-01,9.598215818405151367e-01,9.597744345664978027e-01,9.597273468971252441e-01,9.596802592277526855e-01,9.596331715583801270e-01,9.595860242843627930e-01,9.595389366149902344e-01,9.594918489456176758e-01,9.594448208808898926e-01,9.593977332115173340e-01,9.593506455421447754e-01,9.593035578727722168e-01,9.592565298080444336e-01,9.592094421386718750e-01,9.591622948646545410e-01,9.591152667999267578e-01,9.590682387351989746e-01,9.590211510658264160e-01,9.589741230010986328e-01,9.589270949363708496e-01,9.588800668716430664e-01,9.588330984115600586e-01,9.587860703468322754e-01
9.103339314460754395e-01,9.102915525436401367e-01,9.102491736412048340e-01,9.102067947387695312e-01,9.101644754409790039e-01,9.101220965385437012e-01,9.100797176361083984e-01,9.100373983383178711e-01,9.099950194358825684e-01,9.099527001380920410e-01,9.099103212356567383e-01,9.098680019378662109e-01,9.098255634307861328e-01,9.097832441329956055e-01,9.097409248352050781e-01,9.096985459327697754e-01,9.096562266349792480e-01,9.096139073371887207e-01,9.095716476440429688e-01,9.095293283462524414e-01,9.094870090484619141e-01,9.094446897506713867e-01,9.094024300575256348e-01,9.093601107597351074e-01,9.093178510665893555e-01,9.092755317687988281e-01,9.092332720756530762e-01,9.091910123825073242e-01,9.091487526893615723e-01,9.091064333915710449e-01,9.090641736984252930e-01,9.090219140052795410e-01,9.089796543121337891e-01,9.089373946189880371e-01,9.088951945304870605e-01,9.088529348373413086e-01,9.088106751441955566e-01,9.087684750556945801e-01,9.087262153625488281e-01,9.086840152740478516e-01,9.086417555809020996e-01,9.085995554924011230e-01,9.085572957992553711e-01,9.085150957107543945e-01,9.084728956222534180e-01,9.084306955337524414e-01,9.083883762359619141e-01,9.083461761474609375e-01,9.083040356636047363e-01,9.082618355751037598e-01,9.082196354866027832e-01,9.081774353981018066e-01,9.081352949142456055e-01,9.080930948257446289e-01,9.080508351325988770e-01,9.080086350440979004e-01,9.079664945602416992e-01,9.079243540763854980e-01,9.078822135925292969e-01,9.078400135040283203e-01,9.077978730201721191e-01,9.077557325363159180e-01,9.077135920524597168e-01,9.076714515686035156e-01,9.076293110847473145e-01,9.075872302055358887e-01,9.075450897216796875e-01,9.075029492378234863e-01,9.074608683586120605e-01,9.074187278747558594e-01,9.073766469955444336e-01,9.073345661163330078e-01,9.072924256324768066e-01,9.072503447532653809e-01,9.072081446647644043e-01,9.071660637855529785e-01,9.071239829063415527e-01,9.070819020271301270e-01,9.070398211479187012e-01,9.069977402687072754e-01
8.635197877883911133e-01,8.634817004203796387e-01,8.634435534477233887e-01,8.634054064750671387e-01,8.633673191070556641e-01,8.633291721343994141e-01,8.632910847663879395e-01,8.632529377937316895e-01,8.632148504257202148e-01,8.631767630577087402e-01,8.631386160850524902e-01,8.631005287170410156e-01,8.630624413490295410e-01,8.630243539810180664e-01,8.629862666130065918e-01,8.629481196403503418e-01,8.629100322723388672e-01,8.628719449043273926e-01,8.628338575363159180e-01,8.627957701683044434e-01,8.627577424049377441e-01,8.627196550369262695e-01,8.626815676689147949e-01,8.626435399055480957e-01,8.626054525375366211e-01,8.625674247741699219e-01,8.625293970108032227e-01,8.624913096427917480e-01,8.624532818794250488e-01,8.624152541160583496e-01,8.623772263526916504e-01,8.623391985893249512e-01,8.623011708259582520e-01,8.622631430625915527e-01,8.622251152992248535e-01,8.621870875358581543e-01,8.621490597724914551e-01,8.621110916137695312e-01,8.620730638504028320e-01,8.620350360870361328e-01,8.619970679283142090e-01,8.619590401649475098e-01,8.619210720062255859e-01,8.618830442428588867e-01,8.618450760841369629e-01,8.618071079254150391e-01,8.617691397666931152e-01,8.617311120033264160e-01,8.616931438446044922e-01,8.616551160812377930e-01,8.616171479225158691e-01,8.615791797637939453e-01,8.615412116050720215e-01,8.615032434463500977e-01,8.614652752876281738e-01,8.614273667335510254e-01,8.613893985748291016e-01,8.613513708114624023e-01,8.613134026527404785e-01,8.612754940986633301e-01,8.612375259399414062e-01,8.611996173858642578e-01,8.611617088317871094e-01,8.611238002777099609e-01,8.610858321189880371e-01,8.610479235649108887e-01,8.610100150108337402e-01,8.609721064567565918e-01,8.609341979026794434e-01,8.608962893486022949e-01,8.608583807945251465e-01,8.608204722404479980e-01,8.607826232910156250e-01,8.607447147369384766e-01,8.607068061828613281e-01,8.606689572334289551e-01,8.606309890747070312e-01,8.605930805206298828e-01,8.605552315711975098e-01,8.605173230171203613e-01
8.212850689888000488e-01,8.212505578994750977e-01,8.212160468101501465e-01,8.211815953254699707e-01,8.211470842361450195e-01,8.211126327514648438e-01,8.210781216621398926e-01,8.210436701774597168e-01,8.210091590881347656e-01,8.209747076034545898e-01,8.209402561187744141e-01,8.209058046340942383e-01,8.208712935447692871e-01,8.208368420600891113e-01,8.208023905754089355e-01,8.207679390907287598e-01,8.207334876060485840e-01,8.206990361213684082e-01,8.206645250320434570e-01,8.206300735473632812e-01,8.205956816673278809e-01,8.205612301826477051e-01,8.205267786979675293e-01,8.204923868179321289e-01,8.204579353332519531e-01,8.204235434532165527e-01,8.203890919685363770e-01,8.203547000885009766e-01,8.203202486038208008e-01,8.202858567237854004e-01,8.202514648437500000e-01,8.202170133590698242e-01,8.201826214790344238e-01,8.201482295989990234e-01,8.201138377189636230e-01,8.200794458389282227e-01,8.200450539588928223e-01,8.200106620788574219e-01,8.199762701988220215e-01,8.199418783187866211e-01,8.199074864387512207e-01,8.198731541633605957e-01,8.198387622833251953e-01,8.198043704032897949e-01,8.197700381278991699e-01,8.197356462478637695e-01,8.197012543678283691e-01,8.196669220924377441e-01,8.196325898170471191e-01,8.195981979370117188e-01,8.195638656616210938e-01,8.195295333862304688e-01,8.194950819015502930e-01,8.194607496261596680e-01,8.194264173507690430e-01,8.193920850753784180e-01,8.193577527999877930e-01,8.193234205245971680e-01,8.192890882492065430e-01,8.192547559738159180e-01,8.192203640937805176e-01,8.191860318183898926e-01,8.191516995429992676e-01,8.191173672676086426e-01,8.190830945968627930e-01,8.190487623214721680e-01,8.190144300460815430e-01,8.189801573753356934e-01,8.189458250999450684e-01,8.189115524291992188e-01,8.188772797584533691e-01,8.188429474830627441e-01,8.188086748123168945e-01,8.187744021415710449e-01,8.187401294708251953e-01,8.187058568000793457e-01,8.186715245246887207e-01,8.186372518539428711e-01,8.186029791831970215e-01,8.185686469078063965e-01
7.829890847206115723e-01,7.829577326774597168e-01,7.829263806343078613e-01,7.828950285911560059e-01,7.828636765480041504e-01,7.828323245048522949e-01,7.828009724617004395e-01,7.827696800231933594e-01,7.827383279800415039e-01,7.827069759368896484e-01,7.826756834983825684e-01,7.826443314552307129e-01,7.826129794120788574e-01,7.825816869735717773e-01,7.825503349304199219e-01,7.825190424919128418e-01,7.824877500534057617e-01,7.824563980102539062e-01,7.824251055717468262e-01,7.823938131332397461e-01,7.823625206947326660e-01,7.823311686515808105e-01,7.822998166084289551e-01,7.822685241699218750e-01,7.822372317314147949e-01,7.822059392929077148e-01,7.821746468544006348e-01,7.821433544158935547e-01,7.821120619773864746e-01,7.820807695388793945e-01,7.820495367050170898e-01,7.820182442665100098e-01,7.819869518280029297e-01,7.819557189941406250e-01,7.819244265556335449e-01,7.818931341171264648e-01,7.818619012832641602e-01,7.818306088447570801e-01,7.817993760108947754e-01,7.817681431770324707e-01,7.817368507385253906e-01,7.817056179046630859e-01,7.816743850708007812e-01,7.816430926322937012e-01,7.816118597984313965e-01,7.815806269645690918e-01,7.815493941307067871e-01,7.815181612968444824e-01,7.814869284629821777e-01,7.814556956291198730e-01,7.814244627952575684e-01,7.813932299613952637e-01,7.813619971275329590e-01,7.813307642936706543e-01,7.812995910644531250e-01,7.812682986259460449e-01,7.812370657920837402e-01,7.812058329582214355e-01,7.811746597290039062e-01,7.811434268951416016e-01,7.811122536659240723e-01,7.810810208320617676e-01,7.810498476028442383e-01,7.810186147689819336e-01,7.809873819351196289e-01,7.809561491012573242e-01,7.809249758720397949e-01,7.808938026428222656e-01,7.808626294136047363e-01,7.808313965797424316e-01,7.808002233505249023e-01,7.807690501213073730e-01,7.807378768920898438e-01,7.807067036628723145e-01,7.806755304336547852e-01,7.806444168090820312e-01,7.806132435798645020e-01,7.805820703506469727e-01,7.805508971214294434e-01,7.805197238922119141e-01
