5.000000000000000000e+00,5.000000000000000000e+00,5.000000000000000000e+00,5.000000000000000000e+00,5.000000000000000000e+00,5.000000000000000000e+00,5.000000000000000000e+00,5.000000000000000000e+00,5.000000000000000000e+00,5.000000000000000000e+00,5.000000000000000000e+00,5.000000000000000000e+00,5.000000000000000000e+00,5.000000000000000000e+00,5.000000000000000000e+00,5.000000000000000000e+00,5.000000000000000000e+00,5.000000000000000000e+00,5.000000000000000000e+00,5.000000000000000000e+00,5.000000000000000000e+00,5.000000000000000000e+00,5.000000000000000000e+00,5.000000000000000000e+00,5.000000000000000000e+00,5.000000000000000000e+00,5.000000000000000000e+00,5.000000000000000000e+00,5.000000000000000000e+00,5.000000000000000000e+00,5.000000000000000000e+00,5.000000000000000000e+00,5.000000000000000000e+00,3.594912052154541016e+00,3.584943532943725586e+00,3.563680648803710938e+00,3.639164686203002930e+00,3.624569177627563477e+00,5.000000000000000000e+00,5.000000000000000000e+00,5.000000000000000000e+00,5.000000000000000000e+00,5.000000000000000000e+00,5.000000000000000000e+00,5.000000000000000000e+00,5.000000000000000000e+00,5.000000000000000000e+00,5.000000000000000000e+00,5.000000000000000000e+00,5.000000000000000000e+00,5.000000000000000000e+00,5.000000000000000000e+00,5.000000000000000000e+00,5.000000000000000000e+00,4.993099212646484375e+00,4.827872753143310547e+00,4.673231601715087891e+00,4.528189182281494141e+00,4.391879081726074219e+00,4.263528347015380859e+00,4.142457485198974609e+00,4.028072357177734375e+00,3.919835090637207031e+00,3.817262172698974609e+00,3.719920158386230469e+00,3.627419948577880859e+00,3.539407730102539062e+00,3.455565452575683594e+00,3.375603199005126953e+00,3.299258470535278320e+00,3.226290225982666016e+00,3.156479835510253906e+00,3.089626550674438477e+00,3.025546789169311523e+00,2.964070558547973633e+00,2.905043125152587891e+00,2.848320484161376953e+00,2.793770790100097656e+00,2.741271257400512695e+00,2.690708398818969727e+00
5.000000000000000000e+00,5.000000000000000000e+00,5.000000000000000000e+00,5.000000000000000000e+00,5.000000000000000000e+00,5.000000000000000000e+00,5.000000000000000000e+00,5.000000000000000000e+00,5.000000000000000000e+00,5.000000000000000000e+00,5.000000000000000000e+00,5.000000000000000000e+00,5.000000000000000000e+00,5.000000000000000000e+00,5.000000000000000000e+00,5.000000000000000000e+00,5.000000000000000000e+00,5.000000000000000000e+00,5.000000000000000000e+00,5.000000000000000000e+00,5.000000000000000000e+00,5.000000000000000000e+00,5.000000000000000000e+00,5.000000000000000000e+00,5.000000000000000000e+00,5.000000000000000000e+00,5.000000000000000000e+00,5.000000000000000000e+00,5.000000000000000000e+00,5.000000000000000000e+00,5.000000000000000000e+00,5.000000000000000000e+00,3.545814037322998047e+00,3.545072793960571289e+00,3.539053440093994141e+00,3.549352645874023438e+00,3.568615198135375977e+00,3.592252016067504883e+00,3.631150007247924805e+00,3.668021678924560547e+00,5.000000000000000000e+00,5.000000000000000000e+00,5.000000000000000000e+00,5.000000000000000000e+00,5.000000000000000000e+00,5.000000000000000000e+00,5.000000000000000000e+00,5.000000000000000000e+00,5.000000000000000000e+00,5.000000000000000000e+00,5.000000000000000000e+00,5.000000000000000000e+00,5.000000000000000000e+00,5.000000000000000000e+00,4.993302345275878906e+00,4.828063011169433594e+00,4.673399448394775391e+00,4.528327465057373047e+00,4.391990661621093750e+00,4.263623714447021484e+00,4.142547130584716797e+00,4.028157234191894531e+00,3.919915199279785156e+00,3.817338228225708008e+00,3.719992876052856445e+00,3.627488613128662109e+00,3.539473056793212891e+00,3.455627679824829102e+00,3.375663042068481445e+00,3.299315214157104492e+00,3.226344585418701172e+00,3.156531810760498047e+00,3.089676618576049805e+00,3.025594472885131836e+00,2.964116334915161133e+00,2.905086994171142578e+00,2.848363161087036133e+00,2.793811559677124023e+00,2.741310358047485352e+00,2.690746307373046875e+00
5.000000000000000000e+00,5.000000000000000000e+00,5.000000000000000000e+00,5.000000000000000000e+00,5.000000000000000000e+00,5.000000000000000000e+00,5.000000000000000000e+00,5.000000000000000000e+00,5.000000000000000000e+00,5.000000000000000000e+00,5.000000000000000000e+00,5.000000000000000000e+00,5.000000000000000000e+00,5.000000000000000000e+00,5.000000000000000000e+00,5.000000000000000000e+00,5.000000000000000000e+00,5.000000000000000000e+00,5.000000000000000000e+00,5.000000000000000000e+00,5.000000000000000000e+00,5.000000000000000000e+00,5.000000000000000000e+00,5.000000000000000000e+00,5.000000000000000000e+00,5.000000000000000000e+00,5.000000000000000000e+00,5.000000000000000000e+00,5.000000000000000000e+00,5.000000000000000000e+00,5.000000000000000000e+00,5.000000000000000000e+00,3.561193704605102539e+00,3.568940162658691406e+00,3.531791687011718750e+00,3.518298864364624023e+00,3.529083013534545898e+00,3.552309513092041016e+00,3.610434055328369141e+00,3.687772750854492188e+00,5.000000000000000000e+00,5.000000000000000000e+00,5.000000000000000000e+00,5.000000000000000000e+00,5.000000000000000000e+00,5.000000000000000000e+00,5.000000000000000000e+00,5.000000000000000000e+00,5.000000000000000000e+00,5.000000000000000000e+00,5.000000000000000000e+00,5.000000000000000000e+00,5.000000000000000000e+00,5.000000000000000000e+00,4.993468761444091797e+00,4.828196048736572266e+00,4.673513412475585938e+00,4.528434753417968750e+00,4.392091274261474609e+00,4.263718605041503906e+00,4.142636775970458984e+00,4.028242111206054688e+00,3.919995546340942383e+00,3.817414522171020508e+00,3.720064878463745117e+00,3.627557277679443359e+00,3.539538383483886719e+00,3.455690383911132812e+00,3.375722408294677734e+00,3.299371957778930664e+00,3.226398944854736328e+00,3.156584024429321289e+00,3.089726448059082031e+00,3.025642156600952148e+00,2.964162349700927734e+00,2.905131340026855469e+00,2.848405361175537109e+00,2.793852329254150391e+00,2.741349935531616211e+00,2.690784215927124023e+00
5.000000000000000000e+00,5.000000000000000000e+00,5.000000000000000000e+00,5.000000000000000000e+00,5.000000000000000000e+00,5.000000000000000000e+00,5.000000000000000000e+00,5.000000000000000000e+00,5.000000000000000000e+00,5.000000000000000000e+00,5.000000000000000000e+00,5.000000000000000000e+00,5.000000000000000000e+00,5.000000000000000000e+00,5.000000000000000000e+00,5.000000000000000000e+00,5.000000000000000000e+00,5.000000000000000000e+00,5.000000000000000000e+00,5.000000000000000000e+00,5.000000000000000000e+00,5.000000000000000000e+00,5.000000000000000000e+00,5.000000000000000000e+00,5.000000000000000000e+00,5.000000000000000000e+00,5.000000000000000000e+00,5.000000000000000000e+00,5.000000000000000000e+00,5.000000000000000000e+00,5.000000000000000000e+00,5.000000000000000000e+00,3.570212841033935547e+00,3.564562559127807617e+00,3.539891958236694336e+00,3.528198480606079102e+00,3.531476974487304688e+00,3.552415370941162109e+00,3.612117767333984375e+00,3.702482461929321289e+00,5.000000000000000000e+00,5.000000000000000000e+00,5.000000000000000000e+00,5.000000000000000000e+00,5.000000000000000000e+00,5.000000000000000000e+00,5.000000000000000000e+00,5.000000000000000000e+00,5.000000000000000000e+00,5.000000000000000000e+00,5.000000000000000000e+00,5.000000000000000000e+00,5.000000000000000000e+00,5.000000000000000000e+00,4.993599414825439453e+00,4.828318119049072266e+00,4.673627853393554688e+00,4.528541564941406250e+00,4.392192363739013672e+00,4.263813495635986328e+00,4.142726421356201172e+00,4.028326988220214844e+00,3.920076131820678711e+00,3.817490577697753906e+00,3.720137119293212891e+00,3.627625942230224609e+00,3.539604187011718750e+00,3.455752611160278320e+00,3.375782012939453125e+00,3.299429178237915039e+00,3.226453542709350586e+00,3.156635999679565430e+00,3.089776277542114258e+00,3.025690078735351562e+00,2.964208364486694336e+00,2.905175447463989258e+00,2.848447561264038086e+00,2.793893337249755859e+00,2.741389036178588867e+00,2.690821886062622070e+00
5.000000000000000000e+00,5.000000000000000000e+00,5.000000000000000000e+00,5.000000000000000000e+00,5.000000000000000000e+00,5.000000000000000000e+00,5.000000000000000000e+00,5.000000000000000000e+00,5.000000000000000000e+00,5.000000000000000000e+00,5.000000000000000000e+00,5.000000000000000000e+00,5.000000000000000000e+00,5.000000000000000000e+00,5.000000000000000000e+00,5.000000000000000000e+00,5.000000000000000000e+00,5.000000000000000000e+00,5.000000000000000000e+00,5.000000000000000000e+00,5.000000000000000000e+00,5.000000000000000000e+00,5.000000000000000000e+00,5.000000000000000000e+00,5.000000000000000000e+00,5.000000000000000000e+00,5.000000000000000000e+00,5.000000000000000000e+00,5.000000000000000000e+00,5.000000000000000000e+00,5.000000000000000000e+00,5.000000000000000000e+00,3.567491292953491211e+00,3.555565357208251953e+00,3.554701805114746094e+00,3.525647401809692383e+00,3.528766393661499023e+00,3.554185390472412109e+00,3.628523826599121094e+00,3.712226867675781250e+00,5.000000000000000000e+00,5.000000000000000000e+00,5.000000000000000000e+00,5.000000000000000000e+00,5.000000000000000000e+00,5.000000000000000000e+00,5.000000000000000000e+00,5.000000000000000000e+00,5.000000000000000000e+00,5.000000000000000000e+00,5.000000000000000000e+00,5.000000000000000000e+00,5.000000000000000000e+00,5.000000000000000000e+00,4.993729114532470703e+00,4.828439712524414062e+00,4.673741817474365234e+00,4.528648853302001953e+00,4.392292976379394531e+00,4.263908386230468750e+00,4.142816066741943359e+00,4.028411865234375000e+00,3.920156240463256836e+00,3.817566633224487305e+00,3.720209360122680664e+00,3.627694845199584961e+00,3.539669513702392578e+00,3.455814838409423828e+00,3.375841617584228516e+00,3.299485921859741211e+00,3.226507663726806641e+00,3.156687974929809570e+00,3.089826345443725586e+00,3.025738000869750977e+00,2.964254140853881836e+00,2.905219316482543945e+00,2.848490238189697266e+00,2.793933868408203125e+00,2.741428375244140625e+00,2.690859556198120117e+00
5.000000000000000000e+00,5.000000000000000000e+00,5.000000000000000000e+00,5.000000000000000000e+00,5.000000000000000000e+00,5.000000000000000000e+00,5.000000000000000000e+00,5.000000000000000000e+00,5.000000000000000000e+00,5.000000000000000000e+00,5.000000000000000000e+00,5.000000000000000000e+00,5.000000000000000000e+00,5.000000000000000000e+00,5.000000000000000000e+00,5.000000000000000000e+00,5.000000000000000000e+00,5.000000000000000000e+00,5.000000000000000000e+00,5.000000000000000000e+00,5.000000000000000000e+00,5.000000000000000000e+00,5.000000000000000000e+00,5.000000000000000000e+00,5.000000000000000000e+00,5.000000000000000000e+00,5.000000000000000000e+00,5.000000000000000000e+00,5.000000000000000000e+00,5.000000000000000000e+00,5.000000000000000000e+00,5.000000000000000000e+00,3.568646907806396484e+00,3.559249639511108398e+00,3.563518524169921875e+00,3.523670196533203125e+00,3.537205934524536133e+00,3.557398080825805664e+00,3.722693204879760742e+00,3.720817565917968750e+00,5.000000000000000000e+00,5.000000000000000000e+00,5.000000000000000000e+00,5.000000000000000000e+00,5.000000000000000000e+00,5.000000000000000000e+00,5.000000000000000000e+00,5.000000000000000000e+00,5.000000000000000000e+00,5.000000000000000000e+00,5.000000000000000000e+00,5.000000000000000000e+00,5.000000000000000000e+00,5.000000000000000000e+00,4.993859767913818359e+00,4.828561305999755859e+00,4.673855781555175781e+00,4.528755664825439453e+00,4.392393589019775391e+00,4.264003276824951172e+00,4.142905712127685547e+00,4.028496265411376953e+00,3.920236349105834961e+00,3.817642927169799805e+00,3.720281839370727539e+00,3.627763509750366211e+00,3.539734840393066406e+00,3.455877542495727539e+00,3.375901222229003906e+00,3.299542665481567383e+00,3.226562023162841797e+00,3.156740188598632812e+00,3.089875936508178711e+00,3.025785684585571289e+00,2.964299917221069336e+00,2.905263662338256836e+00,2.848532438278198242e+00,2.793974637985229492e+00,2.741467714309692383e+00,2.690897703170776367e+00
5.000000000000000000e+00,5.000000000000000000e+00,5.000000000000000000e+00,5.000000000000000000e+00,5.000000000000000000e+00,5.000000000000000000e+00,5.000000000000000000e+00,5.000000000000000000e+00,5.000000000000000000e+00,5.000000000000000000e+00,5.000000000000000000e+00,5.000000000000000000e+00,5.000000000000000000e+00,5.000000000000000000e+00,5.000000000000000000e+00,5.000000000000000000e+00,5.000000000000000000e+00,5.000000000000000000e+00,5.000000000000000000e+00,5.000000000000000000e+00,5.000000000000000000e+00,5.000000000000000000e+00,5.000000000000000000e+00,5.000000000000000000e+00,5.000000000000000000e+00,5.000000000000000000e+00,5.000000000000000000e+00,5.000000000000000000e+00,5.000000000000000000e+00,5.000000000000000000e+00,5.000000000000000000e+00,5.000000000000000000e+00,3.566479921340942383e+00,3.567735433578491211e+00,3.546384811401367188e+00,3.518858432769775391e+00,3.525612354278564453e+00,3.547019243240356445e+00,3.637430667877197266e+00,3.738380670547485352e+00,5.000000000000000000e+00,5.000000000000000000e+00,5.000000000000000000e+00,5.000000000000000000e+00,5.000000000000000000e+00,5.000000000000000000e+00,5.000000000000000000e+00,5.000000000000000000e+00,5.000000000000000000e+00,5.000000000000000000e+00,5.000000000000000000e+00,5.000000000000000000e+00,5.000000000000000000e+00,5.000000000000000000e+00,4.993989944458007812e+00,4.828683376312255859e+00,4.673969745635986328e+00,4.528862953186035156e+00,4.392494201660156250e+00,4.264098644256591797e+00,4.142995357513427734e+00,4.028581142425537109e+00,3.920316934585571289e+00,3.817718982696533203e+00,3.720354080200195312e+00,3.627832174301147461e+00,3.539800643920898438e+00,3.455939769744873047e+00,3.375960588455200195e+00,3.299599409103393555e+00,3.226616621017456055e+00,3.156792163848876953e+00,3.089925765991210938e+00,3.025833368301391602e+00,2.964345932006835938e+00,2.905307769775390625e+00,2.848574876785278320e+00,2.794015645980834961e+00,2.741506814956665039e+00,2.690935373306274414e+00
5.000000000000000000e+00,5.000000000000000000e+00,5.000000000000000000e+00,5.000000000000000000e+00,5.000000000000000000e+00,5.000000000000000000e+00,5.000000000000000000e+00,5.000000000000000000e+00,5.000000000000000000e+00,5.000000000000000000e+00,5.000000000000000000e+00,5.000000000000000000e+00,5.000000000000000000e+00,5.000000000000000000e+00,5.000000000000000000e+00,5.000000000000000000e+00,5.000000000000000000e+00,5.000000000000000000e+00,5.000000000000000000e+00,5.000000000000000000e+00,5.000000000000000000e+00,5.000000000000000000e+00,5.000000000000000000e+00,5.000000000000000000e+00,5.000000000000000000e+00,5.000000000000000000e+00,5.000000000000000000e+00,5.000000000000000000e+00,5.000000000000000000e+00,5.000000000000000000e+00,5.000000000000000000e+00,5.000000000000000000e+00,3.526971101760864258e+00,3.520621061325073242e+00,3.543222188949584961e+00,3.530292987823486328e+00,3.529431819915771484e+00,3.566065788269042969e+00,3.678940773010253906e+00,3.720359325408935547e+00,5.000000000000000000e+00,5.000000000000000000e+00,5.000000000000000000e+00,5.000000000000000000e+00,5.000000000000000000e+00,5.000000000000000000e+00,5.000000000000000000e+00,5.000000000000000000e+00,5.000000000000000000e+00,5.000000000000000000e+00,5.000000000000000000e+00,5.000000000000000000e+00,5.000000000000000000e+00,5.000000000000000000e+00,4.994123935699462891e+00,4.828807830810546875e+00,4.674085617065429688e+00,4.528971195220947266e+00,4.392595291137695312e+00,4.264193534851074219e+00,4.143085002899169922e+00,4.028666019439697266e+00,3.920397043228149414e+00,3.817795038223266602e+00,3.720426321029663086e+00,3.627901077270507812e+00,3.539865970611572266e+00,3.456002235412597656e+00,3.376019954681396484e+00,3.299656629562377930e+00,3.226670980453491211e+00,3.156844139099121094e+00,3.089975833892822266e+00,3.025881528854370117e+00,2.964391946792602539e+00,2.905351638793945312e+00,2.848617315292358398e+00,2.794056415557861328e+00,2.741546154022216797e+00,2.690973043441772461e+00
5.000000000000000000e+00,5.000000000000000000e+00,5.000000000000000000e+00,5.000000000000000000e+00,5.000000000000000000e+00,5.000000000000000000e+00,5.000000000000000000e+00,5.000000000000000000e+00,5.000000000000000000e+00,5.000000000000000000e+00,5.000000000000000000e+00,5.000000000000000000e+00,5.000000000000000000e+00,5.000000000000000000e+00,5.000000000000000000e+00,5.000000000000000000e+00,5.000000000000000000e+00,5.000000000000000000e+00,5.000000000000000000e+00,5.000000000000000000e+00,5.000000000000000000e+00,5.000000000000000000e+00,5.000000000000000000e+00,5.000000000000000000e+00,5.000000000000000000e+00,5.000000000000000000e+00,5.000000000000000000e+00,5.000000000000000000e+00,5.000000000000000000e+00,5.000000000000000000e+00,5.000000000000000000e+00,5.000000000000000000e+00,3.492166042327880859e+00,3.477496623992919922e+00,3.542881011962890625e+00,3.552329540252685547e+00,3.556092023849487305e+00,3.557661294937133789e+00,3.583213329315185547e+00,3.706164360046386719e+00,5.000000000000000000e+00,5.000000000000000000e+00,5.000000000000000000e+00,5.000000000000000000e+00,5.000000000000000000e+00,5.000000000000000000e+00,5.000000000000000000e+00,5.000000000000000000e+00,5.000000000000000000e+00,5.000000000000000000e+00,5.000000000000000000e+00,5.000000000000000000e+00,5.000000000000000000e+00,5.000000000000000000e+00,4.994261264801025391e+00,4.828936576843261719e+00,4.674206256866455078e+00,4.529084205627441406e+00,4.392701625823974609e+00,4.264293193817138672e+00,4.143178462982177734e+00,4.028753757476806641e+00,3.920479536056518555e+00,3.817872762680053711e+00,3.720499753952026367e+00,3.627970218658447266e+00,3.539931297302246094e+00,3.456064462661743164e+00,3.376079797744750977e+00,3.299713373184204102e+00,3.226725339889526367e+00,3.156896352767944336e+00,3.090025663375854492e+00,3.025929212570190430e+00,2.964437723159790039e+00,2.905395984649658203e+00,2.848659753799438477e+00,2.794096946716308594e+00,2.741585254669189453e+00,2.691011190414428711e+00
5.000000000000000000e+00,5.000000000000000000e+00,5.000000000000000000e+00,5.000000000000000000e+00,5.000000000000000000e+00,5.000000000000000000e+00,5.000000000000000000e+00,5.000000000000000000e+00,5.000000000000000000e+00,5.000000000000000000e+00,5.000000000000000000e+00,5.000000000000000000e+00,5.000000000000000000e+00,5.000000000000000000e+00,5.000000000000000000e+00,5.000000000000000000e+00,5.000000000000000000e+00,5.000000000000000000e+00,5.000000000000000000e+00,5.000000000000000000e+00,5.000000000000000000e+00,5.000000000000000000e+00,5.000000000000000000e+00,5.000000000000000000e+00,5.000000000000000000e+00,5.000000000000000000e+00,5.000000000000000000e+00,5.000000000000000000e+00,5.000000000000000000e+00,5.000000000000000000e+00,5.000000000000000000e+00,5.000000000000000000e+00,3.484555721282958984e+00,5.000000000000000000e+00,3.537844657897949219e+00,3.542299032211303711e+00,3.563402175903320312e+00,3.499776601791381836e+00,3.516396522521972656e+00,3.691179275512695312e+00,5.000000000000000000e+00,5.000000000000000000e+00,5.000000000000000000e+00,5.000000000000000000e+00,5.000000000000000000e+00,5.000000000000000000e+00,5.000000000000000000e+00,5.000000000000000000e+00,5.000000000000000000e+00,5.000000000000000000e+00,5.000000000000000000e+00,5.000000000000000000e+00,5.000000000000000000e+00,5.000000000000000000e+00,4.994399070739746094e+00,4.829065322875976562e+00,4.674326896667480469e+00,4.529197692871093750e+00,4.392808437347412109e+00,4.264393806457519531e+00,4.143273353576660156e+00,4.028843402862548828e+00,3.920564174652099609e+00,3.817953109741210938e+00,3.720576047897338867e+00,3.628042697906494141e+00,3.540000438690185547e+00,3.456130027770996094e+00,3.376141548156738281e+00,3.299772024154663086e+00,3.226781129837036133e+00,3.156949520111083984e+00,3.090076446533203125e+00,3.025977611541748047e+00,2.964483737945556641e+00,2.905440092086791992e+00,2.848702192306518555e+00,2.794137716293334961e+00,2.741624832153320312e+00,2.691048860549926758e+00
5.000000000000000000e+00,5.000000000000000000e+00,5.000000000000000000e+00,5.000000000000000000e+00,5.000000000000000000e+00,5.000000000000000000e+00,5.000000000000000000e+00,5.000000000000000000e+00,5.000000000000000000e+00,5.000000000000000000e+00,5.000000000000000000e+00,5.000000000000000000e+00,5.000000000000000000e+00,5.000000000000000000e+00,5.000000000000000000e+00,5.000000000000000000e+00,5.000000000000000000e+00,5.000000000000000000e+00,5.000000000000000000e+00,5.000000000000000000e+00,5.000000000000000000e+00,5.000000000000000000e+00,5.000000000000000000e+00,5.000000000000000000e+00,5.000000000000000000e+00,5.000000000000000000e+00,5.000000000000000000e+00,5.000000000000000000e+00,5.000000000000000000e+00,5.000000000000000000e+00,5.000000000000000000e+00,5.000000000000000000e+00,3.451254606246948242e+00,3.420223236083984375e+00,3.544899702072143555e+00,3.538025617599487305e+00,3.581252336502075195e+00,3.475138902664184570e+00,3.474303722381591797e+00,3.670451879501342773e+00,5.000000000000000000e+00,5.000000000000000000e+00,5.000000000000000000e+00,5.000000000000000000e+00,5.000000000000000000e+00,5.000000000000000000e+00,5.000000000000000000e+00,5.000000000000000000e+00,5.000000000000000000e+00,5.000000000000000000e+00,5.000000000000000000e+00,5.000000000000000000e+00,5.000000000000000000e+00,5.000000000000000000e+00,4.994536876678466797e+00,4.829194068908691406e+00,4.674447536468505859e+00,4.529310703277587891e+00,4.392914772033691406e+00,4.264493942260742188e+00,4.143367767333984375e+00,4.028933048248291016e+00,3.920649051666259766e+00,3.818033456802368164e+00,3.720652341842651367e+00,3.628115653991699219e+00,3.540069818496704102e+00,3.456196069717407227e+00,3.376204729080200195e+00,3.299832344055175781e+00,3.226838827133178711e+00,3.157004594802856445e+00,3.090129137039184570e+00,3.026027917861938477e+00,2.964532136917114258e+00,2.905486345291137695e+00,2.848746299743652344e+00,2.794180154800415039e+00,2.741665124893188477e+00,2.691087484359741211e+00
5.000000000000000000e+00,5.000000000000000000e+00,5.000000000000000000e+00,5.000000000000000000e+00,5.000000000000000000e+00,5.000000000000000000e+00,5.000000000000000000e+00,5.000000000000000000e+00,5.000000000000000000e+00,5.000000000000000000e+00,5.000000000000000000e+00,5.000000000000000000e+00,5.000000000000000000e+00,5.000000000000000000e+00,5.000000000000000000e+00,5.000000000000000000e+00,5.000000000000000000e+00,5.000000000000000000e+00,5.000000000000000000e+00,5.000000000000000000e+00,5.000000000000000000e+00,5.000000000000000000e+00,5.000000000000000000e+00,5.000000000000000000e+00,5.000000000000000000e+00,5.000000000000000000e+00,5.000000000000000000e+00,5.000000000000000000e+00,5.000000000000000000e+00,5.000000000000000000e+00,5.000000000000000000e+00,5.000000000000000000e+00,3.436984300613403320e+00,5.000000000000000000e+00,3.558825492858886719e+00,3.550167322158813477e+00,5.000000000000000000e+00,3.447036027908325195e+00,3.436530351638793945e+00,3.649930477142333984e+00,5.000000000000000000e+00,5.000000000000000000e+00,5.000000000000000000e+00,5.000000000000000000e+00,5.000000000000000000e+00,5.000000000000000000e+00,5.000000000000000000e+00,5.000000000000000000e+00,5.000000000000000000e+00,5.000000000000000000e+00,5.000000000000000000e+00,5.000000000000000000e+00,5.000000000000000000e+00,5.000000000000000000e+00,4.994674205780029297e+00,4.829322338104248047e+00,4.674568176269531250e+00,4.529423713684082031e+00,4.393021106719970703e+00,4.264594554901123047e+00,4.143462657928466797e+00,4.029022693634033203e+00,3.920734167098999023e+00,3.818114280700683594e+00,3.720729112625122070e+00,3.628188371658325195e+00,3.540138959884643555e+00,3.456262111663818359e+00,3.376267671585083008e+00,3.299892425537109375e+00,3.226896286010742188e+00,3.157059431076049805e+00,3.090181589126586914e+00,3.026078462600708008e+00,2.964580774307250977e+00,2.905532836914062500e+00,2.848791122436523438e+00,2.794223070144653320e+00,2.741706371307373047e+00,2.691127538681030273e+00
5.000000000000000000e+00,5.000000000000000000e+00,5.000000000000000000e+00,5.000000000000000000e+00,5.000000000000000000e+00,5.000000000000000000e+00,5.000000000000000000e+00,5.000000000000000000e+00,5.000000000000000000e+00,5.000000000000000000e+00,5.000000000000000000e+00,5.000000000000000000e+00,5.000000000000000000e+00,5.000000000000000000e+00,5.000000000000000000e+00,5.000000000000000000e+00,5.000000000000000000e+00,5.000000000000000000e+00,5.000000000000000000e+00,5.000000000000000000e+00,5.000000000000000000e+00,5.000000000000000000e+00,5.000000000000000000e+00,5.000000000000000000e+00,5.000000000000000000e+00,5.000000000000000000e+00,5.000000000000000000e+00,5.000000000000000000e+00,5.000000000000000000e+00,5.000000000000000000e+00,5.000000000000000000e+00,5.000000000000000000e+00,5.000000000000000000e+00,5.000000000000000000e+00,3.574542284011840820e+00,3.564344406127929688e+00,5.000000000000000000e+00,3.434334278106689453e+00,3.410601854324340820e+00,5.000000000000000000e+00,5.000000000000000000e+00,5.000000000000000000e+00,5.000000000000000000e+00,5.000000000000000000e+00,5.000000000000000000e+00,5.000000000000000000e+00,5.000000000000000000e+00,5.000000000000000000e+00,5.000000000000000000e+00,5.000000000000000000e+00,5.000000000000000000e+00,5.000000000000000000e+00,5.000000000000000000e+00,5.000000000000000000e+00,4.994812488555908203e+00,4.829451560974121094e+00,4.674688816070556641e+00,4.529537200927734375e+00,4.393127918243408203e+00,4.264694690704345703e+00,4.143557548522949219e+00,4.029111862182617188e+00,3.920819044113159180e+00,3.818194627761840820e+00,3.720805406570434570e+00,3.628260850906372070e+00,3.540208101272583008e+00,3.456327915191650391e+00,3.376330614089965820e+00,3.299952507019042969e+00,3.226953744888305664e+00,3.157114505767822266e+00,3.090234279632568359e+00,3.026129007339477539e+00,2.964629173278808594e+00,2.905579328536987305e+00,2.848835945129394531e+00,2.794266223907470703e+00,2.741747856140136719e+00,2.691167354583740234e+00
5.000000000000000000e+00,5.000000000000000000e+00,5.000000000000000000e+00,5.000000000000000000e+00,5.000000000000000000e+00,5.000000000000000000e+00,5.000000000000000000e+00,5.000000000000000000e+00,5.000000000000000000e+00,5.000000000000000000e+00,5.000000000000000000e+00,5.000000000000000000e+00,5.000000000000000000e+00,5.000000000000000000e+00,5.000000000000000000e+00,5.000000000000000000e+00,5.000000000000000000e+00,5.000000000000000000e+00,5.000000000000000000e+00,5.000000000000000000e+00,5.000000000000000000e+00,5.000000000000000000e+00,5.000000000000000000e+00,5.000000000000000000e+00,5.000000000000000000e+00,5.000000000000000000e+00,5.000000000000000000e+00,5.000000000000000000e+00,5.000000000000000000e+00,5.000000000000000000e+00,5.000000000000000000e+00,5.000000000000000000e+00,5.000000000000000000e+00,5.000000000000000000e+00,3.600120306015014648e+00,3.575442790985107422e+00,5.000000000000000000e+00,3.424135446548461914e+00,3.385277032852172852e+00,5.000000000000000000e+00,5.000000000000000000e+00,5.000000000000000000e+00,5.000000000000000000e+00,5.000000000000000000e+00,5.000000000000000000e+00,5.000000000000000000e+00,5.000000000000000000e+00,5.000000000000000000e+00,5.000000000000000000e+00,5.000000000000000000e+00,5.000000000000000000e+00,5.000000000000000000e+00,5.000000000000000000e+00,5.000000000000000000e+00,4.994949817657470703e+00,4.829579830169677734e+00,4.674809455871582031e+00,4.529650211334228516e+00,4.393234252929687500e+00,4.264794826507568359e+00,4.143651962280273438e+00,4.029201507568359375e+00,3.920903682708740234e+00,3.818275213241577148e+00,3.720881700515747070e+00,3.628333568572998047e+00,3.540277242660522461e+00,3.456393718719482422e+00,3.376393318176269531e+00,3.300012588500976562e+00,3.227010965347290039e+00,3.157169342041015625e+00,3.090286970138549805e+00,3.026179552078247070e+00,2.964677572250366211e+00,2.905625820159912109e+00,2.848880529403686523e+00,2.794309139251708984e+00,2.741789340972900391e+00,2.691207408905029297e+00
5.000000000000000000e+00,5.000000000000000000e+00,5.000000000000000000e+00,5.000000000000000000e+00,5.000000000000000000e+00,5.000000000000000000e+00,5.000000000000000000e+00,5.000000000000000000e+00,5.000000000000000000e+00,5.000000000000000000e+00,5.000000000000000000e+00,5.000000000000000000e+00,5.000000000000000000e+00,5.000000000000000000e+00,5.000000000000000000e+00,5.000000000000000000e+00,5.000000000000000000e+00,5.000000000000000000e+00,5.000000000000000000e+00,5.000000000000000000e+00,5.000000000000000000e+00,5.000000000000000000e+00,5.000000000000000000e+00,5.000000000000000000e+00,5.000000000000000000e+00,5.000000000000000000e+00,5.000000000000000000e+00,5.000000000000000000e+00,5.000000000000000000e+00,5.000000000000000000e+00,5.000000000000000000e+00,5.000000000000000000e+00,5.000000000000000000e+00,5.000000000000000000e+00,3.658535242080688477e+00,3.585900306701660156e+00,5.000000000000000000e+00,3.436622619628906250e+00,3.395381212234497070e+00,5.000000000000000000e+00,5.000000000000000000e+00,5.000000000000000000e+00,5.000000000000000000e+00,5.000000000000000000e+00,5.000000000000000000e+00,5.000000000000000000e+00,5.000000000000000000e+00,5.000000000000000000e+00,5.000000000000000000e+00,5.000000000000000000e+00,5.000000000000000000e+00,5.000000000000000000e+00,5.000000000000000000e+00,5.000000000000000000e+00,4.995087623596191406e+00,4.829708576202392578e+00,4.674929618835449219e+00,4.529763698577880859e+00,4.393341064453125000e+00,4.264895439147949219e+00,4.143746852874755859e+00,4.029291152954101562e+00,3.920988559722900391e+00,3.818355560302734375e+00,3.720957994461059570e+00,3.628406047821044922e+00,3.540346145629882812e+00,3.456459522247314453e+00,3.376456260681152344e+00,3.300072669982910156e+00,3.227068424224853516e+00,3.157224416732788086e+00,3.090339660644531250e+00,3.026230335235595703e+00,2.964726209640502930e+00,2.905672788619995117e+00,2.848925590515136719e+00,2.794352531433105469e+00,2.741831064224243164e+00,2.691247463226318359e+00
5.000000000000000000e+00,5.000000000000000000e+00,5.000000000000000000e+00,5.000000000000000000e+00,5.000000000000000000e+00,5.000000000000000000e+00,5.000000000000000000e+00,5.000000000000000000e+00,5.000000000000000000e+00,5.000000000000000000e+00,5.000000000000000000e+00,5.000000000000000000e+00,5.000000000000000000e+00,5.000000000000000000e+00,5.000000000000000000e+00,5.000000000000000000e+00,5.000000000000000000e+00,5.000000000000000000e+00,5.000000000000000000e+00,5.000000000000000000e+00,5.000000000000000000e+00,5.000000000000000000e+00,5.000000000000000000e+00,5.000000000000000000e+00,5.000000000000000000e+00,5.000000000000000000e+00,5.000000000000000000e+00,5.000000000000000000e+00,5.000000000000000000e+00,5.000000000000000000e+00,5.000000000000000000e+00,5.000000000000000000e+00,5.000000000000000000e+00,5.000000000000000000e+00,3.680015087127685547e+00,3.611139535903930664e+00,5.000000000000000000e+00,3.466068267822265625e+00,3.418323755264282227e+00,5.000000000000000000e+00,5.000000000000000000e+00,5.000000000000000000e+00,5.000000000000000000e+00,5.000000000000000000e+00,5.000000000000000000e+00,5.000000000000000000e+00,5.000000000000000000e+00,5.000000000000000000e+00,5.000000000000000000e+00,5.000000000000000000e+00,5.000000000000000000e+00,5.000000000000000000e+00,5.000000000000000000e+00,5.000000000000000000e+00,4.995225429534912109e+00,4.829837322235107422e+00,4.675050735473632812e+00,4.529876708984375000e+00,4.393447399139404297e+00,4.264995574951171875e+00,4.143841743469238281e+00,4.029380798339843750e+00,3.921073198318481445e+00,3.818435907363891602e+00,3.721034526824951172e+00,3.628478765487670898e+00,3.540415287017822266e+00,3.456525564193725586e+00,3.376519441604614258e+00,3.300132989883422852e+00,3.227126121520996094e+00,3.157279729843139648e+00,3.090392589569091797e+00,3.026280641555786133e+00,2.964774847030639648e+00,2.905719280242919922e+00,2.848970413208007812e+00,2.794395685195922852e+00,2.741872549057006836e+00,2.691287517547607422e+00
5.000000000000000000e+00,5.000000000000000000e+00,5.000000000000000000e+00,5.000000000000000000e+00,5.000000000000000000e+00,5.000000000000000000e+00,5.000000000000000000e+00,5.000000000000000000e+00,5.000000000000000000e+00,5.000000000000000000e+00,5.000000000000000000e+00,5.000000000000000000e+00,5.000000000000000000e+00,5.000000000000000000e+00,5.000000000000000000e+00,5.000000000000000000e+00,5.000000000000000000e+00,5.000000000000000000e+00,5.000000000000000000e+00,5.000000000000000000e+00,5.000000000000000000e+00,5.000000000000000000e+00,5.000000000000000000e+00,5.000000000000000000e+00,5.000000000000000000e+00,5.000000000000000000e+00,5.000000000000000000e+00,5.000000000000000000e+00,5.000000000000000000e+00,5.000000000000000000e+00,5.000000000000000000e+00,5.000000000000000000e+00,5.000000000000000000e+00,5.000000000000000000e+00,3.698108434677124023e+00,3.665308713912963867e+00,5.000000000000000000e+00,3.480270624160766602e+00,3.432856798171997070e+00,5.000000000000000000e+00,5.000000000000000000e+00,5.000000000000000000e+00,5.000000000000000000e+00,5.000000000000000000e+00,5.000000000000000000e+00,5.000000000000000000e+00,5.000000000000000000e+00,5.000000000000000000e+00,5.000000000000000000e+00,5.000000000000000000e+00,5.000000000000000000e+00,5.000000000000000000e+00,5.000000000000000000e+00,5.000000000000000000e+00,4.995362758636474609e+00,4.829966068267822266e+00,4.675170898437500000e+00,4.529990196228027344e+00,4.393553733825683594e+00,4.265096187591552734e+00,4.143936157226562500e+00,4.029470443725585938e+00,3.921158552169799805e+00,3.818516731262207031e+00,3.721111059188842773e+00,3.628551721572875977e+00,3.540484905242919922e+00,3.456591606140136719e+00,3.376582145690917969e+00,3.300193071365356445e+00,3.227183580398559570e+00,3.157334566116333008e+00,3.090445280075073242e+00,3.026331186294555664e+00,2.964823246002197266e+00,2.905765771865844727e+00,2.849014997482299805e+00,2.794438600540161133e+00,2.741914033889770508e+00,2.691327333450317383e+00
5.000000000000000000e+00,5.000000000000000000e+00,5.000000000000000000e+00,5.000000000000000000e+00,5.000000000000000000e+00,5.000000000000000000e+00,5.000000000000000000e+00,5.000000000000000000e+00,5.000000000000000000e+00,5.000000000000000000e+00,5.000000000000000000e+00,5.000000000000000000e+00,5.000000000000000000e+00,5.000000000000000000e+00,5.000000000000000000e+00,5.000000000000000000e+00,5.000000000000000000e+00,5.000000000000000000e+00,5.000000000000000000e+00,5.000000000000000000e+00,5.000000000000000000e+00,5.000000000000000000e+00,5.000000000000000000e+00,5.000000000000000000e+00,5.000000000000000000e+00,5.000000000000000000e+00,5.000000000000000000e+00,5.000000000000000000e+00,5.000000000000000000e+00,5.000000000000000000e+00,5.000000000000000000e+00,5.000000000000000000e+00,5.000000000000000000e+00,5.000000000000000000e+00,3.733769655227661133e+00,3.704190254211425781e+00,5.000000000000000000e+00,5.000000000000000000e+00,3.435625553131103516e+00,5.000000000000000000e+00,5.000000000000000000e+00,5.000000000000000000e+00,5.000000000000000000e+00,5.000000000000000000e+00,5.000000000000000000e+00,5.000000000000000000e+00,5.000000000000000000e+00,5.000000000000000000e+00,5.000000000000000000e+00,5.000000000000000000e+00,5.000000000000000000e+00,5.000000000000000000e+00,5.000000000000000000e+00,5.000000000000000000e+00,4.995500564575195312e+00,4.830094814300537109e+00,4.675292015075683594e+00,4.530103206634521484e+00,4.393660545349121094e+00,4.265196800231933594e+00,4.144031524658203125e+00,4.029560089111328125e+00,3.921243429183959961e+00,3.818597078323364258e+00,3.721187591552734375e+00,3.628624200820922852e+00,3.540554046630859375e+00,3.456657648086547852e+00,3.376645088195800781e+00,3.300253152847290039e+00,3.227241039276123047e+00,3.157389640808105469e+00,3.090497970581054688e+00,3.026381731033325195e+00,2.964871644973754883e+00,2.905812501907348633e+00,2.849059820175170898e+00,2.794481754302978516e+00,2.741955280303955078e+00,2.691367387771606445e+00
5.000000000000000000e+00,5.000000000000000000e+00,5.000000000000000000e+00,5.000000000000000000e+00,5.000000000000000000e+00,5.000000000000000000e+00,5.000000000000000000e+00,5.000000000000000000e+00,5.000000000000000000e+00,5.000000000000000000e+00,5.000000000000000000e+00,5.000000000000000000e+00,5.000000000000000000e+00,5.000000000000000000e+00,5.000000000000000000e+00,5.000000000000000000e+00,5.000000000000000000e+00,5.000000000000000000e+00,5.000000000000000000e+00,5.000000000000000000e+00,5.000000000000000000e+00,5.000000000000000000e+00,5.000000000000000000e+00,5.000000000000000000e+00,5.000000000000000000e+00,5.000000000000000000e+00,5.000000000000000000e+00,5.000000000000000000e+00,5.000000000000000000e+00,5.000000000000000000e+00,5.000000000000000000e+00,5.000000000000000000e+00,5.000000000000000000e+00,5.000000000000000000e+00,3.769293546676635742e+00,3.727035760879516602e+00,5.000000000000000000e+00,5.000000000000000000e+00,3.437663316726684570e+00,5.000000000000000000e+00,5.000000000000000000e+00,5.000000000000000000e+00,5.000000000000000000e+00,5.000000000000000000e+00,5.000000000000000000e+00,5.000000000000000000e+00,5.000000000000000000e+00,5.000000000000000000e+00,5.000000000000000000e+00,5.000000000000000000e+00,5.000000000000000000e+00,5.000000000000000000e+00,5.000000000000000000e+00,5.000000000000000000e+00,4.995638370513916016e+00,4.830223560333251953e+00,4.675412654876708984e+00,4.530216693878173828e+00,4.393766880035400391e+00,4.265296936035156250e+00,4.144125938415527344e+00,4.029649734497070312e+00,3.921328067779541016e+00,3.818677425384521484e+00,3.721263885498046875e+00,3.628696918487548828e+00,3.540622949600219727e+00,3.456723451614379883e+00,3.376708030700683594e+00,3.300312995910644531e+00,3.227298498153686523e+00,3.157444477081298828e+00,3.090550661087036133e+00,3.026432275772094727e+00,2.964920282363891602e+00,2.905858993530273438e+00,2.849104642868041992e+00,2.794524669647216797e+00,2.741996765136718750e+00,2.691407203674316406e+00
5.000000000000000000e+00,5.000000000000000000e+00,5.000000000000000000e+00,5.000000000000000000e+00,5.000000000000000000e+00,5.000000000000000000e+00,5.000000000000000000e+00,5.000000000000000000e+00,5.000000000000000000e+00,5.000000000000000000e+00,5.000000000000000000e+00,5.000000000000000000e+00,5.000000000000000000e+00,5.000000000000000000e+00,5.000000000000000000e+00,5.000000000000000000e+00,5.000000000000000000e+00,5.000000000000000000e+00,5.000000000000000000e+00,5.000000000000000000e+00,5.000000000000000000e+00,5.000000000000000000e+00,5.000000000000000000e+00,5.000000000000000000e+00,5.000000000000000000e+00,5.000000000000000000e+00,5.000000000000000000e+00,5.000000000000000000e+00,5.000000000000000000e+00,5.000000000000000000e+00,5.000000000000000000e+00,5.000000000000000000e+00,5.000000000000000000e+00,5.000000000000000000e+00,5.000000000000000000e+00,3.750945806503295898e+00,5.000000000000000000e+00,5.000000000000000000e+00,3.440897464752197266e+00,5.000000000000000000e+00,5.000000000000000000e+00,5.000000000000000000e+00,5.000000000000000000e+00,5.000000000000000000e+00,5.000000000000000000e+00,5.000000000000000000e+00,5.000000000000000000e+00,5.000000000000000000e+00,5.000000000000000000e+00,5.000000000000000000e+00,5.000000000000000000e+00,5.000000000000000000e+00,5.000000000000000000e+00,5.000000000000000000e+00,4.995776176452636719e+00,4.830352306365966797e+00,4.675532817840576172e+00,4.530329704284667969e+00,4.393873214721679688e+00,4.265397071838378906e+00,4.144220829010009766e+00,4.029739379882812500e+00,3.921412944793701172e+00,3.818757772445678711e+00,3.721340179443359375e+00,3.628769397735595703e+00,3.540692090988159180e+00,3.456789255142211914e+00,3.376770734786987305e+00,3.300373077392578125e+00,3.227355957031250000e+00,3.157499551773071289e+00,3.090603113174438477e+00,3.026482820510864258e+00,2.964968681335449219e+00,2.905905485153198242e+00,2.849149465560913086e+00,2.794568061828613281e+00,2.742038488388061523e+00,2.691447257995605469e+00
5.000000000000000000e+00,5.000000000000000000e+00,5.000000000000000000e+00,5.000000000000000000e+00,5.000000000000000000e+00,5.000000000000000000e+00,5.000000000000000000e+00,5.000000000000000000e+00,5.000000000000000000e+00,5.000000000000000000e+00,5.000000000000000000e+00,5.000000000000000000e+00,5.000000000000000000e+00,5.000000000000000000e+00,5.000000000000000000e+00,5.000000000000000000e+00,5.000000000000000000e+00,5.000000000000000000e+00,5.000000000000000000e+00,5.000000000000000000e+00,5.000000000000000000e+00,5.000000000000000000e+00,5.000000000000000000e+00,5.000000000000000000e+00,5.000000000000000000e+00,5.000000000000000000e+00,5.000000000000000000e+00,5.000000000000000000e+00,5.000000000000000000e+00,5.000000000000000000e+00,5.000000000000000000e+00,5.000000000000000000e+00,5.000000000000000000e+00,5.000000000000000000e+00,5.000000000000000000e+00,3.789475679397583008e+00,5.000000000000000000e+00,5.000000000000000000e+00,3.444729566574096680e+00,5.000000000000000000e+00,5.000000000000000000e+00,5.000000000000000000e+00,5.000000000000000000e+00,5.000000000000000000e+00,5.000000000000000000e+00,5.000000000000000000e+00,5.000000000000000000e+00,5.000000000000000000e+00,5.000000000000000000e+00,5.000000000000000000e+00,5.000000000000000000e+00,5.000000000000000000e+00,5.000000000000000000e+00,5.000000000000000000e+00,4.995913982391357422e+00,4.830481529235839844e+00,4.675653934478759766e+00,4.530443191528320312e+00,4.393980026245117188e+00,4.265497684478759766e+00,4.144315719604492188e+00,4.029829025268554688e+00,3.921497583389282227e+00,3.818838357925415039e+00,3.721416473388671875e+00,3.628842115402221680e+00,3.540761232376098633e+00,3.456855297088623047e+00,3.376833677291870117e+00,3.300433158874511719e+00,3.227413654327392578e+00,3.157554864883422852e+00,3.090656042098999023e+00,3.026533603668212891e+00,2.965017318725585938e+00,2.905952215194702148e+00,2.849194288253784180e+00,2.794611215591430664e+00,2.742079973220825195e+00,2.691487312316894531e+00
4.871854305267333984e+00,4.870650291442871094e+00,4.869446754455566406e+00,4.868244171142578125e+00,4.867041587829589844e+00,4.865839958190917969e+00,4.864639282226562500e+00,4.863438129425048828e+00,4.862238407135009766e+00,4.861039161682128906e+00,4.859840869903564453e+00,4.858642101287841797e+00,4.857444763183593750e+00,4.856247901916503906e+00,4.855051517486572266e+00,4.853855609893798828e+00,4.852660655975341797e+00,4.851466178894042969e+00,4.850272178649902344e+00,4.849078655242919922e+00,4.847885608673095703e+00,4.846693515777587891e+00,4.845501899719238281e+00,4.844310760498046875e+00,4.843120098114013672e+00,4.841930389404296875e+00,4.840741157531738281e+00,4.839552402496337891e+00,4.838364124298095703e+00,4.837176799774169922e+00,4.835989952087402344e+00,4.834803581237792969e+00,4.833617210388183594e+00,4.832432270050048828e+00,4.831247329711914062e+00,3.788287401199340820e+00,4.828879833221435547e+00,4.827696800231933594e+00,3.422812461853027344e+00,4.825333118438720703e+00,4.824151515960693359e+00,4.822971343994140625e+00,4.821791172027587891e+00,4.820611953735351562e+00,4.819432735443115234e+00,4.818254470825195312e+00,4.817076683044433594e+00,4.815899848937988281e+00,4.814723014831542969e+00,4.813547134399414062e+00,4.812371730804443359e+00,4.811196804046630859e+00,4.810022354125976562e+00,4.808848857879638672e+00,4.807675838470458984e+00,4.806503295898437500e+00,4.675774574279785156e+00,4.530556201934814453e+00,4.394086360931396484e+00,4.265598297119140625e+00,4.144410133361816406e+00,4.029918670654296875e+00,3.921582460403442383e+00,3.818918704986572266e+00,3.721493244171142578e+00,3.628915071487426758e+00,3.540830850601196289e+00,3.456921339035034180e+00,3.376896858215332031e+00,3.300493717193603516e+00,3.227471113204956055e+00,3.157609701156616211e+00,3.090708732604980469e+00,3.026583909988403320e+00,2.965065956115722656e+00,2.905998945236206055e+00,2.849239110946655273e+00,2.794654130935668945e+00,2.742121458053588867e+00,2.691527366638183594e+00
3.776262283325195312e+00,3.775539159774780273e+00,3.774815797805786133e+00,3.774092674255371094e+00,3.773370265960693359e+00,3.772647857666015625e+00,3.771925687789916992e+00,3.771203994750976562e+00,3.770482301712036133e+00,3.769761323928833008e+00,3.769040346145629883e+00,3.768319368362426758e+00,3.767599344253540039e+00,3.766879081726074219e+00,3.766159057617187500e+00,3.765439748764038086e+00,3.764720201492309570e+00,3.764001369476318359e+00,3.763282537460327148e+00,3.762563943862915039e+00,3.761845827102661133e+00,3.761127710342407227e+00,3.760410070419311523e+00,3.759692907333374023e+00,3.758975505828857422e+00,3.758259057998657227e+00,3.757542371749877930e+00,3.756825923919677734e+00,3.756109952926635742e+00,3.755394220352172852e+00,3.754678487777709961e+00,3.753963470458984375e+00,3.753248453140258789e+00,3.752534151077270508e+00,3.751819610595703125e+00,3.718619346618652344e+00,3.697733879089355469e+00,3.749677896499633789e+00,3.748964786529541016e+00,3.748251676559448242e+00,3.747538805007934570e+00,3.746826648712158203e+00,3.746114253997802734e+00,3.745402097702026367e+00,3.744690656661987305e+00,3.743978977203369141e+00,3.743268251419067383e+00,3.742557287216186523e+00,3.741846561431884766e+00,3.741136312484741211e+00,3.740426063537597656e+00,3.739716291427612305e+00,3.739006996154785156e+00,3.738297700881958008e+00,3.737588882446289062e+00,3.736880064010620117e+00,3.736171483993530273e+00,3.735463380813598633e+00,3.734755516052246094e+00,3.734048128128051758e+00,3.733340501785278320e+00,3.732633352279663086e+00,3.731926679611206055e+00,3.731220006942749023e+00,3.721569776535034180e+00,3.628987550735473633e+00,3.540899991989135742e+00,3.456987380981445312e+00,3.376959800720214844e+00,3.300553560256958008e+00,3.227528572082519531e+00,3.157664775848388672e+00,3.090761423110961914e+00,3.026634454727172852e+00,2.965114355087280273e+00,2.906045436859130859e+00,2.849283933639526367e+00,2.794697284698486328e+00,2.742162942886352539e+00,2.691567182540893555e+00
3.082960128784179688e+00,3.082478046417236328e+00,3.081995964050292969e+00,3.081514120101928711e+00,3.081032276153564453e+00,3.080550670623779297e+00,3.080069303512573242e+00,3.079587936401367188e+00,3.079107046127319336e+00,3.078625917434692383e+00,3.078144788742065430e+00,3.077664375305175781e+00,3.077183723449707031e+00,3.076703071594238281e+00,3.076223134994506836e+00,3.075742959976196289e+00,3.075263023376464844e+00,3.074783086776733398e+00,3.074303388595581055e+00,3.073824167251586914e+00,3.073344707489013672e+00,3.072865247726440430e+00,3.072386503219604492e+00,3.071907281875610352e+00,3.071428775787353516e+00,3.070950031280517578e+00,3.070471525192260742e+00,3.069993257522583008e+00,3.069514989852905273e+00,3.069037199020385742e+00,3.068559169769287109e+00,3.068081378936767578e+00,3.067604064941406250e+00,3.067126512527465820e+00,3.066649198532104492e+00,3.066172122955322266e+00,3.065695285797119141e+00,3.065218687057495117e+00,3.064741849899291992e+00,3.064265251159667969e+00,3.063788890838623047e+00,3.063312530517578125e+00,3.062836408615112305e+00,3.062360763549804688e+00,3.061884880065917969e+00,3.061409235000610352e+00,3.060933828353881836e+00,3.060458183288574219e+00,3.059983253479003906e+00,3.059508085250854492e+00,3.059033155441284180e+00,3.058558464050292969e+00,3.058083772659301758e+00,3.057609558105468750e+00,3.057135105133056641e+00,3.056660652160644531e+00,3.056186914443969727e+00,3.055712938308715820e+00,3.055239439010620117e+00,3.054765701293945312e+00,3.054292201995849609e+00,3.053818941116333008e+00,3.053345680236816406e+00,3.052872657775878906e+00,3.052400112152099609e+00,3.051927089691162109e+00,3.051454782485961914e+00,3.050982236862182617e+00,3.050509929656982422e+00,3.050038099288940430e+00,3.049566030502319336e+00,3.049093961715698242e+00,3.048622608184814453e+00,3.026684999465942383e+00,2.965162754058837891e+00,2.906091928482055664e+00,2.849328517913818359e+00,2.794740200042724609e+00,2.742204427719116211e+00,2.691607236862182617e+00
2.604743003845214844e+00,2.604398727416992188e+00,2.604054689407348633e+00,2.603710651397705078e+00,2.603366613388061523e+00,2.603022813796997070e+00,2.602679014205932617e+00,2.602335453033447266e+00,2.601991653442382812e+00,2.601648092269897461e+00,2.601304769515991211e+00,2.600961446762084961e+00,2.600618124008178711e+00,2.600275278091430664e+00,2.599931955337524414e+00,2.599589347839355469e+00,2.599246263504028320e+00,2.598903417587280273e+00,2.598560810089111328e+00,2.598218202590942383e+00,2.597875595092773438e+00,2.597533226013183594e+00,2.597190856933593750e+00,2.596848726272583008e+00,2.596506595611572266e+00,2.596164464950561523e+00,2.595822572708129883e+00,2.595480680465698242e+00,2.595138788223266602e+00,2.594797372817993164e+00,2.594455718994140625e+00,2.594114303588867188e+00,2.593772649765014648e+00,2.593431234359741211e+00,2.593090295791625977e+00,2.592748880386352539e+00,2.592407941818237305e+00,2.592067003250122070e+00,2.591726064682006836e+00,2.591385364532470703e+00,2.591044664382934570e+00,2.590703964233398438e+00,2.590363502502441406e+00,2.590023040771484375e+00,2.589682817459106445e+00,2.589342355728149414e+00,2.589002132415771484e+00,2.588662147521972656e+00,2.588322162628173828e+00,2.587982177734375000e+00,2.587642431259155273e+00,2.587302684783935547e+00,2.586963176727294922e+00,2.586623668670654297e+00,2.586284160614013672e+00,2.585944890975952148e+00,2.585605621337890625e+00,2.585266590118408203e+00,2.584927320480346680e+00,2.584588289260864258e+00,2.584249496459960938e+00,2.583910465240478516e+00,2.583571672439575195e+00,2.583233118057250977e+00,2.582894563674926758e+00,2.582556247711181641e+00,2.582217693328857422e+00,2.581879377365112305e+00,2.581541299819946289e+00,2.581203222274780273e+00,2.580864906311035156e+00,2.580527305603027344e+00,2.580189228057861328e+00,2.579851627349853516e+00,2.579513788223266602e+00,2.579176187515258789e+00,2.578838825225830078e+00,2.578501224517822266e+00,2.578163862228393555e+00,2.577826738357543945e+00
2.254961729049682617e+00,2.254703760147094727e+00,2.254445791244506836e+00,2.254187822341918945e+00,2.253930091857910156e+00,2.253672361373901367e+00,2.253414869308471680e+00,2.253157138824462891e+00,2.252899408340454102e+00,2.252642154693603516e+00,2.252384662628173828e+00,2.252127170562744141e+00,2.251869916915893555e+00,2.251612424850463867e+00,2.251355409622192383e+00,2.251098155975341797e+00,2.250841140747070312e+00,2.250584125518798828e+00,2.250327110290527344e+00,2.250070095062255859e+00,2.249813318252563477e+00,2.249556303024291992e+00,2.249299764633178711e+00,2.249042987823486328e+00,2.248786211013793945e+00,2.248529911041259766e+00,2.248273372650146484e+00,2.248016834259033203e+00,2.247760534286499023e+00,2.247503995895385742e+00,2.247247934341430664e+00,2.246991634368896484e+00,2.246735334396362305e+00,2.246479272842407227e+00,2.246223211288452148e+00,2.245967388153076172e+00,2.245711326599121094e+00,2.245455265045166016e+00,2.245199680328369141e+00,2.244943857192993164e+00,2.244688034057617188e+00,2.244432449340820312e+00,2.244176864624023438e+00,2.243921518325805664e+00,2.243665933609008789e+00,2.243410587310791016e+00,2.243155241012573242e+00,2.242899894714355469e+00,2.242644548416137695e+00,2.242389440536499023e+00,2.242134332656860352e+00,2.241879463195800781e+00,2.241624355316162109e+00,2.241369247436523438e+00,2.241114616394042969e+00,2.240859508514404297e+00,2.240604877471923828e+00,2.240350246429443359e+00,2.240095376968383789e+00,2.239840984344482422e+00,2.239586353302001953e+00,2.239331722259521484e+00,2.239077568054199219e+00,2.238823175430297852e+00,2.238568782806396484e+00,2.238314628601074219e+00,2.238060235977172852e+00,2.237806320190429688e+00,2.237552165985107422e+00,2.237298011779785156e+00,2.237044095993041992e+00,2.236790180206298828e+00,2.236536502838134766e+00,2.236282587051391602e+00,2.236028909683227539e+00,2.235775232315063477e+00,2.235521554946899414e+00,2.235267877578735352e+00,2.235014438629150391e+00,2.234760999679565430e+00
1.988014936447143555e+00,1.987812399864196777e+00,1.987609624862670898e+00,1.987407088279724121e+00,1.987204432487487793e+00,1.987002015113830566e+00,1.986799478530883789e+00,1.986597776412963867e+00,1.986397624015808105e+00,1.986197352409362793e+00,1.985997200012207031e+00,1.985797166824340820e+00,1.985596895217895508e+00,1.985396981239318848e+00,1.985197067260742188e+00,1.984996914863586426e+00,1.984797120094299316e+00,1.984597325325012207e+00,1.984397292137145996e+00,1.984197616577148438e+00,1.983997941017150879e+00,1.983798265457153320e+00,1.983598470687866211e+00,1.983398914337158203e+00,1.983199357986450195e+00,1.982999682426452637e+00,1.982800245285034180e+00,1.982600808143615723e+00,1.982401251792907715e+00,1.982201933860778809e+00,1.982002615928649902e+00,1.981803178787231445e+00,1.981603980064392090e+00,1.981404781341552734e+00,1.981205701828002930e+00,1.981006383895874023e+00,1.980807304382324219e+00,1.980608344078063965e+00,1.980409145355224609e+00,1.980210185050964355e+00,1.980011343955993652e+00,1.979812264442443848e+00,1.979613423347473145e+00,1.979414701461791992e+00,1.979215741157531738e+00,1.979017019271850586e+00,1.978818416595458984e+00,1.978619575500488281e+00,1.978421092033386230e+00,1.978222489356994629e+00,1.978024005889892578e+00,1.977825403213500977e+00,1.977626919746398926e+00,1.977428555488586426e+00,1.977230072021484375e+00,1.977031707763671875e+00,1.976833462715148926e+00,1.976635098457336426e+00,1.976436853408813477e+00,1.976238727569580078e+00,1.976040482521057129e+00,1.975842475891113281e+00,1.975644350051879883e+00,1.975446462631225586e+00,1.975248336791992188e+00,1.975050449371337891e+00,1.974852561950683594e+00,1.974654555320739746e+00,1.974456787109375000e+00,1.974259018898010254e+00,1.974061131477355957e+00,1.973863482475280762e+00,1.973665833473205566e+00,1.973468065261840820e+00,1.973270535469055176e+00,1.973073005676269531e+00,1.972875356674194336e+00,1.972677946090698242e+00,1.972480535507202148e+00,1.972283244132995605e+00
1.777583241462707520e+00,1.777420997619628906e+00,1.777259111404418945e+00,1.777097105979919434e+00,1.776935219764709473e+00,1.776773214340209961e+00,1.776611208915710449e+00,1.776449441909790039e+00,1.776287436485290527e+00,1.776125788688659668e+00,1.775963902473449707e+00,1.775802254676818848e+00,1.775640368461608887e+00,1.775478720664978027e+00,1.775317072868347168e+00,1.775156736373901367e+00,1.774996757507324219e+00,1.774837017059326172e+00,1.774677157402038574e+00,1.774517297744750977e+00,1.774357557296752930e+00,1.774197936058044434e+00,1.774038076400756836e+00,1.773878455162048340e+00,1.773718833923339844e+00,1.773559212684631348e+00,1.773399591445922852e+00,1.773239970207214355e+00,1.773080587387084961e+00,1.772920846939086914e+00,1.772761464118957520e+00,1.772602081298828125e+00,1.772442579269409180e+00,1.772283196449279785e+00,1.772123932838439941e+00,1.771964430809020996e+00,1.771805167198181152e+00,1.771645903587341309e+00,1.771486520767211914e+00,1.771327376365661621e+00,1.771168231964111328e+00,1.771009087562561035e+00,1.770849823951721191e+00,1.770690798759460449e+00,1.770531773567199707e+00,1.770372629165649414e+00,1.770213603973388672e+00,1.770054697990417480e+00,1.769895672798156738e+00,1.769736766815185547e+00,1.769577860832214355e+00,1.769418835639953613e+00,1.769260048866271973e+00,1.769101262092590332e+00,1.768942356109619141e+00,1.768783688545227051e+00,1.768625020980834961e+00,1.768466353416442871e+00,1.768307566642761230e+00,1.768148899078369141e+00,1.767990350723266602e+00,1.767831683158874512e+00,1.767673134803771973e+00,1.767514705657958984e+00,1.767356038093566895e+00,1.767197608947753906e+00,1.767039179801940918e+00,1.766880631446838379e+00,1.766722321510314941e+00,1.766564011573791504e+00,1.766405701637268066e+00,1.766247272491455078e+00,1.766089081764221191e+00,1.765930891036987305e+00,1.765772461891174316e+00,1.765614390373229980e+00,1.765456318855285645e+00,1.765298008918762207e+00,1.765139937400817871e+00,1.764981985092163086e+00
1.607435703277587891e+00,1.607303142547607422e+00,1.607170701026916504e+00,1.607038140296936035e+00,1.606905817985534668e+00,1.606773257255554199e+00,1.606640934944152832e+00,1.606508493423461914e+00,1.606376171112060547e+00,1.606243729591369629e+00,1.606111526489257812e+00,1.605979204177856445e+00,1.605847001075744629e+00,1.605714678764343262e+00,1.605582475662231445e+00,1.605450153350830078e+00,1.605318069458007812e+00,1.605185866355895996e+00,1.605053663253784180e+00,1.604921579360961914e+00,1.604789376258850098e+00,1.604657411575317383e+00,1.604525566101074219e+00,1.604394793510437012e+00,1.604264259338378906e+00,1.604133725166320801e+00,1.604003071784973145e+00,1.603872537612915039e+00,1.603742122650146484e+00,1.603611469268798828e+00,1.603481054306030273e+00,1.603350639343261719e+00,1.603220343589782715e+00,1.603089809417724609e+00,1.602959394454956055e+00,1.602829098701477051e+00,1.602698683738708496e+00,1.602568387985229492e+00,1.602438092231750488e+00,1.602307677268981934e+00,1.602177500724792480e+00,1.602047324180603027e+00,1.601917028427124023e+00,1.601786851882934570e+00,1.601656675338745117e+00,1.601526498794555664e+00,1.601396322250366211e+00,1.601266264915466309e+00,1.601136207580566406e+00,1.601006031036376953e+00,1.600876092910766602e+00,1.600746035575866699e+00,1.600615978240966797e+00,1.600486040115356445e+00,1.600356101989746094e+00,1.600226044654846191e+00,1.600096225738525391e+00,1.599966287612915039e+00,1.599836349487304688e+00,1.599706530570983887e+00,1.599576711654663086e+00,1.599446892738342285e+00,1.599317073822021484e+00,1.599187254905700684e+00,1.599057555198669434e+00,1.598927736282348633e+00,1.598798036575317383e+00,1.598668456077575684e+00,1.598538637161254883e+00,1.598409056663513184e+00,1.598279476165771484e+00,1.598149776458740234e+00,1.598020195960998535e+00,1.597890734672546387e+00,1.597761034965515137e+00,1.597631573677062988e+00,1.597502112388610840e+00,1.597372651100158691e+00,1.597243070602416992e+00,1.597113728523254395e+00
1.467015266418457031e+00,1.466904997825622559e+00,1.466794490814208984e+00,1.466684222221374512e+00,1.466573834419250488e+00,1.466463565826416016e+00,1.466353297233581543e+00,1.466242909431457520e+00,1.466132760047912598e+00,1.466022372245788574e+00,1.465912222862243652e+00,1.465801954269409180e+00,1.465691804885864258e+00,1.465581655502319336e+00,1.465471506118774414e+00,1.465361356735229492e+00,1.465251207351684570e+00,1.465141057968139648e+00,1.465031027793884277e+00,1.464920878410339355e+00,1.464810848236083984e+00,1.464700818061828613e+00,1.464590787887573242e+00,1.464480757713317871e+00,1.464370846748352051e+00,1.464260816574096680e+00,1.464150905609130859e+00,1.464040875434875488e+00,1.463930845260620117e+00,1.463821053504943848e+00,1.463711738586425781e+00,1.463603019714355469e+00,1.463494420051574707e+00,1.463385581970214844e+00,1.463276982307434082e+00,1.463168382644653320e+00,1.463059663772583008e+00,1.462951183319091797e+00,1.462842583656311035e+00,1.462734103202819824e+00,1.462625384330749512e+00,1.462516903877258301e+00,1.462408423423767090e+00,1.462299823760986328e+00,1.462191343307495117e+00,1.462082982063293457e+00,1.461974382400512695e+00,1.461866021156311035e+00,1.461757540702819824e+00,1.461649060249328613e+00,1.461540699005126953e+00,1.461432456970214844e+00,1.461323976516723633e+00,1.461215615272521973e+00,1.461107373237609863e+00,1.460999011993408203e+00,1.460890650749206543e+00,1.460782408714294434e+00,1.460674166679382324e+00,1.460565924644470215e+00,1.460457682609558105e+00,1.460349440574645996e+00,1.460241198539733887e+00,1.460133075714111328e+00,1.460024952888488770e+00,1.459916710853576660e+00,1.459808588027954102e+00,1.459700465202331543e+00,1.459592461585998535e+00,1.459484219551086426e+00,1.459376215934753418e+00,1.459268212318420410e+00,1.459160089492797852e+00,1.459052085876464844e+00,1.458944082260131836e+00,1.458835959434509277e+00,1.458728075027465820e+00,1.458620071411132812e+00,1.458512067794799805e+00,1.458404183387756348e+00
1.349157214164733887e+00,1.349063873291015625e+00,1.348970413208007812e+00,1.348877191543579102e+00,1.348783850669860840e+00,1.348690629005432129e+00,1.348597288131713867e+00,1.348504066467285156e+00,1.348410725593566895e+00,1.348317503929138184e+00,1.348224163055419922e+00,1.348131060600280762e+00,1.348037838935852051e+00,1.347944617271423340e+00,1.347851395606994629e+00,1.347758293151855469e+00,1.347665071487426758e+00,1.347571849822998047e+00,1.347478747367858887e+00,1.347385644912719727e+00,1.347292661666870117e+00,1.347199440002441406e+00,1.347106456756591797e+00,1.347013354301452637e+00,1.346920371055603027e+00,1.346827268600463867e+00,1.346734285354614258e+00,1.346641182899475098e+00,1.346548199653625488e+00,1.346455216407775879e+00,1.346362233161926270e+00,1.346269249916076660e+00,1.346176385879516602e+00,1.346083283424377441e+00,1.345990419387817383e+00,1.345897436141967773e+00,1.345804691314697266e+00,1.345711708068847656e+00,1.345619797706604004e+00,1.345527887344360352e+00,1.345435976982116699e+00,1.345344185829162598e+00,1.345252394676208496e+00,1.345160484313964844e+00,1.345068693161010742e+00,1.344976902008056641e+00,1.344885110855102539e+00,1.344793319702148438e+00,1.344701647758483887e+00,1.344609856605529785e+00,1.344518065452575684e+00,1.344426393508911133e+00,1.344334721565246582e+00,1.344242930412292480e+00,1.344151258468627930e+00,1.344059586524963379e+00,1.343967914581298828e+00,1.343876242637634277e+00,1.343784689903259277e+00,1.343693137168884277e+00,1.343601465225219727e+00,1.343509793281555176e+00,1.343418359756469727e+00,1.343326687812805176e+00,1.343235135078430176e+00,1.343143582344055176e+00,1.343052029609680176e+00,1.342960476875305176e+00,1.342869043350219727e+00,1.342777490615844727e+00,1.342686057090759277e+00,1.342594623565673828e+00,1.342503070831298828e+00,1.342411637306213379e+00,1.342320203781127930e+00,1.342228889465332031e+00,1.342137336730957031e+00,1.342046022415161133e+00,1.341954588890075684e+00,1.341863155364990234e+00
1.248828053474426270e+00,1.248748064041137695e+00,1.248668074607849121e+00,1.248588085174560547e+00,1.248508214950561523e+00,1.248428225517272949e+00,1.248348236083984375e+00,1.248268365859985352e+00,1.248188376426696777e+00,1.248108506202697754e+00,1.248028635978698730e+00,1.247948765754699707e+00,1.247868895530700684e+00,1.247789025306701660e+00,1.247709155082702637e+00,1.247629284858703613e+00,1.247549414634704590e+00,1.247469663619995117e+00,1.247389793395996094e+00,1.247310042381286621e+00,1.247230291366577148e+00,1.247150540351867676e+00,1.247070670127868652e+00,1.246990919113159180e+00,1.246911168098449707e+00,1.246831536293029785e+00,1.246751666069030762e+00,1.246672034263610840e+00,1.246592283248901367e+00,1.246512532234191895e+00,1.246432900428771973e+00,1.246353149414062500e+00,1.246273517608642578e+00,1.246193885803222656e+00,1.246114253997802734e+00,1.246034502983093262e+00,1.245954990386962891e+00,1.245875358581542969e+00,1.245795726776123047e+00,1.245716094970703125e+00,1.245636582374572754e+00,1.245556950569152832e+00,1.245477437973022461e+00,1.245397806167602539e+00,1.245318293571472168e+00,1.245239019393920898e+00,1.245160341262817383e+00,1.245081663131713867e+00,1.245002985000610352e+00,1.244924426078796387e+00,1.244845628738403320e+00,1.244767069816589355e+00,1.244688510894775391e+00,1.244609951972961426e+00,1.244531273841857910e+00,1.244452714920043945e+00,1.244374155998229980e+00,1.244295477867126465e+00,1.244217038154602051e+00,1.244138479232788086e+00,1.244059920310974121e+00,1.243981361389160156e+00,1.243902921676635742e+00,1.243824362754821777e+00,1.243745803833007812e+00,1.243667364120483398e+00,1.243588924407958984e+00,1.243510365486145020e+00,1.243431925773620605e+00,1.243353605270385742e+00,1.243275046348571777e+00,1.243196606636047363e+00,1.243118286132812500e+00,1.243039846420288086e+00,1.242961406707763672e+00,1.242883086204528809e+00,1.242804646492004395e+00,1.242726325988769531e+00,1.242648005485534668e+00,1.242569565773010254e+00
1.162387847900390625e+00,1.162318587303161621e+00,1.162249326705932617e+00,1.162179946899414062e+00,1.162110805511474609e+00,1.162041425704956055e+00,1.161972284317016602e+00,1.161902904510498047e+00,1.161833763122558594e+00,1.161764502525329590e+00,1.161695361137390137e+00,1.161626100540161133e+00,1.161556839942932129e+00,1.161487698554992676e+00,1.161418557167053223e+00,1.161349296569824219e+00,1.161280155181884766e+00,1.161210894584655762e+00,1.161141753196716309e+00,1.161072611808776855e+00,1.161003470420837402e+00,1.160934329032897949e+00,1.160865187644958496e+00,1.160796165466308594e+00,1.160727024078369141e+00,1.160657882690429688e+00,1.160588741302490234e+00,1.160519719123840332e+00,1.160450577735900879e+00,1.160381555557250977e+00,1.160312533378601074e+00,1.160243511199951172e+00,1.160174369812011719e+00,1.160105466842651367e+00,1.160036325454711914e+00,1.159967422485351562e+00,1.159898281097412109e+00,1.159829378128051758e+00,1.159760355949401855e+00,1.159691452980041504e+00,1.159622430801391602e+00,1.159553408622741699e+00,1.159484505653381348e+00,1.159415483474731445e+00,1.159346580505371094e+00,1.159277558326721191e+00,1.159208655357360840e+00,1.159139752388000488e+00,1.159070849418640137e+00,1.159001946449279785e+00,1.158933043479919434e+00,1.158864140510559082e+00,1.158795356750488281e+00,1.158726930618286133e+00,1.158658742904663086e+00,1.158590674400329590e+00,1.158522605895996094e+00,1.158454537391662598e+00,1.158386349678039551e+00,1.158318281173706055e+00,1.158250331878662109e+00,1.158182144165039062e+00,1.158114075660705566e+00,1.158046126365661621e+00,1.157978057861328125e+00,1.157909989356994629e+00,1.157842040061950684e+00,1.157773852348327637e+00,1.157705903053283691e+00,1.157637953758239746e+00,1.157569885253906250e+00,1.157501935958862305e+00,1.157433986663818359e+00,1.157366037368774414e+00,1.157297968864440918e+00,1.157230019569396973e+00,1.157162189483642578e+00,1.157094120979309082e+00,1.157026290893554688e+00,1.156958341598510742e+00
1.087139248847961426e+00,1.087078690528869629e+00,1.087018013000488281e+00,1.086957454681396484e+00,1.086896896362304688e+00,1.086836338043212891e+00,1.086775660514831543e+00,1.086715102195739746e+00,1.086654543876647949e+00,1.086593985557556152e+00,1.086533427238464355e+00,1.086472868919372559e+00,1.086412310600280762e+00,1.086351752281188965e+00,1.086291313171386719e+00,1.086230754852294922e+00,1.086170315742492676e+00,1.086109757423400879e+00,1.086049199104309082e+00,1.085988759994506836e+00,1.085928320884704590e+00,1.085867762565612793e+00,1.085807323455810547e+00,1.085746884346008301e+00,1.085686445236206055e+00,1.085625886917114258e+00,1.085565567016601562e+00,1.085505008697509766e+00,1.085444569587707520e+00,1.085384130477905273e+00,1.085323691368103027e+00,1.085263371467590332e+00,1.085202932357788086e+00,1.085142493247985840e+00,1.085082173347473145e+00,1.085021734237670898e+00,1.084961414337158203e+00,1.084900975227355957e+00,1.084840655326843262e+00,1.084780335426330566e+00,1.084719896316528320e+00,1.084659576416015625e+00,1.084599256515502930e+00,1.084538936614990234e+00,1.084478616714477539e+00,1.084418296813964844e+00,1.084357976913452148e+00,1.084297657012939453e+00,1.084237337112426758e+00,1.084177017211914062e+00,1.084116816520690918e+00,1.084056496620178223e+00,1.083996176719665527e+00,1.083935856819152832e+00,1.083875656127929688e+00,1.083815455436706543e+00,1.083755135536193848e+00,1.083694934844970703e+00,1.083634734153747559e+00,1.083574414253234863e+00,1.083514332771301270e+00,1.083454728126525879e+00,1.083395242691040039e+00,1.083335638046264648e+00,1.083276152610778809e+00,1.083216547966003418e+00,1.083157062530517578e+00,1.083097577095031738e+00,1.083037972450256348e+00,1.082978487014770508e+00,1.082919001579284668e+00,1.082859396934509277e+00,1.082799911499023438e+00,1.082740426063537598e+00,1.082680940628051758e+00,1.082621455192565918e+00,1.082562088966369629e+00,1.082502484321594238e+00,1.082443118095397949e+00,1.082383632659912109e+00
1.021040916442871094e+00,1.020987510681152344e+00,1.020933985710144043e+00,1.020880579948425293e+00,1.020827054977416992e+00,1.020773649215698242e+00,1.020720243453979492e+00,1.020666837692260742e+00,1.020613312721252441e+00,1.020560026168823242e+00,1.020506501197814941e+00,1.020453095436096191e+00,1.020399689674377441e+00,1.020346283912658691e+00,1.020292878150939941e+00,1.020239591598510742e+00,1.020186185836791992e+00,1.020132780075073242e+00,1.020079374313354492e+00,1.020025968551635742e+00,1.019972681999206543e+00,1.019919276237487793e+00,1.019865989685058594e+00,1.019812583923339844e+00,1.019759297370910645e+00,1.019705891609191895e+00,1.019652605056762695e+00,1.019599199295043945e+00,1.019545912742614746e+00,1.019492626190185547e+00,1.019439339637756348e+00,1.019386053085327148e+00,1.019332766532897949e+00,1.019279479980468750e+00,1.019226193428039551e+00,1.019172906875610352e+00,1.019119620323181152e+00,1.019066333770751953e+00,1.019013166427612305e+00,1.018959879875183105e+00,1.018906593322753906e+00,1.018853306770324707e+00,1.018800020217895508e+00,1.018746852874755859e+00,1.018693566322326660e+00,1.018640398979187012e+00,1.018587112426757812e+00,1.018533945083618164e+00,1.018480777740478516e+00,1.018427610397338867e+00,1.018374323844909668e+00,1.018321156501770020e+00,1.018267989158630371e+00,1.018214821815490723e+00,1.018161654472351074e+00,1.018108487129211426e+00,1.018055319786071777e+00,1.018002152442932129e+00,1.017948985099792480e+00,1.017895817756652832e+00,1.017842650413513184e+00,1.017789602279663086e+00,1.017736434936523438e+00,1.017683267593383789e+00,1.017630219459533691e+00,1.017577052116394043e+00,1.017524003982543945e+00,1.017470836639404297e+00,1.017418026924133301e+00,1.017365574836730957e+00,1.017313003540039062e+00,1.017260551452636719e+00,1.017207980155944824e+00,1.017155528068542480e+00,1.017103075981140137e+00,1.017050504684448242e+00,1.016998052597045898e+00,1.016945600509643555e+00,1.016893029212951660e+00,1.016840577125549316e+00
9.625196456909179688e-01,9.624720811843872070e-01,9.624245762825012207e-01,9.623770713806152344e-01,9.623296260833740234e-01,9.622820615768432617e-01,9.622345566749572754e-01,9.621871113777160645e-01,9.621395468711853027e-01,9.620921015739440918e-01,9.620446562767028809e-01,9.619972109794616699e-01,9.619497060775756836e-01,9.619022607803344727e-01,9.618548154830932617e-01,9.618074297904968262e-01,9.617598652839660645e-01,9.617124795913696289e-01,9.616650342941284180e-01,9.616176486015319824e-01,9.615701436996459961e-01,9.615227580070495605e-01,9.614753723144531250e-01,9.614279866218566895e-01,9.613804817199707031e-01,9.613330960273742676e-01,9.612857699394226074e-01,9.612383842468261719e-01,9.611909389495849609e-01,9.611435532569885254e-01,9.610962271690368652e-01,9.610487222671508789e-01,9.610013961791992188e-01,9.609540700912475586e-01,9.609067440032958984e-01,9.608592987060546875e-01,9.608119726181030273e-01,9.607646465301513672e-01,9.607173204421997070e-01,9.606699347496032715e-01,9.606226086616516113e-01,9.605753421783447266e-01,9.605280160903930664e-01,9.604806303977966309e-01,9.604333639144897461e-01,9.603860378265380859e-01,9.603387713432312012e-01,9.602913856506347656e-01,9.602441191673278809e-01,9.601968526840209961e-01,9.601495265960693359e-01,9.601022601127624512e-01,9.600549936294555664e-01,9.600077271461486816e-01,9.599604010581970215e-01,9.599131941795349121e-01,9.598659276962280273e-01,9.598187208175659180e-01,9.597713947296142578e-01,9.597241878509521484e-01,9.596769213676452637e-01,9.596297144889831543e-01,9.595824480056762695e-01,9.595352411270141602e-01,9.594880342483520508e-01,9.594408273696899414e-01,9.593935608863830566e-01,9.593463540077209473e-01,9.592992067337036133e-01,9.592519998550415039e-01,9.592047333717346191e-01,9.591575860977172852e-01,9.591104388236999512e-01,9.590631723403930664e-01,9.590160250663757324e-01,9.589688777923583984e-01,9.589222073554992676e-01,9.588754773139953613e-01,9.588289260864257812e-01,9.587821960449218750e-01
9.103429317474365234e-01,9.103003740310668945e-01,9.102578759193420410e-01,9.102154374122619629e-01,9.101729393005371094e-01,9.101303815841674805e-01,9.100879430770874023e-01,9.100454449653625488e-01,9.100030064582824707e-01,9.099604487419128418e-01,9.099180102348327637e-01,9.098755717277526855e-01,9.098331332206726074e-01,9.097906351089477539e-01,9.097481966018676758e-01,9.097057580947875977e-01,9.096633791923522949e-01,9.096208214759826660e-01,9.095784425735473633e-01,9.095360040664672852e-01,9.094935059547424316e-01,9.094511270523071289e-01,9.094087481498718262e-01,9.093663096427917480e-01,9.093238711357116699e-01,9.092814922332763672e-01,9.092391133308410645e-01,9.091967344284057617e-01,9.091542363166809082e-01,9.091118574142456055e-01,9.090695381164550781e-01,9.090271592140197754e-01,9.089847207069396973e-01,9.089423418045043945e-01,9.089000225067138672e-01,9.088576436042785645e-01,9.088152050971984863e-01,9.087728857994079590e-01,9.087305665016174316e-01,9.086882472038269043e-01,9.086458086967468262e-01,9.086034893989562988e-01,9.085611701011657715e-01,9.085187315940856934e-01,9.084764719009399414e-01,9.084341526031494141e-01,9.083918333053588867e-01,9.083494544029235840e-01,9.083071351051330566e-01,9.082648754119873047e-01,9.082225561141967773e-01,9.081801772117614746e-01,9.081379175186157227e-01,9.080956578254699707e-01,9.080533981323242188e-01,9.080110192298889160e-01,9.079687595367431641e-01,9.079264998435974121e-01,9.078842401504516602e-01,9.078419208526611328e-01,9.077996611595153809e-01,9.077574014663696289e-01,9.077150821685791016e-01,9.076728224754333496e-01,9.076306223869323730e-01,9.075884222984313965e-01,9.075461030006408691e-01,9.075038433074951172e-01,9.074616432189941406e-01,9.074194431304931641e-01,9.073771238327026367e-01,9.073349237442016602e-01,9.072927236557006836e-01,9.072505235671997070e-01,9.072082638740539551e-01,9.071660637855529785e-01,9.071238636970520020e-01,9.070817232131958008e-01,9.070394039154052734e-01,9.069972634315490723e-01
8.635321855545043945e-01,8.634939193725585938e-01,8.634556531906127930e-01,8.634174466133117676e-01,8.633792400360107422e-01,8.633410334587097168e-01,8.633027076721191406e-01,8.632645010948181152e-01,8.632262945175170898e-01,8.631880283355712891e-01,8.631498217582702637e-01,8.631116747856140137e-01,8.630734682083129883e-01,8.630352020263671875e-01,8.629969954490661621e-01,8.629588484764099121e-01,8.629206418991088867e-01,8.628824353218078613e-01,8.628442287445068359e-01,8.628060817718505859e-01,8.627679347991943359e-01,8.627296686172485352e-01,8.626915216445922852e-01,8.626533746719360352e-01,8.626152276992797852e-01,8.625770211219787598e-01,8.625388741493225098e-01,8.625007271766662598e-01,8.624625205993652344e-01,8.624243736267089844e-01,8.623862862586975098e-01,8.623481392860412598e-01,8.623099327087402344e-01,8.622718453407287598e-01,8.622336983680725098e-01,8.621956110000610352e-01,8.621574044227600098e-01,8.621193170547485352e-01,8.620812296867370605e-01,8.620431423187255859e-01,8.620049357414245605e-01,8.619668483734130859e-01,8.619287610054016113e-01,8.618906736373901367e-01,8.618525266647338867e-01,8.618144392967224121e-01,8.617763519287109375e-01,8.617383241653442383e-01,8.617001771926879883e-01,8.616620898246765137e-01,8.616240620613098145e-01,8.615859150886535645e-01,8.615478277206420898e-01,8.615097999572753906e-01,8.614717721939086914e-01,8.614336252212524414e-01,8.613955974578857422e-01,8.613575696945190430e-01,8.613195419311523438e-01,8.612813949584960938e-01,8.612433671951293945e-01,8.612053990364074707e-01,8.611673712730407715e-01,8.611292243003845215e-01,8.610912561416625977e-01,8.610532283782958984e-01,8.610152602195739746e-01,8.609771728515625000e-01,8.609391450881958008e-01,8.609011769294738770e-01,8.608631491661071777e-01,8.608250617980957031e-01,8.607870936393737793e-01,8.607491254806518555e-01,8.607110381126403809e-01,8.606730699539184570e-01,8.606351017951965332e-01,8.605971336364746094e-01,8.605591058731079102e-01,8.605211377143859863e-01
8.213000893592834473e-01,8.212655186653137207e-01,8.212308287620544434e-01,8.211962580680847168e-01,8.211617469787597656e-01,8.211271762847900391e-01,8.210925459861755371e-01,8.210579752922058105e-01,8.210234045982360840e-01,8.209888339042663574e-01,8.209542036056518555e-01,8.209196925163269043e-01,8.208851218223571777e-01,8.208506107330322266e-01,8.208159804344177246e-01,8.207814693450927734e-01,8.207468986511230469e-01,8.207123279571533203e-01,8.206777572631835938e-01,8.206432461738586426e-01,8.206087350845336914e-01,8.205741643905639648e-01,8.205396533012390137e-01,8.205051422119140625e-01,8.204706311225891113e-01,8.204360604286193848e-01,8.204015493392944336e-01,8.203670382499694824e-01,8.203325271606445312e-01,8.202979564666748047e-01,8.202634453773498535e-01,8.202289938926696777e-01,8.201944828033447266e-01,8.201599121093750000e-01,8.201254606246948242e-01,8.200910091400146484e-01,8.200564980506896973e-01,8.200219869613647461e-01,8.199874758720397949e-01,8.199530243873596191e-01,8.199185132980346680e-01,8.198840022087097168e-01,8.198495507240295410e-01,8.198150992393493652e-01,8.197805881500244141e-01,8.197461366653442383e-01,8.197116851806640625e-01,8.196772336959838867e-01,8.196427226066589355e-01,8.196082711219787598e-01,8.195738792419433594e-01,8.195394277572631836e-01,8.195049166679382324e-01,8.194705247879028320e-01,8.194360733032226562e-01,8.194016814231872559e-01,8.193671703338623047e-01,8.193327784538269043e-01,8.192983269691467285e-01,8.192639350891113281e-01,8.192294836044311523e-01,8.191950321197509766e-01,8.191606402397155762e-01,8.191261887550354004e-01,8.190917968750000000e-01,8.190574049949645996e-01,8.190230131149291992e-01,8.189885616302490234e-01,8.189541697502136230e-01,8.189197778701782227e-01,8.188853859901428223e-01,8.188509345054626465e-01,8.188166022300720215e-01,8.187822103500366211e-01,8.187478780746459961e-01,8.187134265899658203e-01,8.186790347099304199e-01,8.186447024345397949e-01,8.186103701591491699e-01,8.185759186744689941e-01
7.830062508583068848e-01,7.829748392105102539e-01,7.829433679580688477e-01,7.829118967056274414e-01,7.828804850578308105e-01,7.828490734100341797e-01,7.828176021575927734e-01,7.827861905097961426e-01,7.827547788619995117e-01,7.827233672142028809e-01,7.826918959617614746e-01,7.826604843139648438e-01,7.826290726661682129e-01,7.825976610183715820e-01,7.825661897659301758e-01,7.825348377227783203e-01,7.825034260749816895e-01,7.824720144271850586e-01,7.824406027793884277e-01,7.824091911315917969e-01,7.823778390884399414e-01,7.823464274406433105e-01,7.823150157928466797e-01,7.822836041450500488e-01,7.822522521018981934e-01,7.822209000587463379e-01,7.821894288063049316e-01,7.821580767631530762e-01,7.821267247200012207e-01,7.820953130722045898e-01,7.820639610290527344e-01,7.820326089859008789e-01,7.820012569427490234e-01,7.819698452949523926e-01,7.819384932518005371e-01,7.819071412086486816e-01,7.818757891654968262e-01,7.818443775177001953e-01,7.818130850791931152e-01,7.817817330360412598e-01,7.817504405975341797e-01,7.817190289497375488e-01,7.816876769065856934e-01,7.816563844680786133e-01,7.816250324249267578e-01,7.815936803817749023e-01,7.815623283386230469e-01,7.815310359001159668e-01,7.814997434616088867e-01,7.814683318138122559e-01,7.814370393753051758e-01,7.814057469367980957e-01,7.813743948936462402e-01,7.813431024551391602e-01,7.813118100166320801e-01,7.812805175781250000e-01,7.812491655349731445e-01,7.812178730964660645e-01,7.811865806579589844e-01,7.811552882194519043e-01,7.811239361763000488e-01,7.810926437377929688e-01,7.810614109039306641e-01,7.810301184654235840e-01,7.809987664222717285e-01,7.809675335884094238e-01,7.809362411499023438e-01,7.809050083160400391e-01,7.808736562728881836e-01,7.808424234390258789e-01,7.808111310005187988e-01,7.807798981666564941e-01,7.807486057281494141e-01,7.807173132896423340e-01,7.806860804557800293e-01,7.806547880172729492e-01,7.806235551834106445e-01,7.805923223495483398e-01,7.805610895156860352e-01,7.805297374725341797e-01
7.481242418289184570e-01,7.480955719947814941e-01,7.480669021606445312e-01,7.480381131172180176e-01,7.480094432830810547e-01,7.479807734489440918e-01,7.479521036148071289e-01,7.479233741760253906e-01,7.478947043418884277e-01,7.478660345077514648e-01,7.478373646736145020e-01,7.478086352348327637e-01,7.477799654006958008e-01,7.477512955665588379e-01,7.477226257324218750e-01,7.476938962936401367e-01,7.476652264595031738e-01,7.476366162300109863e-01,7.476078867912292480e-01,7.475792169570922852e-01,7.475505471229553223e-01,7.475219368934631348e-01,7.474932074546813965e-01,7.474645972251892090e-01,7.474359273910522461e-01,7.474073171615600586e-01,7.473785877227783203e-01,7.473499774932861328e-01,7.473213672637939453e-01,7.472926974296569824e-01,7.472640275955200195e-01,7.472354173660278320e-01,7.472068071365356445e-01,7.471781373023986816e-01,7.471494674682617188e-01,7.471208572387695312e-01,7.470922470092773438e-01,7.470636367797851562e-01,7.470349669456481934e-01,7.470063567161560059e-01,7.469777464866638184e-01,7.469490766525268555e-01,7.469204664230346680e-01,7.468919157981872559e-01,7.468633055686950684e-01,7.468346357345581055e-01,7.468060255050659180e-01,7.467774748802185059e-01,7.467488646507263184e-01,7.467202544212341309e-01,7.466916441917419434e-01,7.466630935668945312e-01,7.466344833374023438e-01,7.466058731079101562e-01,7.465772628784179688e-01,7.465487122535705566e-01,7.465201616287231445e-01,7.464914917945861816e-01,7.464629411697387695e-01,7.464343905448913574e-01,7.464058399200439453e-01,7.463771700859069824e-01,7.463486194610595703e-01,7.463200688362121582e-01,7.462914586067199707e-01,7.462629079818725586e-01,7.462343573570251465e-01,7.462058663368225098e-01,7.461772561073303223e-01,7.461487054824829102e-01,7.461201548576354980e-01,7.460916042327880859e-01,7.460629940032958984e-01,7.460345029830932617e-01,7.460059523582458496e-01,7.459774017333984375e-01,7.459488511085510254e-01,7.459203004837036133e-01,7.458918094635009766e-01,7.458632588386535645e-01
7.162176370620727539e-01,7.161913514137268066e-01,7.161650657653808594e-01,7.161387801170349121e-01,7.161124348640441895e-01,7.160860896110534668e-01,7.160598635673522949e-01,7.160335183143615723e-01,7.160072326660156250e-01,7.159809470176696777e-01,7.159546613693237305e-01,7.159283161163330078e-01,7.159020304679870605e-01,7.158758044242858887e-01,7.158495187759399414e-01,7.158231735229492188e-01,7.157969474792480469e-01,7.157706618309020996e-01,7.157443761825561523e-01,7.157180905342102051e-01,7.156918048858642578e-01,7.156655788421630859e-01,7.156392931938171387e-01,7.156130075454711914e-01,7.155867218971252441e-01,7.155604958534240723e-01,7.155342698097229004e-01,7.155079245567321777e-01,7.154816985130310059e-01,7.154554724693298340e-01,7.154291868209838867e-01,7.154029607772827148e-01,7.153766751289367676e-01,7.153504490852355957e-01,7.153241634368896484e-01,7.152979373931884766e-01,7.152717113494873047e-01,7.152454853057861328e-01,7.152191996574401855e-01,7.151929736137390137e-01,7.151668071746826172e-01,7.151405811309814453e-01,7.151142954826354980e-01,7.150880694389343262e-01,7.150618433952331543e-01,7.150356769561767578e-01,7.150093913078308105e-01,7.149831652641296387e-01,7.149569988250732422e-01,7.149307727813720703e-01,7.149045467376708984e-01,7.148783206939697266e-01,7.148521542549133301e-01,7.148258686065673828e-01,7.147997021675109863e-01,7.147734761238098145e-01,7.147473096847534180e-01,7.147210836410522461e-01,7.146948575973510742e-01,7.146686911582946777e-01,7.146425247192382812e-01,7.146162986755371094e-01,7.145900726318359375e-01,7.145639061927795410e-01,7.145377397537231445e-01,7.145115137100219727e-01,7.144853472709655762e-01,7.144591808319091797e-01,7.144330143928527832e-01,7.144067883491516113e-01,7.143806219100952148e-01,7.143544554710388184e-01,7.143283486366271973e-01,7.143021225929260254e-01,7.142759561538696289e-01,7.142497897148132324e-01,7.142235636711120605e-01,7.141974568367004395e-01,7.141712903976440430e-01,7.141451239585876465e-01
6.869212388992309570e-01,6.868970394134521484e-01,6.868728995323181152e-01,6.868487000465393066e-01,6.868244409561157227e-01,6.868003010749816895e-01,6.867761015892028809e-01,6.867519021034240723e-01,6.867277026176452637e-01,6.867035031318664551e-01,6.866793632507324219e-01,6.866551637649536133e-01,6.866309642791748047e-01,6.866067647933959961e-01,6.865826249122619629e-01,6.865584850311279297e-01,6.865342259407043457e-01,6.865100860595703125e-01,6.864859461784362793e-01,6.864616870880126953e-01,6.864375472068786621e-01,6.864134073257446289e-01,6.863892674446105957e-01,6.863650679588317871e-01,6.863409280776977539e-01,6.863167285919189453e-01,6.862925887107849121e-01,6.862683892250061035e-01,6.862442493438720703e-01,6.862201094627380371e-01,6.861959695816040039e-01,6.861718297004699707e-01,6.861476898193359375e-01,6.861235499382019043e-01,6.860994100570678711e-01,6.860752105712890625e-01,6.860510706901550293e-01,6.860269904136657715e-01,6.860028505325317383e-01,6.859786510467529297e-01,6.859545707702636719e-01,6.859304308891296387e-01,6.859062314033508301e-01,6.858821511268615723e-01,6.858580112457275391e-01,6.858339309692382812e-01,6.858097314834594727e-01,6.857856512069702148e-01,6.857615113258361816e-01,6.857374310493469238e-01,6.857132911682128906e-01,6.856891512870788574e-01,6.856650710105895996e-01,6.856409907341003418e-01,6.856167912483215332e-01,6.855927109718322754e-01,6.855686306953430176e-01,6.855445504188537598e-01,6.855204105377197266e-01,6.854962706565856934e-01,6.854721903800964355e-01,6.854481101036071777e-01,6.854239702224731445e-01,6.853998899459838867e-01,6.853758096694946289e-01,6.853516697883605957e-01,6.853275895118713379e-01,6.853035688400268555e-01,6.852794885635375977e-01,6.852553486824035645e-01,6.852312684059143066e-01,6.852071881294250488e-01,6.851831674575805664e-01,6.851590275764465332e-01,6.851349472999572754e-01,6.851108670234680176e-01,6.850868463516235352e-01,6.850627064704895020e-01,6.850386857986450195e-01,6.850146055221557617e-01
6.599274277687072754e-01,6.599050760269165039e-01,6.598827242851257324e-01,6.598604321479797363e-01,6.598380804061889648e-01,6.598157286643981934e-01,6.597934365272521973e-01,6.597710847854614258e-01,6.597487330436706543e-01,6.597264409065246582e-01,6.597040891647338867e-01,6.596817970275878906e-01,6.596594452857971191e-01,6.596371531486511230e-01,6.596148610115051270e-01,6.595925092697143555e-01,6.595702171325683594e-01,6.595478653907775879e-01,6.595255732536315918e-01,6.595032811164855957e-01,6.594809293746948242e-01,6.594586372375488281e-01,6.594363451004028320e-01,6.594140529632568359e-01,6.593917608261108398e-01,6.593694686889648438e-01,6.593471765518188477e-01,6.593248844146728516e-01,6.593025326728820801e-01,6.592802405357360840e-01,6.592580080032348633e-01,6.592356562614440918e-01,6.592133641242980957e-01,6.591911315917968750e-01,6.591688394546508789e-01,6.591464877128601074e-01,6.591242551803588867e-01,6.591019630432128906e-01,6.590797305107116699e-01,6.590573787689208984e-01,6.590351462364196777e-01,6.590128540992736816e-01,6.589906215667724609e-01,6.589682698249816895e-01,6.589460372924804688e-01,6.589237451553344727e-01,6.589015126228332520e-01,6.588792204856872559e-01,6.588569283485412598e-01,6.588346958160400391e-01,6.588124036788940430e-01,6.587901711463928223e-01,6.587679386138916016e-01,6.587456464767456055e-01,6.587233543395996094e-01,6.587011218070983887e-01,6.586788892745971680e-01,6.586566567420959473e-01,6.586343646049499512e-01,6.586121320724487305e-01,6.585898995399475098e-01,6.585676670074462891e-01,6.585453748703002930e-01,6.585231423377990723e-01,6.585009098052978516e-01,6.584786772727966309e-01,6.584563851356506348e-01,6.584342122077941895e-01,6.584119796752929688e-01,6.583897471427917480e-01,6.583674550056457520e-01,6.583452820777893066e-01,6.583230495452880859e-01,6.583007574081420898e-01,6.582785844802856445e-01,6.582563519477844238e-01,6.582341194152832031e-01,6.582118868827819824e-01,6.581896543502807617e-01,6.581674814224243164e-01
6.349748969078063965e-01,6.349541544914245605e-01,6.349334716796875000e-01,6.349128484725952148e-01,6.348921656608581543e-01,6.348714828491210938e-01,6.348508000373840332e-01,6.348301172256469727e-01,6.348094940185546875e-01,6.347887516021728516e-01,6.347681283950805664e-01,6.347474455833435059e-01,6.347268223762512207e-01,6.347061395645141602e-01,6.346854567527770996e-01,6.346648335456848145e-01,6.346441507339477539e-01,6.346234679222106934e-01,6.346028447151184082e-01,6.345821619033813477e-01,6.345614790916442871e-01,6.345408558845520020e-01,6.345202326774597168e-01,6.344996094703674316e-01,6.344789266586303711e-01,6.344582438468933105e-01,6.344376206398010254e-01,6.344169974327087402e-01,6.343963146209716797e-01,6.343756914138793945e-01,6.343550682067871094e-01,6.343344449996948242e-01,6.343137621879577637e-01,6.342931389808654785e-01,6.342725157737731934e-01,6.342518925666809082e-01,6.342312097549438477e-01,6.342105865478515625e-01,6.341900229454040527e-01,6.341693997383117676e-01,6.341487169265747070e-01,6.341280937194824219e-01,6.341074705123901367e-01,6.340868473052978516e-01,6.340662240982055664e-01,6.340456008911132812e-01,6.340250372886657715e-01,6.340043544769287109e-01,6.339837312698364258e-01,6.339631676673889160e-01,6.339425444602966309e-01,6.339219212532043457e-01,6.339012980461120605e-01,6.338807344436645508e-01,6.338601112365722656e-01,6.338394880294799805e-01,6.338188648223876953e-01,6.337983012199401855e-01,6.337776780128479004e-01,6.337570548057556152e-01,6.337364912033081055e-01,6.337158679962158203e-01,6.336952447891235352e-01,6.336746811866760254e-01,6.336540579795837402e-01,6.336334943771362305e-01,6.336128711700439453e-01,6.335923075675964355e-01,6.335716843605041504e-01,6.335511207580566406e-01,6.335304975509643555e-01,6.335099339485168457e-01,6.334893703460693359e-01,6.334688067436218262e-01,6.334481835365295410e-01,6.334276199340820312e-01,6.334070563316345215e-01,6.333864927291870117e-01,6.333658695220947266e-01,6.333453059196472168e-01
6.118405461311340332e-01,6.118213534355163574e-01,6.118021607398986816e-01,6.117829680442810059e-01,6.117637753486633301e-01,6.117445826530456543e-01,6.117253899574279785e-01,6.117061972618103027e-01,6.116870045661926270e-01,6.116677522659301758e-01,6.116486191749572754e-01,6.116294264793395996e-01,6.116102337837219238e-01,6.115910410881042480e-01,6.115718483924865723e-01,6.115526556968688965e-01,6.115335226058959961e-01,6.115142703056335449e-01,6.114951372146606445e-01,6.114759445190429688e-01,6.114568114280700684e-01,6.114375591278076172e-01,6.114184260368347168e-01,6.113992333412170410e-01,6.113801002502441406e-01,6.113609075546264648e-01,6.113417148590087891e-01,6.113225817680358887e-01,6.113033890724182129e-01,6.112841963768005371e-01,6.112650632858276367e-01,6.112459301948547363e-01,6.112267374992370605e-01,6.112075448036193848e-01,6.111884117126464844e-01,6.111692786216735840e-01,6.111500859260559082e-01,6.111309528350830078e-01,6.111118197441101074e-01,6.110926270484924316e-01,6.110734939575195312e-01,6.110543012619018555e-01,6.110351681709289551e-01,6.110160350799560547e-01,6.109968423843383789e-01,6.109777092933654785e-01,6.109585762023925781e-01,6.109394431114196777e-01,6.109203100204467773e-01,6.109011769294738770e-01,6.108820438385009766e-01,6.108628511428833008e-01,6.108437180519104004e-01,6.108245849609375000e-01,6.108054518699645996e-01,6.107863187789916992e-01,6.107671856880187988e-01,6.107480525970458984e-01,6.107289195060729980e-01,6.107097864151000977e-01,6.106906533241271973e-01,6.106715202331542969e-01,6.106524467468261719e-01,6.106332540512084961e-01,6.106141805648803711e-01,6.105950474739074707e-01,6.105759143829345703e-01,6.105567812919616699e-01,6.105376482009887695e-01,6.105185747146606445e-01,6.104994416236877441e-01,6.104803085327148438e-01,6.104611754417419434e-01,6.104421019554138184e-01,6.104229688644409180e-01,6.104038357734680176e-01,6.103847622871398926e-01,6.103656888008117676e-01,6.103464961051940918e-01,6.103274226188659668e-01
5.903326869010925293e-01,5.903148055076599121e-01,5.902969241142272949e-01,5.902790427207946777e-01,5.902612209320068359e-01,5.902433395385742188e-01,5.902254581451416016e-01,5.902075767517089844e-01,5.901897549629211426e-01,5.901718735694885254e-01,5.901539921760559082e-01,5.901361107826232910e-01,5.901182889938354492e-01,5.901004076004028320e-01,5.900825262069702148e-01,5.900647044181823730e-01,5.900468230247497559e-01,5.900289416313171387e-01,5.900111198425292969e-01,5.899932384490966797e-01,5.899754166603088379e-01,5.899575352668762207e-01,5.899397134780883789e-01,5.899218320846557617e-01,5.899040102958679199e-01,5.898861289024353027e-01,5.898683071136474609e-01,5.898504853248596191e-01,5.898326635360717773e-01,5.898147821426391602e-01,5.897969603538513184e-01,5.897791385650634766e-01,5.897613167762756348e-01,5.897434353828430176e-01,5.897256135940551758e-01,5.897077918052673340e-01,5.896899104118347168e-01,5.896720886230468750e-01,5.896542668342590332e-01,5.896364450454711914e-01,5.896185636520385742e-01,5.896007418632507324e-01,5.895829200744628906e-01,5.895650982856750488e-01,5.895472764968872070e-01,5.895294547080993652e-01,5.895116329193115234e-01,5.894938111305236816e-01,5.894759297370910645e-01,5.894581675529479980e-01,5.894403457641601562e-01,5.894225239753723145e-01,5.894047021865844727e-01,5.893868803977966309e-01,5.893690586090087891e-01,5.893512368202209473e-01,5.893334150314331055e-01,5.893155932426452637e-01,5.892978310585021973e-01,5.892800092697143555e-01,5.892621874809265137e-01,5.892443656921386719e-01,5.892265439033508301e-01,5.892087221145629883e-01,5.891909599304199219e-01,5.891731381416320801e-01,5.891553759574890137e-01,5.891374945640563965e-01,5.891197323799133301e-01,5.891019105911254883e-01,5.890841484069824219e-01,5.890663266181945801e-01,5.890485048294067383e-01,5.890307426452636719e-01,5.890129804611206055e-01,5.889951586723327637e-01,5.889773368835449219e-01,5.889595746994018555e-01,5.889418125152587891e-01,5.889239907264709473e-01
