4.887663364410400391e+00,5.000000000000000000e+00,5.000000000000000000e+00,5.000000000000000000e+00,5.000000000000000000e+00,5.000000000000000000e+00,5.000000000000000000e+00,5.000000000000000000e+00,5.000000000000000000e+00,5.000000000000000000e+00,5.000000000000000000e+00,5.000000000000000000e+00,5.000000000000000000e+00,5.000000000000000000e+00,5.000000000000000000e+00,5.000000000000000000e+00,5.000000000000000000e+00,5.000000000000000000e+00,5.000000000000000000e+00,5.000000000000000000e+00,5.000000000000000000e+00,5.000000000000000000e+00,5.000000000000000000e+00,5.000000000000000000e+00,5.000000000000000000e+00,5.000000000000000000e+00,5.000000000000000000e+00,5.000000000000000000e+00,5.000000000000000000e+00,5.000000000000000000e+00,5.000000000000000000e+00,5.000000000000000000e+00,5.000000000000000000e+00,5.000000000000000000e+00,5.000000000000000000e+00,5.000000000000000000e+00,5.000000000000000000e+00,5.000000000000000000e+00,5.000000000000000000e+00,5.000000000000000000e+00,5.000000000000000000e+00,5.000000000000000000e+00,5.000000000000000000e+00,5.000000000000000000e+00,5.000000000000000000e+00,5.000000000000000000e+00,5.000000000000000000e+00,5.000000000000000000e+00,5.000000000000000000e+00,5.000000000000000000e+00,5.000000000000000000e+00,5.000000000000000000e+00,5.000000000000000000e+00,5.000000000000000000e+00,5.000000000000000000e+00,4.993255138397216797e+00,4.792392253875732422e+00,4.607065200805664062e+00,4.435538291931152344e+00,4.276324748992919922e+00,4.128144741058349609e+00,3.989890813827514648e+00,3.860596895217895508e+00,3.739384412765502930e+00,3.625542879104614258e+00,3.518428087234497070e+00,3.417460918426513672e+00,3.322137832641601562e+00,3.232011079788208008e+00,3.146645307540893555e+00,3.065673112869262695e+00,2.988763332366943359e+00,2.915618181228637695e+00,2.845967769622802734e+00,2.779567480087280273e+00,2.716194868087768555e+00,2.655647516250610352e+00,2.597740888595581055e+00,2.542305469512939453e+00,2.489186525344848633e+00
4.887537956237792969e+00,5.000000000000000000e+00,5.000000000000000000e+00,5.000000000000000000e+00,5.000000000000000000e+00,5.000000000000000000e+00,5.000000000000000000e+00,5.000000000000000000e+00,5.000000000000000000e+00,5.000000000000000000e+00,5.000000000000000000e+00,5.000000000000000000e+00,5.000000000000000000e+00,5.000000000000000000e+00,5.000000000000000000e+00,5.000000000000000000e+00,5.000000000000000000e+00,5.000000000000000000e+00,5.000000000000000000e+00,5.000000000000000000e+00,5.000000000000000000e+00,5.000000000000000000e+00,5.000000000000000000e+00,5.000000000000000000e+00,5.000000000000000000e+00,5.000000000000000000e+00,5.000000000000000000e+00,5.000000000000000000e+00,5.000000000000000000e+00,5.000000000000000000e+00,5.000000000000000000e+00,5.000000000000000000e+00,5.000000000000000000e+00,5.000000000000000000e+00,5.000000000000000000e+00,5.000000000000000000e+00,5.000000000000000000e+00,5.000000000000000000e+00,5.000000000000000000e+00,5.000000000000000000e+00,5.000000000000000000e+00,5.000000000000000000e+00,5.000000000000000000e+00,5.000000000000000000e+00,5.000000000000000000e+00,5.000000000000000000e+00,5.000000000000000000e+00,5.000000000000000000e+00,5.000000000000000000e+00,5.000000000000000000e+00,5.000000000000000000e+00,5.000000000000000000e+00,5.000000000000000000e+00,5.000000000000000000e+00,5.000000000000000000e+00,4.993422508239746094e+00,4.792546749114990234e+00,4.607207775115966797e+00,4.435669898986816406e+00,4.276447296142578125e+00,4.128259181976318359e+00,3.989953517913818359e+00,3.860608100891113281e+00,3.739385366439819336e+00,3.625543355941772461e+00,3.518444061279296875e+00,3.417513132095336914e+00,3.322211503982543945e+00,3.232080936431884766e+00,3.146711349487304688e+00,3.065735578536987305e+00,2.988822937011718750e+00,2.915674924850463867e+00,2.846021652221679688e+00,2.779618978500366211e+00,2.716244220733642578e+00,2.655694723129272461e+00,2.597785949707031250e+00,2.542348623275756836e+00,2.489228010177612305e+00
4.887412071228027344e+00,5.000000000000000000e+00,5.000000000000000000e+00,5.000000000000000000e+00,5.000000000000000000e+00,5.000000000000000000e+00,5.000000000000000000e+00,5.000000000000000000e+00,5.000000000000000000e+00,5.000000000000000000e+00,5.000000000000000000e+00,5.000000000000000000e+00,5.000000000000000000e+00,5.000000000000000000e+00,5.000000000000000000e+00,5.000000000000000000e+00,5.000000000000000000e+00,5.000000000000000000e+00,5.000000000000000000e+00,5.000000000000000000e+00,5.000000000000000000e+00,5.000000000000000000e+00,5.000000000000000000e+00,5.000000000000000000e+00,5.000000000000000000e+00,5.000000000000000000e+00,5.000000000000000000e+00,5.000000000000000000e+00,5.000000000000000000e+00,5.000000000000000000e+00,5.000000000000000000e+00,5.000000000000000000e+00,5.000000000000000000e+00,5.000000000000000000e+00,5.000000000000000000e+00,5.000000000000000000e+00,5.000000000000000000e+00,5.000000000000000000e+00,5.000000000000000000e+00,5.000000000000000000e+00,5.000000000000000000e+00,5.000000000000000000e+00,5.000000000000000000e+00,5.000000000000000000e+00,5.000000000000000000e+00,5.000000000000000000e+00,5.000000000000000000e+00,5.000000000000000000e+00,5.000000000000000000e+00,5.000000000000000000e+00,5.000000000000000000e+00,5.000000000000000000e+00,5.000000000000000000e+00,5.000000000000000000e+00,5.000000000000000000e+00,4.993589878082275391e+00,4.792700767517089844e+00,4.607349872589111328e+00,4.435801982879638672e+00,4.276514530181884766e+00,4.128267288208007812e+00,3.989953994750976562e+00,3.860608339309692383e+00,3.739406585693359375e+00,3.625605583190917969e+00,3.518526554107666016e+00,3.417591094970703125e+00,3.322285175323486328e+00,3.232150554656982422e+00,3.146777153015136719e+00,3.065798282623291016e+00,2.988882541656494141e+00,2.915731668472290039e+00,2.846075773239135742e+00,2.779670715332031250e+00,2.716293334960937500e+00,2.655741691589355469e+00,2.597830772399902344e+00,2.542391777038574219e+00,2.489269256591796875e+00
4.887286663055419922e+00,5.000000000000000000e+00,5.000000000000000000e+00,5.000000000000000000e+00,5.000000000000000000e+00,5.000000000000000000e+00,5.000000000000000000e+00,5.000000000000000000e+00,5.000000000000000000e+00,5.000000000000000000e+00,5.000000000000000000e+00,5.000000000000000000e+00,5.000000000000000000e+00,5.000000000000000000e+00,5.000000000000000000e+00,5.000000000000000000e+00,5.000000000000000000e+00,5.000000000000000000e+00,5.000000000000000000e+00,5.000000000000000000e+00,5.000000000000000000e+00,5.000000000000000000e+00,5.000000000000000000e+00,5.000000000000000000e+00,5.000000000000000000e+00,5.000000000000000000e+00,5.000000000000000000e+00,5.000000000000000000e+00,5.000000000000000000e+00,5.000000000000000000e+00,5.000000000000000000e+00,5.000000000000000000e+00,5.000000000000000000e+00,5.000000000000000000e+00,5.000000000000000000e+00,5.000000000000000000e+00,5.000000000000000000e+00,5.000000000000000000e+00,5.000000000000000000e+00,5.000000000000000000e+00,5.000000000000000000e+00,5.000000000000000000e+00,5.000000000000000000e+00,3.716421842575073242e+00,3.731502771377563477e+00,5.000000000000000000e+00,5.000000000000000000e+00,5.000000000000000000e+00,5.000000000000000000e+00,5.000000000000000000e+00,5.000000000000000000e+00,5.000000000000000000e+00,5.000000000000000000e+00,5.000000000000000000e+00,5.000000000000000000e+00,4.993757247924804688e+00,4.792852401733398438e+00,4.607422351837158203e+00,4.435805797576904297e+00,4.276515483856201172e+00,4.128268241882324219e+00,3.989982366561889648e+00,3.860682487487792969e+00,3.739500045776367188e+00,3.625693321228027344e+00,3.518609285354614258e+00,3.417669057846069336e+00,3.322358846664428711e+00,3.232219934463500977e+00,3.146843194961547852e+00,3.065860986709594727e+00,2.988942146301269531e+00,2.915788412094116211e+00,2.846129894256591797e+00,2.779722213745117188e+00,2.716342687606811523e+00,2.655788660049438477e+00,2.597875833511352539e+00,2.542434930801391602e+00,2.489310741424560547e+00
4.887161254882812500e+00,5.000000000000000000e+00,5.000000000000000000e+00,5.000000000000000000e+00,5.000000000000000000e+00,5.000000000000000000e+00,5.000000000000000000e+00,5.000000000000000000e+00,5.000000000000000000e+00,5.000000000000000000e+00,5.000000000000000000e+00,5.000000000000000000e+00,5.000000000000000000e+00,5.000000000000000000e+00,5.000000000000000000e+00,5.000000000000000000e+00,5.000000000000000000e+00,5.000000000000000000e+00,5.000000000000000000e+00,5.000000000000000000e+00,5.000000000000000000e+00,5.000000000000000000e+00,5.000000000000000000e+00,5.000000000000000000e+00,5.000000000000000000e+00,5.000000000000000000e+00,5.000000000000000000e+00,5.000000000000000000e+00,5.000000000000000000e+00,5.000000000000000000e+00,5.000000000000000000e+00,5.000000000000000000e+00,5.000000000000000000e+00,5.000000000000000000e+00,5.000000000000000000e+00,5.000000000000000000e+00,5.000000000000000000e+00,5.000000000000000000e+00,5.000000000000000000e+00,5.000000000000000000e+00,5.000000000000000000e+00,5.000000000000000000e+00,5.000000000000000000e+00,3.694634675979614258e+00,3.697061777114868164e+00,5.000000000000000000e+00,5.000000000000000000e+00,5.000000000000000000e+00,5.000000000000000000e+00,5.000000000000000000e+00,5.000000000000000000e+00,5.000000000000000000e+00,5.000000000000000000e+00,5.000000000000000000e+00,5.000000000000000000e+00,4.993835449218750000e+00,4.792853355407714844e+00,4.607423305511474609e+00,4.435807228088378906e+00,4.276552677154541016e+00,4.128356933593750000e+00,3.990088701248168945e+00,3.860782146453857422e+00,3.739593267440795898e+00,3.625781059265136719e+00,3.518692016601562500e+00,3.417747020721435547e+00,3.322432518005371094e+00,3.232289791107177734e+00,3.146909475326538086e+00,3.065923690795898438e+00,2.989001750946044922e+00,2.915845155715942383e+00,2.846184015274047852e+00,2.779773712158203125e+00,2.716392040252685547e+00,2.655835866928100586e+00,2.597920894622802734e+00,2.542478084564208984e+00,2.489351987838745117e+00
4.887045860290527344e+00,5.000000000000000000e+00,5.000000000000000000e+00,5.000000000000000000e+00,5.000000000000000000e+00,5.000000000000000000e+00,5.000000000000000000e+00,5.000000000000000000e+00,5.000000000000000000e+00,5.000000000000000000e+00,5.000000000000000000e+00,5.000000000000000000e+00,5.000000000000000000e+00,5.000000000000000000e+00,5.000000000000000000e+00,5.000000000000000000e+00,5.000000000000000000e+00,5.000000000000000000e+00,5.000000000000000000e+00,5.000000000000000000e+00,5.000000000000000000e+00,5.000000000000000000e+00,5.000000000000000000e+00,5.000000000000000000e+00,5.000000000000000000e+00,5.000000000000000000e+00,5.000000000000000000e+00,5.000000000000000000e+00,5.000000000000000000e+00,5.000000000000000000e+00,5.000000000000000000e+00,5.000000000000000000e+00,5.000000000000000000e+00,5.000000000000000000e+00,5.000000000000000000e+00,5.000000000000000000e+00,5.000000000000000000e+00,5.000000000000000000e+00,5.000000000000000000e+00,5.000000000000000000e+00,5.000000000000000000e+00,5.000000000000000000e+00,5.000000000000000000e+00,3.685632705688476562e+00,3.692830562591552734e+00,5.000000000000000000e+00,5.000000000000000000e+00,5.000000000000000000e+00,5.000000000000000000e+00,5.000000000000000000e+00,5.000000000000000000e+00,5.000000000000000000e+00,5.000000000000000000e+00,5.000000000000000000e+00,5.000000000000000000e+00,4.993836402893066406e+00,4.792854785919189453e+00,4.607471942901611328e+00,4.435914993286132812e+00,4.276674270629882812e+00,4.128470897674560547e+00,3.990195035934448242e+00,3.860881567001342773e+00,3.739686727523803711e+00,3.625869035720825195e+00,3.518774509429931641e+00,3.417824983596801758e+00,3.322505950927734375e+00,3.232359409332275391e+00,3.146975517272949219e+00,3.065986394882202148e+00,2.989061355590820312e+00,2.915901899337768555e+00,2.846238136291503906e+00,2.779825448989868164e+00,2.716440916061401367e+00,2.655882835388183594e+00,2.597965955734252930e+00,2.542521238327026367e+00,2.489393472671508789e+00
4.886932849884033203e+00,5.000000000000000000e+00,5.000000000000000000e+00,5.000000000000000000e+00,5.000000000000000000e+00,5.000000000000000000e+00,5.000000000000000000e+00,5.000000000000000000e+00,5.000000000000000000e+00,5.000000000000000000e+00,5.000000000000000000e+00,5.000000000000000000e+00,5.000000000000000000e+00,5.000000000000000000e+00,5.000000000000000000e+00,5.000000000000000000e+00,5.000000000000000000e+00,5.000000000000000000e+00,5.000000000000000000e+00,5.000000000000000000e+00,5.000000000000000000e+00,5.000000000000000000e+00,5.000000000000000000e+00,5.000000000000000000e+00,5.000000000000000000e+00,5.000000000000000000e+00,5.000000000000000000e+00,5.000000000000000000e+00,5.000000000000000000e+00,5.000000000000000000e+00,5.000000000000000000e+00,5.000000000000000000e+00,5.000000000000000000e+00,5.000000000000000000e+00,5.000000000000000000e+00,5.000000000000000000e+00,5.000000000000000000e+00,5.000000000000000000e+00,5.000000000000000000e+00,5.000000000000000000e+00,5.000000000000000000e+00,5.000000000000000000e+00,5.000000000000000000e+00,3.665624856948852539e+00,3.675129413604736328e+00,5.000000000000000000e+00,5.000000000000000000e+00,5.000000000000000000e+00,5.000000000000000000e+00,5.000000000000000000e+00,5.000000000000000000e+00,5.000000000000000000e+00,5.000000000000000000e+00,5.000000000000000000e+00,5.000000000000000000e+00,4.993899345397949219e+00,4.792985916137695312e+00,4.607613563537597656e+00,4.436045646667480469e+00,4.276796817779541016e+00,4.128584861755371094e+00,3.990301370620727539e+00,3.860981225967407227e+00,3.739779949188232422e+00,3.625956773757934570e+00,3.518857240676879883e+00,3.417902708053588867e+00,3.322579622268676758e+00,3.232429265975952148e+00,3.147041559219360352e+00,3.066049337387084961e+00,2.989120960235595703e+00,2.915958642959594727e+00,2.846292257308959961e+00,2.779876708984375000e+00,2.716490268707275391e+00,2.655930042266845703e+00,2.598011016845703125e+00,2.542564392089843750e+00,2.489434719085693359e+00
4.886819362640380859e+00,5.000000000000000000e+00,5.000000000000000000e+00,5.000000000000000000e+00,5.000000000000000000e+00,5.000000000000000000e+00,5.000000000000000000e+00,5.000000000000000000e+00,5.000000000000000000e+00,5.000000000000000000e+00,5.000000000000000000e+00,5.000000000000000000e+00,5.000000000000000000e+00,5.000000000000000000e+00,5.000000000000000000e+00,5.000000000000000000e+00,5.000000000000000000e+00,5.000000000000000000e+00,5.000000000000000000e+00,5.000000000000000000e+00,5.000000000000000000e+00,5.000000000000000000e+00,5.000000000000000000e+00,5.000000000000000000e+00,5.000000000000000000e+00,5.000000000000000000e+00,5.000000000000000000e+00,5.000000000000000000e+00,5.000000000000000000e+00,5.000000000000000000e+00,5.000000000000000000e+00,5.000000000000000000e+00,5.000000000000000000e+00,5.000000000000000000e+00,5.000000000000000000e+00,5.000000000000000000e+00,5.000000000000000000e+00,5.000000000000000000e+00,5.000000000000000000e+00,5.000000000000000000e+00,3.618335008621215820e+00,3.604609012603759766e+00,3.609356403350830078e+00,3.625200986862182617e+00,3.656861543655395508e+00,3.677112102508544922e+00,5.000000000000000000e+00,5.000000000000000000e+00,5.000000000000000000e+00,5.000000000000000000e+00,5.000000000000000000e+00,5.000000000000000000e+00,5.000000000000000000e+00,5.000000000000000000e+00,5.000000000000000000e+00,4.994065761566162109e+00,4.793139457702636719e+00,4.607754707336425781e+00,4.436177253723144531e+00,4.276918888092041016e+00,4.128698348999023438e+00,3.990407705307006836e+00,3.861080646514892578e+00,3.739873409271240234e+00,3.626044511795043945e+00,3.518939495086669922e+00,3.417980670928955078e+00,3.322653293609619141e+00,3.232499122619628906e+00,3.147107839584350586e+00,3.066112041473388672e+00,2.989180803298950195e+00,2.916015386581420898e+00,2.846345901489257812e+00,2.779928445816040039e+00,2.716539382934570312e+00,2.655977010726928711e+00,2.598056077957153320e+00,2.542607545852661133e+00,2.489476203918457031e+00
4.886705875396728516e+00,5.000000000000000000e+00,5.000000000000000000e+00,5.000000000000000000e+00,5.000000000000000000e+00,5.000000000000000000e+00,5.000000000000000000e+00,5.000000000000000000e+00,5.000000000000000000e+00,5.000000000000000000e+00,5.000000000000000000e+00,5.000000000000000000e+00,5.000000000000000000e+00,5.000000000000000000e+00,5.000000000000000000e+00,5.000000000000000000e+00,5.000000000000000000e+00,5.000000000000000000e+00,5.000000000000000000e+00,5.000000000000000000e+00,5.000000000000000000e+00,5.000000000000000000e+00,5.000000000000000000e+00,5.000000000000000000e+00,5.000000000000000000e+00,5.000000000000000000e+00,5.000000000000000000e+00,5.000000000000000000e+00,5.000000000000000000e+00,5.000000000000000000e+00,5.000000000000000000e+00,5.000000000000000000e+00,5.000000000000000000e+00,5.000000000000000000e+00,5.000000000000000000e+00,5.000000000000000000e+00,5.000000000000000000e+00,5.000000000000000000e+00,5.000000000000000000e+00,5.000000000000000000e+00,3.615289688110351562e+00,3.619906663894653320e+00,3.604733228683471680e+00,3.613831281661987305e+00,3.634149551391601562e+00,3.653109550476074219e+00,3.681946277618408203e+00,3.736523389816284180e+00,5.000000000000000000e+00,5.000000000000000000e+00,5.000000000000000000e+00,5.000000000000000000e+00,5.000000000000000000e+00,5.000000000000000000e+00,5.000000000000000000e+00,4.994232177734375000e+00,4.793292522430419922e+00,4.607896804809570312e+00,4.436308860778808594e+00,4.277040958404541016e+00,4.128811836242675781e+00,3.990513801574707031e+00,3.861180067062377930e+00,3.739966869354248047e+00,3.626131772994995117e+00,3.519022226333618164e+00,3.418058633804321289e+00,3.322726964950561523e+00,3.232568740844726562e+00,3.147173881530761719e+00,3.066174745559692383e+00,2.989240407943725586e+00,2.916071891784667969e+00,2.846400022506713867e+00,2.779979944229125977e+00,2.716588735580444336e+00,2.656024217605590820e+00,2.598101139068603516e+00,2.542650699615478516e+00,2.489517450332641602e+00
4.886592864990234375e+00,5.000000000000000000e+00,5.000000000000000000e+00,5.000000000000000000e+00,5.000000000000000000e+00,5.000000000000000000e+00,5.000000000000000000e+00,5.000000000000000000e+00,5.000000000000000000e+00,5.000000000000000000e+00,5.000000000000000000e+00,5.000000000000000000e+00,5.000000000000000000e+00,5.000000000000000000e+00,5.000000000000000000e+00,5.000000000000000000e+00,5.000000000000000000e+00,5.000000000000000000e+00,5.000000000000000000e+00,5.000000000000000000e+00,5.000000000000000000e+00,5.000000000000000000e+00,5.000000000000000000e+00,5.000000000000000000e+00,5.000000000000000000e+00,5.000000000000000000e+00,5.000000000000000000e+00,5.000000000000000000e+00,5.000000000000000000e+00,5.000000000000000000e+00,5.000000000000000000e+00,5.000000000000000000e+00,5.000000000000000000e+00,5.000000000000000000e+00,5.000000000000000000e+00,5.000000000000000000e+00,5.000000000000000000e+00,5.000000000000000000e+00,5.000000000000000000e+00,5.000000000000000000e+00,3.622053146362304688e+00,3.673623561859130859e+00,3.618446588516235352e+00,3.620554208755493164e+00,3.644823312759399414e+00,3.661164045333862305e+00,3.701259136199951172e+00,3.742120981216430664e+00,5.000000000000000000e+00,5.000000000000000000e+00,5.000000000000000000e+00,5.000000000000000000e+00,5.000000000000000000e+00,5.000000000000000000e+00,5.000000000000000000e+00,4.994399070739746094e+00,4.793445587158203125e+00,4.608038425445556641e+00,4.436439990997314453e+00,4.277163028717041016e+00,4.128925800323486328e+00,3.990620136260986328e+00,3.861279726028442383e+00,3.740060091018676758e+00,3.626219511032104492e+00,3.519104957580566406e+00,3.418136596679687500e+00,3.322800636291503906e+00,3.232638597488403320e+00,3.147239923477172852e+00,3.066237449645996094e+00,2.989300012588500977e+00,2.916128873825073242e+00,2.846454143524169922e+00,2.780031442642211914e+00,2.716638088226318359e+00,2.656071186065673828e+00,2.598146200180053711e+00,2.542693853378295898e+00,2.489558935165405273e+00
4.886479377746582031e+00,5.000000000000000000e+00,5.000000000000000000e+00,5.000000000000000000e+00,5.000000000000000000e+00,5.000000000000000000e+00,5.000000000000000000e+00,5.000000000000000000e+00,5.000000000000000000e+00,5.000000000000000000e+00,5.000000000000000000e+00,5.000000000000000000e+00,5.000000000000000000e+00,5.000000000000000000e+00,5.000000000000000000e+00,5.000000000000000000e+00,5.000000000000000000e+00,5.000000000000000000e+00,5.000000000000000000e+00,5.000000000000000000e+00,5.000000000000000000e+00,5.000000000000000000e+00,5.000000000000000000e+00,5.000000000000000000e+00,5.000000000000000000e+00,5.000000000000000000e+00,5.000000000000000000e+00,5.000000000000000000e+00,5.000000000000000000e+00,5.000000000000000000e+00,5.000000000000000000e+00,5.000000000000000000e+00,5.000000000000000000e+00,5.000000000000000000e+00,5.000000000000000000e+00,5.000000000000000000e+00,5.000000000000000000e+00,5.000000000000000000e+00,5.000000000000000000e+00,5.000000000000000000e+00,3.628389596939086914e+00,3.755804061889648438e+00,3.635604381561279297e+00,3.636693716049194336e+00,3.655442476272583008e+00,3.676599264144897461e+00,3.703883647918701172e+00,5.000000000000000000e+00,5.000000000000000000e+00,5.000000000000000000e+00,5.000000000000000000e+00,5.000000000000000000e+00,5.000000000000000000e+00,5.000000000000000000e+00,5.000000000000000000e+00,4.994565010070800781e+00,4.793599128723144531e+00,4.608180046081542969e+00,4.436571598052978516e+00,4.277284622192382812e+00,4.129039764404296875e+00,3.990726470947265625e+00,3.861379146575927734e+00,3.740153074264526367e+00,3.626307487487792969e+00,3.519187450408935547e+00,3.418214559555053711e+00,3.322874307632446289e+00,3.232708215713500977e+00,3.147306203842163086e+00,3.066300153732299805e+00,2.989359378814697266e+00,2.916185617446899414e+00,2.846508264541625977e+00,2.780083179473876953e+00,2.716687202453613281e+00,2.656118392944335938e+00,2.598191261291503906e+00,2.542737007141113281e+00,2.489600181579589844e+00
4.886366367340087891e+00,5.000000000000000000e+00,5.000000000000000000e+00,5.000000000000000000e+00,5.000000000000000000e+00,5.000000000000000000e+00,5.000000000000000000e+00,5.000000000000000000e+00,5.000000000000000000e+00,5.000000000000000000e+00,5.000000000000000000e+00,5.000000000000000000e+00,5.000000000000000000e+00,5.000000000000000000e+00,5.000000000000000000e+00,5.000000000000000000e+00,5.000000000000000000e+00,5.000000000000000000e+00,5.000000000000000000e+00,5.000000000000000000e+00,5.000000000000000000e+00,5.000000000000000000e+00,5.000000000000000000e+00,5.000000000000000000e+00,5.000000000000000000e+00,5.000000000000000000e+00,5.000000000000000000e+00,5.000000000000000000e+00,5.000000000000000000e+00,5.000000000000000000e+00,5.000000000000000000e+00,5.000000000000000000e+00,5.000000000000000000e+00,5.000000000000000000e+00,5.000000000000000000e+00,5.000000000000000000e+00,5.000000000000000000e+00,5.000000000000000000e+00,5.000000000000000000e+00,3.688066005706787109e+00,3.632161378860473633e+00,5.000000000000000000e+00,3.651506662368774414e+00,3.658884286880493164e+00,3.687550783157348633e+00,3.710106372833251953e+00,3.695592403411865234e+00,5.000000000000000000e+00,5.000000000000000000e+00,5.000000000000000000e+00,5.000000000000000000e+00,5.000000000000000000e+00,5.000000000000000000e+00,5.000000000000000000e+00,5.000000000000000000e+00,4.994731426239013672e+00,4.793752670288085938e+00,4.608322143554687500e+00,4.436702728271484375e+00,4.277406692504882812e+00,4.129153728485107422e+00,3.990832805633544922e+00,3.861478328704833984e+00,3.740246534347534180e+00,3.626395225524902344e+00,3.519270181655883789e+00,3.418292522430419922e+00,3.322948217391967773e+00,3.232778072357177734e+00,3.147372245788574219e+00,3.066362857818603516e+00,2.989418983459472656e+00,2.916242361068725586e+00,2.846562385559082031e+00,2.780134677886962891e+00,2.716736555099487305e+00,2.656165361404418945e+00,2.598236322402954102e+00,2.542779922485351562e+00,2.489641427993774414e+00
4.886252880096435547e+00,5.000000000000000000e+00,5.000000000000000000e+00,5.000000000000000000e+00,5.000000000000000000e+00,5.000000000000000000e+00,5.000000000000000000e+00,5.000000000000000000e+00,5.000000000000000000e+00,5.000000000000000000e+00,5.000000000000000000e+00,5.000000000000000000e+00,5.000000000000000000e+00,5.000000000000000000e+00,5.000000000000000000e+00,5.000000000000000000e+00,5.000000000000000000e+00,5.000000000000000000e+00,5.000000000000000000e+00,5.000000000000000000e+00,5.000000000000000000e+00,5.000000000000000000e+00,5.000000000000000000e+00,5.000000000000000000e+00,5.000000000000000000e+00,5.000000000000000000e+00,5.000000000000000000e+00,5.000000000000000000e+00,5.000000000000000000e+00,5.000000000000000000e+00,5.000000000000000000e+00,5.000000000000000000e+00,5.000000000000000000e+00,5.000000000000000000e+00,5.000000000000000000e+00,5.000000000000000000e+00,5.000000000000000000e+00,5.000000000000000000e+00,5.000000000000000000e+00,3.659024000167846680e+00,3.636051416397094727e+00,5.000000000000000000e+00,3.651760101318359375e+00,3.651975631713867188e+00,3.678475141525268555e+00,3.715163230895996094e+00,3.688803434371948242e+00,5.000000000000000000e+00,5.000000000000000000e+00,5.000000000000000000e+00,5.000000000000000000e+00,5.000000000000000000e+00,5.000000000000000000e+00,5.000000000000000000e+00,5.000000000000000000e+00,4.994890689849853516e+00,4.793900489807128906e+00,4.608459949493408203e+00,4.436831951141357422e+00,4.277528285980224609e+00,4.129267215728759766e+00,3.990938663482666016e+00,3.861577987670898438e+00,3.740339994430541992e+00,3.626482963562011719e+00,3.519352912902832031e+00,3.418370723724365234e+00,3.323021888732910156e+00,3.232847929000854492e+00,3.147438049316406250e+00,3.066425561904907227e+00,2.989478826522827148e+00,2.916299104690551758e+00,2.846616506576538086e+00,2.780186414718627930e+00,2.716785907745361328e+00,2.656212568283081055e+00,2.598281145095825195e+00,2.542823076248168945e+00,2.489682912826538086e+00
4.886139392852783203e+00,5.000000000000000000e+00,5.000000000000000000e+00,5.000000000000000000e+00,5.000000000000000000e+00,5.000000000000000000e+00,5.000000000000000000e+00,5.000000000000000000e+00,5.000000000000000000e+00,5.000000000000000000e+00,5.000000000000000000e+00,5.000000000000000000e+00,5.000000000000000000e+00,5.000000000000000000e+00,5.000000000000000000e+00,5.000000000000000000e+00,5.000000000000000000e+00,5.000000000000000000e+00,5.000000000000000000e+00,5.000000000000000000e+00,5.000000000000000000e+00,5.000000000000000000e+00,5.000000000000000000e+00,5.000000000000000000e+00,5.000000000000000000e+00,5.000000000000000000e+00,5.000000000000000000e+00,5.000000000000000000e+00,5.000000000000000000e+00,5.000000000000000000e+00,5.000000000000000000e+00,5.000000000000000000e+00,5.000000000000000000e+00,5.000000000000000000e+00,5.000000000000000000e+00,5.000000000000000000e+00,5.000000000000000000e+00,5.000000000000000000e+00,5.000000000000000000e+00,3.677983999252319336e+00,3.687555551528930664e+00,5.000000000000000000e+00,3.638450145721435547e+00,3.625736713409423828e+00,3.654526233673095703e+00,3.689463376998901367e+00,3.686470031738281250e+00,5.000000000000000000e+00,5.000000000000000000e+00,5.000000000000000000e+00,5.000000000000000000e+00,5.000000000000000000e+00,5.000000000000000000e+00,5.000000000000000000e+00,5.000000000000000000e+00,4.995047092437744141e+00,4.794044494628906250e+00,4.608592987060546875e+00,4.436955451965332031e+00,4.277643203735351562e+00,4.129374504089355469e+00,3.991040229797363281e+00,3.861673355102539062e+00,3.740430355072021484e+00,3.626568794250488281e+00,3.519434452056884766e+00,3.418448686599731445e+00,3.323095560073852539e+00,3.232917308807373047e+00,3.147504329681396484e+00,3.066488265991210938e+00,2.989538431167602539e+00,2.916355848312377930e+00,2.846670627593994141e+00,2.780237913131713867e+00,2.716835021972656250e+00,2.656259298324584961e+00,2.598326206207275391e+00,2.542866230010986328e+00,2.489724159240722656e+00
4.886025905609130859e+00,5.000000000000000000e+00,5.000000000000000000e+00,5.000000000000000000e+00,5.000000000000000000e+00,5.000000000000000000e+00,5.000000000000000000e+00,5.000000000000000000e+00,5.000000000000000000e+00,5.000000000000000000e+00,5.000000000000000000e+00,5.000000000000000000e+00,5.000000000000000000e+00,5.000000000000000000e+00,5.000000000000000000e+00,5.000000000000000000e+00,5.000000000000000000e+00,5.000000000000000000e+00,5.000000000000000000e+00,5.000000000000000000e+00,5.000000000000000000e+00,5.000000000000000000e+00,5.000000000000000000e+00,5.000000000000000000e+00,5.000000000000000000e+00,5.000000000000000000e+00,5.000000000000000000e+00,5.000000000000000000e+00,5.000000000000000000e+00,5.000000000000000000e+00,5.000000000000000000e+00,5.000000000000000000e+00,5.000000000000000000e+00,5.000000000000000000e+00,5.000000000000000000e+00,5.000000000000000000e+00,5.000000000000000000e+00,5.000000000000000000e+00,5.000000000000000000e+00,3.721183061599731445e+00,5.000000000000000000e+00,3.698380231857299805e+00,3.619094371795654297e+00,3.603426456451416016e+00,3.650232791900634766e+00,3.668965101242065430e+00,3.701034784317016602e+00,5.000000000000000000e+00,5.000000000000000000e+00,5.000000000000000000e+00,5.000000000000000000e+00,5.000000000000000000e+00,5.000000000000000000e+00,5.000000000000000000e+00,5.000000000000000000e+00,4.995203495025634766e+00,4.794188976287841797e+00,4.608726501464843750e+00,4.437078952789306641e+00,4.277757644653320312e+00,4.129481792449951172e+00,3.991139888763427734e+00,3.861767292022705078e+00,3.740518331527709961e+00,3.626651525497436523e+00,3.519512414932250977e+00,3.418521642684936523e+00,3.323165416717529297e+00,3.232984304428100586e+00,3.147568225860595703e+00,3.066549301147460938e+00,2.989597082138061523e+00,2.916412115097045898e+00,2.846724748611450195e+00,2.780289411544799805e+00,2.716884136199951172e+00,2.656306505203247070e+00,2.598371267318725586e+00,2.542909383773803711e+00,2.489765644073486328e+00
4.885912895202636719e+00,5.000000000000000000e+00,5.000000000000000000e+00,5.000000000000000000e+00,5.000000000000000000e+00,5.000000000000000000e+00,5.000000000000000000e+00,5.000000000000000000e+00,5.000000000000000000e+00,5.000000000000000000e+00,5.000000000000000000e+00,5.000000000000000000e+00,5.000000000000000000e+00,5.000000000000000000e+00,5.000000000000000000e+00,5.000000000000000000e+00,5.000000000000000000e+00,5.000000000000000000e+00,5.000000000000000000e+00,5.000000000000000000e+00,5.000000000000000000e+00,5.000000000000000000e+00,5.000000000000000000e+00,5.000000000000000000e+00,5.000000000000000000e+00,5.000000000000000000e+00,5.000000000000000000e+00,5.000000000000000000e+00,5.000000000000000000e+00,5.000000000000000000e+00,5.000000000000000000e+00,5.000000000000000000e+00,5.000000000000000000e+00,5.000000000000000000e+00,5.000000000000000000e+00,5.000000000000000000e+00,5.000000000000000000e+00,5.000000000000000000e+00,5.000000000000000000e+00,5.000000000000000000e+00,5.000000000000000000e+00,3.689239978790283203e+00,3.620726346969604492e+00,3.611373901367187500e+00,3.663585901260375977e+00,3.677386522293090820e+00,3.723129510879516602e+00,5.000000000000000000e+00,5.000000000000000000e+00,5.000000000000000000e+00,5.000000000000000000e+00,5.000000000000000000e+00,5.000000000000000000e+00,5.000000000000000000e+00,5.000000000000000000e+00,4.995360374450683594e+00,4.794332981109619141e+00,4.608859539031982422e+00,4.437202453613281250e+00,4.277872562408447266e+00,4.129588603973388672e+00,3.991239786148071289e+00,3.861860513687133789e+00,3.740605831146240234e+00,3.626733779907226562e+00,3.519589900970458984e+00,3.418594837188720703e+00,3.323234558105468750e+00,3.233049631118774414e+00,3.147630214691162109e+00,3.066608428955078125e+00,2.989653110504150391e+00,2.916465520858764648e+00,2.846775531768798828e+00,2.780338525772094727e+00,2.716931581497192383e+00,2.656352281570434570e+00,2.598415374755859375e+00,2.542952060699462891e+00,2.489806890487670898e+00
4.885799884796142578e+00,5.000000000000000000e+00,5.000000000000000000e+00,5.000000000000000000e+00,5.000000000000000000e+00,5.000000000000000000e+00,5.000000000000000000e+00,5.000000000000000000e+00,5.000000000000000000e+00,5.000000000000000000e+00,5.000000000000000000e+00,5.000000000000000000e+00,5.000000000000000000e+00,5.000000000000000000e+00,5.000000000000000000e+00,5.000000000000000000e+00,5.000000000000000000e+00,5.000000000000000000e+00,5.000000000000000000e+00,5.000000000000000000e+00,5.000000000000000000e+00,5.000000000000000000e+00,5.000000000000000000e+00,5.000000000000000000e+00,5.000000000000000000e+00,5.000000000000000000e+00,5.000000000000000000e+00,5.000000000000000000e+00,5.000000000000000000e+00,5.000000000000000000e+00,5.000000000000000000e+00,5.000000000000000000e+00,5.000000000000000000e+00,5.000000000000000000e+00,5.000000000000000000e+00,5.000000000000000000e+00,5.000000000000000000e+00,5.000000000000000000e+00,3.795551776885986328e+00,5.000000000000000000e+00,5.000000000000000000e+00,3.685912847518920898e+00,3.626985549926757812e+00,3.633659124374389648e+00,3.704861640930175781e+00,3.728276491165161133e+00,3.738098144531250000e+00,5.000000000000000000e+00,5.000000000000000000e+00,5.000000000000000000e+00,5.000000000000000000e+00,5.000000000000000000e+00,5.000000000000000000e+00,5.000000000000000000e+00,5.000000000000000000e+00,4.995516777038574219e+00,4.794476985931396484e+00,4.608993053436279297e+00,4.437325954437255859e+00,4.277987480163574219e+00,4.129695415496826172e+00,3.991339921951293945e+00,3.861954212188720703e+00,3.740693807601928711e+00,3.626816511154174805e+00,3.519667863845825195e+00,3.418668508529663086e+00,3.323303937911987305e+00,3.233115434646606445e+00,3.147692203521728516e+00,3.066667318344116211e+00,2.989709138870239258e+00,2.916518926620483398e+00,2.846826314926147461e+00,2.780386924743652344e+00,2.716977834701538086e+00,2.656396389007568359e+00,2.598457813262939453e+00,2.542992591857910156e+00,2.489845752716064453e+00
4.885686397552490234e+00,5.000000000000000000e+00,5.000000000000000000e+00,5.000000000000000000e+00,5.000000000000000000e+00,5.000000000000000000e+00,5.000000000000000000e+00,5.000000000000000000e+00,5.000000000000000000e+00,5.000000000000000000e+00,5.000000000000000000e+00,5.000000000000000000e+00,5.000000000000000000e+00,5.000000000000000000e+00,5.000000000000000000e+00,5.000000000000000000e+00,5.000000000000000000e+00,5.000000000000000000e+00,5.000000000000000000e+00,5.000000000000000000e+00,5.000000000000000000e+00,5.000000000000000000e+00,5.000000000000000000e+00,5.000000000000000000e+00,5.000000000000000000e+00,5.000000000000000000e+00,5.000000000000000000e+00,5.000000000000000000e+00,5.000000000000000000e+00,5.000000000000000000e+00,5.000000000000000000e+00,5.000000000000000000e+00,5.000000000000000000e+00,5.000000000000000000e+00,5.000000000000000000e+00,5.000000000000000000e+00,5.000000000000000000e+00,5.000000000000000000e+00,5.000000000000000000e+00,5.000000000000000000e+00,5.000000000000000000e+00,3.713506698608398438e+00,3.621955871582031250e+00,3.625758886337280273e+00,3.782238245010375977e+00,3.830696105957031250e+00,3.757831335067749023e+00,5.000000000000000000e+00,5.000000000000000000e+00,5.000000000000000000e+00,5.000000000000000000e+00,5.000000000000000000e+00,5.000000000000000000e+00,5.000000000000000000e+00,5.000000000000000000e+00,4.995673179626464844e+00,4.794621467590332031e+00,4.609126091003417969e+00,4.437449455261230469e+00,4.278102397918701172e+00,4.129802227020263672e+00,3.991439580917358398e+00,3.862047672271728516e+00,3.740781545639038086e+00,3.626898765563964844e+00,3.519745349884033203e+00,3.418741464614868164e+00,3.323373079299926758e+00,3.233180761337280273e+00,3.147754669189453125e+00,3.066726446151733398e+00,2.989765405654907227e+00,2.916572332382202148e+00,2.846877336502075195e+00,2.780435562133789062e+00,2.717024326324462891e+00,2.656440734863281250e+00,2.598500013351440430e+00,2.543033123016357422e+00,2.489884614944458008e+00
4.885573387145996094e+00,5.000000000000000000e+00,5.000000000000000000e+00,5.000000000000000000e+00,5.000000000000000000e+00,5.000000000000000000e+00,5.000000000000000000e+00,5.000000000000000000e+00,5.000000000000000000e+00,5.000000000000000000e+00,5.000000000000000000e+00,5.000000000000000000e+00,5.000000000000000000e+00,5.000000000000000000e+00,5.000000000000000000e+00,5.000000000000000000e+00,5.000000000000000000e+00,5.000000000000000000e+00,5.000000000000000000e+00,5.000000000000000000e+00,5.000000000000000000e+00,5.000000000000000000e+00,5.000000000000000000e+00,5.000000000000000000e+00,5.000000000000000000e+00,5.000000000000000000e+00,5.000000000000000000e+00,5.000000000000000000e+00,5.000000000000000000e+00,5.000000000000000000e+00,5.000000000000000000e+00,5.000000000000000000e+00,5.000000000000000000e+00,5.000000000000000000e+00,5.000000000000000000e+00,5.000000000000000000e+00,5.000000000000000000e+00,5.000000000000000000e+00,5.000000000000000000e+00,5.000000000000000000e+00,5.000000000000000000e+00,5.000000000000000000e+00,3.617060899734497070e+00,3.609059810638427734e+00,3.824033260345458984e+00,5.000000000000000000e+00,3.799458742141723633e+00,5.000000000000000000e+00,5.000000000000000000e+00,5.000000000000000000e+00,5.000000000000000000e+00,5.000000000000000000e+00,5.000000000000000000e+00,5.000000000000000000e+00,5.000000000000000000e+00,4.995830059051513672e+00,4.794765472412109375e+00,4.609259605407714844e+00,4.437572956085205078e+00,4.278217315673828125e+00,4.129909038543701172e+00,3.991539716720581055e+00,3.862141370773315430e+00,3.740869522094726562e+00,3.626981496810913086e+00,3.519823312759399414e+00,3.418815135955810547e+00,3.323442459106445312e+00,3.233246326446533203e+00,3.147816658020019531e+00,3.066785335540771484e+00,2.989821195602416992e+00,2.916625499725341797e+00,2.846927881240844727e+00,2.780483961105346680e+00,2.717070579528808594e+00,2.656485080718994141e+00,2.598542451858520508e+00,2.543073892593383789e+00,2.489923477172851562e+00
4.885459899902343750e+00,5.000000000000000000e+00,5.000000000000000000e+00,5.000000000000000000e+00,5.000000000000000000e+00,5.000000000000000000e+00,5.000000000000000000e+00,5.000000000000000000e+00,5.000000000000000000e+00,5.000000000000000000e+00,5.000000000000000000e+00,5.000000000000000000e+00,5.000000000000000000e+00,5.000000000000000000e+00,5.000000000000000000e+00,5.000000000000000000e+00,5.000000000000000000e+00,5.000000000000000000e+00,5.000000000000000000e+00,5.000000000000000000e+00,5.000000000000000000e+00,5.000000000000000000e+00,5.000000000000000000e+00,5.000000000000000000e+00,5.000000000000000000e+00,5.000000000000000000e+00,5.000000000000000000e+00,5.000000000000000000e+00,5.000000000000000000e+00,5.000000000000000000e+00,5.000000000000000000e+00,5.000000000000000000e+00,5.000000000000000000e+00,5.000000000000000000e+00,5.000000000000000000e+00,5.000000000000000000e+00,5.000000000000000000e+00,5.000000000000000000e+00,5.000000000000000000e+00,5.000000000000000000e+00,5.000000000000000000e+00,5.000000000000000000e+00,3.632833957672119141e+00,3.600793361663818359e+00,3.869516134262084961e+00,5.000000000000000000e+00,5.000000000000000000e+00,5.000000000000000000e+00,5.000000000000000000e+00,5.000000000000000000e+00,5.000000000000000000e+00,5.000000000000000000e+00,5.000000000000000000e+00,5.000000000000000000e+00,5.000000000000000000e+00,4.995986461639404297e+00,4.794909954071044922e+00,4.609392642974853516e+00,4.437696456909179688e+00,4.278331756591796875e+00,4.130016326904296875e+00,3.991639375686645508e+00,3.862234830856323242e+00,3.740957021713256836e+00,3.627063989639282227e+00,3.519900798797607422e+00,3.418888092041015625e+00,3.323511600494384766e+00,3.233311891555786133e+00,3.147878885269165039e+00,3.066844463348388672e+00,2.989877462387084961e+00,2.916679143905639648e+00,2.846978902816772461e+00,2.780532598495483398e+00,2.717116594314575195e+00,2.656529188156127930e+00,2.598584890365600586e+00,2.543114185333251953e+00,2.489962339401245117e+00
4.885346889495849609e+00,5.000000000000000000e+00,5.000000000000000000e+00,5.000000000000000000e+00,5.000000000000000000e+00,5.000000000000000000e+00,5.000000000000000000e+00,5.000000000000000000e+00,5.000000000000000000e+00,5.000000000000000000e+00,5.000000000000000000e+00,5.000000000000000000e+00,5.000000000000000000e+00,5.000000000000000000e+00,5.000000000000000000e+00,5.000000000000000000e+00,5.000000000000000000e+00,5.000000000000000000e+00,5.000000000000000000e+00,5.000000000000000000e+00,5.000000000000000000e+00,5.000000000000000000e+00,5.000000000000000000e+00,5.000000000000000000e+00,5.000000000000000000e+00,5.000000000000000000e+00,5.000000000000000000e+00,5.000000000000000000e+00,5.000000000000000000e+00,5.000000000000000000e+00,5.000000000000000000e+00,5.000000000000000000e+00,5.000000000000000000e+00,5.000000000000000000e+00,5.000000000000000000e+00,5.000000000000000000e+00,5.000000000000000000e+00,5.000000000000000000e+00,5.000000000000000000e+00,5.000000000000000000e+00,5.000000000000000000e+00,5.000000000000000000e+00,3.655916690826416016e+00,3.591449499130249023e+00,3.931810617446899414e+00,5.000000000000000000e+00,5.000000000000000000e+00,5.000000000000000000e+00,5.000000000000000000e+00,5.000000000000000000e+00,5.000000000000000000e+00,5.000000000000000000e+00,5.000000000000000000e+00,5.000000000000000000e+00,5.000000000000000000e+00,4.996142864227294922e+00,4.795053958892822266e+00,4.609526157379150391e+00,4.437819957733154297e+00,4.278446674346923828e+00,4.130123138427734375e+00,3.991739749908447266e+00,3.862328529357910156e+00,3.741044998168945312e+00,3.627146720886230469e+00,3.519978761672973633e+00,3.418961286544799805e+00,3.323580741882324219e+00,3.233377456665039062e+00,3.147940874099731445e+00,3.066903352737426758e+00,2.989933490753173828e+00,2.916732311248779297e+00,2.847029685974121094e+00,2.780580997467041016e+00,2.717163085937500000e+00,2.656573534011840820e+00,2.598627328872680664e+00,2.543154954910278320e+00,2.490001440048217773e+00
4.885224342346191406e+00,5.000000000000000000e+00,5.000000000000000000e+00,5.000000000000000000e+00,5.000000000000000000e+00,5.000000000000000000e+00,5.000000000000000000e+00,5.000000000000000000e+00,5.000000000000000000e+00,5.000000000000000000e+00,5.000000000000000000e+00,5.000000000000000000e+00,5.000000000000000000e+00,5.000000000000000000e+00,5.000000000000000000e+00,5.000000000000000000e+00,5.000000000000000000e+00,5.000000000000000000e+00,5.000000000000000000e+00,5.000000000000000000e+00,5.000000000000000000e+00,5.000000000000000000e+00,5.000000000000000000e+00,5.000000000000000000e+00,5.000000000000000000e+00,5.000000000000000000e+00,5.000000000000000000e+00,5.000000000000000000e+00,5.000000000000000000e+00,5.000000000000000000e+00,5.000000000000000000e+00,5.000000000000000000e+00,5.000000000000000000e+00,5.000000000000000000e+00,5.000000000000000000e+00,5.000000000000000000e+00,5.000000000000000000e+00,5.000000000000000000e+00,5.000000000000000000e+00,5.000000000000000000e+00,5.000000000000000000e+00,5.000000000000000000e+00,5.000000000000000000e+00,3.550860166549682617e+00,3.558254003524780273e+00,5.000000000000000000e+00,5.000000000000000000e+00,5.000000000000000000e+00,5.000000000000000000e+00,5.000000000000000000e+00,5.000000000000000000e+00,5.000000000000000000e+00,5.000000000000000000e+00,5.000000000000000000e+00,5.000000000000000000e+00,4.996299743652343750e+00,4.795198440551757812e+00,4.609659194946289062e+00,4.437943458557128906e+00,4.278561115264892578e+00,4.130230426788330078e+00,3.991839408874511719e+00,3.862421989440917969e+00,3.741132736206054688e+00,3.627228975296020508e+00,3.520056247711181641e+00,3.419034719467163086e+00,3.323650121688842773e+00,3.233443260192871094e+00,3.148003339767456055e+00,3.066962480545043945e+00,2.989989757537841797e+00,2.916785717010498047e+00,2.847080707550048828e+00,2.780629396438598633e+00,2.717209339141845703e+00,2.656617641448974609e+00,2.598669528961181641e+00,2.543195486068725586e+00,2.490040063858032227e+00
4.885099411010742188e+00,5.000000000000000000e+00,5.000000000000000000e+00,5.000000000000000000e+00,5.000000000000000000e+00,5.000000000000000000e+00,5.000000000000000000e+00,5.000000000000000000e+00,5.000000000000000000e+00,5.000000000000000000e+00,5.000000000000000000e+00,5.000000000000000000e+00,5.000000000000000000e+00,5.000000000000000000e+00,5.000000000000000000e+00,5.000000000000000000e+00,5.000000000000000000e+00,5.000000000000000000e+00,5.000000000000000000e+00,5.000000000000000000e+00,5.000000000000000000e+00,5.000000000000000000e+00,5.000000000000000000e+00,5.000000000000000000e+00,5.000000000000000000e+00,5.000000000000000000e+00,5.000000000000000000e+00,5.000000000000000000e+00,5.000000000000000000e+00,5.000000000000000000e+00,5.000000000000000000e+00,5.000000000000000000e+00,5.000000000000000000e+00,5.000000000000000000e+00,5.000000000000000000e+00,5.000000000000000000e+00,5.000000000000000000e+00,5.000000000000000000e+00,5.000000000000000000e+00,5.000000000000000000e+00,5.000000000000000000e+00,5.000000000000000000e+00,5.000000000000000000e+00,3.525876045227050781e+00,3.501537322998046875e+00,5.000000000000000000e+00,5.000000000000000000e+00,5.000000000000000000e+00,5.000000000000000000e+00,5.000000000000000000e+00,5.000000000000000000e+00,5.000000000000000000e+00,5.000000000000000000e+00,5.000000000000000000e+00,5.000000000000000000e+00,4.996456146240234375e+00,4.795342445373535156e+00,4.609792232513427734e+00,4.438066959381103516e+00,4.278676033020019531e+00,4.130337238311767578e+00,3.991939544677734375e+00,3.862515926361083984e+00,3.741220712661743164e+00,3.627311706542968750e+00,3.520133733749389648e+00,3.419107913970947266e+00,3.323719263076782227e+00,3.233508586883544922e+00,3.148065328598022461e+00,3.067021369934082031e+00,2.990045547485351562e+00,2.916839122772216797e+00,2.847131490707397461e+00,2.780678033828735352e+00,2.717255830764770508e+00,2.656662225723266602e+00,2.598711967468261719e+00,2.543236017227172852e+00,2.490079164505004883e+00
4.884974956512451172e+00,5.000000000000000000e+00,5.000000000000000000e+00,5.000000000000000000e+00,5.000000000000000000e+00,5.000000000000000000e+00,5.000000000000000000e+00,5.000000000000000000e+00,5.000000000000000000e+00,5.000000000000000000e+00,5.000000000000000000e+00,5.000000000000000000e+00,5.000000000000000000e+00,5.000000000000000000e+00,5.000000000000000000e+00,5.000000000000000000e+00,5.000000000000000000e+00,5.000000000000000000e+00,5.000000000000000000e+00,5.000000000000000000e+00,5.000000000000000000e+00,5.000000000000000000e+00,5.000000000000000000e+00,5.000000000000000000e+00,5.000000000000000000e+00,5.000000000000000000e+00,5.000000000000000000e+00,5.000000000000000000e+00,5.000000000000000000e+00,5.000000000000000000e+00,5.000000000000000000e+00,5.000000000000000000e+00,5.000000000000000000e+00,5.000000000000000000e+00,5.000000000000000000e+00,5.000000000000000000e+00,5.000000000000000000e+00,5.000000000000000000e+00,5.000000000000000000e+00,5.000000000000000000e+00,5.000000000000000000e+00,5.000000000000000000e+00,5.000000000000000000e+00,3.521556615829467773e+00,3.478012800216674805e+00,5.000000000000000000e+00,5.000000000000000000e+00,5.000000000000000000e+00,5.000000000000000000e+00,5.000000000000000000e+00,5.000000000000000000e+00,5.000000000000000000e+00,5.000000000000000000e+00,5.000000000000000000e+00,5.000000000000000000e+00,4.996613025665283203e+00,4.795486927032470703e+00,4.609925746917724609e+00,4.438190460205078125e+00,4.278790950775146484e+00,4.130444526672363281e+00,3.992039442062377930e+00,3.862609148025512695e+00,3.741308212280273438e+00,3.627393960952758789e+00,3.520211696624755859e+00,3.419181585311889648e+00,3.323788881301879883e+00,3.233574390411376953e+00,3.148127555847167969e+00,3.067080497741699219e+00,2.990101814270019531e+00,2.916892528533935547e+00,2.847182035446166992e+00,2.780726432800292969e+00,2.717302083969116211e+00,2.656706333160400391e+00,2.598754167556762695e+00,2.543276548385620117e+00,2.490118026733398438e+00
4.884850025177001953e+00,5.000000000000000000e+00,5.000000000000000000e+00,5.000000000000000000e+00,5.000000000000000000e+00,5.000000000000000000e+00,5.000000000000000000e+00,5.000000000000000000e+00,5.000000000000000000e+00,5.000000000000000000e+00,5.000000000000000000e+00,5.000000000000000000e+00,5.000000000000000000e+00,5.000000000000000000e+00,5.000000000000000000e+00,5.000000000000000000e+00,5.000000000000000000e+00,5.000000000000000000e+00,5.000000000000000000e+00,5.000000000000000000e+00,5.000000000000000000e+00,5.000000000000000000e+00,5.000000000000000000e+00,5.000000000000000000e+00,5.000000000000000000e+00,5.000000000000000000e+00,5.000000000000000000e+00,5.000000000000000000e+00,5.000000000000000000e+00,5.000000000000000000e+00,5.000000000000000000e+00,5.000000000000000000e+00,5.000000000000000000e+00,5.000000000000000000e+00,5.000000000000000000e+00,5.000000000000000000e+00,5.000000000000000000e+00,5.000000000000000000e+00,5.000000000000000000e+00,5.000000000000000000e+00,5.000000000000000000e+00,5.000000000000000000e+00,5.000000000000000000e+00,3.941911697387695312e+00,3.454813718795776367e+00,5.000000000000000000e+00,5.000000000000000000e+00,5.000000000000000000e+00,5.000000000000000000e+00,5.000000000000000000e+00,5.000000000000000000e+00,5.000000000000000000e+00,5.000000000000000000e+00,5.000000000000000000e+00,5.000000000000000000e+00,4.996769428253173828e+00,4.795630931854248047e+00,4.610058784484863281e+00,4.438313961029052734e+00,4.278905868530273438e+00,4.130551338195800781e+00,3.992139577865600586e+00,3.862703084945678711e+00,3.741396188735961914e+00,3.627476453781127930e+00,3.520289182662963867e+00,3.419254779815673828e+00,3.323858022689819336e+00,3.233639717102050781e+00,3.148189544677734375e+00,3.067139387130737305e+00,2.990157842636108398e+00,2.916945695877075195e+00,2.847233057022094727e+00,2.780775070190429688e+00,2.717348337173461914e+00,2.656750679016113281e+00,2.598796844482421875e+00,2.543317317962646484e+00,2.490156888961791992e+00
4.884725093841552734e+00,5.000000000000000000e+00,5.000000000000000000e+00,5.000000000000000000e+00,5.000000000000000000e+00,5.000000000000000000e+00,5.000000000000000000e+00,5.000000000000000000e+00,5.000000000000000000e+00,5.000000000000000000e+00,5.000000000000000000e+00,5.000000000000000000e+00,5.000000000000000000e+00,5.000000000000000000e+00,5.000000000000000000e+00,5.000000000000000000e+00,5.000000000000000000e+00,5.000000000000000000e+00,5.000000000000000000e+00,5.000000000000000000e+00,5.000000000000000000e+00,5.000000000000000000e+00,5.000000000000000000e+00,5.000000000000000000e+00,5.000000000000000000e+00,5.000000000000000000e+00,5.000000000000000000e+00,5.000000000000000000e+00,5.000000000000000000e+00,5.000000000000000000e+00,5.000000000000000000e+00,5.000000000000000000e+00,5.000000000000000000e+00,5.000000000000000000e+00,5.000000000000000000e+00,5.000000000000000000e+00,5.000000000000000000e+00,5.000000000000000000e+00,5.000000000000000000e+00,5.000000000000000000e+00,5.000000000000000000e+00,5.000000000000000000e+00,4.005231857299804688e+00,3.957568645477294922e+00,3.451466083526611328e+00,3.433696746826171875e+00,5.000000000000000000e+00,5.000000000000000000e+00,5.000000000000000000e+00,5.000000000000000000e+00,5.000000000000000000e+00,5.000000000000000000e+00,5.000000000000000000e+00,5.000000000000000000e+00,5.000000000000000000e+00,4.996926307678222656e+00,4.795774936676025391e+00,4.610192298889160156e+00,4.438437461853027344e+00,4.279020786285400391e+00,4.130658149719238281e+00,3.992239236831665039e+00,3.862796306610107422e+00,3.741483926773071289e+00,3.627559185028076172e+00,3.520367145538330078e+00,3.419328212738037109e+00,3.323927402496337891e+00,3.233705520629882812e+00,3.148252010345458984e+00,3.067198514938354492e+00,2.990214109420776367e+00,2.916999101638793945e+00,2.847283840179443359e+00,2.780823469161987305e+00,2.717394590377807617e+00,2.656794786453247070e+00,2.598839044570922852e+00,2.543357849121093750e+00,2.490195751190185547e+00
4.884443759918212891e+00,5.000000000000000000e+00,5.000000000000000000e+00,5.000000000000000000e+00,5.000000000000000000e+00,5.000000000000000000e+00,5.000000000000000000e+00,5.000000000000000000e+00,5.000000000000000000e+00,5.000000000000000000e+00,5.000000000000000000e+00,5.000000000000000000e+00,5.000000000000000000e+00,5.000000000000000000e+00,5.000000000000000000e+00,5.000000000000000000e+00,5.000000000000000000e+00,5.000000000000000000e+00,5.000000000000000000e+00,5.000000000000000000e+00,5.000000000000000000e+00,5.000000000000000000e+00,5.000000000000000000e+00,5.000000000000000000e+00,5.000000000000000000e+00,5.000000000000000000e+00,5.000000000000000000e+00,5.000000000000000000e+00,5.000000000000000000e+00,5.000000000000000000e+00,5.000000000000000000e+00,5.000000000000000000e+00,5.000000000000000000e+00,5.000000000000000000e+00,5.000000000000000000e+00,5.000000000000000000e+00,5.000000000000000000e+00,5.000000000000000000e+00,5.000000000000000000e+00,5.000000000000000000e+00,5.000000000000000000e+00,5.000000000000000000e+00,5.000000000000000000e+00,3.982698202133178711e+00,5.000000000000000000e+00,3.415231943130493164e+00,5.000000000000000000e+00,5.000000000000000000e+00,5.000000000000000000e+00,5.000000000000000000e+00,5.000000000000000000e+00,5.000000000000000000e+00,5.000000000000000000e+00,5.000000000000000000e+00,5.000000000000000000e+00,4.997082233428955078e+00,4.795919418334960938e+00,4.610325813293457031e+00,4.438560962677001953e+00,4.279135704040527344e+00,4.130765438079833984e+00,3.992339611053466797e+00,3.862890243530273438e+00,3.741571426391601562e+00,3.627641439437866211e+00,3.520444631576538086e+00,3.419401407241821289e+00,3.323996543884277344e+00,3.233771085739135742e+00,3.148313999176025391e+00,3.067257404327392578e+00,2.990269899368286133e+00,2.917052507400512695e+00,2.847334861755371094e+00,2.780872106552124023e+00,2.717441082000732422e+00,2.656839132308959961e+00,2.598881483078002930e+00,2.543398380279541016e+00,2.490234613418579102e+00
4.873672008514404297e+00,4.872468471527099609e+00,4.871265888214111328e+00,4.870063781738281250e+00,4.868862152099609375e+00,4.867660999298095703e+00,4.866460800170898438e+00,4.865261077880859375e+00,4.864061355590820312e+00,4.862863063812255859e+00,4.861665248870849609e+00,4.860467433929443359e+00,4.859270572662353516e+00,4.858074665069580078e+00,4.856878757476806641e+00,4.855683803558349609e+00,4.854489326477050781e+00,4.853295326232910156e+00,4.852102279663085938e+00,4.850909233093261719e+00,4.849717140197753906e+00,4.848525524139404297e+00,4.847334861755371094e+00,4.846144676208496094e+00,4.844954490661621094e+00,4.843765258789062500e+00,4.842576980590820312e+00,4.841388702392578125e+00,4.840200901031494141e+00,4.839014053344726562e+00,4.837828159332275391e+00,4.836642265319824219e+00,4.835456848144531250e+00,4.834272384643554688e+00,4.833088397979736328e+00,4.831904888153076172e+00,4.830722332000732422e+00,4.829540252685546875e+00,4.828358173370361328e+00,4.827177047729492188e+00,4.825996875762939453e+00,4.824816703796386719e+00,4.027136325836181641e+00,4.822458744049072266e+00,4.821280479431152344e+00,3.395527124404907227e+00,4.818925857543945312e+00,4.817749500274658203e+00,4.816573619842529297e+00,4.815398216247558594e+00,4.814223289489746094e+00,4.813049316406250000e+00,4.811875343322753906e+00,4.810702800750732422e+00,4.809530258178710938e+00,4.808358192443847656e+00,4.796063899993896484e+00,4.610458850860595703e+00,4.438684940338134766e+00,4.279250621795654297e+00,4.130872249603271484e+00,3.992439270019531250e+00,3.862983703613281250e+00,3.741659402847290039e+00,3.627724409103393555e+00,3.520522594451904297e+00,3.419474840164184570e+00,3.324065923690795898e+00,3.233836650848388672e+00,3.148376226425170898e+00,3.067316532135009766e+00,2.990325927734375000e+00,2.917105913162231445e+00,2.847385644912719727e+00,2.780920505523681641e+00,2.717487335205078125e+00,2.656883478164672852e+00,2.598923683166503906e+00,2.543438911437988281e+00,2.490273475646972656e+00
3.777337312698364258e+00,3.776614189147949219e+00,3.775891780853271484e+00,3.775169134140014648e+00,3.774447202682495117e+00,3.773725509643554688e+00,3.773003816604614258e+00,3.772282600402832031e+00,3.771561861038208008e+00,3.770840883255004883e+00,3.770120620727539062e+00,3.769400596618652344e+00,3.768680572509765625e+00,3.767961025238037109e+00,3.767241954803466797e+00,3.766522645950317383e+00,3.765804052352905273e+00,3.765085697174072266e+00,3.764367103576660156e+00,3.763649225234985352e+00,3.762931823730468750e+00,3.762214183807373047e+00,3.761497259140014648e+00,3.760780096054077148e+00,3.760063648223876953e+00,3.759347438812255859e+00,3.758631229400634766e+00,3.757915496826171875e+00,3.757200241088867188e+00,3.756484746932983398e+00,3.755769968032836914e+00,3.755055427551269531e+00,3.754340648651123047e+00,3.753626823425292969e+00,3.752912998199462891e+00,3.752199172973632812e+00,3.751486063003540039e+00,3.750773191452026367e+00,3.750060081481933594e+00,3.749347686767578125e+00,3.748635768890380859e+00,3.747923374176025391e+00,3.747211933135986328e+00,3.746500253677368164e+00,3.495968103408813477e+00,3.544191122055053711e+00,3.744367599487304688e+00,3.743657350540161133e+00,3.742947578430175781e+00,3.742237567901611328e+00,3.741528034210205078e+00,3.740818977355957031e+00,3.740109682083129883e+00,3.739401102066040039e+00,3.738692998886108398e+00,3.737984418869018555e+00,3.737276792526245117e+00,3.736569166183471680e+00,3.735861539840698242e+00,3.735154628753662109e+00,3.734447956085205078e+00,3.733741044998168945e+00,3.733034849166870117e+00,3.732328653335571289e+00,3.627806663513183594e+00,3.520600318908691406e+00,3.419548034667968750e+00,3.324135065078735352e+00,3.233902215957641602e+00,3.148438453674316406e+00,3.067375421524047852e+00,2.990382194519042969e+00,2.917159318923950195e+00,2.847436666488647461e+00,2.780968904495239258e+00,2.717533826828002930e+00,2.656927824020385742e+00,2.598966121673583984e+00,2.543479442596435547e+00,2.490312337875366211e+00
3.083665370941162109e+00,3.083183526992797852e+00,3.082701921463012695e+00,3.082220315933227539e+00,3.081738948822021484e+00,3.081257820129394531e+00,3.080776929855346680e+00,3.080295801162719727e+00,3.079815149307250977e+00,3.079334735870361328e+00,3.078854084014892578e+00,3.078373908996582031e+00,3.077893972396850586e+00,3.077413797378540039e+00,3.076933860778808594e+00,3.076454401016235352e+00,3.075974702835083008e+00,3.075495243072509766e+00,3.075016260147094727e+00,3.074537038803100586e+00,3.074058055877685547e+00,3.073579311370849609e+00,3.073100566864013672e+00,3.072622060775756836e+00,3.072143554687500000e+00,3.071665525436401367e+00,3.071187496185302734e+00,3.070709466934204102e+00,3.070231914520263672e+00,3.069754362106323242e+00,3.069276809692382812e+00,3.068799495697021484e+00,3.068322420120239258e+00,3.067845344543457031e+00,3.067368507385253906e+00,3.066891908645629883e+00,3.066415071487426758e+00,3.065938949584960938e+00,3.065462827682495117e+00,3.064986467361450195e+00,3.064510583877563477e+00,3.064034938812255859e+00,3.063559055328369141e+00,3.063083648681640625e+00,3.062608003616333008e+00,3.062132835388183594e+00,3.061657905578613281e+00,3.061182737350463867e+00,3.060708045959472656e+00,3.060233592987060547e+00,3.059758901596069336e+00,3.059284687042236328e+00,3.058810472488403320e+00,3.058336257934570312e+00,3.057862520217895508e+00,3.057388782501220703e+00,3.056915044784545898e+00,3.056441545486450195e+00,3.055968523025512695e+00,3.055495023727416992e+00,3.055022001266479492e+00,3.054549217224121094e+00,3.054076433181762695e+00,3.053603887557983398e+00,3.053131341934204102e+00,3.052659034729003906e+00,3.052186965942382812e+00,3.051714897155761719e+00,3.051243066787719727e+00,3.050771474838256836e+00,3.050299644470214844e+00,2.990438222885131836e+00,2.917212486267089844e+00,2.847487211227416992e+00,2.781017541885375977e+00,2.717579841613769531e+00,2.656971931457519531e+00,2.599008560180664062e+00,2.543519973754882812e+00,2.490351438522338867e+00
2.605238199234008789e+00,2.604894161224365234e+00,2.604550600051879883e+00,2.604206562042236328e+00,2.603863000869750977e+00,2.603519678115844727e+00,2.603176116943359375e+00,2.602832794189453125e+00,2.602489471435546875e+00,2.602146387100219727e+00,2.601803302764892578e+00,2.601460218429565430e+00,2.601117372512817383e+00,2.600774526596069336e+00,2.600431680679321289e+00,2.600089311599731445e+00,2.599746704101562500e+00,2.599404096603393555e+00,2.599061965942382812e+00,2.598719596862792969e+00,2.598377227783203125e+00,2.598035335540771484e+00,2.597693443298339844e+00,2.597351312637329102e+00,2.597009658813476562e+00,2.596668004989624023e+00,2.596326112747192383e+00,2.595984697341918945e+00,2.595643043518066406e+00,2.595301866531372070e+00,2.594960689544677734e+00,2.594619274139404297e+00,2.594278335571289062e+00,2.593937397003173828e+00,2.593596220016479492e+00,2.593255519866943359e+00,2.592914819717407227e+00,2.592574119567871094e+00,2.592233657836914062e+00,2.591893196105957031e+00,2.591552734375000000e+00,2.591212511062622070e+00,2.590872287750244141e+00,2.590532064437866211e+00,2.590192079544067383e+00,2.589852333068847656e+00,2.589512348175048828e+00,2.589172601699829102e+00,2.588832855224609375e+00,2.588493347167968750e+00,2.588153839111328125e+00,2.587814331054687500e+00,2.587475061416625977e+00,2.587136030197143555e+00,2.586796760559082031e+00,2.586457729339599609e+00,2.586118936538696289e+00,2.585779905319213867e+00,2.585441112518310547e+00,2.585102558135986328e+00,2.584763765335083008e+00,2.584425449371337891e+00,2.584087133407592773e+00,2.583748579025268555e+00,2.583410501480102539e+00,2.583072423934936523e+00,2.582734107971191406e+00,2.582396268844604492e+00,2.582058191299438477e+00,2.581720590591430664e+00,2.581382751464843750e+00,2.581045150756835938e+00,2.580707550048828125e+00,2.580370187759399414e+00,2.580032825469970703e+00,2.579695463180541992e+00,2.579358339309692383e+00,2.579021215438842773e+00,2.543560504913330078e+00,2.490390300750732422e+00
2.255326747894287109e+00,2.255069017410278320e+00,2.254811286926269531e+00,2.254553794860839844e+00,2.254296064376831055e+00,2.254038810729980469e+00,2.253781318664550781e+00,2.253523826599121094e+00,2.253266572952270508e+00,2.253009319305419922e+00,2.252752065658569336e+00,2.252495050430297852e+00,2.252237796783447266e+00,2.251981019973754883e+00,2.251724004745483398e+00,2.251466989517211914e+00,2.251210212707519531e+00,2.250953435897827148e+00,2.250696659088134766e+00,2.250440120697021484e+00,2.250183582305908203e+00,2.249926805496215820e+00,2.249670505523681641e+00,2.249413967132568359e+00,2.249157667160034180e+00,2.248901367187500000e+00,2.248645067214965820e+00,2.248388767242431641e+00,2.248132705688476562e+00,2.247876644134521484e+00,2.247620582580566406e+00,2.247364759445190430e+00,2.247108697891235352e+00,2.246852874755859375e+00,2.246597051620483398e+00,2.246341228485107422e+00,2.246085643768310547e+00,2.245830059051513672e+00,2.245574474334716797e+00,2.245318889617919922e+00,2.245063543319702148e+00,2.244807958602905273e+00,2.244552850723266602e+00,2.244297504425048828e+00,2.244042396545410156e+00,2.243787288665771484e+00,2.243532180786132812e+00,2.243277072906494141e+00,2.243021965026855469e+00,2.242767095565795898e+00,2.242512226104736328e+00,2.242257595062255859e+00,2.242002725601196289e+00,2.241748094558715820e+00,2.241493463516235352e+00,2.241238832473754883e+00,2.240984201431274414e+00,2.240729808807373047e+00,2.240475416183471680e+00,2.240221023559570312e+00,2.239966869354248047e+00,2.239712476730346680e+00,2.239458322525024414e+00,2.239204406738281250e+00,2.238950252532958984e+00,2.238696336746215820e+00,2.238442420959472656e+00,2.238188505172729492e+00,2.237934589385986328e+00,2.237680912017822266e+00,2.237426996231079102e+00,2.237173557281494141e+00,2.236919879913330078e+00,2.236666440963745117e+00,2.236413002014160156e+00,2.236159324645996094e+00,2.235906124114990234e+00,2.235652685165405273e+00,2.235399484634399414e+00,2.235146284103393555e+00
1.988279461860656738e+00,1.988079190254211426e+00,1.987879037857055664e+00,1.987678766250610352e+00,1.987478613853454590e+00,1.987278342247009277e+00,1.987078309059143066e+00,1.986878275871276855e+00,1.986678242683410645e+00,1.986478328704833984e+00,1.986278414726257324e+00,1.986078381538391113e+00,1.985878467559814453e+00,1.985678791999816895e+00,1.985478997230529785e+00,1.985279321670532227e+00,1.985079407691955566e+00,1.984879732131958008e+00,1.984680175781250000e+00,1.984480619430541992e+00,1.984281182289123535e+00,1.984081625938415527e+00,1.983882069587707520e+00,1.983682632446289062e+00,1.983483314514160156e+00,1.983283996582031250e+00,1.983084797859191895e+00,1.982885479927062988e+00,1.982686161994934082e+00,1.982486963272094727e+00,1.982287883758544922e+00,1.982088804244995117e+00,1.981889724731445312e+00,1.981690526008605957e+00,1.981491684913635254e+00,1.981292724609375000e+00,1.981093883514404297e+00,1.980895042419433594e+00,1.980696201324462891e+00,1.980497241020202637e+00,1.980298638343811035e+00,1.980099916458129883e+00,1.979901313781738281e+00,1.979702711105346680e+00,1.979504108428955078e+00,1.979305386543273926e+00,1.979106903076171875e+00,1.978908538818359375e+00,1.978710174560546875e+00,1.978511810302734375e+00,1.978313446044921875e+00,1.978114962577819824e+00,1.977916717529296875e+00,1.977718591690063477e+00,1.977520465850830078e+00,1.977322340011596680e+00,1.977123975753784180e+00,1.976925969123840332e+00,1.976727962493896484e+00,1.976530075073242188e+00,1.976332187652587891e+00,1.976134300231933594e+00,1.975936174392700195e+00,1.975738406181335449e+00,1.975540637969970703e+00,1.975342988967895508e+00,1.975145220756530762e+00,1.974947690963745117e+00,1.974749803543090820e+00,1.974552273750305176e+00,1.974354743957519531e+00,1.974157214164733887e+00,1.973959803581237793e+00,1.973762154579162598e+00,1.973564863204956055e+00,1.973367571830749512e+00,1.973170280456542969e+00,1.972972989082336426e+00,1.972775816917419434e+00,1.972578406333923340e+00
1.777777552604675293e+00,1.777617454528808594e+00,1.777457356452941895e+00,1.777297377586364746e+00,1.777137279510498047e+00,1.776977300643920898e+00,1.776817202568054199e+00,1.776657223701477051e+00,1.776497364044189453e+00,1.776337504386901855e+00,1.776177644729614258e+00,1.776017785072326660e+00,1.775857806205749512e+00,1.775698065757751465e+00,1.775538325309753418e+00,1.775378584861755371e+00,1.775218963623046875e+00,1.775059103965759277e+00,1.774899482727050781e+00,1.774739861488342285e+00,1.774580359458923340e+00,1.774420857429504395e+00,1.774261355400085449e+00,1.774101614952087402e+00,1.773942232131958008e+00,1.773782730102539062e+00,1.773623347282409668e+00,1.773463964462280273e+00,1.773304700851440430e+00,1.773145198822021484e+00,1.772985935211181641e+00,1.772826671600341797e+00,1.772667407989501953e+00,1.772508263587951660e+00,1.772348880767822266e+00,1.772189736366271973e+00,1.772030711174011230e+00,1.771871566772460938e+00,1.771712541580200195e+00,1.771553516387939453e+00,1.771394371986389160e+00,1.771235346794128418e+00,1.771076440811157227e+00,1.770917534828186035e+00,1.770758628845214844e+00,1.770599842071533203e+00,1.770440816879272461e+00,1.770282030105590820e+00,1.770123243331909180e+00,1.769964575767517090e+00,1.769805788993835449e+00,1.769647121429443359e+00,1.769488334655761719e+00,1.769329667091369629e+00,1.769171118736267090e+00,1.769012570381164551e+00,1.768854022026062012e+00,1.768695235252380371e+00,1.768536806106567383e+00,1.768378376960754395e+00,1.768219947814941406e+00,1.768061518669128418e+00,1.767903208732604980e+00,1.767744660377502441e+00,1.767586350440979004e+00,1.767428040504455566e+00,1.767269849777221680e+00,1.767111659049987793e+00,1.766953468322753906e+00,1.766795039176940918e+00,1.766636967658996582e+00,1.766478776931762695e+00,1.766320705413818359e+00,1.766162633895874023e+00,1.766004443168640137e+00,1.765846490859985352e+00,1.765688538551330566e+00,1.765530586242675781e+00,1.765372753143310547e+00,1.765214800834655762e+00
1.607580900192260742e+00,1.607449889183044434e+00,1.607318997383117676e+00,1.607188105583190918e+00,1.607057213783264160e+00,1.606926441192626953e+00,1.606795549392700195e+00,1.606664657592773438e+00,1.606533885002136230e+00,1.606403112411499023e+00,1.606272339820861816e+00,1.606141686439514160e+00,1.606011033058166504e+00,1.605880141258239746e+00,1.605749487876892090e+00,1.605618953704833984e+00,1.605488300323486328e+00,1.605357766151428223e+00,1.605226993560791016e+00,1.605096459388732910e+00,1.604965925216674805e+00,1.604835510253906250e+00,1.604704976081848145e+00,1.604574561119079590e+00,1.604443907737731934e+00,1.604313492774963379e+00,1.604183197021484375e+00,1.604052782058715820e+00,1.603922367095947266e+00,1.603792071342468262e+00,1.603661656379699707e+00,1.603531360626220703e+00,1.603401064872741699e+00,1.603270888328552246e+00,1.603140592575073242e+00,1.603010416030883789e+00,1.602880120277404785e+00,1.602749943733215332e+00,1.602619767189025879e+00,1.602489709854125977e+00,1.602359652519226074e+00,1.602229356765747070e+00,1.602099299430847168e+00,1.601969361305236816e+00,1.601839303970336914e+00,1.601709365844726562e+00,1.601579308509826660e+00,1.601449251174926758e+00,1.601319313049316406e+00,1.601189374923706055e+00,1.601059556007385254e+00,1.600929737091064453e+00,1.600799798965454102e+00,1.600669860839843750e+00,1.600540041923522949e+00,1.600410342216491699e+00,1.600280523300170898e+00,1.600150823593139648e+00,1.600021004676818848e+00,1.599891185760498047e+00,1.599761605262756348e+00,1.599631905555725098e+00,1.599502325057983398e+00,1.599372625350952148e+00,1.599242925643920898e+00,1.599113345146179199e+00,1.598983764648437500e+00,1.598854303359985352e+00,1.598724842071533203e+00,1.598595261573791504e+00,1.598465681076049805e+00,1.598336219787597656e+00,1.598206877708435059e+00,1.598077416419982910e+00,1.597948074340820312e+00,1.597818732261657715e+00,1.597689270973205566e+00,1.597559928894042969e+00,1.597430586814880371e+00,1.597301363945007324e+00
1.467124700546264648e+00,1.467015624046325684e+00,1.466906428337097168e+00,1.466797471046447754e+00,1.466688513755798340e+00,1.466579556465148926e+00,1.466470479965209961e+00,1.466361641883850098e+00,1.466252565383911133e+00,1.466143608093261719e+00,1.466034650802612305e+00,1.465925812721252441e+00,1.465816974639892578e+00,1.465708136558532715e+00,1.465599179267883301e+00,1.465490341186523438e+00,1.465381503105163574e+00,1.465272784233093262e+00,1.465163946151733398e+00,1.465055108070373535e+00,1.464946389198303223e+00,1.464837670326232910e+00,1.464728951454162598e+00,1.464620232582092285e+00,1.464511513710021973e+00,1.464402794837951660e+00,1.464294195175170898e+00,1.464185476303100586e+00,1.464076876640319824e+00,1.463968276977539062e+00,1.463859677314758301e+00,1.463751077651977539e+00,1.463642477989196777e+00,1.463533997535705566e+00,1.463425517082214355e+00,1.463316917419433594e+00,1.463208436965942383e+00,1.463099956512451172e+00,1.462991476058959961e+00,1.462882995605468750e+00,1.462774634361267090e+00,1.462666273117065430e+00,1.462557673454284668e+00,1.462449312210083008e+00,1.462340950965881348e+00,1.462232708930969238e+00,1.462124347686767578e+00,1.462016105651855469e+00,1.461907625198364258e+00,1.461799383163452148e+00,1.461691141128540039e+00,1.461582899093627930e+00,1.461474657058715820e+00,1.461366415023803711e+00,1.461258172988891602e+00,1.461149930953979492e+00,1.461041808128356934e+00,1.460933685302734375e+00,1.460825562477111816e+00,1.460717320442199707e+00,1.460609197616577148e+00,1.460501194000244141e+00,1.460393071174621582e+00,1.460285067558288574e+00,1.460177063941955566e+00,1.460068821907043457e+00,1.459960818290710449e+00,1.459852933883666992e+00,1.459744930267333984e+00,1.459636926651000977e+00,1.459529042243957520e+00,1.459421038627624512e+00,1.459313154220581055e+00,1.459205269813537598e+00,1.459097385406494141e+00,1.458989500999450684e+00,1.458881616592407227e+00,1.458773732185363770e+00,1.458665847778320312e+00,1.458558082580566406e+00
1.349239945411682129e+00,1.349147677421569824e+00,1.349055528640747070e+00,1.348963141441345215e+00,1.348870992660522461e+00,1.348778843879699707e+00,1.348686695098876953e+00,1.348594546318054199e+00,1.348502397537231445e+00,1.348410129547119141e+00,1.348318099975585938e+00,1.348225951194763184e+00,1.348133921623229980e+00,1.348041772842407227e+00,1.347949743270874023e+00,1.347857594490051270e+00,1.347765564918518066e+00,1.347673535346984863e+00,1.347581505775451660e+00,1.347489476203918457e+00,1.347397565841674805e+00,1.347305536270141602e+00,1.347213506698608398e+00,1.347121596336364746e+00,1.347029685974121094e+00,1.346937775611877441e+00,1.346845746040344238e+00,1.346753835678100586e+00,1.346661925315856934e+00,1.346570014953613281e+00,1.346478223800659180e+00,1.346386313438415527e+00,1.346294403076171875e+00,1.346202611923217773e+00,1.346110820770263672e+00,1.346019029617309570e+00,1.345927238464355469e+00,1.345835447311401367e+00,1.345743536949157715e+00,1.345651745796203613e+00,1.345560073852539062e+00,1.345468282699584961e+00,1.345376610755920410e+00,1.345284819602966309e+00,1.345193147659301758e+00,1.345101475715637207e+00,1.345009803771972656e+00,1.344918131828308105e+00,1.344826579093933105e+00,1.344734787940979004e+00,1.344643235206604004e+00,1.344551563262939453e+00,1.344460010528564453e+00,1.344368457794189453e+00,1.344276905059814453e+00,1.344185233116149902e+00,1.344093680381774902e+00,1.344002127647399902e+00,1.343910574913024902e+00,1.343819141387939453e+00,1.343727588653564453e+00,1.343636035919189453e+00,1.343544602394104004e+00,1.343453168869018555e+00,1.343361735343933105e+00,1.343270301818847656e+00,1.343178749084472656e+00,1.343087434768676758e+00,1.342996001243591309e+00,1.342904567718505859e+00,1.342813253402709961e+00,1.342721939086914062e+00,1.342630505561828613e+00,1.342539072036743164e+00,1.342447876930236816e+00,1.342356562614440918e+00,1.342265248298645020e+00,1.342173933982849121e+00,1.342082619667053223e+00,1.341991305351257324e+00
1.248890519142150879e+00,1.248811483383178711e+00,1.248732566833496094e+00,1.248653531074523926e+00,1.248574495315551758e+00,1.248495459556579590e+00,1.248416543006896973e+00,1.248337507247924805e+00,1.248258590698242188e+00,1.248179674148559570e+00,1.248100638389587402e+00,1.248021721839904785e+00,1.247942805290222168e+00,1.247863888740539551e+00,1.247785091400146484e+00,1.247706174850463867e+00,1.247627258300781250e+00,1.247548341751098633e+00,1.247469544410705566e+00,1.247390627861022949e+00,1.247311830520629883e+00,1.247233033180236816e+00,1.247154116630554199e+00,1.247075319290161133e+00,1.246996521949768066e+00,1.246917724609375000e+00,1.246838927268981934e+00,1.246760129928588867e+00,1.246681332588195801e+00,1.246602654457092285e+00,1.246523976325988770e+00,1.246445178985595703e+00,1.246366500854492188e+00,1.246287703514099121e+00,1.246209025382995605e+00,1.246130347251892090e+00,1.246051669120788574e+00,1.245972990989685059e+00,1.245894312858581543e+00,1.245815634727478027e+00,1.245736956596374512e+00,1.245658397674560547e+00,1.245579719543457031e+00,1.245501160621643066e+00,1.245422482490539551e+00,1.245343923568725586e+00,1.245265364646911621e+00,1.245186805725097656e+00,1.245108246803283691e+00,1.245029687881469727e+00,1.244951128959655762e+00,1.244872570037841797e+00,1.244794011116027832e+00,1.244715571403503418e+00,1.244637012481689453e+00,1.244558572769165039e+00,1.244480013847351074e+00,1.244401574134826660e+00,1.244323134422302246e+00,1.244244694709777832e+00,1.244166254997253418e+00,1.244087815284729004e+00,1.244009375572204590e+00,1.243930935859680176e+00,1.243852496147155762e+00,1.243774175643920898e+00,1.243695735931396484e+00,1.243617296218872070e+00,1.243538975715637207e+00,1.243460655212402344e+00,1.243382334709167480e+00,1.243304014205932617e+00,1.243225693702697754e+00,1.243147253990173340e+00,1.243068933486938477e+00,1.242990732192993164e+00,1.242912411689758301e+00,1.242834210395812988e+00,1.242755889892578125e+00,1.242677569389343262e+00
1.162434816360473633e+00,1.162366271018981934e+00,1.162297844886779785e+00,1.162229418754577637e+00,1.162160992622375488e+00,1.162092566490173340e+00,1.162024021148681641e+00,1.161955714225769043e+00,1.161887288093566895e+00,1.161818861961364746e+00,1.161750435829162598e+00,1.161682009696960449e+00,1.161613702774047852e+00,1.161545276641845703e+00,1.161476969718933105e+00,1.161408662796020508e+00,1.161340236663818359e+00,1.161271810531616211e+00,1.161203503608703613e+00,1.161135196685791016e+00,1.161066889762878418e+00,1.160998582839965820e+00,1.160930395126342773e+00,1.160861968994140625e+00,1.160793662071228027e+00,1.160725474357604980e+00,1.160657167434692383e+00,1.160588979721069336e+00,1.160520672798156738e+00,1.160452365875244141e+00,1.160384178161621094e+00,1.160315990447998047e+00,1.160247802734375000e+00,1.160179495811462402e+00,1.160111308097839355e+00,1.160043120384216309e+00,1.159974932670593262e+00,1.159906744956970215e+00,1.159838557243347168e+00,1.159770488739013672e+00,1.159702181816101074e+00,1.159634113311767578e+00,1.159565925598144531e+00,1.159497857093811035e+00,1.159429669380187988e+00,1.159361600875854492e+00,1.159293413162231445e+00,1.159225344657897949e+00,1.159157276153564453e+00,1.159089207649230957e+00,1.159021139144897461e+00,1.158952951431274414e+00,1.158885002136230469e+00,1.158816933631896973e+00,1.158748865127563477e+00,1.158680796623229980e+00,1.158612847328186035e+00,1.158544778823852539e+00,1.158476710319519043e+00,1.158408761024475098e+00,1.158340811729431152e+00,1.158272862434387207e+00,1.158204913139343262e+00,1.158136844635009766e+00,1.158068895339965820e+00,1.158000946044921875e+00,1.157932996749877930e+00,1.157865047454833984e+00,1.157797098159790039e+00,1.157729148864746094e+00,1.157661318778991699e+00,1.157593369483947754e+00,1.157525539398193359e+00,1.157457590103149414e+00,1.157389640808105469e+00,1.157321810722351074e+00,1.157253980636596680e+00,1.157186150550842285e+00,1.157118201255798340e+00,1.157050371170043945e+00
1.087174057960510254e+00,1.087114095687866211e+00,1.087054133415222168e+00,1.086994290351867676e+00,1.086934447288513184e+00,1.086874604225158691e+00,1.086814761161804199e+00,1.086754798889160156e+00,1.086695075035095215e+00,1.086635231971740723e+00,1.086575388908386230e+00,1.086515545845031738e+00,1.086455702781677246e+00,1.086395859718322754e+00,1.086336135864257812e+00,1.086276292800903320e+00,1.086216568946838379e+00,1.086156725883483887e+00,1.086096882820129395e+00,1.086037158966064453e+00,1.085977435111999512e+00,1.085917711257934570e+00,1.085857868194580078e+00,1.085798144340515137e+00,1.085738420486450195e+00,1.085678696632385254e+00,1.085618972778320312e+00,1.085559248924255371e+00,1.085499525070190430e+00,1.085439801216125488e+00,1.085380077362060547e+00,1.085320472717285156e+00,1.085260748863220215e+00,1.085201144218444824e+00,1.085141420364379883e+00,1.085081696510314941e+00,1.085022091865539551e+00,1.084962368011474609e+00,1.084902763366699219e+00,1.084843158721923828e+00,1.084783554077148438e+00,1.084723830223083496e+00,1.084664225578308105e+00,1.084604620933532715e+00,1.084545016288757324e+00,1.084485411643981934e+00,1.084425806999206543e+00,1.084366202354431152e+00,1.084306597709655762e+00,1.084247112274169922e+00,1.084187507629394531e+00,1.084128022193908691e+00,1.084068298339843750e+00,1.084008812904357910e+00,1.083949327468872070e+00,1.083889722824096680e+00,1.083830237388610840e+00,1.083770751953125000e+00,1.083711147308349609e+00,1.083651661872863770e+00,1.083592176437377930e+00,1.083532691001892090e+00,1.083473205566406250e+00,1.083413720130920410e+00,1.083354234695434570e+00,1.083294749259948730e+00,1.083235263824462891e+00,1.083175897598266602e+00,1.083116412162780762e+00,1.083056926727294922e+00,1.082997441291809082e+00,1.082938075065612793e+00,1.082878589630126953e+00,1.082819223403930664e+00,1.082759857177734375e+00,1.082700371742248535e+00,1.082641005516052246e+00,1.082581639289855957e+00,1.082522273063659668e+00,1.082462906837463379e+00
1.021065950393676758e+00,1.021013140678405762e+00,1.020960330963134766e+00,1.020907521247863770e+00,1.020854711532592773e+00,1.020801901817321777e+00,1.020749092102050781e+00,1.020696282386779785e+00,1.020643472671508789e+00,1.020590662956237793e+00,1.020537972450256348e+00,1.020485162734985352e+00,1.020432353019714355e+00,1.020379543304443359e+00,1.020326852798461914e+00,1.020274162292480469e+00,1.020221352577209473e+00,1.020168662071228027e+00,1.020115971565246582e+00,1.020063161849975586e+00,1.020010471343994141e+00,1.019957661628723145e+00,1.019904971122741699e+00,1.019852280616760254e+00,1.019799590110778809e+00,1.019746899604797363e+00,1.019694209098815918e+00,1.019641518592834473e+00,1.019588828086853027e+00,1.019536137580871582e+00,1.019483566284179688e+00,1.019430756568908691e+00,1.019378185272216797e+00,1.019325494766235352e+00,1.019272923469543457e+00,1.019220232963562012e+00,1.019167542457580566e+00,1.019114971160888672e+00,1.019062280654907227e+00,1.019009709358215332e+00,1.018957138061523438e+00,1.018904447555541992e+00,1.018851876258850098e+00,1.018799304962158203e+00,1.018746614456176758e+00,1.018694043159484863e+00,1.018641471862792969e+00,1.018588900566101074e+00,1.018536329269409180e+00,1.018483757972717285e+00,1.018431186676025391e+00,1.018378615379333496e+00,1.018326163291931152e+00,1.018273591995239258e+00,1.018221020698547363e+00,1.018168449401855469e+00,1.018115997314453125e+00,1.018063426017761230e+00,1.018010973930358887e+00,1.017958402633666992e+00,1.017905831336975098e+00,1.017853379249572754e+00,1.017800927162170410e+00,1.017748475074768066e+00,1.017695903778076172e+00,1.017643451690673828e+00,1.017590999603271484e+00,1.017538547515869141e+00,1.017486095428466797e+00,1.017433643341064453e+00,1.017381191253662109e+00,1.017328619956970215e+00,1.017276167869567871e+00,1.017223834991455078e+00,1.017171382904052734e+00,1.017118930816650391e+00,1.017066478729248047e+00,1.017014026641845703e+00,1.016961693763732910e+00,1.016909241676330566e+00
9.625368714332580566e-01,9.624899625778198242e-01,9.624430537223815918e-01,9.623959660530090332e-01,9.623490571975708008e-01,9.623021483421325684e-01,9.622552394866943359e-01,9.622083306312561035e-01,9.621614217758178711e-01,9.621145129203796387e-01,9.620676040649414062e-01,9.620206952095031738e-01,9.619738459587097168e-01,9.619269371032714844e-01,9.618799686431884766e-01,9.618331193923950195e-01,9.617862105369567871e-01,9.617393612861633301e-01,9.616925120353698730e-01,9.616456627845764160e-01,9.615988135337829590e-01,9.615519642829895020e-01,9.615051150321960449e-01,9.614582657814025879e-01,9.614114761352539062e-01,9.613646268844604492e-01,9.613177180290222168e-01,9.612708687782287598e-01,9.612240791320800781e-01,9.611772298812866211e-01,9.611304402351379395e-01,9.610836505889892578e-01,9.610368609428405762e-01,9.609900712966918945e-01,9.609432816505432129e-01,9.608964920043945312e-01,9.608497023582458496e-01,9.608028531074523926e-01,9.607560634613037109e-01,9.607093334197998047e-01,9.606625437736511230e-01,9.606158137321472168e-01,9.605690240859985352e-01,9.605222940444946289e-01,9.604755640029907227e-01,9.604288339614868164e-01,9.603821039199829102e-01,9.603353738784790039e-01,9.602886438369750977e-01,9.602417945861816406e-01,9.601951241493225098e-01,9.601483941078186035e-01,9.601016640663146973e-01,9.600549936294555664e-01,9.600083231925964355e-01,9.599615931510925293e-01,9.599149227142333984e-01,9.598682522773742676e-01,9.598215818405151367e-01,9.597749114036560059e-01,9.597281217575073242e-01,9.596814513206481934e-01,9.596347808837890625e-01,9.595881104469299316e-01,9.595414996147155762e-01,9.594948291778564453e-01,9.594482183456420898e-01,9.594015479087829590e-01,9.593549370765686035e-01,9.593083262443542480e-01,9.592616558074951172e-01,9.592150449752807617e-01,9.591683149337768555e-01,9.591217041015625000e-01,9.590751528739929199e-01,9.590285420417785645e-01,9.589819312095642090e-01,9.589353203773498535e-01,9.588887691497802734e-01,9.588421583175659180e-01
9.103538990020751953e-01,9.103119373321533203e-01,9.102699160575866699e-01,9.102279543876647949e-01,9.101858735084533691e-01,9.101439118385314941e-01,9.101019501686096191e-01,9.100599884986877441e-01,9.100180268287658691e-01,9.099760651588439941e-01,9.099341034889221191e-01,9.098921418190002441e-01,9.098502397537231445e-01,9.098082780838012695e-01,9.097663760185241699e-01,9.097244143486022949e-01,9.096823930740356445e-01,9.096404910087585449e-01,9.095985293388366699e-01,9.095566272735595703e-01,9.095147252082824707e-01,9.094728231430053711e-01,9.094309210777282715e-01,9.093890190124511719e-01,9.093471169471740723e-01,9.093052148818969727e-01,9.092633128166198730e-01,9.092213511466979980e-01,9.091794490814208984e-01,9.091376066207885742e-01,9.090957045555114746e-01,9.090538620948791504e-01,9.090119600296020508e-01,9.089701175689697266e-01,9.089282751083374023e-01,9.088864326477050781e-01,9.088445305824279785e-01,9.088026881217956543e-01,9.087607860565185547e-01,9.087189435958862305e-01,9.086771011352539062e-01,9.086352586746215820e-01,9.085934162139892578e-01,9.085516333580017090e-01,9.085097908973693848e-01,9.084680080413818359e-01,9.084261655807495117e-01,9.083843827247619629e-01,9.083425402641296387e-01,9.083007574081420898e-01,9.082588553428649902e-01,9.082170724868774414e-01,9.081752896308898926e-01,9.081335067749023438e-01,9.080917239189147949e-01,9.080499410629272461e-01,9.080081582069396973e-01,9.079664349555969238e-01,9.079246520996093750e-01,9.078828692436218262e-01,9.078411459922790527e-01,9.077992439270019531e-01,9.077575206756591797e-01,9.077157378196716309e-01,9.076740145683288574e-01,9.076322913169860840e-01,9.075905680656433105e-01,9.075488448143005371e-01,9.075071215629577637e-01,9.074653983116149902e-01,9.074236750602722168e-01,9.073819518089294434e-01,9.073402285575866699e-01,9.072984457015991211e-01,9.072567224502563477e-01,9.072149991989135742e-01,9.071733355522155762e-01,9.071316123008728027e-01,9.070899486541748047e-01,9.070482850074768066e-01
8.635380268096923828e-01,8.635002374649047852e-01,8.634625077247619629e-01,8.634247183799743652e-01,8.633869290351867676e-01,8.633490800857543945e-01,8.633113503456115723e-01,8.632735610008239746e-01,8.632358312606811523e-01,8.631980419158935547e-01,8.631603121757507324e-01,8.631225824356079102e-01,8.630848526954650879e-01,8.630470633506774902e-01,8.630093336105346680e-01,8.629716038703918457e-01,8.629338741302490234e-01,8.628960847854614258e-01,8.628583550453186035e-01,8.628206253051757812e-01,8.627828955650329590e-01,8.627452254295349121e-01,8.627074956893920898e-01,8.626698255538940430e-01,8.626320958137512207e-01,8.625943660736083984e-01,8.625566959381103516e-01,8.625190258026123047e-01,8.624812364578247070e-01,8.624435663223266602e-01,8.624058365821838379e-01,8.623681664466857910e-01,8.623304963111877441e-01,8.622928261756896973e-01,8.622551560401916504e-01,8.622174859046936035e-01,8.621798157691955566e-01,8.621421456336975098e-01,8.621045351028442383e-01,8.620667457580566406e-01,8.620291352272033691e-01,8.619914650917053223e-01,8.619538545608520508e-01,8.619161844253540039e-01,8.618785738945007324e-01,8.618409037590026855e-01,8.618032932281494141e-01,8.617656826972961426e-01,8.617280125617980957e-01,8.616904020309448242e-01,8.616527915000915527e-01,8.616151213645935059e-01,8.615775108337402344e-01,8.615399003028869629e-01,8.615022897720336914e-01,8.614646792411804199e-01,8.614270687103271484e-01,8.613894581794738770e-01,8.613519072532653809e-01,8.613142967224121094e-01,8.612767457962036133e-01,8.612391352653503418e-01,8.612014651298522949e-01,8.611639142036437988e-01,8.611263632774353027e-01,8.610887527465820312e-01,8.610512018203735352e-01,8.610136508941650391e-01,8.609760999679565430e-01,8.609385490417480469e-01,8.609009981155395508e-01,8.608634471893310547e-01,8.608258962631225586e-01,8.607883453369140625e-01,8.607507348060607910e-01,8.607131838798522949e-01,8.606756329536437988e-01,8.606381416320800781e-01,8.606005907058715820e-01,8.605630993843078613e-01
8.213017582893371582e-01,8.212676048278808594e-01,8.212334513664245605e-01,8.211992383003234863e-01,8.211650848388671875e-01,8.211309313774108887e-01,8.210967183113098145e-01,8.210625648498535156e-01,8.210284113883972168e-01,8.209942579269409180e-01,8.209601044654846191e-01,8.209259510040283203e-01,8.208917975425720215e-01,8.208576440811157227e-01,8.208235502243041992e-01,8.207893967628479004e-01,8.207552433013916016e-01,8.207211494445800781e-01,8.206869363784790039e-01,8.206528425216674805e-01,8.206186890602111816e-01,8.205845952033996582e-01,8.205505013465881348e-01,8.205163478851318359e-01,8.204822540283203125e-01,8.204481601715087891e-01,8.204140663146972656e-01,8.203799724578857422e-01,8.203458786010742188e-01,8.203116655349731445e-01,8.202775716781616211e-01,8.202434778213500977e-01,8.202094435691833496e-01,8.201753497123718262e-01,8.201412558555603027e-01,8.201071619987487793e-01,8.200731277465820312e-01,8.200390338897705078e-01,8.200049400329589844e-01,8.199709057807922363e-01,8.199368119239807129e-01,8.199027180671691895e-01,8.198686242103576660e-01,8.198345899581909180e-01,8.198005557060241699e-01,8.197664618492126465e-01,8.197324275970458984e-01,8.196983933448791504e-01,8.196643590927124023e-01,8.196303248405456543e-01,8.195962905883789062e-01,8.195622563362121582e-01,8.195281624794006348e-01,8.194941282272338867e-01,8.194600939750671387e-01,8.194260597229003906e-01,8.193920850753784180e-01,8.193580508232116699e-01,8.193240165710449219e-01,8.192900419235229492e-01,8.192560076713562012e-01,8.192220330238342285e-01,8.191879987716674805e-01,8.191539645195007324e-01,8.191199302673339844e-01,8.190859556198120117e-01,8.190519809722900391e-01,8.190179467201232910e-01,8.189839720726013184e-01,8.189499974250793457e-01,8.189160227775573730e-01,8.188820481300354004e-01,8.188480734825134277e-01,8.188140988349914551e-01,8.187801241874694824e-01,8.187460899353027344e-01,8.187121152877807617e-01,8.186782002449035645e-01,8.186442255973815918e-01,8.186102509498596191e-01
7.830044627189636230e-01,7.829734086990356445e-01,7.829423546791076660e-01,7.829113006591796875e-01,7.828802466392517090e-01,7.828491926193237305e-01,7.828181385993957520e-01,7.827870249748229980e-01,7.827559709548950195e-01,7.827249765396118164e-01,7.826939225196838379e-01,7.826628684997558594e-01,7.826318144798278809e-01,7.826008200645446777e-01,7.825697660446166992e-01,7.825387716293334961e-01,7.825077176094055176e-01,7.824767231941223145e-01,7.824456691741943359e-01,7.824146151542663574e-01,7.823835611343383789e-01,7.823525667190551758e-01,7.823215723037719727e-01,7.822905778884887695e-01,7.822595834732055664e-01,7.822285294532775879e-01,7.821975350379943848e-01,7.821665406227111816e-01,7.821355462074279785e-01,7.821045517921447754e-01,7.820734977722167969e-01,7.820425033569335938e-01,7.820115089416503906e-01,7.819805741310119629e-01,7.819495797157287598e-01,7.819185853004455566e-01,7.818875908851623535e-01,7.818566560745239258e-01,7.818256616592407227e-01,7.817947268486022949e-01,7.817637324333190918e-01,7.817327976226806641e-01,7.817017436027526855e-01,7.816708087921142578e-01,7.816398143768310547e-01,7.816088795661926270e-01,7.815779447555541992e-01,7.815470099449157715e-01,7.815160155296325684e-01,7.814850807189941406e-01,7.814541459083557129e-01,7.814232110977172852e-01,7.813922762870788574e-01,7.813612818717956543e-01,7.813303470611572266e-01,7.812994122505187988e-01,7.812684774398803711e-01,7.812375426292419434e-01,7.812066674232482910e-01,7.811757326126098633e-01,7.811447978019714355e-01,7.811139225959777832e-01,7.810829877853393555e-01,7.810520529747009277e-01,7.810211181640625000e-01,7.809901833534240723e-01,7.809593081474304199e-01,7.809283733367919922e-01,7.808974981307983398e-01,7.808666229248046875e-01,7.808356881141662598e-01,7.808048129081726074e-01,7.807739377021789551e-01,7.807430624961853027e-01,7.807121872901916504e-01,7.806813120841979980e-01,7.806503176689147949e-01,7.806194424629211426e-01,7.805886268615722656e-01,7.805577516555786133e-01
7.481196522712707520e-01,7.480912804603576660e-01,7.480629682540893555e-01,7.480345964431762695e-01,7.480062246322631836e-01,7.479779124259948730e-01,7.479495406150817871e-01,7.479212284088134766e-01,7.478927969932556152e-01,7.478644847869873047e-01,7.478361129760742188e-01,7.478078007698059082e-01,7.477794885635375977e-01,7.477511763572692871e-01,7.477228045463562012e-01,7.476944923400878906e-01,7.476661801338195801e-01,7.476378679275512695e-01,7.476095557212829590e-01,7.475812435150146484e-01,7.475528120994567871e-01,7.475244998931884766e-01,7.474962472915649414e-01,7.474679350852966309e-01,7.474396228790283203e-01,7.474113106727600098e-01,7.473829984664916992e-01,7.473546862602233887e-01,7.473263740539550781e-01,7.472981214523315430e-01,7.472698092460632324e-01,7.472414374351501465e-01,7.472131848335266113e-01,7.471848726272583008e-01,7.471566200256347656e-01,7.471283078193664551e-01,7.471000552177429199e-01,7.470717430114746094e-01,7.470434904098510742e-01,7.470152378082275391e-01,7.469869256019592285e-01,7.469586730003356934e-01,7.469304203987121582e-01,7.469020485877990723e-01,7.468737959861755371e-01,7.468455433845520020e-01,7.468172907829284668e-01,7.467890381813049316e-01,7.467607855796813965e-01,7.467325329780578613e-01,7.467042803764343262e-01,7.466760277748107910e-01,7.466477751731872559e-01,7.466195225715637207e-01,7.465912103652954102e-01,7.465630173683166504e-01,7.465347647666931152e-01,7.465065121650695801e-01,7.464783191680908203e-01,7.464500665664672852e-01,7.464218139648437500e-01,7.463936209678649902e-01,7.463653683662414551e-01,7.463371753692626953e-01,7.463089227676391602e-01,7.462807297706604004e-01,7.462524175643920898e-01,7.462242245674133301e-01,7.461960315704345703e-01,7.461677789688110352e-01,7.461395859718322754e-01,7.461113929748535156e-01,7.460831999778747559e-01,7.460550069808959961e-01,7.460268139839172363e-01,7.459986209869384766e-01,7.459703683853149414e-01,7.459421157836914062e-01,7.459139227867126465e-01,7.458857893943786621e-01
