3.098239183425903320e+00,3.176550149917602539e+00,3.258922100067138672e+00,3.345679998397827148e+00,3.437183141708374023e+00,3.533832788467407227e+00,3.636074781417846680e+00,3.744409084320068359e+00,3.859397411346435547e+00,3.981671810150146484e+00,4.111947536468505859e+00,4.251036643981933594e+00,4.399864196777343750e+00,4.559491157531738281e+00,5.000000000000000000e+00,5.000000000000000000e+00,5.000000000000000000e+00,5.000000000000000000e+00,5.000000000000000000e+00,5.000000000000000000e+00,5.000000000000000000e+00,5.000000000000000000e+00,5.000000000000000000e+00,5.000000000000000000e+00,5.000000000000000000e+00,5.000000000000000000e+00,5.000000000000000000e+00,5.000000000000000000e+00,5.000000000000000000e+00,5.000000000000000000e+00,5.000000000000000000e+00,5.000000000000000000e+00,5.000000000000000000e+00,5.000000000000000000e+00,5.000000000000000000e+00,5.000000000000000000e+00,5.000000000000000000e+00,5.000000000000000000e+00,5.000000000000000000e+00,5.000000000000000000e+00,5.000000000000000000e+00,5.000000000000000000e+00,5.000000000000000000e+00,5.000000000000000000e+00,5.000000000000000000e+00,5.000000000000000000e+00,5.000000000000000000e+00,5.000000000000000000e+00,5.000000000000000000e+00,5.000000000000000000e+00,5.000000000000000000e+00,5.000000000000000000e+00,5.000000000000000000e+00,5.000000000000000000e+00,5.000000000000000000e+00,5.000000000000000000e+00,5.000000000000000000e+00,5.000000000000000000e+00,5.000000000000000000e+00,5.000000000000000000e+00,5.000000000000000000e+00,5.000000000000000000e+00,5.000000000000000000e+00,5.000000000000000000e+00,5.000000000000000000e+00,5.000000000000000000e+00,5.000000000000000000e+00,5.000000000000000000e+00,5.000000000000000000e+00,5.000000000000000000e+00,5.000000000000000000e+00,5.000000000000000000e+00,4.544402599334716797e+00,4.404370784759521484e+00,4.272711753845214844e+00,4.148694992065429688e+00,4.031628131866455078e+00,3.920985698699951172e+00,3.816254138946533203e+00,3.716971397399902344e+00
3.098179101943969727e+00,3.176486968994140625e+00,3.258855581283569336e+00,3.345609903335571289e+00,3.437109708786010742e+00,3.533754587173461914e+00,3.635992050170898438e+00,3.744321346282958984e+00,3.859304189682006836e+00,3.981572389602661133e+00,4.111841678619384766e+00,4.250923156738281250e+00,4.399743556976318359e+00,4.559361457824707031e+00,4.730997085571289062e+00,5.000000000000000000e+00,5.000000000000000000e+00,5.000000000000000000e+00,5.000000000000000000e+00,5.000000000000000000e+00,5.000000000000000000e+00,5.000000000000000000e+00,5.000000000000000000e+00,5.000000000000000000e+00,5.000000000000000000e+00,5.000000000000000000e+00,5.000000000000000000e+00,5.000000000000000000e+00,5.000000000000000000e+00,5.000000000000000000e+00,5.000000000000000000e+00,5.000000000000000000e+00,5.000000000000000000e+00,5.000000000000000000e+00,5.000000000000000000e+00,5.000000000000000000e+00,5.000000000000000000e+00,5.000000000000000000e+00,5.000000000000000000e+00,5.000000000000000000e+00,5.000000000000000000e+00,5.000000000000000000e+00,5.000000000000000000e+00,5.000000000000000000e+00,5.000000000000000000e+00,5.000000000000000000e+00,5.000000000000000000e+00,5.000000000000000000e+00,5.000000000000000000e+00,5.000000000000000000e+00,5.000000000000000000e+00,5.000000000000000000e+00,5.000000000000000000e+00,5.000000000000000000e+00,5.000000000000000000e+00,5.000000000000000000e+00,5.000000000000000000e+00,5.000000000000000000e+00,5.000000000000000000e+00,5.000000000000000000e+00,5.000000000000000000e+00,5.000000000000000000e+00,5.000000000000000000e+00,5.000000000000000000e+00,5.000000000000000000e+00,5.000000000000000000e+00,5.000000000000000000e+00,5.000000000000000000e+00,5.000000000000000000e+00,5.000000000000000000e+00,5.000000000000000000e+00,4.693835735321044922e+00,4.544594764709472656e+00,4.404551982879638672e+00,4.272876262664794922e+00,4.148799896240234375e+00,4.031725883483886719e+00,3.921078443527221680e+00,3.816341638565063477e+00,3.717054605484008789e+00
3.098116159439086914e+00,3.176423788070678711e+00,3.258789300918579102e+00,3.345539808273315430e+00,3.437035799026489258e+00,3.533676385879516602e+00,3.635909318923950195e+00,3.744233846664428711e+00,3.859210968017578125e+00,3.981473207473754883e+00,4.111735820770263672e+00,4.250810146331787109e+00,4.399622440338134766e+00,4.559231281280517578e+00,4.730856895446777344e+00,4.915909290313720703e+00,5.000000000000000000e+00,5.000000000000000000e+00,5.000000000000000000e+00,5.000000000000000000e+00,5.000000000000000000e+00,5.000000000000000000e+00,5.000000000000000000e+00,5.000000000000000000e+00,5.000000000000000000e+00,5.000000000000000000e+00,5.000000000000000000e+00,5.000000000000000000e+00,5.000000000000000000e+00,5.000000000000000000e+00,5.000000000000000000e+00,5.000000000000000000e+00,5.000000000000000000e+00,5.000000000000000000e+00,5.000000000000000000e+00,5.000000000000000000e+00,5.000000000000000000e+00,5.000000000000000000e+00,5.000000000000000000e+00,5.000000000000000000e+00,5.000000000000000000e+00,5.000000000000000000e+00,5.000000000000000000e+00,5.000000000000000000e+00,5.000000000000000000e+00,5.000000000000000000e+00,5.000000000000000000e+00,5.000000000000000000e+00,5.000000000000000000e+00,5.000000000000000000e+00,5.000000000000000000e+00,5.000000000000000000e+00,5.000000000000000000e+00,5.000000000000000000e+00,5.000000000000000000e+00,5.000000000000000000e+00,5.000000000000000000e+00,5.000000000000000000e+00,5.000000000000000000e+00,5.000000000000000000e+00,5.000000000000000000e+00,5.000000000000000000e+00,5.000000000000000000e+00,5.000000000000000000e+00,5.000000000000000000e+00,5.000000000000000000e+00,5.000000000000000000e+00,5.000000000000000000e+00,5.000000000000000000e+00,5.000000000000000000e+00,4.853430747985839844e+00,4.694040775299072266e+00,4.544787406921386719e+00,4.404719352722167969e+00,4.272985935211181641e+00,4.148903369903564453e+00,4.031823635101318359e+00,3.921170949935913086e+00,3.816429376602172852e+00,3.717137813568115234e+00
3.098050594329833984e+00,3.176357269287109375e+00,3.258722782135009766e+00,3.345469713211059570e+00,3.436961889266967773e+00,3.533598423004150391e+00,3.635826587677001953e+00,3.744146108627319336e+00,3.859117984771728516e+00,3.981374025344848633e+00,4.111629962921142578e+00,4.250697135925292969e+00,4.399501323699951172e+00,4.559101104736328125e+00,4.730716705322265625e+00,4.915757656097412109e+00,5.000000000000000000e+00,5.000000000000000000e+00,5.000000000000000000e+00,5.000000000000000000e+00,5.000000000000000000e+00,5.000000000000000000e+00,5.000000000000000000e+00,5.000000000000000000e+00,5.000000000000000000e+00,5.000000000000000000e+00,5.000000000000000000e+00,5.000000000000000000e+00,5.000000000000000000e+00,5.000000000000000000e+00,5.000000000000000000e+00,5.000000000000000000e+00,5.000000000000000000e+00,5.000000000000000000e+00,5.000000000000000000e+00,5.000000000000000000e+00,5.000000000000000000e+00,5.000000000000000000e+00,5.000000000000000000e+00,5.000000000000000000e+00,5.000000000000000000e+00,5.000000000000000000e+00,5.000000000000000000e+00,5.000000000000000000e+00,5.000000000000000000e+00,5.000000000000000000e+00,5.000000000000000000e+00,5.000000000000000000e+00,5.000000000000000000e+00,5.000000000000000000e+00,5.000000000000000000e+00,5.000000000000000000e+00,5.000000000000000000e+00,5.000000000000000000e+00,5.000000000000000000e+00,5.000000000000000000e+00,5.000000000000000000e+00,5.000000000000000000e+00,5.000000000000000000e+00,5.000000000000000000e+00,5.000000000000000000e+00,5.000000000000000000e+00,5.000000000000000000e+00,5.000000000000000000e+00,5.000000000000000000e+00,5.000000000000000000e+00,5.000000000000000000e+00,5.000000000000000000e+00,5.000000000000000000e+00,5.000000000000000000e+00,4.853650093078613281e+00,4.694246292114257812e+00,4.544957637786865234e+00,4.404835700988769531e+00,4.273095607757568359e+00,4.149006843566894531e+00,4.031921386718750000e+00,3.921263456344604492e+00,3.816517114639282227e+00,3.717221021652221680e+00
3.097985267639160156e+00,3.176288843154907227e+00,3.258653163909912109e+00,3.345399618148803711e+00,3.436887979507446289e+00,3.533520221710205078e+00,3.635743856430053711e+00,3.744058370590209961e+00,3.859024763107299805e+00,3.981274843215942383e+00,4.111524581909179688e+00,4.250584125518798828e+00,4.399380207061767578e+00,4.558970928192138672e+00,4.730576515197753906e+00,4.915606498718261719e+00,5.000000000000000000e+00,5.000000000000000000e+00,5.000000000000000000e+00,5.000000000000000000e+00,5.000000000000000000e+00,5.000000000000000000e+00,5.000000000000000000e+00,5.000000000000000000e+00,5.000000000000000000e+00,5.000000000000000000e+00,5.000000000000000000e+00,5.000000000000000000e+00,5.000000000000000000e+00,5.000000000000000000e+00,5.000000000000000000e+00,5.000000000000000000e+00,5.000000000000000000e+00,5.000000000000000000e+00,5.000000000000000000e+00,5.000000000000000000e+00,5.000000000000000000e+00,5.000000000000000000e+00,5.000000000000000000e+00,5.000000000000000000e+00,5.000000000000000000e+00,5.000000000000000000e+00,5.000000000000000000e+00,5.000000000000000000e+00,5.000000000000000000e+00,5.000000000000000000e+00,5.000000000000000000e+00,5.000000000000000000e+00,5.000000000000000000e+00,5.000000000000000000e+00,5.000000000000000000e+00,5.000000000000000000e+00,5.000000000000000000e+00,5.000000000000000000e+00,5.000000000000000000e+00,5.000000000000000000e+00,5.000000000000000000e+00,5.000000000000000000e+00,5.000000000000000000e+00,5.000000000000000000e+00,5.000000000000000000e+00,5.000000000000000000e+00,5.000000000000000000e+00,5.000000000000000000e+00,5.000000000000000000e+00,5.000000000000000000e+00,5.000000000000000000e+00,5.000000000000000000e+00,5.000000000000000000e+00,5.000000000000000000e+00,4.853869915008544922e+00,4.694419860839843750e+00,4.545082092285156250e+00,4.404952526092529297e+00,4.273205757141113281e+00,4.149110317230224609e+00,4.032019138336181641e+00,3.921355485916137695e+00,3.816604375839233398e+00,3.717303752899169922e+00
3.097919702529907227e+00,3.176219940185546875e+00,3.258580684661865234e+00,3.345326662063598633e+00,3.436814069747924805e+00,3.533442020416259766e+00,3.635661125183105469e+00,3.743970632553100586e+00,3.858931541442871094e+00,3.981175661087036133e+00,4.111418724060058594e+00,4.250471115112304688e+00,4.399259090423583984e+00,4.558840751647949219e+00,4.730436801910400391e+00,4.915455341339111328e+00,5.000000000000000000e+00,5.000000000000000000e+00,5.000000000000000000e+00,5.000000000000000000e+00,5.000000000000000000e+00,5.000000000000000000e+00,5.000000000000000000e+00,5.000000000000000000e+00,5.000000000000000000e+00,5.000000000000000000e+00,5.000000000000000000e+00,5.000000000000000000e+00,5.000000000000000000e+00,5.000000000000000000e+00,5.000000000000000000e+00,5.000000000000000000e+00,5.000000000000000000e+00,5.000000000000000000e+00,5.000000000000000000e+00,5.000000000000000000e+00,5.000000000000000000e+00,5.000000000000000000e+00,5.000000000000000000e+00,5.000000000000000000e+00,5.000000000000000000e+00,5.000000000000000000e+00,5.000000000000000000e+00,5.000000000000000000e+00,5.000000000000000000e+00,5.000000000000000000e+00,5.000000000000000000e+00,5.000000000000000000e+00,5.000000000000000000e+00,5.000000000000000000e+00,5.000000000000000000e+00,5.000000000000000000e+00,5.000000000000000000e+00,5.000000000000000000e+00,5.000000000000000000e+00,5.000000000000000000e+00,5.000000000000000000e+00,5.000000000000000000e+00,5.000000000000000000e+00,5.000000000000000000e+00,5.000000000000000000e+00,5.000000000000000000e+00,5.000000000000000000e+00,5.000000000000000000e+00,5.000000000000000000e+00,5.000000000000000000e+00,5.000000000000000000e+00,5.000000000000000000e+00,5.000000000000000000e+00,5.000000000000000000e+00,4.854046344757080078e+00,4.694552421569824219e+00,4.545206069946289062e+00,4.405069351196289062e+00,4.273315429687500000e+00,4.149213790893554688e+00,4.032116889953613281e+00,3.921448230743408203e+00,3.816692113876342773e+00,3.717386960983276367e+00
3.097854137420654297e+00,3.176151037216186523e+00,3.258508205413818359e+00,3.345250368118286133e+00,3.436736583709716797e+00,3.533363819122314453e+00,3.635578393936157227e+00,3.743882894515991211e+00,3.858838319778442383e+00,3.981076478958129883e+00,4.111312866210937500e+00,4.250358104705810547e+00,4.399137973785400391e+00,4.558711051940917969e+00,4.730296611785888672e+00,4.915304183959960938e+00,5.000000000000000000e+00,5.000000000000000000e+00,5.000000000000000000e+00,5.000000000000000000e+00,5.000000000000000000e+00,5.000000000000000000e+00,5.000000000000000000e+00,5.000000000000000000e+00,5.000000000000000000e+00,5.000000000000000000e+00,5.000000000000000000e+00,5.000000000000000000e+00,5.000000000000000000e+00,5.000000000000000000e+00,5.000000000000000000e+00,5.000000000000000000e+00,5.000000000000000000e+00,5.000000000000000000e+00,5.000000000000000000e+00,5.000000000000000000e+00,5.000000000000000000e+00,5.000000000000000000e+00,5.000000000000000000e+00,5.000000000000000000e+00,5.000000000000000000e+00,5.000000000000000000e+00,5.000000000000000000e+00,5.000000000000000000e+00,5.000000000000000000e+00,5.000000000000000000e+00,5.000000000000000000e+00,5.000000000000000000e+00,5.000000000000000000e+00,5.000000000000000000e+00,5.000000000000000000e+00,5.000000000000000000e+00,5.000000000000000000e+00,5.000000000000000000e+00,5.000000000000000000e+00,5.000000000000000000e+00,5.000000000000000000e+00,5.000000000000000000e+00,5.000000000000000000e+00,5.000000000000000000e+00,5.000000000000000000e+00,5.000000000000000000e+00,5.000000000000000000e+00,5.000000000000000000e+00,5.000000000000000000e+00,5.000000000000000000e+00,5.000000000000000000e+00,5.000000000000000000e+00,5.000000000000000000e+00,5.000000000000000000e+00,4.854187965393066406e+00,4.694684982299804688e+00,4.545330524444580078e+00,4.405186176300048828e+00,4.273425102233886719e+00,4.149317264556884766e+00,4.032214641571044922e+00,3.921540737152099609e+00,3.816779851913452148e+00,3.717470169067382812e+00
3.097789049148559570e+00,3.176082134246826172e+00,3.258435726165771484e+00,3.345173835754394531e+00,3.436655998229980469e+00,3.533282518386840820e+00,3.635495662689208984e+00,3.743795394897460938e+00,3.858745098114013672e+00,3.980977296829223633e+00,4.111207008361816406e+00,4.250245094299316406e+00,4.399016857147216797e+00,4.558580875396728516e+00,4.730156421661376953e+00,4.915153026580810547e+00,5.000000000000000000e+00,5.000000000000000000e+00,5.000000000000000000e+00,5.000000000000000000e+00,5.000000000000000000e+00,5.000000000000000000e+00,5.000000000000000000e+00,5.000000000000000000e+00,5.000000000000000000e+00,5.000000000000000000e+00,5.000000000000000000e+00,5.000000000000000000e+00,5.000000000000000000e+00,5.000000000000000000e+00,5.000000000000000000e+00,5.000000000000000000e+00,5.000000000000000000e+00,5.000000000000000000e+00,5.000000000000000000e+00,5.000000000000000000e+00,5.000000000000000000e+00,5.000000000000000000e+00,5.000000000000000000e+00,5.000000000000000000e+00,5.000000000000000000e+00,5.000000000000000000e+00,5.000000000000000000e+00,5.000000000000000000e+00,5.000000000000000000e+00,5.000000000000000000e+00,5.000000000000000000e+00,5.000000000000000000e+00,5.000000000000000000e+00,5.000000000000000000e+00,5.000000000000000000e+00,5.000000000000000000e+00,5.000000000000000000e+00,5.000000000000000000e+00,5.000000000000000000e+00,5.000000000000000000e+00,5.000000000000000000e+00,5.000000000000000000e+00,5.000000000000000000e+00,5.000000000000000000e+00,5.000000000000000000e+00,5.000000000000000000e+00,5.000000000000000000e+00,5.000000000000000000e+00,5.000000000000000000e+00,5.000000000000000000e+00,5.000000000000000000e+00,5.000000000000000000e+00,5.000000000000000000e+00,5.000000000000000000e+00,4.854329586029052734e+00,4.694817066192626953e+00,4.545454502105712891e+00,4.405302524566650391e+00,4.273534774780273438e+00,4.149420738220214844e+00,4.032312393188476562e+00,3.921632766723632812e+00,3.816867113113403320e+00,3.717552900314331055e+00
3.097723484039306641e+00,3.176013469696044922e+00,3.258363485336303711e+00,3.345097541809082031e+00,3.436575412750244141e+00,3.533197164535522461e+00,3.635409355163574219e+00,3.743707656860351562e+00,3.858651876449584961e+00,3.980878114700317383e+00,4.111101150512695312e+00,4.250132083892822266e+00,4.398895740509033203e+00,4.558451175689697266e+00,4.730016708374023438e+00,4.915001869201660156e+00,5.000000000000000000e+00,5.000000000000000000e+00,5.000000000000000000e+00,5.000000000000000000e+00,5.000000000000000000e+00,5.000000000000000000e+00,5.000000000000000000e+00,5.000000000000000000e+00,5.000000000000000000e+00,5.000000000000000000e+00,5.000000000000000000e+00,5.000000000000000000e+00,5.000000000000000000e+00,5.000000000000000000e+00,5.000000000000000000e+00,5.000000000000000000e+00,5.000000000000000000e+00,5.000000000000000000e+00,5.000000000000000000e+00,5.000000000000000000e+00,5.000000000000000000e+00,5.000000000000000000e+00,5.000000000000000000e+00,5.000000000000000000e+00,5.000000000000000000e+00,5.000000000000000000e+00,5.000000000000000000e+00,5.000000000000000000e+00,5.000000000000000000e+00,5.000000000000000000e+00,5.000000000000000000e+00,5.000000000000000000e+00,5.000000000000000000e+00,5.000000000000000000e+00,5.000000000000000000e+00,5.000000000000000000e+00,5.000000000000000000e+00,5.000000000000000000e+00,5.000000000000000000e+00,5.000000000000000000e+00,5.000000000000000000e+00,5.000000000000000000e+00,5.000000000000000000e+00,5.000000000000000000e+00,5.000000000000000000e+00,5.000000000000000000e+00,5.000000000000000000e+00,5.000000000000000000e+00,5.000000000000000000e+00,5.000000000000000000e+00,5.000000000000000000e+00,5.000000000000000000e+00,5.000000000000000000e+00,5.000000000000000000e+00,4.854471683502197266e+00,4.694950103759765625e+00,4.545578956604003906e+00,4.405419349670410156e+00,4.273644924163818359e+00,4.149524211883544922e+00,4.032410144805908203e+00,3.921725034713745117e+00,3.816951751708984375e+00,3.717630624771118164e+00
3.097657918930053711e+00,3.175944566726684570e+00,3.258291006088256836e+00,3.345021247863769531e+00,3.436495065689086914e+00,3.533112049102783203e+00,3.635319232940673828e+00,3.743616104125976562e+00,3.858558654785156250e+00,3.980778932571411133e+00,4.110995769500732422e+00,4.250019073486328125e+00,4.398774623870849609e+00,4.558320999145507812e+00,4.729876518249511719e+00,4.914850711822509766e+00,5.000000000000000000e+00,5.000000000000000000e+00,5.000000000000000000e+00,5.000000000000000000e+00,5.000000000000000000e+00,5.000000000000000000e+00,5.000000000000000000e+00,5.000000000000000000e+00,5.000000000000000000e+00,5.000000000000000000e+00,5.000000000000000000e+00,5.000000000000000000e+00,5.000000000000000000e+00,5.000000000000000000e+00,5.000000000000000000e+00,5.000000000000000000e+00,5.000000000000000000e+00,5.000000000000000000e+00,5.000000000000000000e+00,5.000000000000000000e+00,5.000000000000000000e+00,5.000000000000000000e+00,5.000000000000000000e+00,5.000000000000000000e+00,5.000000000000000000e+00,5.000000000000000000e+00,5.000000000000000000e+00,5.000000000000000000e+00,5.000000000000000000e+00,5.000000000000000000e+00,5.000000000000000000e+00,5.000000000000000000e+00,5.000000000000000000e+00,5.000000000000000000e+00,5.000000000000000000e+00,5.000000000000000000e+00,5.000000000000000000e+00,5.000000000000000000e+00,5.000000000000000000e+00,5.000000000000000000e+00,5.000000000000000000e+00,5.000000000000000000e+00,5.000000000000000000e+00,5.000000000000000000e+00,5.000000000000000000e+00,5.000000000000000000e+00,5.000000000000000000e+00,5.000000000000000000e+00,5.000000000000000000e+00,5.000000000000000000e+00,5.000000000000000000e+00,5.000000000000000000e+00,5.000000000000000000e+00,5.000000000000000000e+00,4.854612827301025391e+00,4.695082187652587891e+00,4.545702934265136719e+00,4.405536174774169922e+00,4.273754596710205078e+00,4.149625301361083984e+00,4.032502174377441406e+00,3.921809911727905273e+00,3.817032098770141602e+00,3.717706918716430664e+00
3.097592592239379883e+00,3.175875663757324219e+00,3.258218765258789062e+00,3.344944715499877930e+00,3.436414480209350586e+00,3.533026933670043945e+00,3.635228872299194336e+00,3.743520498275756836e+00,3.858461618423461914e+00,3.980679750442504883e+00,4.110889911651611328e+00,4.249906063079833984e+00,4.398653507232666016e+00,4.558190822601318359e+00,4.729736328125000000e+00,4.914699554443359375e+00,5.000000000000000000e+00,5.000000000000000000e+00,5.000000000000000000e+00,5.000000000000000000e+00,5.000000000000000000e+00,5.000000000000000000e+00,5.000000000000000000e+00,5.000000000000000000e+00,5.000000000000000000e+00,4.289274692535400391e+00,4.312640190124511719e+00,5.000000000000000000e+00,5.000000000000000000e+00,5.000000000000000000e+00,5.000000000000000000e+00,5.000000000000000000e+00,5.000000000000000000e+00,5.000000000000000000e+00,5.000000000000000000e+00,5.000000000000000000e+00,5.000000000000000000e+00,5.000000000000000000e+00,5.000000000000000000e+00,5.000000000000000000e+00,5.000000000000000000e+00,5.000000000000000000e+00,5.000000000000000000e+00,5.000000000000000000e+00,5.000000000000000000e+00,5.000000000000000000e+00,5.000000000000000000e+00,5.000000000000000000e+00,5.000000000000000000e+00,5.000000000000000000e+00,5.000000000000000000e+00,5.000000000000000000e+00,5.000000000000000000e+00,5.000000000000000000e+00,5.000000000000000000e+00,5.000000000000000000e+00,5.000000000000000000e+00,5.000000000000000000e+00,5.000000000000000000e+00,5.000000000000000000e+00,5.000000000000000000e+00,5.000000000000000000e+00,5.000000000000000000e+00,5.000000000000000000e+00,5.000000000000000000e+00,5.000000000000000000e+00,5.000000000000000000e+00,5.000000000000000000e+00,5.000000000000000000e+00,5.000000000000000000e+00,4.854754447937011719e+00,4.695214748382568359e+00,4.545825004577636719e+00,4.405646800994873047e+00,4.273855686187744141e+00,4.149720191955566406e+00,4.032591819763183594e+00,3.921894550323486328e+00,3.817112445831298828e+00,3.717783212661743164e+00
3.097527027130126953e+00,3.175807237625122070e+00,3.258146286010742188e+00,3.344868421554565430e+00,3.436333894729614258e+00,3.532941579818725586e+00,3.635139226913452148e+00,3.743424892425537109e+00,3.858360052108764648e+00,3.980576753616333008e+00,4.110784053802490234e+00,4.249793052673339844e+00,4.398532390594482422e+00,4.558061122894287109e+00,4.729596614837646484e+00,4.914548397064208984e+00,5.000000000000000000e+00,5.000000000000000000e+00,5.000000000000000000e+00,5.000000000000000000e+00,5.000000000000000000e+00,5.000000000000000000e+00,5.000000000000000000e+00,5.000000000000000000e+00,5.000000000000000000e+00,4.302226543426513672e+00,4.308526515960693359e+00,5.000000000000000000e+00,5.000000000000000000e+00,5.000000000000000000e+00,5.000000000000000000e+00,5.000000000000000000e+00,5.000000000000000000e+00,5.000000000000000000e+00,5.000000000000000000e+00,5.000000000000000000e+00,5.000000000000000000e+00,5.000000000000000000e+00,5.000000000000000000e+00,5.000000000000000000e+00,5.000000000000000000e+00,5.000000000000000000e+00,5.000000000000000000e+00,5.000000000000000000e+00,5.000000000000000000e+00,5.000000000000000000e+00,5.000000000000000000e+00,5.000000000000000000e+00,5.000000000000000000e+00,5.000000000000000000e+00,5.000000000000000000e+00,5.000000000000000000e+00,5.000000000000000000e+00,5.000000000000000000e+00,5.000000000000000000e+00,5.000000000000000000e+00,5.000000000000000000e+00,5.000000000000000000e+00,5.000000000000000000e+00,5.000000000000000000e+00,5.000000000000000000e+00,5.000000000000000000e+00,5.000000000000000000e+00,5.000000000000000000e+00,5.000000000000000000e+00,5.000000000000000000e+00,5.000000000000000000e+00,5.000000000000000000e+00,5.000000000000000000e+00,5.000000000000000000e+00,4.854890346527099609e+00,4.695337772369384766e+00,4.545938968658447266e+00,4.405754089355468750e+00,4.273956298828125000e+00,4.149814605712890625e+00,4.032681465148925781e+00,3.921979427337646484e+00,3.817192554473876953e+00,3.717859268188476562e+00
3.097461462020874023e+00,3.175738334655761719e+00,3.258073806762695312e+00,3.344792366027832031e+00,3.436253309249877930e+00,3.532856464385986328e+00,3.635048866271972656e+00,3.743329286575317383e+00,3.858258724212646484e+00,3.980468750000000000e+00,4.110673904418945312e+00,4.249680042266845703e+00,4.398411273956298828e+00,4.557930946350097656e+00,4.729456901550292969e+00,4.914397239685058594e+00,5.000000000000000000e+00,5.000000000000000000e+00,5.000000000000000000e+00,5.000000000000000000e+00,5.000000000000000000e+00,5.000000000000000000e+00,5.000000000000000000e+00,5.000000000000000000e+00,5.000000000000000000e+00,4.343041896820068359e+00,4.336613655090332031e+00,5.000000000000000000e+00,5.000000000000000000e+00,5.000000000000000000e+00,5.000000000000000000e+00,5.000000000000000000e+00,5.000000000000000000e+00,5.000000000000000000e+00,5.000000000000000000e+00,5.000000000000000000e+00,5.000000000000000000e+00,5.000000000000000000e+00,5.000000000000000000e+00,5.000000000000000000e+00,5.000000000000000000e+00,5.000000000000000000e+00,5.000000000000000000e+00,5.000000000000000000e+00,5.000000000000000000e+00,5.000000000000000000e+00,5.000000000000000000e+00,5.000000000000000000e+00,5.000000000000000000e+00,5.000000000000000000e+00,5.000000000000000000e+00,5.000000000000000000e+00,5.000000000000000000e+00,5.000000000000000000e+00,5.000000000000000000e+00,5.000000000000000000e+00,5.000000000000000000e+00,5.000000000000000000e+00,5.000000000000000000e+00,5.000000000000000000e+00,5.000000000000000000e+00,5.000000000000000000e+00,5.000000000000000000e+00,5.000000000000000000e+00,5.000000000000000000e+00,5.000000000000000000e+00,5.000000000000000000e+00,5.000000000000000000e+00,5.000000000000000000e+00,5.000000000000000000e+00,4.855020523071289062e+00,4.695459365844726562e+00,4.546052932739257812e+00,4.405860900878906250e+00,4.274056911468505859e+00,4.149909973144531250e+00,4.032771110534667969e+00,3.922064304351806641e+00,3.817272901535034180e+00,3.717935562133789062e+00
3.097396135330200195e+00,3.175669431686401367e+00,3.258001327514648438e+00,3.344716072082519531e+00,3.436172723770141602e+00,3.532771348953247070e+00,3.634958744049072266e+00,3.743233442306518555e+00,3.858157157897949219e+00,3.980360507965087891e+00,4.110558986663818359e+00,4.249562263488769531e+00,4.398290157318115234e+00,4.557800769805908203e+00,4.729316711425781250e+00,4.914246082305908203e+00,5.000000000000000000e+00,5.000000000000000000e+00,5.000000000000000000e+00,5.000000000000000000e+00,5.000000000000000000e+00,5.000000000000000000e+00,5.000000000000000000e+00,5.000000000000000000e+00,4.349325180053710938e+00,4.379657268524169922e+00,4.307140827178955078e+00,4.361893177032470703e+00,4.358151435852050781e+00,5.000000000000000000e+00,5.000000000000000000e+00,5.000000000000000000e+00,5.000000000000000000e+00,5.000000000000000000e+00,5.000000000000000000e+00,5.000000000000000000e+00,5.000000000000000000e+00,5.000000000000000000e+00,5.000000000000000000e+00,5.000000000000000000e+00,5.000000000000000000e+00,5.000000000000000000e+00,5.000000000000000000e+00,5.000000000000000000e+00,5.000000000000000000e+00,5.000000000000000000e+00,5.000000000000000000e+00,5.000000000000000000e+00,5.000000000000000000e+00,5.000000000000000000e+00,5.000000000000000000e+00,5.000000000000000000e+00,5.000000000000000000e+00,5.000000000000000000e+00,5.000000000000000000e+00,5.000000000000000000e+00,5.000000000000000000e+00,5.000000000000000000e+00,5.000000000000000000e+00,5.000000000000000000e+00,5.000000000000000000e+00,5.000000000000000000e+00,5.000000000000000000e+00,5.000000000000000000e+00,5.000000000000000000e+00,5.000000000000000000e+00,5.000000000000000000e+00,5.000000000000000000e+00,5.000000000000000000e+00,5.000000000000000000e+00,4.855150222778320312e+00,4.695580959320068359e+00,4.546166896820068359e+00,4.405968189239501953e+00,4.274157524108886719e+00,4.150004863739013672e+00,4.032860755920410156e+00,3.922148942947387695e+00,3.817353248596191406e+00,3.718011856079101562e+00
3.097330808639526367e+00,3.175600767135620117e+00,3.257928848266601562e+00,3.344639778137207031e+00,3.436092138290405273e+00,3.532686471939086914e+00,3.634868621826171875e+00,3.743137836456298828e+00,3.858055591583251953e+00,3.980252504348754883e+00,4.110443592071533203e+00,4.249439239501953125e+00,4.398164272308349609e+00,4.557671070098876953e+00,4.729176998138427734e+00,4.914094924926757812e+00,5.000000000000000000e+00,5.000000000000000000e+00,5.000000000000000000e+00,5.000000000000000000e+00,5.000000000000000000e+00,5.000000000000000000e+00,5.000000000000000000e+00,4.340884208679199219e+00,4.295994281768798828e+00,4.282165527343750000e+00,4.276483058929443359e+00,4.301065444946289062e+00,4.358993053436279297e+00,4.392326831817626953e+00,5.000000000000000000e+00,5.000000000000000000e+00,5.000000000000000000e+00,5.000000000000000000e+00,5.000000000000000000e+00,5.000000000000000000e+00,5.000000000000000000e+00,5.000000000000000000e+00,5.000000000000000000e+00,5.000000000000000000e+00,5.000000000000000000e+00,5.000000000000000000e+00,5.000000000000000000e+00,5.000000000000000000e+00,5.000000000000000000e+00,5.000000000000000000e+00,5.000000000000000000e+00,5.000000000000000000e+00,5.000000000000000000e+00,5.000000000000000000e+00,5.000000000000000000e+00,5.000000000000000000e+00,5.000000000000000000e+00,5.000000000000000000e+00,5.000000000000000000e+00,5.000000000000000000e+00,5.000000000000000000e+00,5.000000000000000000e+00,5.000000000000000000e+00,5.000000000000000000e+00,5.000000000000000000e+00,5.000000000000000000e+00,5.000000000000000000e+00,5.000000000000000000e+00,5.000000000000000000e+00,5.000000000000000000e+00,5.000000000000000000e+00,5.000000000000000000e+00,5.000000000000000000e+00,5.000000000000000000e+00,4.855280399322509766e+00,4.695702552795410156e+00,4.546280860900878906e+00,4.406075000762939453e+00,4.274258613586425781e+00,4.150099754333496094e+00,4.032950401306152344e+00,3.922233819961547852e+00,3.817433595657348633e+00,3.718087911605834961e+00
3.097265481948852539e+00,3.175531864166259766e+00,3.257856845855712891e+00,3.344563484191894531e+00,3.436011552810668945e+00,3.532601356506347656e+00,3.634778499603271484e+00,3.743042707443237305e+00,3.857954025268554688e+00,3.980144262313842773e+00,4.110328197479248047e+00,4.249316215515136719e+00,4.398032665252685547e+00,4.557536125183105469e+00,4.729036808013916016e+00,4.913943767547607422e+00,5.000000000000000000e+00,5.000000000000000000e+00,5.000000000000000000e+00,5.000000000000000000e+00,5.000000000000000000e+00,5.000000000000000000e+00,5.000000000000000000e+00,4.356482505798339844e+00,4.282552242279052734e+00,4.267000675201416016e+00,4.265849590301513672e+00,4.297895431518554688e+00,4.382893085479736328e+00,4.410416126251220703e+00,5.000000000000000000e+00,5.000000000000000000e+00,5.000000000000000000e+00,5.000000000000000000e+00,5.000000000000000000e+00,5.000000000000000000e+00,5.000000000000000000e+00,5.000000000000000000e+00,5.000000000000000000e+00,5.000000000000000000e+00,5.000000000000000000e+00,5.000000000000000000e+00,5.000000000000000000e+00,5.000000000000000000e+00,5.000000000000000000e+00,5.000000000000000000e+00,5.000000000000000000e+00,5.000000000000000000e+00,5.000000000000000000e+00,5.000000000000000000e+00,5.000000000000000000e+00,5.000000000000000000e+00,5.000000000000000000e+00,5.000000000000000000e+00,5.000000000000000000e+00,5.000000000000000000e+00,5.000000000000000000e+00,5.000000000000000000e+00,5.000000000000000000e+00,5.000000000000000000e+00,5.000000000000000000e+00,5.000000000000000000e+00,5.000000000000000000e+00,5.000000000000000000e+00,5.000000000000000000e+00,5.000000000000000000e+00,5.000000000000000000e+00,5.000000000000000000e+00,5.000000000000000000e+00,5.000000000000000000e+00,4.855410099029541016e+00,4.695824146270751953e+00,4.546394348144531250e+00,4.406181812286376953e+00,4.274359226226806641e+00,4.150194644927978516e+00,4.033040046691894531e+00,3.922318696975708008e+00,3.817513942718505859e+00,3.718164205551147461e+00
3.097171068191528320e+00,3.175449132919311523e+00,3.257784366607666016e+00,3.344486951828002930e+00,3.435931205749511719e+00,3.532516241073608398e+00,3.634688377380371094e+00,3.742947101593017578e+00,3.857852458953857422e+00,3.980036735534667969e+00,4.110212802886962891e+00,4.249193191528320312e+00,4.397900581359863281e+00,4.557394504547119141e+00,4.728891849517822266e+00,4.913793087005615234e+00,5.000000000000000000e+00,5.000000000000000000e+00,5.000000000000000000e+00,5.000000000000000000e+00,5.000000000000000000e+00,5.000000000000000000e+00,5.000000000000000000e+00,4.360153198242187500e+00,4.296170234680175781e+00,4.257415771484375000e+00,4.264558315277099609e+00,4.304543972015380859e+00,4.387110710144042969e+00,4.423329353332519531e+00,5.000000000000000000e+00,5.000000000000000000e+00,5.000000000000000000e+00,5.000000000000000000e+00,5.000000000000000000e+00,5.000000000000000000e+00,5.000000000000000000e+00,5.000000000000000000e+00,5.000000000000000000e+00,5.000000000000000000e+00,5.000000000000000000e+00,5.000000000000000000e+00,5.000000000000000000e+00,5.000000000000000000e+00,5.000000000000000000e+00,5.000000000000000000e+00,5.000000000000000000e+00,5.000000000000000000e+00,5.000000000000000000e+00,5.000000000000000000e+00,5.000000000000000000e+00,5.000000000000000000e+00,5.000000000000000000e+00,5.000000000000000000e+00,5.000000000000000000e+00,5.000000000000000000e+00,5.000000000000000000e+00,5.000000000000000000e+00,5.000000000000000000e+00,5.000000000000000000e+00,5.000000000000000000e+00,5.000000000000000000e+00,5.000000000000000000e+00,5.000000000000000000e+00,5.000000000000000000e+00,5.000000000000000000e+00,5.000000000000000000e+00,5.000000000000000000e+00,5.000000000000000000e+00,5.000000000000000000e+00,4.855540275573730469e+00,4.695945739746093750e+00,4.546508312225341797e+00,4.406289100646972656e+00,4.274459838867187500e+00,4.150289535522460938e+00,4.033130168914794922e+00,3.922403573989868164e+00,3.817594289779663086e+00,3.718240499496459961e+00
3.097071886062622070e+00,3.175344944000244141e+00,3.257677078247070312e+00,3.344392299652099609e+00,3.435850381851196289e+00,3.532430887222290039e+00,3.634598255157470703e+00,3.742851495742797852e+00,3.857750892639160156e+00,3.979928493499755859e+00,4.110097885131835938e+00,4.249070167541503906e+00,4.397768497467041016e+00,4.557252883911132812e+00,4.728739261627197266e+00,4.913636207580566406e+00,5.000000000000000000e+00,5.000000000000000000e+00,5.000000000000000000e+00,5.000000000000000000e+00,5.000000000000000000e+00,5.000000000000000000e+00,5.000000000000000000e+00,4.360743522644042969e+00,4.291976928710937500e+00,4.264729022979736328e+00,4.259126186370849609e+00,4.309778690338134766e+00,4.416858673095703125e+00,4.440960407257080078e+00,5.000000000000000000e+00,5.000000000000000000e+00,5.000000000000000000e+00,5.000000000000000000e+00,5.000000000000000000e+00,5.000000000000000000e+00,5.000000000000000000e+00,5.000000000000000000e+00,5.000000000000000000e+00,5.000000000000000000e+00,5.000000000000000000e+00,5.000000000000000000e+00,5.000000000000000000e+00,5.000000000000000000e+00,5.000000000000000000e+00,5.000000000000000000e+00,5.000000000000000000e+00,5.000000000000000000e+00,5.000000000000000000e+00,5.000000000000000000e+00,5.000000000000000000e+00,5.000000000000000000e+00,5.000000000000000000e+00,5.000000000000000000e+00,5.000000000000000000e+00,5.000000000000000000e+00,5.000000000000000000e+00,5.000000000000000000e+00,5.000000000000000000e+00,5.000000000000000000e+00,5.000000000000000000e+00,5.000000000000000000e+00,5.000000000000000000e+00,5.000000000000000000e+00,5.000000000000000000e+00,5.000000000000000000e+00,5.000000000000000000e+00,5.000000000000000000e+00,5.000000000000000000e+00,5.000000000000000000e+00,4.855670452117919922e+00,4.696066856384277344e+00,4.546622276306152344e+00,4.406395912170410156e+00,4.274560451507568359e+00,4.150384426116943359e+00,4.033219814300537109e+00,3.922488212585449219e+00,3.817674636840820312e+00,3.718316555023193359e+00
3.096972703933715820e+00,3.175240755081176758e+00,3.257567405700683594e+00,3.344276666641235352e+00,3.435728311538696289e+00,3.532321929931640625e+00,3.634504556655883789e+00,3.742755889892578125e+00,3.857649326324462891e+00,3.979820489883422852e+00,4.109982490539550781e+00,4.248946666717529297e+00,4.397636890411376953e+00,4.557110786437988281e+00,4.728586673736572266e+00,4.913471698760986328e+00,5.000000000000000000e+00,5.000000000000000000e+00,5.000000000000000000e+00,5.000000000000000000e+00,5.000000000000000000e+00,5.000000000000000000e+00,5.000000000000000000e+00,4.363290309906005859e+00,4.295389175415039062e+00,4.255020618438720703e+00,4.262722492218017578e+00,4.298197269439697266e+00,4.437588214874267578e+00,4.448397159576416016e+00,5.000000000000000000e+00,5.000000000000000000e+00,5.000000000000000000e+00,5.000000000000000000e+00,5.000000000000000000e+00,5.000000000000000000e+00,5.000000000000000000e+00,5.000000000000000000e+00,5.000000000000000000e+00,5.000000000000000000e+00,5.000000000000000000e+00,5.000000000000000000e+00,5.000000000000000000e+00,5.000000000000000000e+00,5.000000000000000000e+00,5.000000000000000000e+00,5.000000000000000000e+00,5.000000000000000000e+00,5.000000000000000000e+00,5.000000000000000000e+00,5.000000000000000000e+00,5.000000000000000000e+00,5.000000000000000000e+00,5.000000000000000000e+00,5.000000000000000000e+00,5.000000000000000000e+00,5.000000000000000000e+00,5.000000000000000000e+00,5.000000000000000000e+00,5.000000000000000000e+00,5.000000000000000000e+00,5.000000000000000000e+00,5.000000000000000000e+00,5.000000000000000000e+00,5.000000000000000000e+00,5.000000000000000000e+00,5.000000000000000000e+00,5.000000000000000000e+00,5.000000000000000000e+00,5.000000000000000000e+00,4.855800151824951172e+00,4.696188449859619141e+00,4.546736240386962891e+00,4.406503200531005859e+00,4.274661540985107422e+00,4.150479793548583984e+00,4.033309459686279297e+00,3.922573089599609375e+00,3.817754983901977539e+00,3.718392848968505859e+00
3.096903562545776367e+00,3.175151824951171875e+00,3.257457733154296875e+00,3.344161033630371094e+00,3.435606241226196289e+00,3.532192945480346680e+00,3.634367942810058594e+00,3.742629766464233398e+00,3.857539892196655273e+00,3.979712247848510742e+00,4.109867572784423828e+00,4.248823642730712891e+00,4.397504806518554688e+00,4.556969642639160156e+00,4.728434562683105469e+00,4.913306713104248047e+00,5.000000000000000000e+00,5.000000000000000000e+00,5.000000000000000000e+00,5.000000000000000000e+00,5.000000000000000000e+00,5.000000000000000000e+00,5.000000000000000000e+00,4.307533740997314453e+00,4.295197963714599609e+00,4.268533706665039062e+00,4.272431850433349609e+00,4.285074710845947266e+00,4.433203220367431641e+00,4.432906627655029297e+00,5.000000000000000000e+00,5.000000000000000000e+00,5.000000000000000000e+00,5.000000000000000000e+00,5.000000000000000000e+00,5.000000000000000000e+00,5.000000000000000000e+00,5.000000000000000000e+00,5.000000000000000000e+00,5.000000000000000000e+00,5.000000000000000000e+00,5.000000000000000000e+00,5.000000000000000000e+00,5.000000000000000000e+00,5.000000000000000000e+00,5.000000000000000000e+00,5.000000000000000000e+00,5.000000000000000000e+00,5.000000000000000000e+00,5.000000000000000000e+00,5.000000000000000000e+00,5.000000000000000000e+00,5.000000000000000000e+00,5.000000000000000000e+00,5.000000000000000000e+00,5.000000000000000000e+00,5.000000000000000000e+00,5.000000000000000000e+00,5.000000000000000000e+00,5.000000000000000000e+00,5.000000000000000000e+00,5.000000000000000000e+00,5.000000000000000000e+00,5.000000000000000000e+00,5.000000000000000000e+00,5.000000000000000000e+00,5.000000000000000000e+00,5.000000000000000000e+00,5.000000000000000000e+00,5.000000000000000000e+00,4.855929851531982422e+00,4.696310043334960938e+00,4.546850204467773438e+00,4.406610012054443359e+00,4.274762153625488281e+00,4.150574684143066406e+00,4.033399105072021484e+00,3.922657966613769531e+00,3.817835330963134766e+00,3.718469142913818359e+00
3.096837759017944336e+00,3.175082683563232422e+00,3.257383584976196289e+00,3.344065189361572266e+00,3.435485839843750000e+00,3.532063961029052734e+00,3.634231328964233398e+00,3.742485046386718750e+00,3.857385873794555664e+00,3.979565620422363281e+00,4.109738349914550781e+00,4.248700618743896484e+00,4.397373199462890625e+00,4.556828022003173828e+00,4.728281974792480469e+00,4.913142681121826172e+00,5.000000000000000000e+00,5.000000000000000000e+00,5.000000000000000000e+00,5.000000000000000000e+00,5.000000000000000000e+00,5.000000000000000000e+00,5.000000000000000000e+00,4.276729583740234375e+00,4.277955532073974609e+00,4.295765876770019531e+00,4.213884353637695312e+00,4.239783287048339844e+00,5.000000000000000000e+00,4.418950080871582031e+00,5.000000000000000000e+00,5.000000000000000000e+00,5.000000000000000000e+00,5.000000000000000000e+00,5.000000000000000000e+00,5.000000000000000000e+00,5.000000000000000000e+00,5.000000000000000000e+00,5.000000000000000000e+00,5.000000000000000000e+00,5.000000000000000000e+00,5.000000000000000000e+00,5.000000000000000000e+00,5.000000000000000000e+00,5.000000000000000000e+00,5.000000000000000000e+00,5.000000000000000000e+00,5.000000000000000000e+00,5.000000000000000000e+00,5.000000000000000000e+00,5.000000000000000000e+00,5.000000000000000000e+00,5.000000000000000000e+00,5.000000000000000000e+00,5.000000000000000000e+00,5.000000000000000000e+00,5.000000000000000000e+00,5.000000000000000000e+00,5.000000000000000000e+00,5.000000000000000000e+00,5.000000000000000000e+00,5.000000000000000000e+00,5.000000000000000000e+00,5.000000000000000000e+00,5.000000000000000000e+00,5.000000000000000000e+00,5.000000000000000000e+00,5.000000000000000000e+00,5.000000000000000000e+00,5.000000000000000000e+00,4.856060028076171875e+00,4.696431636810302734e+00,4.546964168548583984e+00,4.406717300415039062e+00,4.274862766265869141e+00,4.150669574737548828e+00,4.033488750457763672e+00,3.922742843627929688e+00,3.817915916442871094e+00,3.718545436859130859e+00
3.096771717071533203e+00,3.175013303756713867e+00,3.257310867309570312e+00,3.343988418579101562e+00,3.435405015945434570e+00,3.531960248947143555e+00,3.634099721908569336e+00,3.742340087890625000e+00,3.857232093811035156e+00,3.979401826858520508e+00,4.109563827514648438e+00,4.248528480529785156e+00,4.397219657897949219e+00,4.556685924530029297e+00,4.728129386901855469e+00,4.912977695465087891e+00,5.000000000000000000e+00,5.000000000000000000e+00,5.000000000000000000e+00,5.000000000000000000e+00,5.000000000000000000e+00,5.000000000000000000e+00,5.000000000000000000e+00,5.000000000000000000e+00,4.258776187896728516e+00,4.281282424926757812e+00,4.186034202575683594e+00,4.220758914947509766e+00,5.000000000000000000e+00,4.415378570556640625e+00,5.000000000000000000e+00,5.000000000000000000e+00,5.000000000000000000e+00,5.000000000000000000e+00,5.000000000000000000e+00,5.000000000000000000e+00,5.000000000000000000e+00,5.000000000000000000e+00,5.000000000000000000e+00,5.000000000000000000e+00,5.000000000000000000e+00,5.000000000000000000e+00,5.000000000000000000e+00,5.000000000000000000e+00,5.000000000000000000e+00,5.000000000000000000e+00,5.000000000000000000e+00,5.000000000000000000e+00,5.000000000000000000e+00,5.000000000000000000e+00,5.000000000000000000e+00,5.000000000000000000e+00,5.000000000000000000e+00,5.000000000000000000e+00,5.000000000000000000e+00,5.000000000000000000e+00,5.000000000000000000e+00,5.000000000000000000e+00,5.000000000000000000e+00,5.000000000000000000e+00,5.000000000000000000e+00,5.000000000000000000e+00,5.000000000000000000e+00,5.000000000000000000e+00,5.000000000000000000e+00,5.000000000000000000e+00,5.000000000000000000e+00,5.000000000000000000e+00,5.000000000000000000e+00,5.000000000000000000e+00,4.856189727783203125e+00,4.696553230285644531e+00,4.547078609466552734e+00,4.406824111938476562e+00,4.274963378906250000e+00,4.150764465332031250e+00,4.033577919006347656e+00,3.922827720642089844e+00,3.817996263504028320e+00,3.718621492385864258e+00
3.096705913543701172e+00,3.174944162368774414e+00,3.257238149642944336e+00,3.343911409378051758e+00,3.435323715209960938e+00,3.531874418258666992e+00,3.634009361267089844e+00,3.742227077484130859e+00,3.857087850570678711e+00,3.979238033294677734e+00,4.109388828277587891e+00,4.248341083526611328e+00,4.397019863128662109e+00,4.556482315063476562e+00,4.727946281433105469e+00,4.912813186645507812e+00,5.000000000000000000e+00,5.000000000000000000e+00,5.000000000000000000e+00,5.000000000000000000e+00,5.000000000000000000e+00,5.000000000000000000e+00,4.199302196502685547e+00,5.000000000000000000e+00,4.260734081268310547e+00,4.285101413726806641e+00,4.167447090148925781e+00,4.216015338897705078e+00,5.000000000000000000e+00,4.399468898773193359e+00,5.000000000000000000e+00,5.000000000000000000e+00,5.000000000000000000e+00,5.000000000000000000e+00,5.000000000000000000e+00,5.000000000000000000e+00,5.000000000000000000e+00,5.000000000000000000e+00,5.000000000000000000e+00,5.000000000000000000e+00,5.000000000000000000e+00,5.000000000000000000e+00,5.000000000000000000e+00,5.000000000000000000e+00,5.000000000000000000e+00,5.000000000000000000e+00,5.000000000000000000e+00,5.000000000000000000e+00,5.000000000000000000e+00,5.000000000000000000e+00,5.000000000000000000e+00,5.000000000000000000e+00,5.000000000000000000e+00,5.000000000000000000e+00,5.000000000000000000e+00,5.000000000000000000e+00,5.000000000000000000e+00,5.000000000000000000e+00,5.000000000000000000e+00,5.000000000000000000e+00,5.000000000000000000e+00,5.000000000000000000e+00,5.000000000000000000e+00,5.000000000000000000e+00,5.000000000000000000e+00,5.000000000000000000e+00,5.000000000000000000e+00,5.000000000000000000e+00,5.000000000000000000e+00,5.000000000000000000e+00,4.856319904327392578e+00,4.696674823760986328e+00,4.547192573547363281e+00,4.406931400299072266e+00,4.275064468383789062e+00,4.150859355926513672e+00,4.033668041229248047e+00,3.922912597656250000e+00,3.818076610565185547e+00,3.718697786331176758e+00
3.096640110015869141e+00,3.174874782562255859e+00,3.257165193557739258e+00,3.343834877014160156e+00,3.435242891311645508e+00,3.531788825988769531e+00,3.633918762207031250e+00,3.742130517959594727e+00,3.856985569000244141e+00,3.979113817214965820e+00,4.109229564666748047e+00,4.248154640197753906e+00,4.396820068359375000e+00,4.556267738342285156e+00,4.727715015411376953e+00,4.912569522857666016e+00,5.000000000000000000e+00,5.000000000000000000e+00,5.000000000000000000e+00,5.000000000000000000e+00,5.000000000000000000e+00,5.000000000000000000e+00,5.000000000000000000e+00,5.000000000000000000e+00,4.263528823852539062e+00,4.290142059326171875e+00,4.144982337951660156e+00,4.248169422149658203e+00,5.000000000000000000e+00,4.389698982238769531e+00,5.000000000000000000e+00,5.000000000000000000e+00,5.000000000000000000e+00,5.000000000000000000e+00,5.000000000000000000e+00,5.000000000000000000e+00,5.000000000000000000e+00,5.000000000000000000e+00,5.000000000000000000e+00,5.000000000000000000e+00,5.000000000000000000e+00,5.000000000000000000e+00,5.000000000000000000e+00,5.000000000000000000e+00,5.000000000000000000e+00,5.000000000000000000e+00,5.000000000000000000e+00,5.000000000000000000e+00,5.000000000000000000e+00,5.000000000000000000e+00,5.000000000000000000e+00,5.000000000000000000e+00,5.000000000000000000e+00,5.000000000000000000e+00,5.000000000000000000e+00,5.000000000000000000e+00,5.000000000000000000e+00,5.000000000000000000e+00,5.000000000000000000e+00,5.000000000000000000e+00,5.000000000000000000e+00,5.000000000000000000e+00,5.000000000000000000e+00,5.000000000000000000e+00,5.000000000000000000e+00,5.000000000000000000e+00,5.000000000000000000e+00,5.000000000000000000e+00,5.000000000000000000e+00,5.000000000000000000e+00,4.856450080871582031e+00,4.696796417236328125e+00,4.547306537628173828e+00,4.407038211822509766e+00,4.275165081024169922e+00,4.150954246520996094e+00,4.033757686614990234e+00,3.922999620437622070e+00,3.818161725997924805e+00,3.718780994415283203e+00
3.096574306488037109e+00,3.174805641174316406e+00,3.257092475891113281e+00,3.343758106231689453e+00,3.435161590576171875e+00,3.531702995300292969e+00,3.633827924728393555e+00,3.742034673690795898e+00,3.856883525848388672e+00,3.979005336761474609e+00,4.109113693237304688e+00,4.248018264770507812e+00,4.396642208099365234e+00,4.556052684783935547e+00,4.727483749389648438e+00,4.912320137023925781e+00,5.000000000000000000e+00,5.000000000000000000e+00,5.000000000000000000e+00,5.000000000000000000e+00,5.000000000000000000e+00,5.000000000000000000e+00,5.000000000000000000e+00,5.000000000000000000e+00,4.266097068786621094e+00,4.294921875000000000e+00,4.128714084625244141e+00,5.000000000000000000e+00,5.000000000000000000e+00,5.000000000000000000e+00,5.000000000000000000e+00,5.000000000000000000e+00,5.000000000000000000e+00,5.000000000000000000e+00,5.000000000000000000e+00,5.000000000000000000e+00,5.000000000000000000e+00,5.000000000000000000e+00,5.000000000000000000e+00,5.000000000000000000e+00,5.000000000000000000e+00,5.000000000000000000e+00,5.000000000000000000e+00,5.000000000000000000e+00,5.000000000000000000e+00,5.000000000000000000e+00,5.000000000000000000e+00,5.000000000000000000e+00,5.000000000000000000e+00,5.000000000000000000e+00,5.000000000000000000e+00,5.000000000000000000e+00,5.000000000000000000e+00,5.000000000000000000e+00,5.000000000000000000e+00,5.000000000000000000e+00,5.000000000000000000e+00,5.000000000000000000e+00,5.000000000000000000e+00,5.000000000000000000e+00,5.000000000000000000e+00,5.000000000000000000e+00,5.000000000000000000e+00,5.000000000000000000e+00,5.000000000000000000e+00,5.000000000000000000e+00,5.000000000000000000e+00,5.000000000000000000e+00,5.000000000000000000e+00,5.000000000000000000e+00,4.856580257415771484e+00,4.696918010711669922e+00,4.547420501708984375e+00,4.407145500183105469e+00,4.275267124176025391e+00,4.151053905487060547e+00,4.033854961395263672e+00,3.923091888427734375e+00,3.818248987197875977e+00,3.718864202499389648e+00
3.096508502960205078e+00,3.174736261367797852e+00,3.257019281387329102e+00,3.343681097030639648e+00,3.435080766677856445e+00,3.531617403030395508e+00,3.633737325668334961e+00,3.741938591003417969e+00,3.856781244277954102e+00,3.978896379470825195e+00,4.108997821807861328e+00,4.247894287109375000e+00,4.396509647369384766e+00,4.555901050567626953e+00,4.727283954620361328e+00,4.912070274353027344e+00,5.000000000000000000e+00,5.000000000000000000e+00,5.000000000000000000e+00,5.000000000000000000e+00,5.000000000000000000e+00,5.000000000000000000e+00,5.000000000000000000e+00,5.000000000000000000e+00,4.273346900939941406e+00,4.302424430847167969e+00,4.150825023651123047e+00,5.000000000000000000e+00,5.000000000000000000e+00,5.000000000000000000e+00,5.000000000000000000e+00,5.000000000000000000e+00,5.000000000000000000e+00,5.000000000000000000e+00,5.000000000000000000e+00,5.000000000000000000e+00,5.000000000000000000e+00,5.000000000000000000e+00,5.000000000000000000e+00,5.000000000000000000e+00,5.000000000000000000e+00,5.000000000000000000e+00,5.000000000000000000e+00,5.000000000000000000e+00,5.000000000000000000e+00,5.000000000000000000e+00,5.000000000000000000e+00,5.000000000000000000e+00,5.000000000000000000e+00,5.000000000000000000e+00,5.000000000000000000e+00,5.000000000000000000e+00,5.000000000000000000e+00,5.000000000000000000e+00,5.000000000000000000e+00,5.000000000000000000e+00,5.000000000000000000e+00,5.000000000000000000e+00,5.000000000000000000e+00,5.000000000000000000e+00,5.000000000000000000e+00,5.000000000000000000e+00,5.000000000000000000e+00,5.000000000000000000e+00,5.000000000000000000e+00,5.000000000000000000e+00,5.000000000000000000e+00,5.000000000000000000e+00,5.000000000000000000e+00,5.000000000000000000e+00,4.856709957122802734e+00,4.697040557861328125e+00,4.547538757324218750e+00,4.407259941101074219e+00,4.275377273559570312e+00,4.151157855987548828e+00,4.033952713012695312e+00,3.923184633255004883e+00,3.818336725234985352e+00,3.718947172164916992e+00
3.096442461013793945e+00,3.174667119979858398e+00,3.256946802139282227e+00,3.343604564666748047e+00,3.434999942779541016e+00,3.531531572341918945e+00,3.633646488189697266e+00,3.741842269897460938e+00,3.856679201126098633e+00,3.978787899017333984e+00,4.108881950378417969e+00,4.247770309448242188e+00,4.396377086639404297e+00,4.555758476257324219e+00,4.727130889892578125e+00,4.911899566650390625e+00,5.000000000000000000e+00,5.000000000000000000e+00,5.000000000000000000e+00,5.000000000000000000e+00,5.000000000000000000e+00,5.000000000000000000e+00,5.000000000000000000e+00,5.000000000000000000e+00,5.000000000000000000e+00,4.373539447784423828e+00,4.181882858276367188e+00,5.000000000000000000e+00,5.000000000000000000e+00,5.000000000000000000e+00,5.000000000000000000e+00,5.000000000000000000e+00,5.000000000000000000e+00,5.000000000000000000e+00,5.000000000000000000e+00,5.000000000000000000e+00,5.000000000000000000e+00,5.000000000000000000e+00,5.000000000000000000e+00,5.000000000000000000e+00,5.000000000000000000e+00,5.000000000000000000e+00,5.000000000000000000e+00,5.000000000000000000e+00,5.000000000000000000e+00,5.000000000000000000e+00,5.000000000000000000e+00,5.000000000000000000e+00,5.000000000000000000e+00,5.000000000000000000e+00,5.000000000000000000e+00,5.000000000000000000e+00,5.000000000000000000e+00,5.000000000000000000e+00,5.000000000000000000e+00,5.000000000000000000e+00,5.000000000000000000e+00,5.000000000000000000e+00,5.000000000000000000e+00,5.000000000000000000e+00,5.000000000000000000e+00,5.000000000000000000e+00,5.000000000000000000e+00,5.000000000000000000e+00,5.000000000000000000e+00,5.000000000000000000e+00,5.000000000000000000e+00,5.000000000000000000e+00,5.000000000000000000e+00,5.000000000000000000e+00,4.856848239898681641e+00,4.697173118591308594e+00,4.547662734985351562e+00,4.407376766204833984e+00,4.275486946105957031e+00,4.151261329650878906e+00,4.034050464630126953e+00,3.923277139663696289e+00,3.818424463272094727e+00,3.719030380249023438e+00
3.096376895904541016e+00,3.174598217010498047e+00,3.256874084472656250e+00,3.343527555465698242e+00,3.434918642044067383e+00,3.531446218490600586e+00,3.633555889129638672e+00,3.741746187210083008e+00,3.856577157974243164e+00,3.978678941726684570e+00,4.108765602111816406e+00,4.247646331787109375e+00,4.396244049072265625e+00,4.555615901947021484e+00,4.726977348327636719e+00,4.911734104156494141e+00,5.000000000000000000e+00,5.000000000000000000e+00,5.000000000000000000e+00,5.000000000000000000e+00,5.000000000000000000e+00,5.000000000000000000e+00,5.000000000000000000e+00,5.000000000000000000e+00,5.000000000000000000e+00,4.481550216674804688e+00,4.186554431915283203e+00,5.000000000000000000e+00,5.000000000000000000e+00,5.000000000000000000e+00,5.000000000000000000e+00,5.000000000000000000e+00,5.000000000000000000e+00,5.000000000000000000e+00,5.000000000000000000e+00,5.000000000000000000e+00,5.000000000000000000e+00,5.000000000000000000e+00,5.000000000000000000e+00,5.000000000000000000e+00,5.000000000000000000e+00,5.000000000000000000e+00,5.000000000000000000e+00,5.000000000000000000e+00,5.000000000000000000e+00,5.000000000000000000e+00,5.000000000000000000e+00,5.000000000000000000e+00,5.000000000000000000e+00,5.000000000000000000e+00,5.000000000000000000e+00,5.000000000000000000e+00,5.000000000000000000e+00,5.000000000000000000e+00,5.000000000000000000e+00,5.000000000000000000e+00,5.000000000000000000e+00,5.000000000000000000e+00,5.000000000000000000e+00,5.000000000000000000e+00,5.000000000000000000e+00,5.000000000000000000e+00,5.000000000000000000e+00,5.000000000000000000e+00,5.000000000000000000e+00,5.000000000000000000e+00,5.000000000000000000e+00,5.000000000000000000e+00,5.000000000000000000e+00,5.000000000000000000e+00,4.856989860534667969e+00,4.697305679321289062e+00,4.547787189483642578e+00,4.407493591308593750e+00,4.275596618652343750e+00,4.151364803314208984e+00,4.034148216247558594e+00,3.923369407653808594e+00,3.818511962890625000e+00,3.719113588333129883e+00
3.096310853958129883e+00,3.174528837203979492e+00,3.256800889968872070e+00,3.343451023101806641e+00,3.434837818145751953e+00,3.531360626220703125e+00,3.633465051651000977e+00,3.741649866104125977e+00,3.856474876403808594e+00,3.978570461273193359e+00,4.108649730682373047e+00,4.247522354125976562e+00,4.396111488342285156e+00,4.555473327636718750e+00,4.726823806762695312e+00,4.911568641662597656e+00,5.000000000000000000e+00,5.000000000000000000e+00,5.000000000000000000e+00,5.000000000000000000e+00,5.000000000000000000e+00,5.000000000000000000e+00,5.000000000000000000e+00,5.000000000000000000e+00,5.000000000000000000e+00,5.000000000000000000e+00,4.195977210998535156e+00,5.000000000000000000e+00,5.000000000000000000e+00,5.000000000000000000e+00,5.000000000000000000e+00,5.000000000000000000e+00,5.000000000000000000e+00,5.000000000000000000e+00,5.000000000000000000e+00,5.000000000000000000e+00,5.000000000000000000e+00,5.000000000000000000e+00,5.000000000000000000e+00,5.000000000000000000e+00,5.000000000000000000e+00,5.000000000000000000e+00,5.000000000000000000e+00,5.000000000000000000e+00,5.000000000000000000e+00,5.000000000000000000e+00,5.000000000000000000e+00,5.000000000000000000e+00,5.000000000000000000e+00,5.000000000000000000e+00,5.000000000000000000e+00,5.000000000000000000e+00,5.000000000000000000e+00,5.000000000000000000e+00,5.000000000000000000e+00,5.000000000000000000e+00,5.000000000000000000e+00,5.000000000000000000e+00,5.000000000000000000e+00,5.000000000000000000e+00,5.000000000000000000e+00,5.000000000000000000e+00,5.000000000000000000e+00,5.000000000000000000e+00,5.000000000000000000e+00,5.000000000000000000e+00,5.000000000000000000e+00,5.000000000000000000e+00,5.000000000000000000e+00,5.000000000000000000e+00,4.857131481170654297e+00,4.697438240051269531e+00,4.547911643981933594e+00,4.407610416412353516e+00,4.275706768035888672e+00,4.151468276977539062e+00,4.034245967864990234e+00,3.923461914062500000e+00,3.818599700927734375e+00,3.719196557998657227e+00
3.096245050430297852e+00,3.174459695816040039e+00,3.256728172302246094e+00,3.343374252319335938e+00,3.434756517410278320e+00,3.531274795532226562e+00,3.633374691009521484e+00,3.741554021835327148e+00,3.856372833251953125e+00,3.978461980819702148e+00,4.108533859252929688e+00,4.247398376464843750e+00,4.395978927612304688e+00,4.555330753326416016e+00,4.726670265197753906e+00,4.911402702331542969e+00,5.000000000000000000e+00,5.000000000000000000e+00,5.000000000000000000e+00,5.000000000000000000e+00,5.000000000000000000e+00,5.000000000000000000e+00,5.000000000000000000e+00,5.000000000000000000e+00,5.000000000000000000e+00,5.000000000000000000e+00,4.212460041046142578e+00,5.000000000000000000e+00,5.000000000000000000e+00,5.000000000000000000e+00,5.000000000000000000e+00,5.000000000000000000e+00,5.000000000000000000e+00,5.000000000000000000e+00,5.000000000000000000e+00,5.000000000000000000e+00,5.000000000000000000e+00,5.000000000000000000e+00,5.000000000000000000e+00,5.000000000000000000e+00,5.000000000000000000e+00,5.000000000000000000e+00,5.000000000000000000e+00,5.000000000000000000e+00,5.000000000000000000e+00,5.000000000000000000e+00,5.000000000000000000e+00,5.000000000000000000e+00,5.000000000000000000e+00,5.000000000000000000e+00,5.000000000000000000e+00,5.000000000000000000e+00,5.000000000000000000e+00,5.000000000000000000e+00,5.000000000000000000e+00,5.000000000000000000e+00,5.000000000000000000e+00,5.000000000000000000e+00,5.000000000000000000e+00,5.000000000000000000e+00,5.000000000000000000e+00,5.000000000000000000e+00,5.000000000000000000e+00,5.000000000000000000e+00,5.000000000000000000e+00,5.000000000000000000e+00,5.000000000000000000e+00,5.000000000000000000e+00,5.000000000000000000e+00,5.000000000000000000e+00,4.857273578643798828e+00,4.697570800781250000e+00,4.548035621643066406e+00,4.407727241516113281e+00,4.275816917419433594e+00,4.151571750640869141e+00,4.034343719482421875e+00,3.923554658889770508e+00,3.818687438964843750e+00,3.719279766082763672e+00
3.096179485321044922e+00,3.174390316009521484e+00,3.256655216217041016e+00,3.343297481536865234e+00,3.434675693511962891e+00,3.531189441680908203e+00,3.633284091949462891e+00,3.741457939147949219e+00,3.856270551681518555e+00,3.978353023529052734e+00,4.108417987823486328e+00,4.247274875640869141e+00,4.395845890045166016e+00,4.555188655853271484e+00,4.726516723632812500e+00,4.911237239837646484e+00,5.000000000000000000e+00,5.000000000000000000e+00,5.000000000000000000e+00,5.000000000000000000e+00,5.000000000000000000e+00,5.000000000000000000e+00,5.000000000000000000e+00,5.000000000000000000e+00,5.000000000000000000e+00,5.000000000000000000e+00,4.239442825317382812e+00,5.000000000000000000e+00,5.000000000000000000e+00,5.000000000000000000e+00,5.000000000000000000e+00,5.000000000000000000e+00,5.000000000000000000e+00,5.000000000000000000e+00,5.000000000000000000e+00,5.000000000000000000e+00,5.000000000000000000e+00,5.000000000000000000e+00,5.000000000000000000e+00,5.000000000000000000e+00,5.000000000000000000e+00,5.000000000000000000e+00,5.000000000000000000e+00,5.000000000000000000e+00,5.000000000000000000e+00,5.000000000000000000e+00,5.000000000000000000e+00,5.000000000000000000e+00,5.000000000000000000e+00,5.000000000000000000e+00,5.000000000000000000e+00,5.000000000000000000e+00,5.000000000000000000e+00,5.000000000000000000e+00,5.000000000000000000e+00,5.000000000000000000e+00,5.000000000000000000e+00,5.000000000000000000e+00,5.000000000000000000e+00,5.000000000000000000e+00,5.000000000000000000e+00,5.000000000000000000e+00,5.000000000000000000e+00,5.000000000000000000e+00,5.000000000000000000e+00,5.000000000000000000e+00,5.000000000000000000e+00,5.000000000000000000e+00,5.000000000000000000e+00,5.000000000000000000e+00,4.857415199279785156e+00,4.697703361511230469e+00,4.548160552978515625e+00,4.407844066619873047e+00,4.275926589965820312e+00,4.151675701141357422e+00,4.034441471099853516e+00,3.923646926879882812e+00,3.818775177001953125e+00,3.719363212585449219e+00
3.096113443374633789e+00,3.174321174621582031e+00,3.256582498550415039e+00,3.343220710754394531e+00,3.434594869613647461e+00,3.531103610992431641e+00,3.633193254470825195e+00,3.741361618041992188e+00,3.856168508529663086e+00,3.978244543075561523e+00,4.108302116394042969e+00,4.247150897979736328e+00,4.395713329315185547e+00,4.555046081542968750e+00,4.726363658905029297e+00,4.854405403137207031e+00,4.853209018707275391e+00,4.852013111114501953e+00,4.850817680358886719e+00,4.849623203277587891e+00,4.848429203033447266e+00,4.847235679626464844e+00,4.846042633056640625e+00,4.844850540161132812e+00,4.843658447265625000e+00,4.140602588653564453e+00,4.191870689392089844e+00,4.840086936950683594e+00,4.838897228240966797e+00,4.837708473205566406e+00,4.836520195007324219e+00,4.835332393646240234e+00,4.834145545959472656e+00,4.832959175109863281e+00,4.831773281097412109e+00,4.830587863922119141e+00,4.829402923583984375e+00,4.828218936920166016e+00,4.827034950256347656e+00,4.825852394104003906e+00,4.824669837951660156e+00,4.823487758636474609e+00,4.822306632995605469e+00,4.821125984191894531e+00,4.819945812225341797e+00,4.818766593933105469e+00,4.817587375640869141e+00,4.816409111022949219e+00,4.815231323242187500e+00,4.814054012298583984e+00,4.812877178192138672e+00,4.811701297760009766e+00,4.810525894165039062e+00,4.809350967407226562e+00,4.808176517486572266e+00,4.807002544403076172e+00,4.805829524993896484e+00,4.804656982421875000e+00,4.803484439849853516e+00,4.802313327789306641e+00,4.801142215728759766e+00,4.799972057342529297e+00,4.798802375793457031e+00,4.797633171081542969e+00,4.796464443206787109e+00,4.795296192169189453e+00,4.794128894805908203e+00,4.792962074279785156e+00,4.791795253753662109e+00,4.790629386901855469e+00,4.789464473724365234e+00,4.697836399078369141e+00,4.548284530639648438e+00,4.407960414886474609e+00,4.276036739349365234e+00,4.151779174804687500e+00,4.034539222717285156e+00,3.923739671707153320e+00,3.818862676620483398e+00,3.719445943832397461e+00
3.096047639846801758e+00,3.174252033233642578e+00,3.256509542465209961e+00,3.343143939971923828e+00,3.434513568878173828e+00,3.531018018722534180e+00,3.633102655410766602e+00,3.741265773773193359e+00,3.770807743072509766e+00,3.770086288452148438e+00,3.769364595413208008e+00,3.768643140792846680e+00,3.767921686172485352e+00,3.767200946807861328e+00,3.766480207443237305e+00,3.765759944915771484e+00,3.765039920806884766e+00,3.764320135116577148e+00,3.763600826263427734e+00,3.762881517410278320e+00,3.762162685394287109e+00,3.761444091796875000e+00,3.760725736618041992e+00,3.760007619857788086e+00,3.759289741516113281e+00,3.758572340011596680e+00,3.757854938507080078e+00,3.757138013839721680e+00,3.756421327590942383e+00,3.755704879760742188e+00,3.754988670349121094e+00,3.754272699356079102e+00,3.753556728363037109e+00,3.752841234207153320e+00,3.752126216888427734e+00,3.751411437988281250e+00,3.750696897506713867e+00,3.749982595443725586e+00,3.749268531799316406e+00,3.748554944992065430e+00,3.747841358184814453e+00,3.747128248214721680e+00,3.746415376663208008e+00,3.745702743530273438e+00,3.744990348815917969e+00,3.744278192520141602e+00,3.743566274642944336e+00,3.742854833602905273e+00,3.742143630981445312e+00,3.741432666778564453e+00,3.740721702575683594e+00,3.740011453628540039e+00,3.739300727844238281e+00,3.738590955734252930e+00,3.737881183624267578e+00,3.737171649932861328e+00,3.736462593078613281e+00,3.735753774642944336e+00,3.735045194625854492e+00,3.734336853027343750e+00,3.733628749847412109e+00,3.732921123504638672e+00,3.732213497161865234e+00,3.731506347656250000e+00,3.730799198150634766e+00,3.730092525482177734e+00,3.729386091232299805e+00,3.728679895401000977e+00,3.727974176406860352e+00,3.727268457412719727e+00,3.726562976837158203e+00,3.725857973098754883e+00,3.725152730941772461e+00,3.724448204040527344e+00,3.723743677139282227e+00,3.723039627075195312e+00,3.722336053848266602e+00,3.721632480621337891e+00,3.720929145812988281e+00,3.720226287841796875e+00
3.083173751831054688e+00,3.082691431045532227e+00,3.082208871841430664e+00,3.081726551055908203e+00,3.081244230270385742e+00,3.080762147903442383e+00,3.080280303955078125e+00,3.079798460006713867e+00,3.079316854476928711e+00,3.078835487365722656e+00,3.078354120254516602e+00,3.077872991561889648e+00,3.077391862869262695e+00,3.076911211013793945e+00,3.076430559158325195e+00,3.075950145721435547e+00,3.075469732284545898e+00,3.074989318847656250e+00,3.074509143829345703e+00,3.074028968811035156e+00,3.073549270629882812e+00,3.073069572448730469e+00,3.072590112686157227e+00,3.072110652923583984e+00,3.071631431579589844e+00,3.071152448654174805e+00,3.070673465728759766e+00,3.070194721221923828e+00,3.069716215133666992e+00,3.069237709045410156e+00,3.068759441375732422e+00,3.068281173706054688e+00,3.067803144454956055e+00,3.067325353622436523e+00,3.066847562789916992e+00,3.066370010375976562e+00,3.065892696380615234e+00,3.065415382385253906e+00,3.064938068389892578e+00,3.064460992813110352e+00,3.063984155654907227e+00,3.063507556915283203e+00,3.063030958175659180e+00,3.062554597854614258e+00,3.062078475952148438e+00,3.061602354049682617e+00,3.061126470565795898e+00,3.060650587081909180e+00,3.060174942016601562e+00,3.059699535369873047e+00,3.059224128723144531e+00,3.058748960494995117e+00,3.058273792266845703e+00,3.057798862457275391e+00,3.057324171066284180e+00,3.056849479675292969e+00,3.056375026702880859e+00,3.055900812149047852e+00,3.055426359176635742e+00,3.054952383041381836e+00,3.054478406906127930e+00,3.054004669189453125e+00,3.053531169891357422e+00,3.053057670593261719e+00,3.052584409713745117e+00,3.052111148834228516e+00,3.051638364791870117e+00,3.051165342330932617e+00,3.050692796707153320e+00,3.050220251083374023e+00,3.049747705459594727e+00,3.049275398254394531e+00,3.048803329467773438e+00,3.048331499099731445e+00,3.047859668731689453e+00,3.047387838363647461e+00,3.046916484832763672e+00,3.046445131301879883e+00,3.045973539352416992e+00,3.045502424240112305e+00
2.604890346527099609e+00,2.604545831680297852e+00,2.604201316833496094e+00,2.603857040405273438e+00,2.603512763977050781e+00,2.603168725967407227e+00,2.602824449539184570e+00,2.602480411529541016e+00,2.602136611938476562e+00,2.601792812347412109e+00,2.601449012756347656e+00,2.601105451583862305e+00,2.600762128829956055e+00,2.600418567657470703e+00,2.600075244903564453e+00,2.599732160568237305e+00,2.599388837814331055e+00,2.599045753479003906e+00,2.598702669143676758e+00,2.598359823226928711e+00,2.598017215728759766e+00,2.597674608230590820e+00,2.597331762313842773e+00,2.596989154815673828e+00,2.596646547317504883e+00,2.596304416656494141e+00,2.595962047576904297e+00,2.595619916915893555e+00,2.595277786254882812e+00,2.594935655593872070e+00,2.594593763351440430e+00,2.594252109527587891e+00,2.593910217285156250e+00,2.593568563461303711e+00,2.593227148056030273e+00,2.592885732650756836e+00,2.592544317245483398e+00,2.592202901840209961e+00,2.591861724853515625e+00,2.591520547866821289e+00,2.591179609298706055e+00,2.590838670730590820e+00,2.590497732162475586e+00,2.590157032012939453e+00,2.589816331863403320e+00,2.589475631713867188e+00,2.589135169982910156e+00,2.588794946670532227e+00,2.588454484939575195e+00,2.588114261627197266e+00,2.587774276733398438e+00,2.587434291839599609e+00,2.587094306945800781e+00,2.586754560470581055e+00,2.586414575576782227e+00,2.586075067520141602e+00,2.585735559463500977e+00,2.585396051406860352e+00,2.585056543350219727e+00,2.584717273712158203e+00,2.584378004074096680e+00,2.584038972854614258e+00,2.583699703216552734e+00,2.583360671997070312e+00,2.583021879196166992e+00,2.582683086395263672e+00,2.582344293594360352e+00,2.582005739212036133e+00,2.581667184829711914e+00,2.581328868865966797e+00,2.580990552902221680e+00,2.580652236938476562e+00,2.580314159393310547e+00,2.579976081848144531e+00,2.579638004302978516e+00,2.579300165176391602e+00,2.578962326049804688e+00,2.578624486923217773e+00,2.578286886215209961e+00,2.577949523925781250e+00
2.255068540573120117e+00,2.254810333251953125e+00,2.254552125930786133e+00,2.254294157028198242e+00,2.254035949707031250e+00,2.253777980804443359e+00,2.253520011901855469e+00,2.253262281417846680e+00,2.253004550933837891e+00,2.252746820449829102e+00,2.252489089965820312e+00,2.252231359481811523e+00,2.251973867416381836e+00,2.251716375350952148e+00,2.251458883285522461e+00,2.251201391220092773e+00,2.250944137573242188e+00,2.250686883926391602e+00,2.250429630279541016e+00,2.250172615051269531e+00,2.249915361404418945e+00,2.249658346176147461e+00,2.249401330947875977e+00,2.249144554138183594e+00,2.248887777328491211e+00,2.248631000518798828e+00,2.248374462127685547e+00,2.248117685317993164e+00,2.247860908508300781e+00,2.247604370117187500e+00,2.247347831726074219e+00,2.247091293334960938e+00,2.246834993362426758e+00,2.246578693389892578e+00,2.246322393417358398e+00,2.246066093444824219e+00,2.245810031890869141e+00,2.245553731918334961e+00,2.245297670364379883e+00,2.245041847229003906e+00,2.244785785675048828e+00,2.244529962539672852e+00,2.244274139404296875e+00,2.244018316268920898e+00,2.243762731552124023e+00,2.243507146835327148e+00,2.243251562118530273e+00,2.242995977401733398e+00,2.242740392684936523e+00,2.242485046386718750e+00,2.242229700088500977e+00,2.241974353790283203e+00,2.241719007492065430e+00,2.241463899612426758e+00,2.241208791732788086e+00,2.240953683853149414e+00,2.240698814392089844e+00,2.240443706512451172e+00,2.240188837051391602e+00,2.239934206008911133e+00,2.239679336547851562e+00,2.239424705505371094e+00,2.239170074462890625e+00,2.238915443420410156e+00,2.238660812377929688e+00,2.238406419754028320e+00,2.238152027130126953e+00,2.237897634506225586e+00,2.237643241882324219e+00,2.237388849258422852e+00,2.237134695053100586e+00,2.236880540847778320e+00,2.236626625061035156e+00,2.236372470855712891e+00,2.236118555068969727e+00,2.235864639282226562e+00,2.235610723495483398e+00,2.235357046127319336e+00,2.235103368759155273e+00,2.234849691390991211e+00
1.988080620765686035e+00,1.987879991531372070e+00,1.987679243087768555e+00,1.987478613853454590e+00,1.987278103828430176e+00,1.987077593803405762e+00,1.986877083778381348e+00,1.986676573753356934e+00,1.986476182937622070e+00,1.986275792121887207e+00,1.986075520515441895e+00,1.985875248908996582e+00,1.985674977302551270e+00,1.985474705696105957e+00,1.985274553298950195e+00,1.985074520111083984e+00,1.984874367713928223e+00,1.984674334526062012e+00,1.984474301338195801e+00,1.984274268150329590e+00,1.984074354171752930e+00,1.983874559402465820e+00,1.983674645423889160e+00,1.983474850654602051e+00,1.983275055885314941e+00,1.983075380325317383e+00,1.982875704765319824e+00,1.982676029205322266e+00,1.982476472854614258e+00,1.982276916503906250e+00,1.982077598571777344e+00,1.981878042221069336e+00,1.981678605079650879e+00,1.981479287147521973e+00,1.981279850006103516e+00,1.981080532073974609e+00,1.980881214141845703e+00,1.980682015419006348e+00,1.980482816696166992e+00,1.980283617973327637e+00,1.980084538459777832e+00,1.979885458946228027e+00,1.979686379432678223e+00,1.979487299919128418e+00,1.979288339614868164e+00,1.979089498519897461e+00,1.978890538215637207e+00,1.978691697120666504e+00,1.978492856025695801e+00,1.978294134140014648e+00,1.978095412254333496e+00,1.977896690368652344e+00,1.977697849273681641e+00,1.977499246597290039e+00,1.977300643920898438e+00,1.977102160453796387e+00,1.976903557777404785e+00,1.976705193519592285e+00,1.976506710052490234e+00,1.976308345794677734e+00,1.976110100746154785e+00,1.975911736488342285e+00,1.975713491439819336e+00,1.975515246391296387e+00,1.975317120552062988e+00,1.975118994712829590e+00,1.974920868873596191e+00,1.974722862243652344e+00,1.974524855613708496e+00,1.974326848983764648e+00,1.974128961563110352e+00,1.973931074142456055e+00,1.973733186721801758e+00,1.973535418510437012e+00,1.973337650299072266e+00,1.973139882087707520e+00,1.972942113876342773e+00,1.972744464874267578e+00,1.972546935081481934e+00,1.972349286079406738e+00
1.777620077133178711e+00,1.777459621429443359e+00,1.777299284934997559e+00,1.777138829231262207e+00,1.776978492736816406e+00,1.776818156242370605e+00,1.776657819747924805e+00,1.776497602462768555e+00,1.776337265968322754e+00,1.776177048683166504e+00,1.776016831398010254e+00,1.775856733322143555e+00,1.775696516036987305e+00,1.775536417961120605e+00,1.775376319885253906e+00,1.775216341018676758e+00,1.775056362152099609e+00,1.774896264076232910e+00,1.774736285209655762e+00,1.774576425552368164e+00,1.774416446685791016e+00,1.774256587028503418e+00,1.774096727371215820e+00,1.773936986923217773e+00,1.773777127265930176e+00,1.773617386817932129e+00,1.773457646369934082e+00,1.773297905921936035e+00,1.773138284683227539e+00,1.772978663444519043e+00,1.772819042205810547e+00,1.772659420967102051e+00,1.772499799728393555e+00,1.772340297698974609e+00,1.772180795669555664e+00,1.772021293640136719e+00,1.771862030029296875e+00,1.771702647209167480e+00,1.771543264389038086e+00,1.771383881568908691e+00,1.771224498748779297e+00,1.771065235137939453e+00,1.770905971527099609e+00,1.770746707916259766e+00,1.770587444305419922e+00,1.770428299903869629e+00,1.770269155502319336e+00,1.770110011100769043e+00,1.769950866699218750e+00,1.769791841506958008e+00,1.769632816314697266e+00,1.769473791122436523e+00,1.769314765930175781e+00,1.769155740737915039e+00,1.768996834754943848e+00,1.768837928771972656e+00,1.768679022789001465e+00,1.768520236015319824e+00,1.768361210823059082e+00,1.768202424049377441e+00,1.768043637275695801e+00,1.767884969711303711e+00,1.767726182937622070e+00,1.767567515373229980e+00,1.767408847808837891e+00,1.767250299453735352e+00,1.767091631889343262e+00,1.766933083534240723e+00,1.766774535179138184e+00,1.766616106033325195e+00,1.766457557678222656e+00,1.766299128532409668e+00,1.766140699386596680e+00,1.765982389450073242e+00,1.765823960304260254e+00,1.765665650367736816e+00,1.765507340431213379e+00,1.765349149703979492e+00,1.765190839767456055e+00,1.765032649040222168e+00
1.607453227043151855e+00,1.607322096824645996e+00,1.607190847396850586e+00,1.607059717178344727e+00,1.606928586959838867e+00,1.606797456741333008e+00,1.606666326522827148e+00,1.606535196304321289e+00,1.606404185295104980e+00,1.606273174285888672e+00,1.606142163276672363e+00,1.606011152267456055e+00,1.605880141258239746e+00,1.605749249458312988e+00,1.605618238449096680e+00,1.605487346649169922e+00,1.605356454849243164e+00,1.605225682258605957e+00,1.605094790458679199e+00,1.604963898658752441e+00,1.604833126068115234e+00,1.604702353477478027e+00,1.604571580886840820e+00,1.604440927505493164e+00,1.604310154914855957e+00,1.604179501533508301e+00,1.604048728942871094e+00,1.603918075561523438e+00,1.603787541389465332e+00,1.603656888008117676e+00,1.603526353836059570e+00,1.603395700454711914e+00,1.603265166282653809e+00,1.603134632110595703e+00,1.603004097938537598e+00,1.602873682975769043e+00,1.602743268013000488e+00,1.602612733840942383e+00,1.602482318878173828e+00,1.602351903915405273e+00,1.602221608161926270e+00,1.602091431617736816e+00,1.601961016654968262e+00,1.601830720901489258e+00,1.601700425148010254e+00,1.601570129394531250e+00,1.601439952850341797e+00,1.601309657096862793e+00,1.601179480552673340e+00,1.601049304008483887e+00,1.600919127464294434e+00,1.600788950920104980e+00,1.600658893585205078e+00,1.600528836250305176e+00,1.600398659706115723e+00,1.600268602371215820e+00,1.600138664245605469e+00,1.600008606910705566e+00,1.599878549575805664e+00,1.599748611450195312e+00,1.599618673324584961e+00,1.599488735198974609e+00,1.599358677864074707e+00,1.599228739738464355e+00,1.599098920822143555e+00,1.598968982696533203e+00,1.598839163780212402e+00,1.598709464073181152e+00,1.598579645156860352e+00,1.598449826240539551e+00,1.598320126533508301e+00,1.598190426826477051e+00,1.598060727119445801e+00,1.597931027412414551e+00,1.597801327705383301e+00,1.597671747207641602e+00,1.597542166709899902e+00,1.597412467002868652e+00,1.597282886505126953e+00,1.597153425216674805e+00
1.467019200325012207e+00,1.466910004615783691e+00,1.466800689697265625e+00,1.466691374778747559e+00,1.466582179069519043e+00,1.466472983360290527e+00,1.466363787651062012e+00,1.466254591941833496e+00,1.466145396232604980e+00,1.466036319732666016e+00,1.465927243232727051e+00,1.465818166732788086e+00,1.465708971023559570e+00,1.465599894523620605e+00,1.465490818023681641e+00,1.465381741523742676e+00,1.465272784233093262e+00,1.465163707733154297e+00,1.465054750442504883e+00,1.464945673942565918e+00,1.464836716651916504e+00,1.464727759361267090e+00,1.464618802070617676e+00,1.464509844779968262e+00,1.464401006698608398e+00,1.464292049407958984e+00,1.464183211326599121e+00,1.464074373245239258e+00,1.463965535163879395e+00,1.463856697082519531e+00,1.463747859001159668e+00,1.463639020919799805e+00,1.463530302047729492e+00,1.463421463966369629e+00,1.463312745094299316e+00,1.463204026222229004e+00,1.463095307350158691e+00,1.462986588478088379e+00,1.462877869606018066e+00,1.462769269943237305e+00,1.462660551071166992e+00,1.462551951408386230e+00,1.462443351745605469e+00,1.462334752082824707e+00,1.462226152420043945e+00,1.462117552757263184e+00,1.462009072303771973e+00,1.461900591850280762e+00,1.461792111396789551e+00,1.461683630943298340e+00,1.461575150489807129e+00,1.461466670036315918e+00,1.461358189582824707e+00,1.461249709129333496e+00,1.461141347885131836e+00,1.461032867431640625e+00,1.460924506187438965e+00,1.460816144943237305e+00,1.460707783699035645e+00,1.460599422454833984e+00,1.460491061210632324e+00,1.460382819175720215e+00,1.460274457931518555e+00,1.460166215896606445e+00,1.460057973861694336e+00,1.459949731826782227e+00,1.459841489791870117e+00,1.459733247756958008e+00,1.459624886512756348e+00,1.459516763687133789e+00,1.459408521652221680e+00,1.459300398826599121e+00,1.459192276000976562e+00,1.459084153175354004e+00,1.458976030349731445e+00,1.458867907524108887e+00,1.458759903907775879e+00,1.458651781082153320e+00,1.458543777465820312e+00,1.458435773849487305e+00
1.349151611328125000e+00,1.349059224128723145e+00,1.348966836929321289e+00,1.348874330520629883e+00,1.348781943321228027e+00,1.348689556121826172e+00,1.348597288131713867e+00,1.348504900932312012e+00,1.348412513732910156e+00,1.348320245742797852e+00,1.348227858543395996e+00,1.348135590553283691e+00,1.348043322563171387e+00,1.347951054573059082e+00,1.347858786582946777e+00,1.347766518592834473e+00,1.347674250602722168e+00,1.347582101821899414e+00,1.347489833831787109e+00,1.347397804260253906e+00,1.347305536270141602e+00,1.347213387489318848e+00,1.347121238708496094e+00,1.347029089927673340e+00,1.346936941146850586e+00,1.346844792366027832e+00,1.346752762794494629e+00,1.346660614013671875e+00,1.346568584442138672e+00,1.346476435661315918e+00,1.346384406089782715e+00,1.346292376518249512e+00,1.346200346946716309e+00,1.346108317375183105e+00,1.346016287803649902e+00,1.345924258232116699e+00,1.345832228660583496e+00,1.345740318298339844e+00,1.345648288726806641e+00,1.345556378364562988e+00,1.345464468002319336e+00,1.345372557640075684e+00,1.345280647277832031e+00,1.345188736915588379e+00,1.345096826553344727e+00,1.345004916191101074e+00,1.344913125038146973e+00,1.344821214675903320e+00,1.344729423522949219e+00,1.344637632369995117e+00,1.344545722007751465e+00,1.344453930854797363e+00,1.344362258911132812e+00,1.344270467758178711e+00,1.344178795814514160e+00,1.344087004661560059e+00,1.343995213508605957e+00,1.343903541564941406e+00,1.343811869621276855e+00,1.343720078468322754e+00,1.343628406524658203e+00,1.343536734580993652e+00,1.343445062637329102e+00,1.343353390693664551e+00,1.343261837959289551e+00,1.343170166015625000e+00,1.343078613281250000e+00,1.342986941337585449e+00,1.342895388603210449e+00,1.342803835868835449e+00,1.342712283134460449e+00,1.342620730400085449e+00,1.342529058456420898e+00,1.342437505722045898e+00,1.342345952987670898e+00,1.342254519462585449e+00,1.342162966728210449e+00,1.342071533203125000e+00,1.341980099678039551e+00,1.341888666152954102e+00
1.248815655708312988e+00,1.248736381530761719e+00,1.248657226562500000e+00,1.248578071594238281e+00,1.248498916625976562e+00,1.248419761657714844e+00,1.248340606689453125e+00,1.248261451721191406e+00,1.248182415962219238e+00,1.248103260993957520e+00,1.248024106025695801e+00,1.247945070266723633e+00,1.247865915298461914e+00,1.247786879539489746e+00,1.247707843780517578e+00,1.247628808021545410e+00,1.247549772262573242e+00,1.247470736503601074e+00,1.247391700744628906e+00,1.247312664985656738e+00,1.247233629226684570e+00,1.247154712677001953e+00,1.247075676918029785e+00,1.246996760368347168e+00,1.246917724609375000e+00,1.246838808059692383e+00,1.246759891510009766e+00,1.246680974960327148e+00,1.246602058410644531e+00,1.246523141860961914e+00,1.246444225311279297e+00,1.246365427970886230e+00,1.246286511421203613e+00,1.246207594871520996e+00,1.246128797531127930e+00,1.246049880981445312e+00,1.245971083641052246e+00,1.245892286300659180e+00,1.245813369750976562e+00,1.245734572410583496e+00,1.245655775070190430e+00,1.245576977729797363e+00,1.245498180389404297e+00,1.245419383049011230e+00,1.245340704917907715e+00,1.245261907577514648e+00,1.245183229446411133e+00,1.245104432106018066e+00,1.245025753974914551e+00,1.244946956634521484e+00,1.244868278503417969e+00,1.244789600372314453e+00,1.244710922241210938e+00,1.244632244110107422e+00,1.244553565979003906e+00,1.244474887847900391e+00,1.244396328926086426e+00,1.244317770004272461e+00,1.244239091873168945e+00,1.244160532951354980e+00,1.244081974029541016e+00,1.244003295898437500e+00,1.243924736976623535e+00,1.243846178054809570e+00,1.243767619132995605e+00,1.243689060211181641e+00,1.243610501289367676e+00,1.243531942367553711e+00,1.243453502655029297e+00,1.243374943733215332e+00,1.243296384811401367e+00,1.243217945098876953e+00,1.243139505386352539e+00,1.243060946464538574e+00,1.242982506752014160e+00,1.242904067039489746e+00,1.242825627326965332e+00,1.242747187614440918e+00,1.242668628692626953e+00,1.242590308189392090e+00
1.162370443344116211e+00,1.162301898002624512e+00,1.162233233451843262e+00,1.162164688110351562e+00,1.162096142768859863e+00,1.162027478218078613e+00,1.161958932876586914e+00,1.161890387535095215e+00,1.161821842193603516e+00,1.161753296852111816e+00,1.161684751510620117e+00,1.161616206169128418e+00,1.161547660827636719e+00,1.161479234695434570e+00,1.161410689353942871e+00,1.161342263221740723e+00,1.161273717880249023e+00,1.161205291748046875e+00,1.161136746406555176e+00,1.161068320274353027e+00,1.160999894142150879e+00,1.160931348800659180e+00,1.160862922668457031e+00,1.160794496536254883e+00,1.160726070404052734e+00,1.160657644271850586e+00,1.160589218139648438e+00,1.160520911216735840e+00,1.160452485084533691e+00,1.160384058952331543e+00,1.160315752029418945e+00,1.160247325897216797e+00,1.160179018974304199e+00,1.160110592842102051e+00,1.160042285919189453e+00,1.159973978996276855e+00,1.159905672073364258e+00,1.159837365150451660e+00,1.159768939018249512e+00,1.159700751304626465e+00,1.159632444381713867e+00,1.159564137458801270e+00,1.159495949745178223e+00,1.159427642822265625e+00,1.159359335899353027e+00,1.159291148185729980e+00,1.159222841262817383e+00,1.159154653549194336e+00,1.159086346626281738e+00,1.159018158912658691e+00,1.158949971199035645e+00,1.158881783485412598e+00,1.158813595771789551e+00,1.158745408058166504e+00,1.158677220344543457e+00,1.158609032630920410e+00,1.158540844917297363e+00,1.158472657203674316e+00,1.158404469490051270e+00,1.158336400985717773e+00,1.158268332481384277e+00,1.158200144767761230e+00,1.158132076263427734e+00,1.158064007759094238e+00,1.157995939254760742e+00,1.157927751541137695e+00,1.157859683036804199e+00,1.157791614532470703e+00,1.157723546028137207e+00,1.157655477523803711e+00,1.157587409019470215e+00,1.157519459724426270e+00,1.157451391220092773e+00,1.157383322715759277e+00,1.157315373420715332e+00,1.157247304916381836e+00,1.157179355621337891e+00,1.157111287117004395e+00,1.157043337821960449e+00,1.156975388526916504e+00
1.087118268013000488e+00,1.087058305740356445e+00,1.086998224258422852e+00,1.086938261985778809e+00,1.086878299713134766e+00,1.086818337440490723e+00,1.086758255958557129e+00,1.086698293685913086e+00,1.086638331413269043e+00,1.086578369140625000e+00,1.086518406867980957e+00,1.086458563804626465e+00,1.086398601531982422e+00,1.086338639259338379e+00,1.086278676986694336e+00,1.086218833923339844e+00,1.086158871650695801e+00,1.086098909378051758e+00,1.086039066314697266e+00,1.085979223251342773e+00,1.085919260978698730e+00,1.085859417915344238e+00,1.085799574851989746e+00,1.085739612579345703e+00,1.085679769515991211e+00,1.085619926452636719e+00,1.085560083389282227e+00,1.085500240325927734e+00,1.085440397262573242e+00,1.085380554199218750e+00,1.085320830345153809e+00,1.085260987281799316e+00,1.085201144218444824e+00,1.085141301155090332e+00,1.085081577301025391e+00,1.085021734237670898e+00,1.084962010383605957e+00,1.084902167320251465e+00,1.084842443466186523e+00,1.084782719612121582e+00,1.084722876548767090e+00,1.084663152694702148e+00,1.084603428840637207e+00,1.084543704986572266e+00,1.084483981132507324e+00,1.084424257278442383e+00,1.084364533424377441e+00,1.084304809570312500e+00,1.084245085716247559e+00,1.084185361862182617e+00,1.084125757217407227e+00,1.084066152572631836e+00,1.084006428718566895e+00,1.083946824073791504e+00,1.083887100219726562e+00,1.083827495574951172e+00,1.083767771720886230e+00,1.083708167076110840e+00,1.083648562431335449e+00,1.083588838577270508e+00,1.083529233932495117e+00,1.083469629287719727e+00,1.083410024642944336e+00,1.083350419998168945e+00,1.083290815353393555e+00,1.083231210708618164e+00,1.083171606063842773e+00,1.083112120628356934e+00,1.083052515983581543e+00,1.082993030548095703e+00,1.082933425903320312e+00,1.082873940467834473e+00,1.082814335823059082e+00,1.082754850387573242e+00,1.082695245742797852e+00,1.082635760307312012e+00,1.082576274871826172e+00,1.082516670227050781e+00,1.082457184791564941e+00,1.082397699356079102e+00
1.021017313003540039e+00,1.020964384078979492e+00,1.020911455154418945e+00,1.020858526229858398e+00,1.020805597305297852e+00,1.020752668380737305e+00,1.020699739456176758e+00,1.020646929740905762e+00,1.020594000816345215e+00,1.020541071891784668e+00,1.020488262176513672e+00,1.020435333251953125e+00,1.020382404327392578e+00,1.020329594612121582e+00,1.020276665687561035e+00,1.020223855972290039e+00,1.020171046257019043e+00,1.020118117332458496e+00,1.020065307617187500e+00,1.020012497901916504e+00,1.019959688186645508e+00,1.019906759262084961e+00,1.019853949546813965e+00,1.019801139831542969e+00,1.019748330116271973e+00,1.019695520401000977e+00,1.019642710685729980e+00,1.019590020179748535e+00,1.019537210464477539e+00,1.019484400749206543e+00,1.019431591033935547e+00,1.019378781318664551e+00,1.019326090812683105e+00,1.019273281097412109e+00,1.019220590591430664e+00,1.019167780876159668e+00,1.019115090370178223e+00,1.019062280654907227e+00,1.019009590148925781e+00,1.018956899642944336e+00,1.018904089927673340e+00,1.018851399421691895e+00,1.018798708915710449e+00,1.018746018409729004e+00,1.018693327903747559e+00,1.018640637397766113e+00,1.018587946891784668e+00,1.018535256385803223e+00,1.018482565879821777e+00,1.018429875373840332e+00,1.018377184867858887e+00,1.018324494361877441e+00,1.018271923065185547e+00,1.018219232559204102e+00,1.018166542053222656e+00,1.018113970756530762e+00,1.018061280250549316e+00,1.018008708953857422e+00,1.017956018447875977e+00,1.017903447151184082e+00,1.017850756645202637e+00,1.017798304557800293e+00,1.017745614051818848e+00,1.017693042755126953e+00,1.017640471458435059e+00,1.017587900161743164e+00,1.017535328865051270e+00,1.017482757568359375e+00,1.017430186271667480e+00,1.017377614974975586e+00,1.017325043678283691e+00,1.017272472381591797e+00,1.017219901084899902e+00,1.017167448997497559e+00,1.017114877700805664e+00,1.017062306404113770e+00,1.017009854316711426e+00,1.016957283020019531e+00,1.016904830932617188e+00,1.016852259635925293e+00
9.624940156936645508e-01,9.624469876289367676e-01,9.623999595642089844e-01,9.623529314994812012e-01,9.623059034347534180e-01,9.622588753700256348e-01,9.622118473052978516e-01,9.621648192405700684e-01,9.621177911758422852e-01,9.620708227157592773e-01,9.620237946510314941e-01,9.619768261909484863e-01,9.619297981262207031e-01,9.618828296661376953e-01,9.618358612060546875e-01,9.617888927459716797e-01,9.617419242858886719e-01,9.616949558258056641e-01,9.616479873657226562e-01,9.616010189056396484e-01,9.615540504455566406e-01,9.615070819854736328e-01,9.614601731300354004e-01,9.614132046699523926e-01,9.613662958145141602e-01,9.613193273544311523e-01,9.612724184989929199e-01,9.612255096435546875e-01,9.611786007881164551e-01,9.611316919326782227e-01,9.610847830772399902e-01,9.610378742218017578e-01,9.609909653663635254e-01,9.609440565109252930e-01,9.608971476554870605e-01,9.608502984046936035e-01,9.608033895492553711e-01,9.607565402984619141e-01,9.607096314430236816e-01,9.606627821922302246e-01,9.606159329414367676e-01,9.605690240859985352e-01,9.605221748352050781e-01,9.604753255844116211e-01,9.604284763336181641e-01,9.603816270828247070e-01,9.603348374366760254e-01,9.602879881858825684e-01,9.602411389350891113e-01,9.601943492889404297e-01,9.601475000381469727e-01,9.601007103919982910e-01,9.600539207458496094e-01,9.600070714950561523e-01,9.599602818489074707e-01,9.599134922027587891e-01,9.598667025566101074e-01,9.598199129104614258e-01,9.597731232643127441e-01,9.597263336181640625e-01,9.596796035766601562e-01,9.596328139305114746e-01,9.595860242843627930e-01,9.595392942428588867e-01,9.594925045967102051e-01,9.594457745552062988e-01,9.593990445137023926e-01,9.593523144721984863e-01,9.593055844306945801e-01,9.592587947845458984e-01,9.592121243476867676e-01,9.591655135154724121e-01,9.591187834739685059e-01,9.590720534324645996e-01,9.590253233909606934e-01,9.589786529541015625e-01,9.589319229125976562e-01,9.588852524757385254e-01,9.588385224342346191e-01,9.587918519973754883e-01
9.103159904479980469e-01,9.102738499641418457e-01,9.102318286895751953e-01,9.101897478103637695e-01,9.101476669311523438e-01,9.101055860519409180e-01,9.100635051727294922e-01,9.100214838981628418e-01,9.099794030189514160e-01,9.099373817443847656e-01,9.098953008651733398e-01,9.098532795906066895e-01,9.098112583160400391e-01,9.097692370414733887e-01,9.097271561622619629e-01,9.096851348876953125e-01,9.096431136131286621e-01,9.096010923385620117e-01,9.095590710639953613e-01,9.095171093940734863e-01,9.094750881195068359e-01,9.094330668449401855e-01,9.093911051750183105e-01,9.093490839004516602e-01,9.093070626258850098e-01,9.092651009559631348e-01,9.092231392860412598e-01,9.091811180114746094e-01,9.091391563415527344e-01,9.090971946716308594e-01,9.090552330017089844e-01,9.090132713317871094e-01,9.089713096618652344e-01,9.089293479919433594e-01,9.088873863220214844e-01,9.088454246520996094e-01,9.088035225868225098e-01,9.087615609169006348e-01,9.087195992469787598e-01,9.086776971817016602e-01,9.086357355117797852e-01,9.085938334465026855e-01,9.085519313812255859e-01,9.085099697113037109e-01,9.084680676460266113e-01,9.084261655807495117e-01,9.083842635154724121e-01,9.083423614501953125e-01,9.083004593849182129e-01,9.082585573196411133e-01,9.082166552543640137e-01,9.081748127937316895e-01,9.081329107284545898e-01,9.080910086631774902e-01,9.080491662025451660e-01,9.080072641372680664e-01,9.079654216766357422e-01,9.079235792160034180e-01,9.078816771507263184e-01,9.078398346900939941e-01,9.077979922294616699e-01,9.077561497688293457e-01,9.077143073081970215e-01,9.076724648475646973e-01,9.076306223869323730e-01,9.075887799263000488e-01,9.075469374656677246e-01,9.075051546096801758e-01,9.074633121490478516e-01,9.074214696884155273e-01,9.073796868324279785e-01,9.073378443717956543e-01,9.072960615158081055e-01,9.072542786598205566e-01,9.072124958038330078e-01,9.071706533432006836e-01,9.071288704872131348e-01,9.070870876312255859e-01,9.070453047752380371e-01,9.070035219192504883e-01
