3.102523326873779297e+00,3.181317806243896484e+00,3.264219284057617188e+00,3.351556777954101562e+00,3.443696260452270508e+00,3.541044950485229492e+00,3.644057750701904297e+00,3.753243923187255859e+00,3.869174718856811523e+00,3.992495775222778320e+00,4.123936653137207031e+00,4.264327049255371094e+00,4.414612770080566406e+00,5.000000000000000000e+00,5.000000000000000000e+00,5.000000000000000000e+00,5.000000000000000000e+00,5.000000000000000000e+00,5.000000000000000000e+00,5.000000000000000000e+00,5.000000000000000000e+00,5.000000000000000000e+00,5.000000000000000000e+00,5.000000000000000000e+00,5.000000000000000000e+00,5.000000000000000000e+00,5.000000000000000000e+00,5.000000000000000000e+00,5.000000000000000000e+00,5.000000000000000000e+00,5.000000000000000000e+00,5.000000000000000000e+00,5.000000000000000000e+00,5.000000000000000000e+00,5.000000000000000000e+00,5.000000000000000000e+00,5.000000000000000000e+00,5.000000000000000000e+00,5.000000000000000000e+00,5.000000000000000000e+00,5.000000000000000000e+00,5.000000000000000000e+00,5.000000000000000000e+00,5.000000000000000000e+00,5.000000000000000000e+00,5.000000000000000000e+00,5.000000000000000000e+00,5.000000000000000000e+00,5.000000000000000000e+00,5.000000000000000000e+00,5.000000000000000000e+00,5.000000000000000000e+00,5.000000000000000000e+00,5.000000000000000000e+00,5.000000000000000000e+00,5.000000000000000000e+00,5.000000000000000000e+00,5.000000000000000000e+00,5.000000000000000000e+00,5.000000000000000000e+00,5.000000000000000000e+00,5.000000000000000000e+00,5.000000000000000000e+00,5.000000000000000000e+00,5.000000000000000000e+00,5.000000000000000000e+00,5.000000000000000000e+00,5.000000000000000000e+00,5.000000000000000000e+00,5.000000000000000000e+00,5.000000000000000000e+00,5.000000000000000000e+00,5.000000000000000000e+00,4.390717983245849609e+00,4.260237693786621094e+00,4.137288093566894531e+00,4.021210670471191406e+00,3.911429882049560547e+00,3.807484149932861328e+00,3.708920001983642578e+00
3.102464199066162109e+00,3.181256055831909180e+00,3.264153957366943359e+00,3.351487636566162109e+00,3.443623304367065430e+00,3.540968179702758789e+00,3.643976688385009766e+00,3.753157377243041992e+00,3.869082927703857422e+00,3.992398023605346680e+00,4.123832702636718750e+00,4.264215469360351562e+00,4.414493560791015625e+00,5.000000000000000000e+00,5.000000000000000000e+00,5.000000000000000000e+00,5.000000000000000000e+00,5.000000000000000000e+00,5.000000000000000000e+00,5.000000000000000000e+00,5.000000000000000000e+00,5.000000000000000000e+00,5.000000000000000000e+00,5.000000000000000000e+00,5.000000000000000000e+00,5.000000000000000000e+00,5.000000000000000000e+00,5.000000000000000000e+00,5.000000000000000000e+00,5.000000000000000000e+00,5.000000000000000000e+00,5.000000000000000000e+00,5.000000000000000000e+00,5.000000000000000000e+00,5.000000000000000000e+00,5.000000000000000000e+00,5.000000000000000000e+00,5.000000000000000000e+00,5.000000000000000000e+00,5.000000000000000000e+00,5.000000000000000000e+00,5.000000000000000000e+00,5.000000000000000000e+00,5.000000000000000000e+00,5.000000000000000000e+00,5.000000000000000000e+00,5.000000000000000000e+00,5.000000000000000000e+00,5.000000000000000000e+00,5.000000000000000000e+00,5.000000000000000000e+00,5.000000000000000000e+00,5.000000000000000000e+00,5.000000000000000000e+00,5.000000000000000000e+00,5.000000000000000000e+00,5.000000000000000000e+00,5.000000000000000000e+00,5.000000000000000000e+00,5.000000000000000000e+00,5.000000000000000000e+00,5.000000000000000000e+00,5.000000000000000000e+00,5.000000000000000000e+00,5.000000000000000000e+00,5.000000000000000000e+00,5.000000000000000000e+00,5.000000000000000000e+00,5.000000000000000000e+00,5.000000000000000000e+00,5.000000000000000000e+00,5.000000000000000000e+00,4.529663562774658203e+00,4.390924453735351562e+00,4.260432243347167969e+00,4.137434959411621094e+00,4.021308422088623047e+00,3.911522388458251953e+00,3.807571887969970703e+00,3.709003210067749023e+00
3.102405548095703125e+00,3.181193828582763672e+00,3.264088630676269531e+00,3.351418733596801758e+00,3.443550825119018555e+00,3.540891408920288086e+00,3.643895149230957031e+00,3.753070831298828125e+00,3.868991136550903320e+00,3.992300510406494141e+00,4.123728275299072266e+00,4.264104366302490234e+00,4.414373874664306641e+00,4.575621604919433594e+00,5.000000000000000000e+00,5.000000000000000000e+00,5.000000000000000000e+00,5.000000000000000000e+00,5.000000000000000000e+00,5.000000000000000000e+00,5.000000000000000000e+00,5.000000000000000000e+00,5.000000000000000000e+00,5.000000000000000000e+00,5.000000000000000000e+00,5.000000000000000000e+00,5.000000000000000000e+00,5.000000000000000000e+00,5.000000000000000000e+00,5.000000000000000000e+00,5.000000000000000000e+00,5.000000000000000000e+00,5.000000000000000000e+00,5.000000000000000000e+00,5.000000000000000000e+00,5.000000000000000000e+00,5.000000000000000000e+00,5.000000000000000000e+00,5.000000000000000000e+00,5.000000000000000000e+00,5.000000000000000000e+00,5.000000000000000000e+00,5.000000000000000000e+00,5.000000000000000000e+00,5.000000000000000000e+00,5.000000000000000000e+00,5.000000000000000000e+00,5.000000000000000000e+00,5.000000000000000000e+00,5.000000000000000000e+00,5.000000000000000000e+00,5.000000000000000000e+00,5.000000000000000000e+00,5.000000000000000000e+00,5.000000000000000000e+00,5.000000000000000000e+00,5.000000000000000000e+00,5.000000000000000000e+00,5.000000000000000000e+00,5.000000000000000000e+00,5.000000000000000000e+00,5.000000000000000000e+00,5.000000000000000000e+00,5.000000000000000000e+00,5.000000000000000000e+00,5.000000000000000000e+00,5.000000000000000000e+00,5.000000000000000000e+00,5.000000000000000000e+00,5.000000000000000000e+00,5.000000000000000000e+00,4.677690029144287109e+00,4.529883384704589844e+00,4.391131401062011719e+00,4.260577678680419922e+00,4.137537956237792969e+00,4.021405696868896484e+00,3.911614418029785156e+00,3.807659149169921875e+00,3.709085941314697266e+00
3.102345228195190430e+00,3.181131839752197266e+00,3.264023065567016602e+00,3.351350069046020508e+00,3.443478107452392578e+00,3.540814399719238281e+00,3.643813610076904297e+00,3.752984762191772461e+00,3.868899583816528320e+00,3.992202758789062500e+00,4.123623847961425781e+00,4.263992786407470703e+00,4.414254665374755859e+00,4.575493335723876953e+00,4.748958110809326172e+00,5.000000000000000000e+00,5.000000000000000000e+00,5.000000000000000000e+00,5.000000000000000000e+00,5.000000000000000000e+00,5.000000000000000000e+00,5.000000000000000000e+00,5.000000000000000000e+00,5.000000000000000000e+00,5.000000000000000000e+00,5.000000000000000000e+00,5.000000000000000000e+00,5.000000000000000000e+00,5.000000000000000000e+00,5.000000000000000000e+00,5.000000000000000000e+00,5.000000000000000000e+00,5.000000000000000000e+00,5.000000000000000000e+00,5.000000000000000000e+00,5.000000000000000000e+00,5.000000000000000000e+00,5.000000000000000000e+00,5.000000000000000000e+00,5.000000000000000000e+00,5.000000000000000000e+00,5.000000000000000000e+00,5.000000000000000000e+00,5.000000000000000000e+00,5.000000000000000000e+00,5.000000000000000000e+00,5.000000000000000000e+00,5.000000000000000000e+00,5.000000000000000000e+00,5.000000000000000000e+00,5.000000000000000000e+00,5.000000000000000000e+00,5.000000000000000000e+00,5.000000000000000000e+00,5.000000000000000000e+00,5.000000000000000000e+00,5.000000000000000000e+00,5.000000000000000000e+00,5.000000000000000000e+00,5.000000000000000000e+00,5.000000000000000000e+00,5.000000000000000000e+00,5.000000000000000000e+00,5.000000000000000000e+00,5.000000000000000000e+00,5.000000000000000000e+00,5.000000000000000000e+00,5.000000000000000000e+00,5.000000000000000000e+00,5.000000000000000000e+00,4.835718631744384766e+00,4.677924633026123047e+00,4.530103206634521484e+00,4.391274929046630859e+00,4.260687351226806641e+00,4.137641429901123047e+00,4.021503448486328125e+00,3.911707162857055664e+00,3.807746887207031250e+00,3.709168910980224609e+00
3.102278709411621094e+00,3.181068658828735352e+00,3.263957977294921875e+00,3.351281166076660156e+00,3.443405389785766602e+00,3.540737390518188477e+00,3.643732309341430664e+00,3.752898454666137695e+00,3.868807792663574219e+00,3.992104768753051758e+00,4.123519897460937500e+00,4.263881206512451172e+00,4.414134979248046875e+00,4.575365066528320312e+00,4.748819351196289062e+00,4.935944080352783203e+00,5.000000000000000000e+00,5.000000000000000000e+00,5.000000000000000000e+00,5.000000000000000000e+00,5.000000000000000000e+00,5.000000000000000000e+00,5.000000000000000000e+00,5.000000000000000000e+00,5.000000000000000000e+00,5.000000000000000000e+00,5.000000000000000000e+00,5.000000000000000000e+00,5.000000000000000000e+00,5.000000000000000000e+00,5.000000000000000000e+00,5.000000000000000000e+00,5.000000000000000000e+00,5.000000000000000000e+00,5.000000000000000000e+00,5.000000000000000000e+00,5.000000000000000000e+00,5.000000000000000000e+00,5.000000000000000000e+00,5.000000000000000000e+00,5.000000000000000000e+00,5.000000000000000000e+00,5.000000000000000000e+00,5.000000000000000000e+00,5.000000000000000000e+00,5.000000000000000000e+00,5.000000000000000000e+00,5.000000000000000000e+00,5.000000000000000000e+00,5.000000000000000000e+00,5.000000000000000000e+00,5.000000000000000000e+00,5.000000000000000000e+00,5.000000000000000000e+00,5.000000000000000000e+00,5.000000000000000000e+00,5.000000000000000000e+00,5.000000000000000000e+00,5.000000000000000000e+00,5.000000000000000000e+00,5.000000000000000000e+00,5.000000000000000000e+00,5.000000000000000000e+00,5.000000000000000000e+00,5.000000000000000000e+00,5.000000000000000000e+00,5.000000000000000000e+00,5.000000000000000000e+00,5.000000000000000000e+00,5.000000000000000000e+00,4.835969448089599609e+00,4.678159236907958984e+00,4.530245780944824219e+00,4.391391277313232422e+00,4.260796546936035156e+00,4.137744903564453125e+00,4.021600723266601562e+00,3.911799192428588867e+00,3.807834148406982422e+00,3.709252119064331055e+00
3.102212190628051758e+00,3.180998802185058594e+00,3.263891696929931641e+00,3.351212263107299805e+00,3.443332910537719727e+00,3.540660858154296875e+00,3.643651008605957031e+00,3.752811908721923828e+00,3.868715763092041016e+00,3.992007493972778320e+00,4.123415470123291016e+00,4.263770103454589844e+00,4.414015293121337891e+00,4.575236797332763672e+00,4.748681545257568359e+00,4.935794830322265625e+00,5.000000000000000000e+00,5.000000000000000000e+00,5.000000000000000000e+00,5.000000000000000000e+00,5.000000000000000000e+00,5.000000000000000000e+00,5.000000000000000000e+00,5.000000000000000000e+00,5.000000000000000000e+00,5.000000000000000000e+00,5.000000000000000000e+00,5.000000000000000000e+00,5.000000000000000000e+00,5.000000000000000000e+00,5.000000000000000000e+00,5.000000000000000000e+00,5.000000000000000000e+00,5.000000000000000000e+00,5.000000000000000000e+00,5.000000000000000000e+00,5.000000000000000000e+00,5.000000000000000000e+00,5.000000000000000000e+00,5.000000000000000000e+00,5.000000000000000000e+00,5.000000000000000000e+00,5.000000000000000000e+00,5.000000000000000000e+00,5.000000000000000000e+00,5.000000000000000000e+00,5.000000000000000000e+00,5.000000000000000000e+00,5.000000000000000000e+00,5.000000000000000000e+00,5.000000000000000000e+00,5.000000000000000000e+00,5.000000000000000000e+00,5.000000000000000000e+00,5.000000000000000000e+00,5.000000000000000000e+00,5.000000000000000000e+00,5.000000000000000000e+00,5.000000000000000000e+00,5.000000000000000000e+00,5.000000000000000000e+00,5.000000000000000000e+00,5.000000000000000000e+00,5.000000000000000000e+00,5.000000000000000000e+00,5.000000000000000000e+00,5.000000000000000000e+00,5.000000000000000000e+00,5.000000000000000000e+00,5.000000000000000000e+00,4.836215019226074219e+00,4.678298950195312500e+00,4.530369281768798828e+00,4.391508102416992188e+00,4.260906219482421875e+00,4.137847900390625000e+00,4.021698474884033203e+00,3.911891698837280273e+00,3.807921886444091797e+00,3.709334850311279297e+00
3.102145433425903320e+00,3.180928945541381836e+00,3.263818025588989258e+00,3.351142644882202148e+00,3.443260192871093750e+00,3.540583848953247070e+00,3.643569469451904297e+00,3.752725839614868164e+00,3.868624448776245117e+00,3.991909742355346680e+00,4.123311519622802734e+00,4.263658523559570312e+00,4.413896083831787109e+00,4.575108051300048828e+00,4.748543262481689453e+00,4.935645580291748047e+00,5.000000000000000000e+00,5.000000000000000000e+00,5.000000000000000000e+00,5.000000000000000000e+00,5.000000000000000000e+00,5.000000000000000000e+00,5.000000000000000000e+00,5.000000000000000000e+00,5.000000000000000000e+00,5.000000000000000000e+00,5.000000000000000000e+00,5.000000000000000000e+00,5.000000000000000000e+00,5.000000000000000000e+00,5.000000000000000000e+00,5.000000000000000000e+00,5.000000000000000000e+00,5.000000000000000000e+00,5.000000000000000000e+00,5.000000000000000000e+00,5.000000000000000000e+00,5.000000000000000000e+00,5.000000000000000000e+00,5.000000000000000000e+00,5.000000000000000000e+00,5.000000000000000000e+00,5.000000000000000000e+00,5.000000000000000000e+00,5.000000000000000000e+00,5.000000000000000000e+00,5.000000000000000000e+00,5.000000000000000000e+00,5.000000000000000000e+00,5.000000000000000000e+00,5.000000000000000000e+00,5.000000000000000000e+00,5.000000000000000000e+00,5.000000000000000000e+00,5.000000000000000000e+00,5.000000000000000000e+00,5.000000000000000000e+00,5.000000000000000000e+00,5.000000000000000000e+00,5.000000000000000000e+00,5.000000000000000000e+00,5.000000000000000000e+00,5.000000000000000000e+00,5.000000000000000000e+00,5.000000000000000000e+00,5.000000000000000000e+00,5.000000000000000000e+00,5.000000000000000000e+00,5.000000000000000000e+00,5.000000000000000000e+00,4.836356163024902344e+00,4.678431034088134766e+00,4.530493259429931641e+00,4.391624450683593750e+00,4.261015892028808594e+00,4.137951374053955078e+00,4.021796226501464844e+00,3.911983966827392578e+00,3.808009147644042969e+00,3.709418058395385742e+00
3.102078676223754883e+00,3.180858612060546875e+00,3.263744354248046875e+00,3.351064920425415039e+00,3.443186521530151367e+00,3.540506839752197266e+00,3.643488407135009766e+00,3.752639293670654297e+00,3.868532419204711914e+00,3.991811752319335938e+00,4.123207092285156250e+00,4.263546943664550781e+00,4.413776397705078125e+00,4.574979782104492188e+00,4.748404979705810547e+00,4.935496330261230469e+00,5.000000000000000000e+00,5.000000000000000000e+00,5.000000000000000000e+00,5.000000000000000000e+00,5.000000000000000000e+00,5.000000000000000000e+00,5.000000000000000000e+00,5.000000000000000000e+00,5.000000000000000000e+00,5.000000000000000000e+00,5.000000000000000000e+00,5.000000000000000000e+00,5.000000000000000000e+00,5.000000000000000000e+00,5.000000000000000000e+00,5.000000000000000000e+00,5.000000000000000000e+00,5.000000000000000000e+00,5.000000000000000000e+00,5.000000000000000000e+00,5.000000000000000000e+00,5.000000000000000000e+00,5.000000000000000000e+00,5.000000000000000000e+00,5.000000000000000000e+00,5.000000000000000000e+00,5.000000000000000000e+00,5.000000000000000000e+00,5.000000000000000000e+00,5.000000000000000000e+00,5.000000000000000000e+00,5.000000000000000000e+00,5.000000000000000000e+00,5.000000000000000000e+00,5.000000000000000000e+00,5.000000000000000000e+00,5.000000000000000000e+00,5.000000000000000000e+00,5.000000000000000000e+00,5.000000000000000000e+00,5.000000000000000000e+00,5.000000000000000000e+00,5.000000000000000000e+00,5.000000000000000000e+00,5.000000000000000000e+00,5.000000000000000000e+00,5.000000000000000000e+00,5.000000000000000000e+00,5.000000000000000000e+00,5.000000000000000000e+00,5.000000000000000000e+00,5.000000000000000000e+00,5.000000000000000000e+00,5.000000000000000000e+00,4.836497306823730469e+00,4.678563117980957031e+00,4.530616760253906250e+00,4.391740798950195312e+00,4.261125564575195312e+00,4.138054370880126953e+00,4.021893501281738281e+00,3.912076473236083984e+00,3.808096408843994141e+00,3.709501028060913086e+00
3.102012157440185547e+00,3.180788516998291016e+00,3.263670444488525391e+00,3.350987434387207031e+00,3.443104505538940430e+00,3.540429592132568359e+00,3.643406867980957031e+00,3.752552986145019531e+00,3.868440628051757812e+00,3.991714477539062500e+00,4.123103141784667969e+00,4.263435840606689453e+00,4.413657188415527344e+00,4.574851989746093750e+00,4.748266696929931641e+00,4.935346603393554688e+00,5.000000000000000000e+00,5.000000000000000000e+00,5.000000000000000000e+00,5.000000000000000000e+00,5.000000000000000000e+00,5.000000000000000000e+00,5.000000000000000000e+00,5.000000000000000000e+00,5.000000000000000000e+00,5.000000000000000000e+00,5.000000000000000000e+00,5.000000000000000000e+00,5.000000000000000000e+00,5.000000000000000000e+00,5.000000000000000000e+00,5.000000000000000000e+00,5.000000000000000000e+00,5.000000000000000000e+00,5.000000000000000000e+00,5.000000000000000000e+00,5.000000000000000000e+00,5.000000000000000000e+00,5.000000000000000000e+00,5.000000000000000000e+00,5.000000000000000000e+00,5.000000000000000000e+00,5.000000000000000000e+00,5.000000000000000000e+00,5.000000000000000000e+00,5.000000000000000000e+00,5.000000000000000000e+00,5.000000000000000000e+00,5.000000000000000000e+00,5.000000000000000000e+00,5.000000000000000000e+00,5.000000000000000000e+00,5.000000000000000000e+00,5.000000000000000000e+00,5.000000000000000000e+00,5.000000000000000000e+00,5.000000000000000000e+00,5.000000000000000000e+00,5.000000000000000000e+00,5.000000000000000000e+00,5.000000000000000000e+00,5.000000000000000000e+00,5.000000000000000000e+00,5.000000000000000000e+00,5.000000000000000000e+00,5.000000000000000000e+00,5.000000000000000000e+00,5.000000000000000000e+00,5.000000000000000000e+00,5.000000000000000000e+00,4.836638927459716797e+00,4.678694725036621094e+00,4.530740737915039062e+00,4.391857147216796875e+00,4.261235237121582031e+00,4.138157844543457031e+00,4.021991252899169922e+00,3.912168502807617188e+00,3.808181524276733398e+00,3.709578037261962891e+00
3.101945638656616211e+00,3.180718660354614258e+00,3.263596773147583008e+00,3.350909471511840820e+00,3.443022727966308594e+00,3.540342807769775391e+00,3.643324851989746094e+00,3.752466917037963867e+00,3.868349075317382812e+00,3.991616725921630859e+00,4.122998714447021484e+00,4.263324260711669922e+00,4.413537979125976562e+00,4.574723243713378906e+00,4.748128890991210938e+00,4.935197353363037109e+00,5.000000000000000000e+00,5.000000000000000000e+00,5.000000000000000000e+00,5.000000000000000000e+00,5.000000000000000000e+00,5.000000000000000000e+00,5.000000000000000000e+00,5.000000000000000000e+00,5.000000000000000000e+00,5.000000000000000000e+00,5.000000000000000000e+00,5.000000000000000000e+00,5.000000000000000000e+00,5.000000000000000000e+00,5.000000000000000000e+00,5.000000000000000000e+00,5.000000000000000000e+00,5.000000000000000000e+00,5.000000000000000000e+00,5.000000000000000000e+00,5.000000000000000000e+00,5.000000000000000000e+00,5.000000000000000000e+00,5.000000000000000000e+00,5.000000000000000000e+00,5.000000000000000000e+00,5.000000000000000000e+00,5.000000000000000000e+00,5.000000000000000000e+00,5.000000000000000000e+00,5.000000000000000000e+00,5.000000000000000000e+00,5.000000000000000000e+00,5.000000000000000000e+00,5.000000000000000000e+00,5.000000000000000000e+00,5.000000000000000000e+00,5.000000000000000000e+00,5.000000000000000000e+00,5.000000000000000000e+00,5.000000000000000000e+00,5.000000000000000000e+00,5.000000000000000000e+00,5.000000000000000000e+00,5.000000000000000000e+00,5.000000000000000000e+00,5.000000000000000000e+00,5.000000000000000000e+00,5.000000000000000000e+00,5.000000000000000000e+00,5.000000000000000000e+00,5.000000000000000000e+00,5.000000000000000000e+00,5.000000000000000000e+00,4.836780071258544922e+00,4.678826808929443359e+00,4.530864715576171875e+00,4.391973495483398438e+00,4.261344432830810547e+00,4.138259887695312500e+00,4.022083759307861328e+00,3.912252187728881836e+00,3.808259248733520508e+00,3.709651947021484375e+00
3.101878881454467773e+00,3.180648803710937500e+00,3.263523101806640625e+00,3.350831747055053711e+00,3.442940235137939453e+00,3.540256261825561523e+00,3.643233060836791992e+00,3.752380132675170898e+00,3.868257284164428711e+00,3.991518974304199219e+00,4.122894287109375000e+00,4.263212680816650391e+00,4.413418292999267578e+00,4.574594974517822266e+00,4.747990608215332031e+00,4.935048580169677734e+00,5.000000000000000000e+00,5.000000000000000000e+00,5.000000000000000000e+00,5.000000000000000000e+00,5.000000000000000000e+00,5.000000000000000000e+00,5.000000000000000000e+00,5.000000000000000000e+00,5.000000000000000000e+00,5.000000000000000000e+00,5.000000000000000000e+00,5.000000000000000000e+00,5.000000000000000000e+00,5.000000000000000000e+00,5.000000000000000000e+00,5.000000000000000000e+00,5.000000000000000000e+00,5.000000000000000000e+00,5.000000000000000000e+00,5.000000000000000000e+00,5.000000000000000000e+00,5.000000000000000000e+00,5.000000000000000000e+00,5.000000000000000000e+00,5.000000000000000000e+00,5.000000000000000000e+00,5.000000000000000000e+00,5.000000000000000000e+00,5.000000000000000000e+00,5.000000000000000000e+00,5.000000000000000000e+00,5.000000000000000000e+00,5.000000000000000000e+00,5.000000000000000000e+00,5.000000000000000000e+00,5.000000000000000000e+00,5.000000000000000000e+00,5.000000000000000000e+00,5.000000000000000000e+00,5.000000000000000000e+00,5.000000000000000000e+00,5.000000000000000000e+00,5.000000000000000000e+00,5.000000000000000000e+00,5.000000000000000000e+00,5.000000000000000000e+00,5.000000000000000000e+00,5.000000000000000000e+00,5.000000000000000000e+00,5.000000000000000000e+00,5.000000000000000000e+00,5.000000000000000000e+00,5.000000000000000000e+00,5.000000000000000000e+00,4.836921215057373047e+00,4.678958892822265625e+00,4.530988216400146484e+00,4.392085075378417969e+00,4.261445045471191406e+00,4.138351917266845703e+00,4.022170066833496094e+00,3.912333726882934570e+00,3.808336734771728516e+00,3.709725618362426758e+00
3.101812362670898438e+00,3.180578470230102539e+00,3.263449430465698242e+00,3.350754022598266602e+00,3.442858457565307617e+00,3.540169239044189453e+00,3.643141269683837891e+00,3.752282619476318359e+00,3.868165493011474609e+00,3.991421461105346680e+00,4.122790336608886719e+00,4.263101577758789062e+00,4.413299083709716797e+00,4.574466705322265625e+00,4.747852325439453125e+00,4.934898853302001953e+00,5.000000000000000000e+00,5.000000000000000000e+00,5.000000000000000000e+00,5.000000000000000000e+00,5.000000000000000000e+00,5.000000000000000000e+00,5.000000000000000000e+00,5.000000000000000000e+00,4.240266323089599609e+00,4.239230155944824219e+00,5.000000000000000000e+00,5.000000000000000000e+00,5.000000000000000000e+00,5.000000000000000000e+00,5.000000000000000000e+00,5.000000000000000000e+00,5.000000000000000000e+00,5.000000000000000000e+00,5.000000000000000000e+00,5.000000000000000000e+00,5.000000000000000000e+00,5.000000000000000000e+00,5.000000000000000000e+00,5.000000000000000000e+00,5.000000000000000000e+00,5.000000000000000000e+00,5.000000000000000000e+00,5.000000000000000000e+00,5.000000000000000000e+00,5.000000000000000000e+00,5.000000000000000000e+00,5.000000000000000000e+00,5.000000000000000000e+00,5.000000000000000000e+00,5.000000000000000000e+00,5.000000000000000000e+00,5.000000000000000000e+00,5.000000000000000000e+00,5.000000000000000000e+00,5.000000000000000000e+00,5.000000000000000000e+00,5.000000000000000000e+00,5.000000000000000000e+00,5.000000000000000000e+00,5.000000000000000000e+00,5.000000000000000000e+00,5.000000000000000000e+00,5.000000000000000000e+00,5.000000000000000000e+00,5.000000000000000000e+00,5.000000000000000000e+00,5.000000000000000000e+00,5.000000000000000000e+00,5.000000000000000000e+00,4.837059020996093750e+00,4.679082870483398438e+00,4.531098842620849609e+00,4.392188549041748047e+00,4.261542320251464844e+00,4.138443470001220703e+00,4.022256851196289062e+00,3.912415742874145508e+00,3.808414459228515625e+00,3.709799051284790039e+00
3.101745843887329102e+00,3.180508613586425781e+00,3.263375520706176758e+00,3.350676536560058594e+00,3.442776441574096680e+00,3.540082454681396484e+00,3.643049240112304688e+00,3.752185344696044922e+00,3.868062019348144531e+00,3.991323709487915039e+00,4.122686386108398438e+00,4.262989997863769531e+00,4.413179874420166016e+00,4.574338436126708984e+00,4.747714042663574219e+00,4.934749603271484375e+00,5.000000000000000000e+00,5.000000000000000000e+00,5.000000000000000000e+00,5.000000000000000000e+00,5.000000000000000000e+00,5.000000000000000000e+00,5.000000000000000000e+00,5.000000000000000000e+00,4.249546051025390625e+00,4.240143775939941406e+00,4.332955360412597656e+00,5.000000000000000000e+00,5.000000000000000000e+00,5.000000000000000000e+00,5.000000000000000000e+00,5.000000000000000000e+00,5.000000000000000000e+00,5.000000000000000000e+00,5.000000000000000000e+00,5.000000000000000000e+00,5.000000000000000000e+00,5.000000000000000000e+00,5.000000000000000000e+00,5.000000000000000000e+00,5.000000000000000000e+00,5.000000000000000000e+00,5.000000000000000000e+00,5.000000000000000000e+00,5.000000000000000000e+00,5.000000000000000000e+00,5.000000000000000000e+00,5.000000000000000000e+00,5.000000000000000000e+00,5.000000000000000000e+00,5.000000000000000000e+00,5.000000000000000000e+00,5.000000000000000000e+00,5.000000000000000000e+00,5.000000000000000000e+00,5.000000000000000000e+00,5.000000000000000000e+00,5.000000000000000000e+00,5.000000000000000000e+00,5.000000000000000000e+00,5.000000000000000000e+00,5.000000000000000000e+00,5.000000000000000000e+00,5.000000000000000000e+00,5.000000000000000000e+00,5.000000000000000000e+00,5.000000000000000000e+00,5.000000000000000000e+00,5.000000000000000000e+00,5.000000000000000000e+00,4.837184429168701172e+00,4.679200172424316406e+00,4.531208992004394531e+00,4.392292022705078125e+00,4.261639595031738281e+00,4.138535499572753906e+00,4.022343635559082031e+00,3.912497997283935547e+00,3.808492422103881836e+00,3.709872961044311523e+00
3.101679325103759766e+00,3.180438518524169922e+00,3.263301849365234375e+00,3.350598573684692383e+00,3.442694425582885742e+00,3.539995908737182617e+00,3.642957448959350586e+00,3.752087593078613281e+00,3.867958545684814453e+00,3.991213560104370117e+00,4.122581958770751953e+00,4.262878417968750000e+00,4.413060188293457031e+00,4.574210643768310547e+00,4.747575759887695312e+00,4.934600830078125000e+00,5.000000000000000000e+00,5.000000000000000000e+00,5.000000000000000000e+00,5.000000000000000000e+00,5.000000000000000000e+00,5.000000000000000000e+00,5.000000000000000000e+00,5.000000000000000000e+00,5.000000000000000000e+00,4.255793094635009766e+00,5.000000000000000000e+00,5.000000000000000000e+00,5.000000000000000000e+00,5.000000000000000000e+00,5.000000000000000000e+00,5.000000000000000000e+00,5.000000000000000000e+00,5.000000000000000000e+00,5.000000000000000000e+00,5.000000000000000000e+00,5.000000000000000000e+00,5.000000000000000000e+00,5.000000000000000000e+00,5.000000000000000000e+00,5.000000000000000000e+00,5.000000000000000000e+00,5.000000000000000000e+00,5.000000000000000000e+00,5.000000000000000000e+00,5.000000000000000000e+00,5.000000000000000000e+00,5.000000000000000000e+00,5.000000000000000000e+00,5.000000000000000000e+00,5.000000000000000000e+00,5.000000000000000000e+00,5.000000000000000000e+00,5.000000000000000000e+00,5.000000000000000000e+00,5.000000000000000000e+00,5.000000000000000000e+00,5.000000000000000000e+00,5.000000000000000000e+00,5.000000000000000000e+00,5.000000000000000000e+00,5.000000000000000000e+00,5.000000000000000000e+00,5.000000000000000000e+00,5.000000000000000000e+00,5.000000000000000000e+00,5.000000000000000000e+00,5.000000000000000000e+00,5.000000000000000000e+00,5.000000000000000000e+00,4.837309837341308594e+00,4.679317474365234375e+00,4.531318664550781250e+00,4.392395019531250000e+00,4.261736869812011719e+00,4.138627052307128906e+00,4.022429943084716797e+00,3.912579536437988281e+00,3.808570146560668945e+00,3.709946870803833008e+00
3.101612567901611328e+00,3.180368661880493164e+00,3.263228178024291992e+00,3.350520849227905273e+00,3.442612171173095703e+00,3.539909124374389648e+00,3.642865657806396484e+00,3.751990318298339844e+00,3.867854595184326172e+00,3.991103410720825195e+00,4.122464656829833984e+00,4.262766838073730469e+00,4.412940979003906250e+00,4.574081897735595703e+00,4.747437953948974609e+00,4.934451103210449219e+00,5.000000000000000000e+00,5.000000000000000000e+00,5.000000000000000000e+00,5.000000000000000000e+00,5.000000000000000000e+00,5.000000000000000000e+00,5.000000000000000000e+00,5.000000000000000000e+00,4.392442226409912109e+00,4.248357295989990234e+00,4.282665252685546875e+00,4.295698642730712891e+00,5.000000000000000000e+00,5.000000000000000000e+00,5.000000000000000000e+00,5.000000000000000000e+00,5.000000000000000000e+00,5.000000000000000000e+00,5.000000000000000000e+00,5.000000000000000000e+00,5.000000000000000000e+00,5.000000000000000000e+00,5.000000000000000000e+00,5.000000000000000000e+00,5.000000000000000000e+00,5.000000000000000000e+00,5.000000000000000000e+00,5.000000000000000000e+00,5.000000000000000000e+00,5.000000000000000000e+00,5.000000000000000000e+00,5.000000000000000000e+00,5.000000000000000000e+00,5.000000000000000000e+00,5.000000000000000000e+00,5.000000000000000000e+00,5.000000000000000000e+00,5.000000000000000000e+00,5.000000000000000000e+00,5.000000000000000000e+00,5.000000000000000000e+00,5.000000000000000000e+00,5.000000000000000000e+00,5.000000000000000000e+00,5.000000000000000000e+00,5.000000000000000000e+00,5.000000000000000000e+00,5.000000000000000000e+00,5.000000000000000000e+00,5.000000000000000000e+00,5.000000000000000000e+00,5.000000000000000000e+00,5.000000000000000000e+00,5.000000000000000000e+00,4.837435245513916016e+00,4.679434299468994141e+00,4.531428813934326172e+00,4.392498493194580078e+00,4.261834144592285156e+00,4.138718605041503906e+00,4.022516727447509766e+00,3.912661790847778320e+00,3.808647632598876953e+00,3.710020303726196289e+00
3.101546049118041992e+00,3.180298328399658203e+00,3.263154745101928711e+00,3.350443363189697266e+00,3.442530155181884766e+00,3.539822340011596680e+00,3.642773866653442383e+00,3.751893043518066406e+00,3.867751359939575195e+00,3.990992784500122070e+00,4.122347354888916016e+00,4.262641906738281250e+00,4.412821769714355469e+00,4.573953628540039062e+00,4.747299671173095703e+00,4.934301853179931641e+00,5.000000000000000000e+00,5.000000000000000000e+00,5.000000000000000000e+00,5.000000000000000000e+00,5.000000000000000000e+00,5.000000000000000000e+00,4.295114517211914062e+00,4.262166976928710938e+00,4.240768909454345703e+00,4.235467910766601562e+00,4.238484382629394531e+00,4.283169746398925781e+00,4.297745227813720703e+00,5.000000000000000000e+00,5.000000000000000000e+00,5.000000000000000000e+00,5.000000000000000000e+00,5.000000000000000000e+00,5.000000000000000000e+00,5.000000000000000000e+00,5.000000000000000000e+00,5.000000000000000000e+00,5.000000000000000000e+00,5.000000000000000000e+00,5.000000000000000000e+00,5.000000000000000000e+00,5.000000000000000000e+00,5.000000000000000000e+00,5.000000000000000000e+00,5.000000000000000000e+00,5.000000000000000000e+00,5.000000000000000000e+00,5.000000000000000000e+00,5.000000000000000000e+00,5.000000000000000000e+00,5.000000000000000000e+00,5.000000000000000000e+00,5.000000000000000000e+00,5.000000000000000000e+00,5.000000000000000000e+00,5.000000000000000000e+00,5.000000000000000000e+00,5.000000000000000000e+00,5.000000000000000000e+00,5.000000000000000000e+00,5.000000000000000000e+00,5.000000000000000000e+00,5.000000000000000000e+00,5.000000000000000000e+00,5.000000000000000000e+00,5.000000000000000000e+00,5.000000000000000000e+00,5.000000000000000000e+00,5.000000000000000000e+00,4.837560653686523438e+00,4.679552078247070312e+00,4.531538963317871094e+00,4.392601966857910156e+00,4.261931419372558594e+00,4.138810634613037109e+00,4.022603511810302734e+00,3.912743806838989258e+00,3.808725357055664062e+00,3.710093975067138672e+00
3.101479530334472656e+00,3.180228471755981445e+00,3.263080835342407227e+00,3.350365638732910156e+00,3.442448377609252930e+00,3.539735555648803711e+00,3.642681837081909180e+00,3.751795530319213867e+00,3.867647886276245117e+00,3.990882635116577148e+00,4.122229576110839844e+00,4.262516498565673828e+00,4.412687778472900391e+00,4.573825836181640625e+00,4.747161388397216797e+00,4.934153079986572266e+00,5.000000000000000000e+00,5.000000000000000000e+00,5.000000000000000000e+00,5.000000000000000000e+00,5.000000000000000000e+00,5.000000000000000000e+00,4.309674739837646484e+00,4.244205951690673828e+00,4.219881057739257812e+00,4.211390972137451172e+00,4.229919910430908203e+00,4.306858062744140625e+00,4.317363262176513672e+00,5.000000000000000000e+00,5.000000000000000000e+00,5.000000000000000000e+00,5.000000000000000000e+00,5.000000000000000000e+00,5.000000000000000000e+00,5.000000000000000000e+00,5.000000000000000000e+00,5.000000000000000000e+00,5.000000000000000000e+00,5.000000000000000000e+00,5.000000000000000000e+00,5.000000000000000000e+00,5.000000000000000000e+00,5.000000000000000000e+00,5.000000000000000000e+00,5.000000000000000000e+00,5.000000000000000000e+00,5.000000000000000000e+00,5.000000000000000000e+00,5.000000000000000000e+00,5.000000000000000000e+00,5.000000000000000000e+00,5.000000000000000000e+00,5.000000000000000000e+00,5.000000000000000000e+00,5.000000000000000000e+00,5.000000000000000000e+00,5.000000000000000000e+00,5.000000000000000000e+00,5.000000000000000000e+00,5.000000000000000000e+00,5.000000000000000000e+00,5.000000000000000000e+00,5.000000000000000000e+00,5.000000000000000000e+00,5.000000000000000000e+00,5.000000000000000000e+00,5.000000000000000000e+00,5.000000000000000000e+00,5.000000000000000000e+00,4.837685585021972656e+00,4.679668903350830078e+00,4.531648635864257812e+00,4.392705440521240234e+00,4.262028694152832031e+00,4.138902187347412109e+00,4.022689819335937500e+00,3.912826061248779297e+00,3.808803081512451172e+00,3.710167884826660156e+00
3.101413011550903320e+00,3.180158615112304688e+00,3.263007164001464844e+00,3.350287675857543945e+00,3.442366361618041992e+00,3.539649009704589844e+00,3.642590045928955078e+00,3.751697778701782227e+00,3.867544412612915039e+00,3.990772485733032227e+00,4.122111797332763672e+00,4.262390613555908203e+00,4.412552833557128906e+00,4.573681831359863281e+00,4.747023582458496094e+00,4.934003353118896484e+00,5.000000000000000000e+00,5.000000000000000000e+00,5.000000000000000000e+00,5.000000000000000000e+00,5.000000000000000000e+00,5.000000000000000000e+00,4.306609630584716797e+00,4.273365974426269531e+00,4.210695743560791016e+00,4.211369037628173828e+00,4.241860866546630859e+00,4.329851150512695312e+00,4.326242446899414062e+00,5.000000000000000000e+00,5.000000000000000000e+00,5.000000000000000000e+00,5.000000000000000000e+00,5.000000000000000000e+00,5.000000000000000000e+00,5.000000000000000000e+00,5.000000000000000000e+00,5.000000000000000000e+00,5.000000000000000000e+00,5.000000000000000000e+00,5.000000000000000000e+00,5.000000000000000000e+00,5.000000000000000000e+00,5.000000000000000000e+00,5.000000000000000000e+00,5.000000000000000000e+00,5.000000000000000000e+00,5.000000000000000000e+00,5.000000000000000000e+00,5.000000000000000000e+00,5.000000000000000000e+00,5.000000000000000000e+00,5.000000000000000000e+00,5.000000000000000000e+00,5.000000000000000000e+00,5.000000000000000000e+00,5.000000000000000000e+00,5.000000000000000000e+00,5.000000000000000000e+00,5.000000000000000000e+00,5.000000000000000000e+00,5.000000000000000000e+00,5.000000000000000000e+00,5.000000000000000000e+00,5.000000000000000000e+00,5.000000000000000000e+00,5.000000000000000000e+00,5.000000000000000000e+00,5.000000000000000000e+00,5.000000000000000000e+00,4.837810993194580078e+00,4.679786682128906250e+00,4.531758785247802734e+00,4.392808437347412109e+00,4.262125968933105469e+00,4.138993740081787109e+00,4.022776603698730469e+00,3.912907600402832031e+00,3.808880567550659180e+00,3.710241794586181641e+00
3.101397514343261719e+00,3.180111885070800781e+00,3.262933492660522461e+00,3.350210189819335938e+00,3.442284107208251953e+00,3.539562225341796875e+00,3.642498254776000977e+00,3.751600503921508789e+00,3.867440462112426758e+00,3.990662574768066406e+00,4.121994018554687500e+00,4.262264728546142578e+00,4.412417888641357422e+00,4.573537349700927734e+00,4.746869087219238281e+00,4.933854103088378906e+00,5.000000000000000000e+00,5.000000000000000000e+00,5.000000000000000000e+00,5.000000000000000000e+00,5.000000000000000000e+00,5.000000000000000000e+00,4.301503181457519531e+00,4.340484142303466797e+00,4.219070434570312500e+00,4.214775085449218750e+00,4.245100975036621094e+00,5.000000000000000000e+00,4.337672710418701172e+00,5.000000000000000000e+00,5.000000000000000000e+00,5.000000000000000000e+00,5.000000000000000000e+00,5.000000000000000000e+00,5.000000000000000000e+00,5.000000000000000000e+00,5.000000000000000000e+00,5.000000000000000000e+00,5.000000000000000000e+00,5.000000000000000000e+00,5.000000000000000000e+00,5.000000000000000000e+00,5.000000000000000000e+00,5.000000000000000000e+00,5.000000000000000000e+00,5.000000000000000000e+00,5.000000000000000000e+00,5.000000000000000000e+00,5.000000000000000000e+00,5.000000000000000000e+00,5.000000000000000000e+00,5.000000000000000000e+00,5.000000000000000000e+00,5.000000000000000000e+00,5.000000000000000000e+00,5.000000000000000000e+00,5.000000000000000000e+00,5.000000000000000000e+00,5.000000000000000000e+00,5.000000000000000000e+00,5.000000000000000000e+00,5.000000000000000000e+00,5.000000000000000000e+00,5.000000000000000000e+00,5.000000000000000000e+00,5.000000000000000000e+00,5.000000000000000000e+00,5.000000000000000000e+00,5.000000000000000000e+00,5.000000000000000000e+00,4.837936401367187500e+00,4.679903507232666016e+00,4.531868457794189453e+00,4.392911911010742188e+00,4.262223243713378906e+00,4.139085769653320312e+00,4.022863388061523438e+00,3.912989854812622070e+00,3.808958292007446289e+00,3.710315227508544922e+00
3.101397514343261719e+00,3.180111885070800781e+00,3.262925863265991211e+00,3.350168228149414062e+00,3.442204236984252930e+00,3.539475440979003906e+00,3.642406702041625977e+00,3.751503229141235352e+00,3.867336988449096680e+00,3.990551948547363281e+00,4.121876716613769531e+00,4.262138843536376953e+00,4.412283420562744141e+00,4.573392391204833984e+00,4.746713161468505859e+00,4.933687686920166016e+00,5.000000000000000000e+00,5.000000000000000000e+00,5.000000000000000000e+00,5.000000000000000000e+00,5.000000000000000000e+00,5.000000000000000000e+00,4.304676532745361328e+00,4.253784179687500000e+00,4.209280967712402344e+00,4.204121589660644531e+00,4.233670711517333984e+00,5.000000000000000000e+00,4.342274188995361328e+00,5.000000000000000000e+00,5.000000000000000000e+00,5.000000000000000000e+00,5.000000000000000000e+00,5.000000000000000000e+00,5.000000000000000000e+00,5.000000000000000000e+00,5.000000000000000000e+00,5.000000000000000000e+00,5.000000000000000000e+00,5.000000000000000000e+00,5.000000000000000000e+00,5.000000000000000000e+00,5.000000000000000000e+00,5.000000000000000000e+00,5.000000000000000000e+00,5.000000000000000000e+00,5.000000000000000000e+00,5.000000000000000000e+00,5.000000000000000000e+00,5.000000000000000000e+00,5.000000000000000000e+00,5.000000000000000000e+00,5.000000000000000000e+00,5.000000000000000000e+00,5.000000000000000000e+00,5.000000000000000000e+00,5.000000000000000000e+00,5.000000000000000000e+00,5.000000000000000000e+00,5.000000000000000000e+00,5.000000000000000000e+00,5.000000000000000000e+00,5.000000000000000000e+00,5.000000000000000000e+00,5.000000000000000000e+00,5.000000000000000000e+00,5.000000000000000000e+00,5.000000000000000000e+00,5.000000000000000000e+00,5.000000000000000000e+00,4.838061809539794922e+00,4.680020809173583984e+00,4.531978607177734375e+00,4.393015384674072266e+00,4.262320518493652344e+00,4.139177322387695312e+00,4.022950172424316406e+00,3.913071870803833008e+00,3.809036254882812500e+00,3.710389137268066406e+00
3.101383209228515625e+00,3.180111885070800781e+00,3.262925863265991211e+00,3.350168228149414062e+00,3.442204236984252930e+00,3.539439916610717773e+00,3.642328262329101562e+00,3.751405954360961914e+00,3.867233753204345703e+00,3.990441799163818359e+00,4.121758937835693359e+00,4.262013435363769531e+00,4.412148475646972656e+00,4.573247909545898438e+00,4.746557235717773438e+00,4.933519363403320312e+00,5.000000000000000000e+00,5.000000000000000000e+00,5.000000000000000000e+00,5.000000000000000000e+00,5.000000000000000000e+00,5.000000000000000000e+00,4.250315666198730469e+00,4.268865108489990234e+00,4.220126628875732422e+00,4.228153705596923828e+00,4.256319999694824219e+00,5.000000000000000000e+00,4.328497886657714844e+00,5.000000000000000000e+00,5.000000000000000000e+00,5.000000000000000000e+00,5.000000000000000000e+00,5.000000000000000000e+00,5.000000000000000000e+00,5.000000000000000000e+00,5.000000000000000000e+00,5.000000000000000000e+00,5.000000000000000000e+00,5.000000000000000000e+00,5.000000000000000000e+00,5.000000000000000000e+00,5.000000000000000000e+00,5.000000000000000000e+00,5.000000000000000000e+00,5.000000000000000000e+00,5.000000000000000000e+00,5.000000000000000000e+00,5.000000000000000000e+00,5.000000000000000000e+00,5.000000000000000000e+00,5.000000000000000000e+00,5.000000000000000000e+00,5.000000000000000000e+00,5.000000000000000000e+00,5.000000000000000000e+00,5.000000000000000000e+00,5.000000000000000000e+00,5.000000000000000000e+00,5.000000000000000000e+00,5.000000000000000000e+00,5.000000000000000000e+00,5.000000000000000000e+00,5.000000000000000000e+00,5.000000000000000000e+00,5.000000000000000000e+00,5.000000000000000000e+00,5.000000000000000000e+00,5.000000000000000000e+00,5.000000000000000000e+00,4.838187217712402344e+00,4.680138111114501953e+00,4.532088756561279297e+00,4.393118858337402344e+00,4.262417793273925781e+00,4.139269351959228516e+00,4.023036956787109375e+00,3.913153648376464844e+00,3.809113979339599609e+00,3.710463047027587891e+00
3.101317167282104492e+00,3.180057525634765625e+00,3.262900829315185547e+00,3.350168228149414062e+00,3.442204236984252930e+00,3.539439916610717773e+00,3.642328262329101562e+00,3.751377820968627930e+00,3.867158889770507812e+00,3.990331649780273438e+00,4.121641635894775391e+00,4.261887550354003906e+00,4.412014007568359375e+00,4.573102951049804688e+00,4.746401309967041016e+00,4.933351039886474609e+00,5.000000000000000000e+00,5.000000000000000000e+00,5.000000000000000000e+00,5.000000000000000000e+00,5.000000000000000000e+00,4.205658435821533203e+00,4.236777305603027344e+00,4.277367591857910156e+00,4.271186828613281250e+00,4.165470123291015625e+00,4.188841819763183594e+00,4.350849628448486328e+00,4.316663265228271484e+00,5.000000000000000000e+00,5.000000000000000000e+00,5.000000000000000000e+00,5.000000000000000000e+00,5.000000000000000000e+00,5.000000000000000000e+00,5.000000000000000000e+00,5.000000000000000000e+00,5.000000000000000000e+00,5.000000000000000000e+00,5.000000000000000000e+00,5.000000000000000000e+00,5.000000000000000000e+00,5.000000000000000000e+00,5.000000000000000000e+00,5.000000000000000000e+00,5.000000000000000000e+00,5.000000000000000000e+00,5.000000000000000000e+00,5.000000000000000000e+00,5.000000000000000000e+00,5.000000000000000000e+00,5.000000000000000000e+00,5.000000000000000000e+00,5.000000000000000000e+00,5.000000000000000000e+00,5.000000000000000000e+00,5.000000000000000000e+00,5.000000000000000000e+00,5.000000000000000000e+00,5.000000000000000000e+00,5.000000000000000000e+00,5.000000000000000000e+00,5.000000000000000000e+00,5.000000000000000000e+00,5.000000000000000000e+00,5.000000000000000000e+00,5.000000000000000000e+00,5.000000000000000000e+00,5.000000000000000000e+00,5.000000000000000000e+00,4.838312625885009766e+00,4.680255413055419922e+00,4.532198905944824219e+00,4.393222332000732422e+00,4.262515068054199219e+00,4.139360904693603516e+00,4.023123741149902344e+00,3.913235902786254883e+00,3.809191465377807617e+00,3.710536479949951172e+00
3.101251363754272461e+00,3.179988384246826172e+00,3.262827873229980469e+00,3.350098848342895508e+00,3.442166566848754883e+00,3.539437294006347656e+00,3.642328262329101562e+00,3.751377820968627930e+00,3.867158889770507812e+00,3.990314245223999023e+00,4.121571540832519531e+00,4.261761665344238281e+00,4.411879062652587891e+00,4.572958469390869141e+00,4.746245384216308594e+00,4.933182716369628906e+00,5.000000000000000000e+00,5.000000000000000000e+00,5.000000000000000000e+00,5.000000000000000000e+00,5.000000000000000000e+00,4.135983943939208984e+00,5.000000000000000000e+00,4.284286022186279297e+00,4.271690368652343750e+00,4.128808975219726562e+00,4.156700611114501953e+00,5.000000000000000000e+00,4.315920352935791016e+00,5.000000000000000000e+00,5.000000000000000000e+00,5.000000000000000000e+00,5.000000000000000000e+00,5.000000000000000000e+00,5.000000000000000000e+00,5.000000000000000000e+00,5.000000000000000000e+00,5.000000000000000000e+00,5.000000000000000000e+00,5.000000000000000000e+00,5.000000000000000000e+00,5.000000000000000000e+00,5.000000000000000000e+00,5.000000000000000000e+00,5.000000000000000000e+00,5.000000000000000000e+00,5.000000000000000000e+00,5.000000000000000000e+00,5.000000000000000000e+00,5.000000000000000000e+00,5.000000000000000000e+00,5.000000000000000000e+00,5.000000000000000000e+00,5.000000000000000000e+00,5.000000000000000000e+00,5.000000000000000000e+00,5.000000000000000000e+00,5.000000000000000000e+00,5.000000000000000000e+00,5.000000000000000000e+00,5.000000000000000000e+00,5.000000000000000000e+00,5.000000000000000000e+00,5.000000000000000000e+00,5.000000000000000000e+00,5.000000000000000000e+00,5.000000000000000000e+00,5.000000000000000000e+00,5.000000000000000000e+00,5.000000000000000000e+00,4.838438034057617188e+00,4.680373191833496094e+00,4.532308578491210938e+00,4.393325328826904297e+00,4.262612819671630859e+00,4.139452934265136719e+00,4.023210048675537109e+00,3.913317918777465820e+00,3.809269189834594727e+00,3.710610151290893555e+00
3.101185083389282227e+00,3.179919004440307617e+00,3.262754917144775391e+00,3.350021839141845703e+00,3.442085266113281250e+00,3.539351463317871094e+00,3.642274856567382812e+00,3.751363515853881836e+00,3.867158889770507812e+00,3.990314245223999023e+00,4.121571540832519531e+00,4.261757850646972656e+00,4.411816120147705078e+00,4.572827339172363281e+00,4.746089458465576172e+00,4.933013916015625000e+00,5.000000000000000000e+00,5.000000000000000000e+00,5.000000000000000000e+00,5.000000000000000000e+00,5.000000000000000000e+00,5.000000000000000000e+00,5.000000000000000000e+00,4.315036296844482422e+00,4.284560680389404297e+00,4.095997810363769531e+00,4.156089305877685547e+00,5.000000000000000000e+00,4.299664020538330078e+00,5.000000000000000000e+00,5.000000000000000000e+00,5.000000000000000000e+00,5.000000000000000000e+00,5.000000000000000000e+00,5.000000000000000000e+00,5.000000000000000000e+00,5.000000000000000000e+00,5.000000000000000000e+00,5.000000000000000000e+00,5.000000000000000000e+00,5.000000000000000000e+00,5.000000000000000000e+00,5.000000000000000000e+00,5.000000000000000000e+00,5.000000000000000000e+00,5.000000000000000000e+00,5.000000000000000000e+00,5.000000000000000000e+00,5.000000000000000000e+00,5.000000000000000000e+00,5.000000000000000000e+00,5.000000000000000000e+00,5.000000000000000000e+00,5.000000000000000000e+00,5.000000000000000000e+00,5.000000000000000000e+00,5.000000000000000000e+00,5.000000000000000000e+00,5.000000000000000000e+00,5.000000000000000000e+00,5.000000000000000000e+00,5.000000000000000000e+00,5.000000000000000000e+00,5.000000000000000000e+00,5.000000000000000000e+00,5.000000000000000000e+00,5.000000000000000000e+00,5.000000000000000000e+00,5.000000000000000000e+00,5.000000000000000000e+00,4.838563442230224609e+00,4.680490016937255859e+00,4.532418727874755859e+00,4.393428802490234375e+00,4.262710094451904297e+00,4.139544486999511719e+00,4.023296833038330078e+00,3.913400173187255859e+00,3.809348344802856445e+00,3.710689067840576172e+00
3.101119279861450195e+00,3.179849624633789062e+00,3.262681961059570312e+00,3.349944829940795898e+00,3.442003965377807617e+00,3.539265632629394531e+00,3.642184019088745117e+00,3.751267194747924805e+00,3.867086172103881836e+00,3.990284204483032227e+00,4.121571540832519531e+00,4.261757850646972656e+00,4.411816120147705078e+00,4.572827339172363281e+00,4.746036052703857422e+00,4.932883262634277344e+00,5.000000000000000000e+00,5.000000000000000000e+00,5.000000000000000000e+00,5.000000000000000000e+00,5.000000000000000000e+00,5.000000000000000000e+00,5.000000000000000000e+00,5.000000000000000000e+00,4.083481788635253906e+00,4.060781478881835938e+00,4.167044162750244141e+00,5.000000000000000000e+00,4.284774780273437500e+00,5.000000000000000000e+00,5.000000000000000000e+00,5.000000000000000000e+00,5.000000000000000000e+00,5.000000000000000000e+00,5.000000000000000000e+00,5.000000000000000000e+00,5.000000000000000000e+00,5.000000000000000000e+00,5.000000000000000000e+00,5.000000000000000000e+00,5.000000000000000000e+00,5.000000000000000000e+00,5.000000000000000000e+00,5.000000000000000000e+00,5.000000000000000000e+00,5.000000000000000000e+00,5.000000000000000000e+00,5.000000000000000000e+00,5.000000000000000000e+00,5.000000000000000000e+00,5.000000000000000000e+00,5.000000000000000000e+00,5.000000000000000000e+00,5.000000000000000000e+00,5.000000000000000000e+00,5.000000000000000000e+00,5.000000000000000000e+00,5.000000000000000000e+00,5.000000000000000000e+00,5.000000000000000000e+00,5.000000000000000000e+00,5.000000000000000000e+00,5.000000000000000000e+00,5.000000000000000000e+00,5.000000000000000000e+00,5.000000000000000000e+00,5.000000000000000000e+00,5.000000000000000000e+00,5.000000000000000000e+00,5.000000000000000000e+00,4.838688373565673828e+00,4.680607795715332031e+00,4.532528877258300781e+00,4.393532276153564453e+00,4.262806892395019531e+00,4.139636516571044922e+00,4.023387432098388672e+00,3.913489580154418945e+00,3.809435844421386719e+00,3.710772037506103516e+00
3.101053237915039062e+00,3.179780483245849609e+00,3.262609004974365234e+00,3.349868059158325195e+00,3.441922426223754883e+00,3.539179563522338867e+00,3.642092943191528320e+00,3.751170635223388672e+00,3.866983652114868164e+00,3.990175008773803711e+00,4.121474266052246094e+00,4.261708736419677734e+00,4.411816120147705078e+00,4.572827339172363281e+00,4.746036052703857422e+00,4.932883262634277344e+00,5.000000000000000000e+00,5.000000000000000000e+00,5.000000000000000000e+00,5.000000000000000000e+00,5.000000000000000000e+00,5.000000000000000000e+00,5.000000000000000000e+00,5.000000000000000000e+00,4.043109893798828125e+00,4.044670104980468750e+00,5.000000000000000000e+00,5.000000000000000000e+00,5.000000000000000000e+00,5.000000000000000000e+00,5.000000000000000000e+00,5.000000000000000000e+00,5.000000000000000000e+00,5.000000000000000000e+00,5.000000000000000000e+00,5.000000000000000000e+00,5.000000000000000000e+00,5.000000000000000000e+00,5.000000000000000000e+00,5.000000000000000000e+00,5.000000000000000000e+00,5.000000000000000000e+00,5.000000000000000000e+00,5.000000000000000000e+00,5.000000000000000000e+00,5.000000000000000000e+00,5.000000000000000000e+00,5.000000000000000000e+00,5.000000000000000000e+00,5.000000000000000000e+00,5.000000000000000000e+00,5.000000000000000000e+00,5.000000000000000000e+00,5.000000000000000000e+00,5.000000000000000000e+00,5.000000000000000000e+00,5.000000000000000000e+00,5.000000000000000000e+00,5.000000000000000000e+00,5.000000000000000000e+00,5.000000000000000000e+00,5.000000000000000000e+00,5.000000000000000000e+00,5.000000000000000000e+00,5.000000000000000000e+00,5.000000000000000000e+00,5.000000000000000000e+00,5.000000000000000000e+00,5.000000000000000000e+00,5.000000000000000000e+00,4.838814258575439453e+00,4.680725097656250000e+00,4.532639026641845703e+00,4.393638134002685547e+00,4.262911796569824219e+00,4.139739036560058594e+00,4.023484706878662109e+00,3.913581848144531250e+00,3.809523105621337891e+00,3.710854768753051758e+00
3.100987434387207031e+00,3.179711103439331055e+00,3.262536048889160156e+00,3.349791049957275391e+00,3.441841363906860352e+00,3.539093732833862305e+00,3.642002105712890625e+00,3.751074314117431641e+00,3.866881132125854492e+00,3.990066051483154297e+00,4.121357917785644531e+00,4.261584281921386719e+00,4.411688804626464844e+00,4.572752952575683594e+00,4.746024131774902344e+00,4.932883262634277344e+00,5.000000000000000000e+00,5.000000000000000000e+00,5.000000000000000000e+00,5.000000000000000000e+00,5.000000000000000000e+00,5.000000000000000000e+00,5.000000000000000000e+00,5.000000000000000000e+00,4.355998516082763672e+00,4.049641132354736328e+00,5.000000000000000000e+00,5.000000000000000000e+00,5.000000000000000000e+00,5.000000000000000000e+00,5.000000000000000000e+00,5.000000000000000000e+00,5.000000000000000000e+00,5.000000000000000000e+00,5.000000000000000000e+00,5.000000000000000000e+00,5.000000000000000000e+00,5.000000000000000000e+00,5.000000000000000000e+00,5.000000000000000000e+00,5.000000000000000000e+00,5.000000000000000000e+00,5.000000000000000000e+00,5.000000000000000000e+00,5.000000000000000000e+00,5.000000000000000000e+00,5.000000000000000000e+00,5.000000000000000000e+00,5.000000000000000000e+00,5.000000000000000000e+00,5.000000000000000000e+00,5.000000000000000000e+00,5.000000000000000000e+00,5.000000000000000000e+00,5.000000000000000000e+00,5.000000000000000000e+00,5.000000000000000000e+00,5.000000000000000000e+00,5.000000000000000000e+00,5.000000000000000000e+00,5.000000000000000000e+00,5.000000000000000000e+00,5.000000000000000000e+00,5.000000000000000000e+00,5.000000000000000000e+00,5.000000000000000000e+00,5.000000000000000000e+00,5.000000000000000000e+00,5.000000000000000000e+00,5.000000000000000000e+00,4.838939666748046875e+00,4.680848121643066406e+00,4.532759666442871094e+00,4.393754482269287109e+00,4.263020992279052734e+00,4.139842510223388672e+00,4.023582458496093750e+00,3.913673877716064453e+00,3.809610605239868164e+00,3.710937738418579102e+00
3.100921392440795898e+00,3.179641723632812500e+00,3.262463092803955078e+00,3.349714040756225586e+00,3.441760063171386719e+00,3.539007902145385742e+00,3.641911268234252930e+00,3.750977754592895508e+00,3.866778135299682617e+00,3.989956855773925781e+00,4.121241569519042969e+00,4.261459827423095703e+00,4.411555290222167969e+00,4.572609901428222656e+00,4.745869636535644531e+00,4.932775974273681641e+00,5.000000000000000000e+00,5.000000000000000000e+00,5.000000000000000000e+00,5.000000000000000000e+00,5.000000000000000000e+00,5.000000000000000000e+00,5.000000000000000000e+00,5.000000000000000000e+00,5.000000000000000000e+00,4.048927783966064453e+00,5.000000000000000000e+00,5.000000000000000000e+00,5.000000000000000000e+00,5.000000000000000000e+00,5.000000000000000000e+00,5.000000000000000000e+00,5.000000000000000000e+00,5.000000000000000000e+00,5.000000000000000000e+00,5.000000000000000000e+00,5.000000000000000000e+00,5.000000000000000000e+00,5.000000000000000000e+00,5.000000000000000000e+00,5.000000000000000000e+00,5.000000000000000000e+00,5.000000000000000000e+00,5.000000000000000000e+00,5.000000000000000000e+00,5.000000000000000000e+00,5.000000000000000000e+00,5.000000000000000000e+00,5.000000000000000000e+00,5.000000000000000000e+00,5.000000000000000000e+00,5.000000000000000000e+00,5.000000000000000000e+00,5.000000000000000000e+00,5.000000000000000000e+00,5.000000000000000000e+00,5.000000000000000000e+00,5.000000000000000000e+00,5.000000000000000000e+00,5.000000000000000000e+00,5.000000000000000000e+00,5.000000000000000000e+00,5.000000000000000000e+00,5.000000000000000000e+00,5.000000000000000000e+00,5.000000000000000000e+00,5.000000000000000000e+00,5.000000000000000000e+00,5.000000000000000000e+00,5.000000000000000000e+00,4.839080333709716797e+00,4.680979728698730469e+00,4.532883644104003906e+00,4.393870353698730469e+00,4.263130187988281250e+00,4.139945507049560547e+00,4.023680210113525391e+00,3.913766622543334961e+00,3.809698343276977539e+00,3.711020708084106445e+00
3.100855588912963867e+00,3.179572582244873047e+00,3.262390136718750000e+00,3.349637269973754883e+00,3.441679000854492188e+00,3.538922071456909180e+00,3.641820192337036133e+00,3.750881433486938477e+00,3.866675853729248047e+00,3.989847660064697266e+00,4.121124744415283203e+00,4.261334896087646484e+00,4.411421775817871094e+00,4.572466373443603516e+00,4.745715141296386719e+00,4.932609558105468750e+00,5.000000000000000000e+00,5.000000000000000000e+00,5.000000000000000000e+00,5.000000000000000000e+00,5.000000000000000000e+00,5.000000000000000000e+00,5.000000000000000000e+00,5.000000000000000000e+00,5.000000000000000000e+00,4.035940647125244141e+00,4.540526390075683594e+00,5.000000000000000000e+00,5.000000000000000000e+00,5.000000000000000000e+00,5.000000000000000000e+00,5.000000000000000000e+00,5.000000000000000000e+00,5.000000000000000000e+00,5.000000000000000000e+00,5.000000000000000000e+00,5.000000000000000000e+00,5.000000000000000000e+00,5.000000000000000000e+00,5.000000000000000000e+00,5.000000000000000000e+00,5.000000000000000000e+00,5.000000000000000000e+00,5.000000000000000000e+00,5.000000000000000000e+00,5.000000000000000000e+00,5.000000000000000000e+00,5.000000000000000000e+00,5.000000000000000000e+00,5.000000000000000000e+00,5.000000000000000000e+00,5.000000000000000000e+00,5.000000000000000000e+00,5.000000000000000000e+00,5.000000000000000000e+00,5.000000000000000000e+00,5.000000000000000000e+00,5.000000000000000000e+00,5.000000000000000000e+00,5.000000000000000000e+00,5.000000000000000000e+00,5.000000000000000000e+00,5.000000000000000000e+00,5.000000000000000000e+00,5.000000000000000000e+00,5.000000000000000000e+00,5.000000000000000000e+00,5.000000000000000000e+00,5.000000000000000000e+00,5.000000000000000000e+00,4.839221477508544922e+00,4.681111812591552734e+00,4.533007144927978516e+00,4.393986701965332031e+00,4.263239860534667969e+00,4.140048980712890625e+00,4.023777484893798828e+00,3.913858890533447266e+00,3.809785842895507812e+00,3.711103916168212891e+00
3.100789546966552734e+00,3.179503202438354492e+00,3.262317180633544922e+00,3.349560022354125977e+00,3.441597700119018555e+00,3.538836240768432617e+00,3.641729354858398438e+00,3.750784873962402344e+00,3.866573333740234375e+00,3.989738702774047852e+00,4.121008396148681641e+00,4.261210441589355469e+00,4.411288261413574219e+00,4.572322845458984375e+00,4.745560646057128906e+00,4.932442665100097656e+00,5.000000000000000000e+00,5.000000000000000000e+00,5.000000000000000000e+00,5.000000000000000000e+00,5.000000000000000000e+00,5.000000000000000000e+00,5.000000000000000000e+00,5.000000000000000000e+00,5.000000000000000000e+00,4.028732776641845703e+00,4.548217773437500000e+00,5.000000000000000000e+00,5.000000000000000000e+00,5.000000000000000000e+00,5.000000000000000000e+00,5.000000000000000000e+00,5.000000000000000000e+00,5.000000000000000000e+00,5.000000000000000000e+00,5.000000000000000000e+00,5.000000000000000000e+00,5.000000000000000000e+00,5.000000000000000000e+00,5.000000000000000000e+00,5.000000000000000000e+00,5.000000000000000000e+00,5.000000000000000000e+00,5.000000000000000000e+00,5.000000000000000000e+00,5.000000000000000000e+00,5.000000000000000000e+00,5.000000000000000000e+00,5.000000000000000000e+00,5.000000000000000000e+00,5.000000000000000000e+00,5.000000000000000000e+00,5.000000000000000000e+00,5.000000000000000000e+00,5.000000000000000000e+00,5.000000000000000000e+00,5.000000000000000000e+00,5.000000000000000000e+00,5.000000000000000000e+00,5.000000000000000000e+00,5.000000000000000000e+00,5.000000000000000000e+00,5.000000000000000000e+00,5.000000000000000000e+00,5.000000000000000000e+00,5.000000000000000000e+00,5.000000000000000000e+00,5.000000000000000000e+00,5.000000000000000000e+00,5.000000000000000000e+00,4.839362621307373047e+00,4.681243896484375000e+00,4.533130645751953125e+00,4.394103050231933594e+00,4.263349056243896484e+00,4.140151977539062500e+00,4.023874759674072266e+00,3.913951158523559570e+00,3.809873104095458984e+00,3.711186885833740234e+00
3.100723743438720703e+00,3.179433822631835938e+00,3.262244224548339844e+00,3.349483013153076172e+00,3.441516637802124023e+00,3.538750410079956055e+00,3.641638517379760742e+00,3.750688552856445312e+00,3.866470813751220703e+00,3.989629507064819336e+00,4.120892047882080078e+00,4.261085987091064453e+00,4.411154747009277344e+00,4.572179794311523438e+00,4.745406150817871094e+00,4.932275772094726562e+00,5.000000000000000000e+00,5.000000000000000000e+00,5.000000000000000000e+00,5.000000000000000000e+00,5.000000000000000000e+00,5.000000000000000000e+00,5.000000000000000000e+00,5.000000000000000000e+00,5.000000000000000000e+00,4.025865077972412109e+00,4.565413951873779297e+00,5.000000000000000000e+00,5.000000000000000000e+00,5.000000000000000000e+00,5.000000000000000000e+00,5.000000000000000000e+00,5.000000000000000000e+00,5.000000000000000000e+00,5.000000000000000000e+00,5.000000000000000000e+00,5.000000000000000000e+00,5.000000000000000000e+00,5.000000000000000000e+00,5.000000000000000000e+00,5.000000000000000000e+00,5.000000000000000000e+00,5.000000000000000000e+00,5.000000000000000000e+00,5.000000000000000000e+00,5.000000000000000000e+00,5.000000000000000000e+00,5.000000000000000000e+00,5.000000000000000000e+00,5.000000000000000000e+00,5.000000000000000000e+00,5.000000000000000000e+00,5.000000000000000000e+00,5.000000000000000000e+00,5.000000000000000000e+00,5.000000000000000000e+00,5.000000000000000000e+00,5.000000000000000000e+00,5.000000000000000000e+00,5.000000000000000000e+00,5.000000000000000000e+00,5.000000000000000000e+00,5.000000000000000000e+00,5.000000000000000000e+00,5.000000000000000000e+00,5.000000000000000000e+00,5.000000000000000000e+00,5.000000000000000000e+00,5.000000000000000000e+00,5.000000000000000000e+00,4.839503765106201172e+00,4.681375980377197266e+00,4.533254623413085938e+00,4.394219398498535156e+00,4.263458728790283203e+00,4.140254974365234375e+00,4.023972511291503906e+00,3.914043188095092773e+00,3.809960603713989258e+00,3.711269855499267578e+00
3.100657939910888672e+00,3.179364681243896484e+00,3.262171268463134766e+00,3.349406242370605469e+00,3.441435337066650391e+00,3.538664579391479492e+00,3.641547679901123047e+00,3.750591516494750977e+00,3.866368293762207031e+00,3.989520311355590820e+00,4.120775699615478516e+00,4.260961532592773438e+00,4.411021232604980469e+00,4.572036266326904297e+00,4.745251655578613281e+00,4.932108879089355469e+00,5.000000000000000000e+00,5.000000000000000000e+00,5.000000000000000000e+00,5.000000000000000000e+00,5.000000000000000000e+00,5.000000000000000000e+00,5.000000000000000000e+00,5.000000000000000000e+00,5.000000000000000000e+00,4.031932353973388672e+00,4.594897270202636719e+00,5.000000000000000000e+00,5.000000000000000000e+00,5.000000000000000000e+00,5.000000000000000000e+00,5.000000000000000000e+00,5.000000000000000000e+00,5.000000000000000000e+00,5.000000000000000000e+00,5.000000000000000000e+00,5.000000000000000000e+00,5.000000000000000000e+00,5.000000000000000000e+00,5.000000000000000000e+00,5.000000000000000000e+00,5.000000000000000000e+00,5.000000000000000000e+00,5.000000000000000000e+00,5.000000000000000000e+00,5.000000000000000000e+00,5.000000000000000000e+00,5.000000000000000000e+00,5.000000000000000000e+00,5.000000000000000000e+00,5.000000000000000000e+00,5.000000000000000000e+00,5.000000000000000000e+00,5.000000000000000000e+00,5.000000000000000000e+00,5.000000000000000000e+00,5.000000000000000000e+00,5.000000000000000000e+00,5.000000000000000000e+00,5.000000000000000000e+00,5.000000000000000000e+00,5.000000000000000000e+00,5.000000000000000000e+00,5.000000000000000000e+00,5.000000000000000000e+00,5.000000000000000000e+00,5.000000000000000000e+00,5.000000000000000000e+00,5.000000000000000000e+00,5.000000000000000000e+00,4.839644908905029297e+00,4.681508064270019531e+00,4.533378601074218750e+00,4.394335746765136719e+00,4.263567924499511719e+00,4.140358448028564453e+00,4.024069786071777344e+00,3.914135456085205078e+00,3.810047864913940430e+00,3.711352586746215820e+00
3.100591897964477539e+00,3.179295301437377930e+00,3.262098312377929688e+00,3.349329233169555664e+00,3.441354274749755859e+00,3.538578748703002930e+00,3.641456604003906250e+00,3.750495195388793945e+00,3.866265773773193359e+00,3.989411354064941406e+00,4.120659351348876953e+00,4.260837078094482422e+00,4.410888195037841797e+00,4.571893215179443359e+00,4.745097637176513672e+00,4.854995250701904297e+00,4.853791236877441406e+00,4.852588176727294922e+00,4.851385593414306641e+00,4.850184440612792969e+00,4.848982810974121094e+00,4.847782135009765625e+00,4.846581935882568359e+00,4.845382690429687500e+00,3.909201145172119141e+00,3.948640346527099609e+00,4.494757175445556641e+00,4.840590953826904297e+00,4.839394092559814453e+00,4.838198184967041016e+00,4.837002754211425781e+00,4.835807800292968750e+00,4.834613800048828125e+00,4.833420276641845703e+00,4.832227230072021484e+00,4.831034660339355469e+00,4.829843044281005859e+00,4.828651905059814453e+00,4.827461242675781250e+00,4.826271057128906250e+00,4.825081825256347656e+00,4.823893070220947266e+00,4.822704792022705078e+00,4.821516990661621094e+00,4.820330142974853516e+00,4.819143295288085938e+00,4.817957401275634766e+00,4.816771984100341797e+00,4.815587520599365234e+00,4.814403057098388672e+00,4.813219547271728516e+00,4.812036037445068359e+00,4.810853481292724609e+00,4.809671878814697266e+00,4.808490753173828125e+00,4.807310104370117188e+00,4.806129455566406250e+00,4.804950237274169922e+00,4.803771495819091797e+00,4.802592754364013672e+00,4.801414966583251953e+00,4.800238132476806641e+00,4.799061298370361328e+00,4.797884941101074219e+00,4.796709537506103516e+00,4.795534610748291016e+00,4.794360637664794922e+00,4.793186664581298828e+00,4.792013168334960938e+00,4.790841102600097656e+00,4.789669036865234375e+00,4.681639671325683594e+00,4.533502101898193359e+00,4.394452095031738281e+00,4.263677597045898438e+00,4.140461921691894531e+00,4.024167537689208984e+00,3.914227724075317383e+00,3.810135364532470703e+00,3.711435556411743164e+00
3.100526094436645508e+00,3.179225921630859375e+00,3.262025117874145508e+00,3.349252462387084961e+00,3.441272974014282227e+00,3.538492918014526367e+00,3.641365766525268555e+00,3.750398874282836914e+00,3.771183252334594727e+00,3.770457029342651367e+00,3.769730806350708008e+00,3.769005060195922852e+00,3.768279552459716797e+00,3.767554521560668945e+00,3.766829490661621094e+00,3.766105413436889648e+00,3.765380859375000000e+00,3.764656782150268555e+00,3.763932943344116211e+00,3.763209342956542969e+00,3.762486219406127930e+00,3.761763334274291992e+00,3.761040449142456055e+00,3.760318517684936523e+00,3.759596347808837891e+00,3.758874654769897461e+00,3.758152961730957031e+00,3.757431745529174805e+00,3.756710529327392578e+00,3.755989789962768555e+00,3.755269289016723633e+00,3.754549026489257812e+00,3.753829717636108398e+00,3.753109931945800781e+00,3.752390623092651367e+00,3.751671552658081055e+00,3.750952482223510742e+00,3.750234127044677734e+00,3.749515771865844727e+00,3.748797655105590820e+00,3.748080492019653320e+00,3.747363090515136719e+00,3.746645689010620117e+00,3.745929002761840820e+00,3.745212316513061523e+00,3.744495868682861328e+00,3.743779897689819336e+00,3.743063926696777344e+00,3.742348909378051758e+00,3.741633653640747070e+00,3.740918636322021484e+00,3.740203857421875000e+00,3.739489555358886719e+00,3.738775491714477539e+00,3.738061428070068359e+00,3.737347841262817383e+00,3.736634492874145508e+00,3.735921859741210938e+00,3.735208988189697266e+00,3.734496593475341797e+00,3.733784198760986328e+00,3.733072280883789062e+00,3.732360601425170898e+00,3.731649160385131836e+00,3.730937957763671875e+00,3.730227470397949219e+00,3.729516744613647461e+00,3.728806257247924805e+00,3.728096246719360352e+00,3.727386474609375000e+00,3.726676940917968750e+00,3.725967645645141602e+00,3.725258588790893555e+00,3.724549770355224609e+00,3.723841667175292969e+00,3.723133563995361328e+00,3.722425460815429688e+00,3.721717834472656250e+00,3.721010446548461914e+00,3.711518526077270508e+00
3.083440780639648438e+00,3.082955360412597656e+00,3.082469940185546875e+00,3.081984519958496094e+00,3.081499576568603516e+00,3.081014633178710938e+00,3.080529928207397461e+00,3.080045223236083984e+00,3.079560756683349609e+00,3.079076528549194336e+00,3.078592300415039062e+00,3.078108072280883789e+00,3.077624320983886719e+00,3.077140569686889648e+00,3.076656818389892578e+00,3.076173782348632812e+00,3.075690507888793945e+00,3.075207233428955078e+00,3.074724197387695312e+00,3.074241399765014648e+00,3.073758840560913086e+00,3.073276281356811523e+00,3.072793722152709961e+00,3.072311878204345703e+00,3.071829795837402344e+00,3.071347713470458984e+00,3.070866107940673828e+00,3.070384502410888672e+00,3.069902896881103516e+00,3.069421529769897461e+00,3.068940401077270508e+00,3.068459272384643555e+00,3.067978858947753906e+00,3.067497968673706055e+00,3.067017555236816406e+00,3.066537141799926758e+00,3.066056728363037109e+00,3.065576791763305664e+00,3.065096855163574219e+00,3.064616918563842773e+00,3.064137458801269531e+00,3.063657999038696289e+00,3.063178777694702148e+00,3.062699556350708008e+00,3.062220335006713867e+00,3.061741352081298828e+00,3.061262607574462891e+00,3.060784101486206055e+00,3.060305833816528320e+00,3.059827566146850586e+00,3.059349298477172852e+00,3.058871269226074219e+00,3.058393478393554688e+00,3.057915687561035156e+00,3.057438135147094727e+00,3.056960582733154297e+00,3.056483507156372070e+00,3.056006431579589844e+00,3.055529594421386719e+00,3.055052757263183594e+00,3.054575920104980469e+00,3.054099559783935547e+00,3.053623199462890625e+00,3.053146839141845703e+00,3.052670717239379883e+00,3.052195072174072266e+00,3.051719188690185547e+00,3.051243543624877930e+00,3.050768136978149414e+00,3.050292730331420898e+00,3.049817562103271484e+00,3.049342632293701172e+00,3.048867702484130859e+00,3.048393011093139648e+00,3.047918558120727539e+00,3.047444105148315430e+00,3.046969890594482422e+00,3.046495676040649414e+00,3.046021699905395508e+00,3.045547723770141602e+00
2.605076551437377930e+00,2.604729890823364258e+00,2.604383230209350586e+00,2.604037046432495117e+00,2.603690862655639648e+00,2.603344440460205078e+00,2.602998256683349609e+00,2.602652311325073242e+00,2.602306365966796875e+00,2.601960420608520508e+00,2.601614713668823242e+00,2.601269006729125977e+00,2.600923299789428711e+00,2.600577831268310547e+00,2.600232362747192383e+00,2.599887371063232422e+00,2.599542140960693359e+00,2.599196910858154297e+00,2.598851919174194336e+00,2.598506927490234375e+00,2.598161935806274414e+00,2.597817182540893555e+00,2.597472667694091797e+00,2.597128152847290039e+00,2.596783638000488281e+00,2.596439361572265625e+00,2.596095085144042969e+00,2.595750808715820312e+00,2.595406532287597656e+00,2.595062494277954102e+00,2.594718694686889648e+00,2.594374656677246094e+00,2.594031095504760742e+00,2.593687534332275391e+00,2.593343973159790039e+00,2.593000411987304688e+00,2.592657089233398438e+00,2.592313766479492188e+00,2.591970443725585938e+00,2.591627359390258789e+00,2.591284513473510742e+00,2.590941429138183594e+00,2.590598583221435547e+00,2.590255975723266602e+00,2.589913129806518555e+00,2.589570760726928711e+00,2.589228153228759766e+00,2.588885784149169922e+00,2.588543653488159180e+00,2.588201284408569336e+00,2.587859153747558594e+00,2.587517261505126953e+00,2.587175369262695312e+00,2.586833477020263672e+00,2.586491584777832031e+00,2.586149930953979492e+00,2.585808277130126953e+00,2.585467100143432617e+00,2.585125684738159180e+00,2.584784269332885742e+00,2.584443092346191406e+00,2.584101915359497070e+00,2.583760976791381836e+00,2.583420038223266602e+00,2.583079099655151367e+00,2.582738399505615234e+00,2.582397699356079102e+00,2.582057237625122070e+00,2.581716775894165039e+00,2.581376314163208008e+00,2.581035852432250977e+00,2.580695629119873047e+00,2.580355644226074219e+00,2.580015420913696289e+00,2.579675674438476562e+00,2.579335689544677734e+00,2.578995943069458008e+00,2.578656196594238281e+00,2.578316688537597656e+00,2.577977180480957031e+00
2.255204677581787109e+00,2.254944801330566406e+00,2.254685163497924805e+00,2.254425525665283203e+00,2.254165887832641602e+00,2.253906488418579102e+00,2.253646850585937500e+00,2.253387451171875000e+00,2.253128290176391602e+00,2.252868890762329102e+00,2.252609729766845703e+00,2.252350568771362305e+00,2.252091407775878906e+00,2.251832485198974609e+00,2.251573324203491211e+00,2.251314640045166016e+00,2.251055717468261719e+00,2.250797033309936523e+00,2.250538110733032227e+00,2.250279426574707031e+00,2.250020980834960938e+00,2.249762296676635742e+00,2.249503850936889648e+00,2.249245405197143555e+00,2.248987197875976562e+00,2.248728752136230469e+00,2.248470544815063477e+00,2.248212337493896484e+00,2.247954130172729492e+00,2.247695922851562500e+00,2.247437953948974609e+00,2.247179985046386719e+00,2.246922254562377930e+00,2.246664285659790039e+00,2.246406555175781250e+00,2.246148824691772461e+00,2.245891094207763672e+00,2.245633602142333984e+00,2.245375871658325195e+00,2.245118379592895508e+00,2.244861125946044922e+00,2.244603633880615234e+00,2.244346380233764648e+00,2.244089126586914062e+00,2.243831872940063477e+00,2.243574619293212891e+00,2.243317604064941406e+00,2.243060588836669922e+00,2.242803812026977539e+00,2.242546796798706055e+00,2.242290019989013672e+00,2.242033243179321289e+00,2.241776466369628906e+00,2.241519689559936523e+00,2.241263151168823242e+00,2.241006612777709961e+00,2.240750074386596680e+00,2.240493774414062500e+00,2.240237474441528320e+00,2.239981174468994141e+00,2.239724874496459961e+00,2.239468574523925781e+00,2.239212512969970703e+00,2.238956212997436523e+00,2.238700389862060547e+00,2.238444566726684570e+00,2.238188505172729492e+00,2.237932682037353516e+00,2.237676858901977539e+00,2.237421035766601562e+00,2.237165451049804688e+00,2.236909866333007812e+00,2.236654281616210938e+00,2.236398696899414062e+00,2.236143350601196289e+00,2.235888004302978516e+00,2.235632658004760742e+00,2.235377311706542969e+00,2.235122203826904297e+00,2.234867095947265625e+00
1.988183856010437012e+00,1.987981915473937988e+00,1.987780094146728516e+00,1.987578272819519043e+00,1.987376451492309570e+00,1.987174749374389648e+00,1.986973047256469727e+00,1.986771464347839355e+00,1.986569762229919434e+00,1.986368298530578613e+00,1.986166715621948242e+00,1.985965251922607422e+00,1.985763788223266602e+00,1.985562443733215332e+00,1.985361099243164062e+00,1.985159754753112793e+00,1.984958410263061523e+00,1.984757184982299805e+00,1.984556078910827637e+00,1.984354853630065918e+00,1.984153747558593750e+00,1.983952641487121582e+00,1.983751654624938965e+00,1.983550786972045898e+00,1.983349919319152832e+00,1.983148932456970215e+00,1.982948064804077148e+00,1.982747316360473633e+00,1.982546448707580566e+00,1.982345700263977051e+00,1.982144951820373535e+00,1.981944322586059570e+00,1.981743693351745605e+00,1.981543064117431641e+00,1.981342554092407227e+00,1.981142044067382812e+00,1.980941534042358398e+00,1.980741143226623535e+00,1.980540752410888672e+00,1.980340361595153809e+00,1.980140328407287598e+00,1.979940056800842285e+00,1.979739785194396973e+00,1.979539632797241211e+00,1.979339480400085449e+00,1.979139447212219238e+00,1.978939294815063477e+00,1.978739261627197266e+00,1.978539347648620605e+00,1.978339433670043945e+00,1.978139519691467285e+00,1.977939605712890625e+00,1.977739810943603516e+00,1.977540016174316406e+00,1.977340221405029297e+00,1.977140545845031738e+00,1.976940870285034180e+00,1.976741552352905273e+00,1.976541876792907715e+00,1.976342320442199707e+00,1.976142883300781250e+00,1.975943446159362793e+00,1.975744009017944336e+00,1.975544571876525879e+00,1.975345253944396973e+00,1.975145936012268066e+00,1.974946737289428711e+00,1.974747538566589355e+00,1.974548339843750000e+00,1.974349141120910645e+00,1.974150061607360840e+00,1.973950982093811035e+00,1.973752021789550781e+00,1.973553061485290527e+00,1.973354339599609375e+00,1.973155379295349121e+00,1.972956538200378418e+00,1.972757697105407715e+00,1.972558975219726562e+00,1.972360253334045410e+00
1.777700304985046387e+00,1.777538895606994629e+00,1.777377605438232422e+00,1.777216196060180664e+00,1.777054905891418457e+00,1.776893615722656250e+00,1.776732325553894043e+00,1.776571035385131836e+00,1.776410102844238281e+00,1.776248931884765625e+00,1.776087760925292969e+00,1.775926589965820312e+00,1.775765538215637207e+00,1.775604486465454102e+00,1.775443434715270996e+00,1.775282502174377441e+00,1.775121450424194336e+00,1.774960517883300781e+00,1.774799585342407227e+00,1.774638772010803223e+00,1.774477839469909668e+00,1.774317026138305664e+00,1.774156212806701660e+00,1.773995518684387207e+00,1.773834705352783203e+00,1.773674011230468750e+00,1.773513317108154297e+00,1.773352622985839844e+00,1.773192048072814941e+00,1.773031473159790039e+00,1.772870898246765137e+00,1.772710323333740234e+00,1.772549986839294434e+00,1.772389531135559082e+00,1.772229075431823730e+00,1.772068619728088379e+00,1.771908283233642578e+00,1.771747946739196777e+00,1.771587610244750977e+00,1.771427273750305176e+00,1.771266937255859375e+00,1.771106719970703125e+00,1.770946502685546875e+00,1.770786285400390625e+00,1.770626187324523926e+00,1.770466089248657227e+00,1.770305871963500977e+00,1.770145893096923828e+00,1.769986033439636230e+00,1.769825935363769531e+00,1.769665956497192383e+00,1.769505977630615234e+00,1.769346117973327637e+00,1.769186139106750488e+00,1.769026279449462891e+00,1.768866419792175293e+00,1.768706679344177246e+00,1.768546938896179199e+00,1.768387079238891602e+00,1.768227338790893555e+00,1.768067717552185059e+00,1.767907977104187012e+00,1.767748355865478516e+00,1.767588734626770020e+00,1.767429232597351074e+00,1.767269849777221680e+00,1.767110347747802734e+00,1.766950845718383789e+00,1.766791343688964844e+00,1.766631960868835449e+00,1.766472458839416504e+00,1.766313076019287109e+00,1.766153812408447266e+00,1.765994429588317871e+00,1.765835165977478027e+00,1.765675902366638184e+00,1.765516638755798340e+00,1.765357494354248047e+00,1.765198349952697754e+00,1.765039205551147461e+00
1.607517123222351074e+00,1.607385158538818359e+00,1.607253193855285645e+00,1.607121229171752930e+00,1.606989383697509766e+00,1.606857419013977051e+00,1.606725573539733887e+00,1.606593728065490723e+00,1.606461882591247559e+00,1.606330037117004395e+00,1.606198310852050781e+00,1.606066465377807617e+00,1.605934739112854004e+00,1.605803012847900391e+00,1.605671286582946777e+00,1.605539560317993164e+00,1.605407953262329102e+00,1.605276346206665039e+00,1.605144739151000977e+00,1.605013132095336914e+00,1.604881525039672852e+00,1.604749917984008789e+00,1.604618430137634277e+00,1.604487061500549316e+00,1.604355573654174805e+00,1.604224085807800293e+00,1.604092597961425781e+00,1.603961229324340820e+00,1.603829860687255859e+00,1.603698492050170898e+00,1.603567123413085938e+00,1.603435754776000977e+00,1.603304386138916016e+00,1.603173136711120605e+00,1.603041887283325195e+00,1.602910637855529785e+00,1.602779388427734375e+00,1.602648138999938965e+00,1.602516889572143555e+00,1.602385759353637695e+00,1.602254748344421387e+00,1.602123618125915527e+00,1.601992607116699219e+00,1.601861476898193359e+00,1.601730465888977051e+00,1.601599335670471191e+00,1.601468324661254883e+00,1.601337313652038574e+00,1.601206421852111816e+00,1.601075410842895508e+00,1.600944519042968750e+00,1.600813627243041992e+00,1.600682735443115234e+00,1.600551843643188477e+00,1.600420951843261719e+00,1.600290179252624512e+00,1.600159406661987305e+00,1.600028753280639648e+00,1.599897980690002441e+00,1.599767208099365234e+00,1.599636435508728027e+00,1.599505782127380371e+00,1.599375128746032715e+00,1.599244475364685059e+00,1.599113821983337402e+00,1.598983168601989746e+00,1.598852634429931641e+00,1.598722100257873535e+00,1.598591446876525879e+00,1.598461031913757324e+00,1.598330497741699219e+00,1.598199963569641113e+00,1.598069548606872559e+00,1.597939133644104004e+00,1.597808837890625000e+00,1.597678422927856445e+00,1.597548007965087891e+00,1.597417712211608887e+00,1.597287297248840332e+00,1.597157001495361328e+00
1.467071175575256348e+00,1.466961264610290527e+00,1.466851353645324707e+00,1.466741442680358887e+00,1.466631531715393066e+00,1.466521739959716797e+00,1.466411828994750977e+00,1.466302037239074707e+00,1.466192126274108887e+00,1.466082334518432617e+00,1.465972542762756348e+00,1.465862870216369629e+00,1.465753078460693359e+00,1.465643286705017090e+00,1.465533614158630371e+00,1.465423941612243652e+00,1.465314149856567383e+00,1.465204477310180664e+00,1.465094923973083496e+00,1.464985251426696777e+00,1.464875578880310059e+00,1.464766025543212891e+00,1.464656472206115723e+00,1.464546799659729004e+00,1.464437246322631836e+00,1.464327692985534668e+00,1.464218258857727051e+00,1.464108705520629883e+00,1.463999271392822266e+00,1.463889718055725098e+00,1.463780283927917480e+00,1.463670849800109863e+00,1.463561534881591797e+00,1.463452100753784180e+00,1.463342785835266113e+00,1.463233351707458496e+00,1.463124036788940430e+00,1.463014721870422363e+00,1.462905406951904297e+00,1.462796092033386230e+00,1.462686777114868164e+00,1.462577462196350098e+00,1.462468266487121582e+00,1.462358951568603516e+00,1.462249755859375000e+00,1.462140560150146484e+00,1.462031364440917969e+00,1.461922168731689453e+00,1.461813092231750488e+00,1.461704015731811523e+00,1.461594820022583008e+00,1.461485743522644043e+00,1.461376667022705078e+00,1.461267590522766113e+00,1.461158514022827148e+00,1.461049437522888184e+00,1.460940361022949219e+00,1.460831403732299805e+00,1.460722446441650391e+00,1.460613369941711426e+00,1.460504412651062012e+00,1.460395455360412598e+00,1.460286617279052734e+00,1.460177659988403320e+00,1.460068702697753906e+00,1.459959983825683594e+00,1.459851145744323730e+00,1.459742307662963867e+00,1.459633469581604004e+00,1.459524631500244141e+00,1.459415793418884277e+00,1.459306955337524414e+00,1.459198236465454102e+00,1.459089517593383789e+00,1.458980679512023926e+00,1.458871960639953613e+00,1.458763241767883301e+00,1.458654642105102539e+00,1.458545923233032227e+00,1.458437323570251465e+00
1.349194288253784180e+00,1.349101305007934570e+00,1.349008321762084961e+00,1.348915338516235352e+00,1.348822474479675293e+00,1.348729491233825684e+00,1.348636627197265625e+00,1.348543643951416016e+00,1.348450779914855957e+00,1.348357915878295898e+00,1.348265051841735840e+00,1.348172187805175781e+00,1.348079323768615723e+00,1.347986698150634766e+00,1.347893834114074707e+00,1.347801089286804199e+00,1.347708225250244141e+00,1.347615480422973633e+00,1.347522735595703125e+00,1.347429990768432617e+00,1.347337245941162109e+00,1.347244620323181152e+00,1.347151875495910645e+00,1.347059130668640137e+00,1.346966505050659180e+00,1.346873760223388672e+00,1.346781134605407715e+00,1.346688508987426758e+00,1.346595883369445801e+00,1.346503257751464844e+00,1.346410632133483887e+00,1.346318006515502930e+00,1.346225500106811523e+00,1.346132874488830566e+00,1.346040368080139160e+00,1.345947861671447754e+00,1.345855236053466797e+00,1.345762729644775391e+00,1.345670223236083984e+00,1.345577716827392578e+00,1.345485448837280273e+00,1.345392942428588867e+00,1.345300436019897461e+00,1.345208048820495605e+00,1.345115542411804199e+00,1.345023155212402344e+00,1.344930768013000488e+00,1.344838380813598633e+00,1.344745993614196777e+00,1.344653606414794922e+00,1.344561338424682617e+00,1.344468951225280762e+00,1.344376564025878906e+00,1.344284296035766602e+00,1.344192028045654297e+00,1.344099640846252441e+00,1.344007372856140137e+00,1.343915224075317383e+00,1.343822956085205078e+00,1.343730807304382324e+00,1.343638539314270020e+00,1.343546271324157715e+00,1.343454122543334961e+00,1.343361973762512207e+00,1.343269705772399902e+00,1.343177556991577148e+00,1.343085408210754395e+00,1.342993259429931641e+00,1.342901229858398438e+00,1.342809081077575684e+00,1.342716932296752930e+00,1.342624902725219727e+00,1.342532753944396973e+00,1.342440724372863770e+00,1.342348814010620117e+00,1.342256784439086914e+00,1.342164754867553711e+00,1.342072725296020508e+00,1.341980695724487305e+00,1.341888666152954102e+00
1.248851060867309570e+00,1.248771429061889648e+00,1.248691797256469727e+00,1.248612165451049805e+00,1.248532533645629883e+00,1.248452901840209961e+00,1.248373270034790039e+00,1.248293757438659668e+00,1.248214125633239746e+00,1.248134493827819824e+00,1.248054981231689453e+00,1.247975468635559082e+00,1.247895836830139160e+00,1.247816324234008789e+00,1.247736811637878418e+00,1.247657299041748047e+00,1.247577786445617676e+00,1.247498273849487305e+00,1.247418761253356934e+00,1.247339248657226562e+00,1.247259855270385742e+00,1.247180342674255371e+00,1.247100949287414551e+00,1.247021436691284180e+00,1.246942043304443359e+00,1.246862649917602539e+00,1.246783256530761719e+00,1.246703863143920898e+00,1.246624469757080078e+00,1.246545076370239258e+00,1.246465802192687988e+00,1.246386408805847168e+00,1.246307015419006348e+00,1.246227741241455078e+00,1.246148347854614258e+00,1.246069073677062988e+00,1.245989799499511719e+00,1.245910406112670898e+00,1.245831131935119629e+00,1.245751857757568359e+00,1.245672583580017090e+00,1.245593309402465820e+00,1.245514154434204102e+00,1.245434880256652832e+00,1.245355606079101562e+00,1.245276451110839844e+00,1.245197176933288574e+00,1.245118021965026855e+00,1.245038986206054688e+00,1.244959712028503418e+00,1.244880557060241699e+00,1.244801402091979980e+00,1.244722247123718262e+00,1.244643092155456543e+00,1.244564056396484375e+00,1.244484901428222656e+00,1.244405746459960938e+00,1.244326710700988770e+00,1.244247674942016602e+00,1.244168519973754883e+00,1.244089484214782715e+00,1.244010448455810547e+00,1.243931412696838379e+00,1.243852376937866211e+00,1.243773341178894043e+00,1.243694424629211426e+00,1.243615388870239258e+00,1.243536353111267090e+00,1.243457436561584473e+00,1.243378400802612305e+00,1.243299484252929688e+00,1.243220567703247070e+00,1.243141531944274902e+00,1.243062615394592285e+00,1.242983698844909668e+00,1.242904782295227051e+00,1.242825865745544434e+00,1.242746949195861816e+00,1.242668151855468750e+00,1.242589235305786133e+00
1.162400245666503906e+00,1.162331223487854004e+00,1.162262320518493652e+00,1.162193298339843750e+00,1.162124395370483398e+00,1.162055373191833496e+00,1.161986351013183594e+00,1.161917448043823242e+00,1.161848425865173340e+00,1.161779522895812988e+00,1.161710619926452637e+00,1.161641597747802734e+00,1.161572694778442383e+00,1.161503791809082031e+00,1.161434888839721680e+00,1.161365985870361328e+00,1.161297082901000977e+00,1.161228179931640625e+00,1.161159396171569824e+00,1.161090493202209473e+00,1.161021590232849121e+00,1.160952806472778320e+00,1.160883903503417969e+00,1.160815119743347168e+00,1.160746216773986816e+00,1.160677433013916016e+00,1.160608649253845215e+00,1.160539865493774414e+00,1.160470962524414062e+00,1.160402178764343262e+00,1.160333514213562012e+00,1.160264730453491211e+00,1.160195946693420410e+00,1.160127162933349609e+00,1.160058379173278809e+00,1.159989714622497559e+00,1.159920930862426758e+00,1.159852266311645508e+00,1.159783482551574707e+00,1.159714818000793457e+00,1.159646153450012207e+00,1.159577488899230957e+00,1.159508824348449707e+00,1.159440159797668457e+00,1.159371495246887207e+00,1.159302830696105957e+00,1.159234166145324707e+00,1.159165501594543457e+00,1.159096837043762207e+00,1.159028291702270508e+00,1.158959627151489258e+00,1.158891081809997559e+00,1.158822417259216309e+00,1.158753871917724609e+00,1.158685207366943359e+00,1.158616662025451660e+00,1.158548116683959961e+00,1.158479690551757812e+00,1.158411026000976562e+00,1.158342599868774414e+00,1.158274054527282715e+00,1.158205509185791016e+00,1.158136963844299316e+00,1.158068537712097168e+00,1.157999992370605469e+00,1.157931447029113770e+00,1.157863020896911621e+00,1.157794475555419922e+00,1.157726049423217773e+00,1.157657623291015625e+00,1.157589197158813477e+00,1.157520651817321777e+00,1.157452225685119629e+00,1.157383799552917480e+00,1.157315492630004883e+00,1.157247066497802734e+00,1.157178640365600586e+00,1.157110333442687988e+00,1.157041907310485840e+00,1.156973481178283691e+00
1.087143540382385254e+00,1.087083220481872559e+00,1.087022900581359863e+00,1.086962461471557617e+00,1.086902141571044922e+00,1.086841821670532227e+00,1.086781501770019531e+00,1.086721181869506836e+00,1.086660861968994141e+00,1.086600542068481445e+00,1.086540222167968750e+00,1.086479902267456055e+00,1.086419582366943359e+00,1.086359262466430664e+00,1.086299061775207520e+00,1.086238741874694824e+00,1.086178541183471680e+00,1.086118221282958984e+00,1.086058020591735840e+00,1.085997819900512695e+00,1.085937500000000000e+00,1.085877299308776855e+00,1.085817098617553711e+00,1.085756897926330566e+00,1.085696697235107422e+00,1.085636496543884277e+00,1.085576295852661133e+00,1.085516095161437988e+00,1.085455894470214844e+00,1.085395693778991699e+00,1.085335493087768555e+00,1.085275411605834961e+00,1.085215210914611816e+00,1.085155010223388672e+00,1.085094928741455078e+00,1.085034728050231934e+00,1.084974646568298340e+00,1.084914445877075195e+00,1.084854364395141602e+00,1.084794282913208008e+00,1.084734082221984863e+00,1.084674000740051270e+00,1.084613919258117676e+00,1.084553837776184082e+00,1.084493756294250488e+00,1.084433674812316895e+00,1.084373593330383301e+00,1.084313631057739258e+00,1.084253549575805664e+00,1.084193587303161621e+00,1.084133505821228027e+00,1.084073424339294434e+00,1.084013462066650391e+00,1.083953380584716797e+00,1.083893418312072754e+00,1.083833456039428711e+00,1.083773374557495117e+00,1.083713412284851074e+00,1.083653450012207031e+00,1.083593487739562988e+00,1.083533406257629395e+00,1.083473443984985352e+00,1.083413481712341309e+00,1.083353519439697266e+00,1.083293676376342773e+00,1.083233714103698730e+00,1.083173871040344238e+00,1.083113908767700195e+00,1.083053946495056152e+00,1.082994103431701660e+00,1.082934141159057617e+00,1.082874298095703125e+00,1.082814335823059082e+00,1.082754492759704590e+00,1.082694530487060547e+00,1.082634687423706055e+00,1.082574844360351562e+00,1.082515001296997070e+00,1.082455158233642578e+00,1.082395315170288086e+00
1.021039009094238281e+00,1.020985722541809082e+00,1.020932435989379883e+00,1.020879268646240234e+00,1.020825982093811035e+00,1.020772814750671387e+00,1.020719528198242188e+00,1.020666360855102539e+00,1.020613074302673340e+00,1.020559906959533691e+00,1.020506739616394043e+00,1.020453572273254395e+00,1.020400285720825195e+00,1.020347118377685547e+00,1.020293951034545898e+00,1.020240783691406250e+00,1.020187616348266602e+00,1.020134449005126953e+00,1.020081281661987305e+00,1.020028114318847656e+00,1.019975066184997559e+00,1.019921898841857910e+00,1.019868731498718262e+00,1.019815564155578613e+00,1.019762516021728516e+00,1.019709348678588867e+00,1.019656300544738770e+00,1.019603133201599121e+00,1.019550085067749023e+00,1.019496917724609375e+00,1.019443869590759277e+00,1.019390821456909180e+00,1.019337773323059082e+00,1.019284605979919434e+00,1.019231677055358887e+00,1.019178628921508789e+00,1.019125461578369141e+00,1.019072413444519043e+00,1.019019365310668945e+00,1.018966436386108398e+00,1.018913388252258301e+00,1.018860340118408203e+00,1.018807291984558105e+00,1.018754243850708008e+00,1.018701314926147461e+00,1.018648266792297363e+00,1.018595218658447266e+00,1.018542289733886719e+00,1.018489241600036621e+00,1.018436312675476074e+00,1.018383264541625977e+00,1.018330335617065430e+00,1.018277406692504883e+00,1.018224358558654785e+00,1.018171429634094238e+00,1.018118500709533691e+00,1.018065571784973145e+00,1.018012642860412598e+00,1.017959713935852051e+00,1.017906785011291504e+00,1.017853856086730957e+00,1.017800927162170410e+00,1.017747998237609863e+00,1.017695188522338867e+00,1.017642259597778320e+00,1.017589330673217773e+00,1.017536401748657227e+00,1.017483592033386230e+00,1.017430663108825684e+00,1.017377853393554688e+00,1.017324924468994141e+00,1.017272114753723145e+00,1.017219185829162598e+00,1.017166376113891602e+00,1.017113566398620605e+00,1.017060756683349609e+00,1.017007946968078613e+00,1.016955018043518066e+00,1.016902208328247070e+00,1.016849398612976074e+00
9.625126123428344727e-01,9.624653458595275879e-01,9.624179601669311523e-01,9.623706936836242676e-01,9.623233079910278320e-01,9.622761011123657227e-01,9.622287154197692871e-01,9.621815085411071777e-01,9.621342420578002930e-01,9.620869159698486328e-01,9.620397090911865234e-01,9.619923830032348633e-01,9.619451761245727539e-01,9.618978500366210938e-01,9.618506431579589844e-01,9.618033170700073242e-01,9.617561101913452148e-01,9.617088437080383301e-01,9.616616368293762207e-01,9.616143703460693359e-01,9.615671634674072266e-01,9.615198969841003418e-01,9.614727497100830078e-01,9.614254236221313477e-01,9.613782763481140137e-01,9.613310098648071289e-01,9.612838625907897949e-01,9.612365961074829102e-01,9.611895084381103516e-01,9.611422419548034668e-01,9.610950946807861328e-01,9.610478878021240234e-01,9.610007405281066895e-01,9.609535336494445801e-01,9.609063863754272461e-01,9.608591794967651367e-01,9.608120918273925781e-01,9.607648849487304688e-01,9.607177972793579102e-01,9.606705904006958008e-01,9.606235027313232422e-01,9.605762958526611328e-01,9.605292081832885742e-01,9.604820609092712402e-01,9.604349732398986816e-01,9.603878259658813477e-01,9.603407382965087891e-01,9.602935910224914551e-01,9.602465629577636719e-01,9.601994752883911133e-01,9.601523280143737793e-01,9.601052999496459961e-01,9.600581526756286621e-01,9.600111842155456543e-01,9.599640369415283203e-01,9.599170088768005371e-01,9.598698616027832031e-01,9.598228931427001953e-01,9.597757458686828613e-01,9.597287774085998535e-01,9.596816897392272949e-01,9.596346616744995117e-01,9.595875740051269531e-01,9.595406055450439453e-01,9.594935178756713867e-01,9.594465494155883789e-01,9.593995809555053711e-01,9.593524932861328125e-01,9.593055844306945801e-01,9.592584967613220215e-01,9.592115283012390137e-01,9.591645002365112305e-01,9.591175317764282227e-01,9.590705037117004395e-01,9.590235948562622070e-01,9.589765667915344238e-01,9.589296579360961914e-01,9.588826298713684082e-01,9.588357210159301758e-01,9.587886929512023926e-01
