5.000000000000000000e+00,5.000000000000000000e+00,5.000000000000000000e+00,5.000000000000000000e+00,5.000000000000000000e+00,5.000000000000000000e+00,5.000000000000000000e+00,5.000000000000000000e+00,5.000000000000000000e+00,5.000000000000000000e+00,5.000000000000000000e+00,5.000000000000000000e+00,5.000000000000000000e+00,5.000000000000000000e+00,5.000000000000000000e+00,5.000000000000000000e+00,5.000000000000000000e+00,5.000000000000000000e+00,5.000000000000000000e+00,5.000000000000000000e+00,5.000000000000000000e+00,5.000000000000000000e+00,5.000000000000000000e+00,5.000000000000000000e+00,5.000000000000000000e+00,5.000000000000000000e+00,5.000000000000000000e+00,5.000000000000000000e+00,5.000000000000000000e+00,5.000000000000000000e+00,5.000000000000000000e+00,5.000000000000000000e+00,5.000000000000000000e+00,5.000000000000000000e+00,5.000000000000000000e+00,3.571326017379760742e+00,3.517628192901611328e+00,3.554488182067871094e+00,5.000000000000000000e+00,5.000000000000000000e+00,5.000000000000000000e+00,5.000000000000000000e+00,5.000000000000000000e+00,5.000000000000000000e+00,5.000000000000000000e+00,5.000000000000000000e+00,5.000000000000000000e+00,5.000000000000000000e+00,5.000000000000000000e+00,5.000000000000000000e+00,5.000000000000000000e+00,5.000000000000000000e+00,5.000000000000000000e+00,5.000000000000000000e+00,4.992709636688232422e+00,4.827492237091064453e+00,4.672873973846435547e+00,4.527853488922119141e+00,4.391562461853027344e+00,4.263236999511718750e+00,4.142198085784912109e+00,4.027842521667480469e+00,3.919631481170654297e+00,3.817082405090332031e+00,3.719762563705444336e+00,3.627279281616210938e+00,3.539273738861083984e+00,3.455437660217285156e+00,3.375481367111206055e+00,3.299141645431518555e+00,3.226178646087646484e+00,3.156372547149658203e+00,3.089523792266845703e+00,3.025447845458984375e+00,2.963975667953491211e+00,2.904952049255371094e+00,2.848232984542846680e+00,2.793686389923095703e+00,2.741189956665039062e+00,2.690629959106445312e+00
5.000000000000000000e+00,5.000000000000000000e+00,5.000000000000000000e+00,5.000000000000000000e+00,5.000000000000000000e+00,5.000000000000000000e+00,5.000000000000000000e+00,5.000000000000000000e+00,5.000000000000000000e+00,5.000000000000000000e+00,5.000000000000000000e+00,5.000000000000000000e+00,5.000000000000000000e+00,5.000000000000000000e+00,5.000000000000000000e+00,5.000000000000000000e+00,5.000000000000000000e+00,5.000000000000000000e+00,5.000000000000000000e+00,5.000000000000000000e+00,5.000000000000000000e+00,5.000000000000000000e+00,5.000000000000000000e+00,5.000000000000000000e+00,5.000000000000000000e+00,5.000000000000000000e+00,5.000000000000000000e+00,5.000000000000000000e+00,5.000000000000000000e+00,5.000000000000000000e+00,5.000000000000000000e+00,5.000000000000000000e+00,5.000000000000000000e+00,5.000000000000000000e+00,5.000000000000000000e+00,3.633881330490112305e+00,3.534493923187255859e+00,5.000000000000000000e+00,5.000000000000000000e+00,5.000000000000000000e+00,5.000000000000000000e+00,5.000000000000000000e+00,5.000000000000000000e+00,5.000000000000000000e+00,5.000000000000000000e+00,5.000000000000000000e+00,5.000000000000000000e+00,5.000000000000000000e+00,5.000000000000000000e+00,5.000000000000000000e+00,5.000000000000000000e+00,5.000000000000000000e+00,5.000000000000000000e+00,5.000000000000000000e+00,4.992895603179931641e+00,4.827682018280029297e+00,4.673052310943603516e+00,4.528020381927490234e+00,4.391719818115234375e+00,4.263384819030761719e+00,4.142337799072265625e+00,4.027974605560302734e+00,3.919751882553100586e+00,3.817183017730712891e+00,3.719845056533813477e+00,3.627348184585571289e+00,3.539339542388916016e+00,3.455500364303588867e+00,3.375541210174560547e+00,3.299198865890502930e+00,3.226233243942260742e+00,3.156424760818481445e+00,3.089573860168457031e+00,3.025496006011962891e+00,2.964021921157836914e+00,2.904996395111083984e+00,2.848275423049926758e+00,2.793727397918701172e+00,2.741229295730590820e+00,2.690668106079101562e+00
5.000000000000000000e+00,5.000000000000000000e+00,5.000000000000000000e+00,5.000000000000000000e+00,5.000000000000000000e+00,5.000000000000000000e+00,5.000000000000000000e+00,5.000000000000000000e+00,5.000000000000000000e+00,5.000000000000000000e+00,5.000000000000000000e+00,5.000000000000000000e+00,5.000000000000000000e+00,5.000000000000000000e+00,5.000000000000000000e+00,5.000000000000000000e+00,5.000000000000000000e+00,5.000000000000000000e+00,5.000000000000000000e+00,5.000000000000000000e+00,5.000000000000000000e+00,5.000000000000000000e+00,5.000000000000000000e+00,5.000000000000000000e+00,5.000000000000000000e+00,5.000000000000000000e+00,5.000000000000000000e+00,5.000000000000000000e+00,5.000000000000000000e+00,5.000000000000000000e+00,5.000000000000000000e+00,5.000000000000000000e+00,5.000000000000000000e+00,3.526020288467407227e+00,3.544068098068237305e+00,3.523402690887451172e+00,3.600245237350463867e+00,3.567471742630004883e+00,5.000000000000000000e+00,5.000000000000000000e+00,5.000000000000000000e+00,5.000000000000000000e+00,5.000000000000000000e+00,5.000000000000000000e+00,5.000000000000000000e+00,5.000000000000000000e+00,5.000000000000000000e+00,5.000000000000000000e+00,5.000000000000000000e+00,5.000000000000000000e+00,5.000000000000000000e+00,5.000000000000000000e+00,5.000000000000000000e+00,5.000000000000000000e+00,4.993098735809326172e+00,4.827871799468994141e+00,4.673229694366455078e+00,4.528187274932861328e+00,4.391876697540283203e+00,4.263526439666748047e+00,4.142455101013183594e+00,4.028070449829101562e+00,3.919832944869995117e+00,3.817259550094604492e+00,3.719917774200439453e+00,3.627417325973510742e+00,3.539405107498168945e+00,3.455562829971313477e+00,3.375600814819335938e+00,3.299255847930908203e+00,3.226287841796875000e+00,3.156477451324462891e+00,3.089623928070068359e+00,3.025543928146362305e+00,2.964067935943603516e+00,2.905040502548217773e+00,2.848318099975585938e+00,2.793768405914306641e+00,2.741268873214721680e+00,2.690706014633178711e+00
5.000000000000000000e+00,5.000000000000000000e+00,5.000000000000000000e+00,5.000000000000000000e+00,5.000000000000000000e+00,5.000000000000000000e+00,5.000000000000000000e+00,5.000000000000000000e+00,5.000000000000000000e+00,5.000000000000000000e+00,5.000000000000000000e+00,5.000000000000000000e+00,5.000000000000000000e+00,5.000000000000000000e+00,5.000000000000000000e+00,5.000000000000000000e+00,5.000000000000000000e+00,5.000000000000000000e+00,5.000000000000000000e+00,5.000000000000000000e+00,5.000000000000000000e+00,5.000000000000000000e+00,5.000000000000000000e+00,5.000000000000000000e+00,5.000000000000000000e+00,5.000000000000000000e+00,5.000000000000000000e+00,5.000000000000000000e+00,5.000000000000000000e+00,5.000000000000000000e+00,5.000000000000000000e+00,5.000000000000000000e+00,3.514777183532714844e+00,3.508780479431152344e+00,3.497554540634155273e+00,3.504419326782226562e+00,3.518896818161010742e+00,3.546586036682128906e+00,3.580388069152832031e+00,3.628261327743530273e+00,5.000000000000000000e+00,5.000000000000000000e+00,5.000000000000000000e+00,5.000000000000000000e+00,5.000000000000000000e+00,5.000000000000000000e+00,5.000000000000000000e+00,5.000000000000000000e+00,5.000000000000000000e+00,5.000000000000000000e+00,5.000000000000000000e+00,5.000000000000000000e+00,5.000000000000000000e+00,5.000000000000000000e+00,4.993301391601562500e+00,4.828061580657958984e+00,4.673398017883300781e+00,4.528326034545898438e+00,4.391989231109619141e+00,4.263621807098388672e+00,4.142545223236083984e+00,4.028155326843261719e+00,3.919913530349731445e+00,3.817336320877075195e+00,3.719990253448486328e+00,3.627486228942871094e+00,3.539470911026000977e+00,3.455625534057617188e+00,3.375660657882690430e+00,3.299313068389892578e+00,3.226342439651489258e+00,3.156529664993286133e+00,3.089674234390258789e+00,3.025592088699340820e+00,2.964113950729370117e+00,2.905084848403930664e+00,2.848360538482666016e+00,2.793809175491333008e+00,2.741308212280273438e+00,2.690743923187255859e+00
5.000000000000000000e+00,5.000000000000000000e+00,5.000000000000000000e+00,5.000000000000000000e+00,5.000000000000000000e+00,5.000000000000000000e+00,5.000000000000000000e+00,5.000000000000000000e+00,5.000000000000000000e+00,5.000000000000000000e+00,5.000000000000000000e+00,5.000000000000000000e+00,5.000000000000000000e+00,5.000000000000000000e+00,5.000000000000000000e+00,5.000000000000000000e+00,5.000000000000000000e+00,5.000000000000000000e+00,5.000000000000000000e+00,5.000000000000000000e+00,5.000000000000000000e+00,5.000000000000000000e+00,5.000000000000000000e+00,5.000000000000000000e+00,5.000000000000000000e+00,5.000000000000000000e+00,5.000000000000000000e+00,5.000000000000000000e+00,5.000000000000000000e+00,5.000000000000000000e+00,5.000000000000000000e+00,5.000000000000000000e+00,3.525495052337646484e+00,3.516786336898803711e+00,3.499422311782836914e+00,3.481523513793945312e+00,3.492369174957275391e+00,3.512842416763305664e+00,3.554991960525512695e+00,3.657275199890136719e+00,5.000000000000000000e+00,5.000000000000000000e+00,5.000000000000000000e+00,5.000000000000000000e+00,5.000000000000000000e+00,5.000000000000000000e+00,5.000000000000000000e+00,5.000000000000000000e+00,5.000000000000000000e+00,5.000000000000000000e+00,5.000000000000000000e+00,5.000000000000000000e+00,5.000000000000000000e+00,5.000000000000000000e+00,4.993468284606933594e+00,4.828195571899414062e+00,4.673512458801269531e+00,4.528433322906494141e+00,4.392090320587158203e+00,4.263717174530029297e+00,4.142634868621826172e+00,4.028240203857421875e+00,3.919994115829467773e+00,3.817412853240966797e+00,3.720063209533691406e+00,3.627555370330810547e+00,3.539536476135253906e+00,3.455688238143920898e+00,3.375720500946044922e+00,3.299370050430297852e+00,3.226397037506103516e+00,3.156581878662109375e+00,3.089724302291870117e+00,3.025640249252319336e+00,2.964159965515136719e+00,2.905129194259643555e+00,2.848403215408325195e+00,2.793850183486938477e+00,2.741347551345825195e+00,2.690782070159912109e+00
5.000000000000000000e+00,5.000000000000000000e+00,5.000000000000000000e+00,5.000000000000000000e+00,5.000000000000000000e+00,5.000000000000000000e+00,5.000000000000000000e+00,5.000000000000000000e+00,5.000000000000000000e+00,5.000000000000000000e+00,5.000000000000000000e+00,5.000000000000000000e+00,5.000000000000000000e+00,5.000000000000000000e+00,5.000000000000000000e+00,5.000000000000000000e+00,5.000000000000000000e+00,5.000000000000000000e+00,5.000000000000000000e+00,5.000000000000000000e+00,5.000000000000000000e+00,5.000000000000000000e+00,5.000000000000000000e+00,5.000000000000000000e+00,5.000000000000000000e+00,5.000000000000000000e+00,5.000000000000000000e+00,5.000000000000000000e+00,5.000000000000000000e+00,5.000000000000000000e+00,5.000000000000000000e+00,5.000000000000000000e+00,3.543055534362792969e+00,3.519644975662231445e+00,3.510817289352416992e+00,3.493943214416503906e+00,3.488792657852172852e+00,3.506949663162231445e+00,3.566029310226440430e+00,3.664073228836059570e+00,5.000000000000000000e+00,5.000000000000000000e+00,5.000000000000000000e+00,5.000000000000000000e+00,5.000000000000000000e+00,5.000000000000000000e+00,5.000000000000000000e+00,5.000000000000000000e+00,5.000000000000000000e+00,5.000000000000000000e+00,5.000000000000000000e+00,5.000000000000000000e+00,5.000000000000000000e+00,5.000000000000000000e+00,4.993599414825439453e+00,4.828318119049072266e+00,4.673627376556396484e+00,4.528541088104248047e+00,4.392191410064697266e+00,4.263812541961669922e+00,4.142725467681884766e+00,4.028325557708740234e+00,3.920074701309204102e+00,3.817489385604858398e+00,3.720135927200317383e+00,3.627624273300170898e+00,3.539602279663085938e+00,3.455750942230224609e+00,3.375780105590820312e+00,3.299427270889282227e+00,3.226451635360717773e+00,3.156634330749511719e+00,3.089774370193481445e+00,3.025688171386718750e+00,2.964206218719482422e+00,2.905173301696777344e+00,2.848445653915405273e+00,2.793891191482543945e+00,2.741387128829956055e+00,2.690819978713989258e+00
5.000000000000000000e+00,5.000000000000000000e+00,5.000000000000000000e+00,5.000000000000000000e+00,5.000000000000000000e+00,5.000000000000000000e+00,5.000000000000000000e+00,5.000000000000000000e+00,5.000000000000000000e+00,5.000000000000000000e+00,5.000000000000000000e+00,5.000000000000000000e+00,5.000000000000000000e+00,5.000000000000000000e+00,5.000000000000000000e+00,5.000000000000000000e+00,5.000000000000000000e+00,5.000000000000000000e+00,5.000000000000000000e+00,5.000000000000000000e+00,5.000000000000000000e+00,5.000000000000000000e+00,5.000000000000000000e+00,5.000000000000000000e+00,5.000000000000000000e+00,5.000000000000000000e+00,5.000000000000000000e+00,5.000000000000000000e+00,5.000000000000000000e+00,5.000000000000000000e+00,5.000000000000000000e+00,5.000000000000000000e+00,3.536776542663574219e+00,3.511425495147705078e+00,3.525787830352783203e+00,3.490968465805053711e+00,3.488812923431396484e+00,3.509361028671264648e+00,3.569606065750122070e+00,3.670088052749633789e+00,5.000000000000000000e+00,5.000000000000000000e+00,5.000000000000000000e+00,5.000000000000000000e+00,5.000000000000000000e+00,5.000000000000000000e+00,5.000000000000000000e+00,5.000000000000000000e+00,5.000000000000000000e+00,5.000000000000000000e+00,5.000000000000000000e+00,5.000000000000000000e+00,5.000000000000000000e+00,5.000000000000000000e+00,4.993730068206787109e+00,4.828440189361572266e+00,4.673741817474365234e+00,4.528648376464843750e+00,4.392292499542236328e+00,4.263907909393310547e+00,4.142815589904785156e+00,4.028410911560058594e+00,3.920155286788940430e+00,3.817565679550170898e+00,3.720208406448364258e+00,3.627693653106689453e+00,3.539668083190917969e+00,3.455813407897949219e+00,3.375839948654174805e+00,3.299484252929687500e+00,3.226506233215332031e+00,3.156686544418334961e+00,3.089824438095092773e+00,3.025736331939697266e+00,2.964252471923828125e+00,2.905217647552490234e+00,2.848488330841064453e+00,2.793932199478149414e+00,2.741426467895507812e+00,2.690857887268066406e+00
5.000000000000000000e+00,5.000000000000000000e+00,5.000000000000000000e+00,5.000000000000000000e+00,5.000000000000000000e+00,5.000000000000000000e+00,5.000000000000000000e+00,5.000000000000000000e+00,5.000000000000000000e+00,5.000000000000000000e+00,5.000000000000000000e+00,5.000000000000000000e+00,5.000000000000000000e+00,5.000000000000000000e+00,5.000000000000000000e+00,5.000000000000000000e+00,5.000000000000000000e+00,5.000000000000000000e+00,5.000000000000000000e+00,5.000000000000000000e+00,5.000000000000000000e+00,5.000000000000000000e+00,5.000000000000000000e+00,5.000000000000000000e+00,5.000000000000000000e+00,5.000000000000000000e+00,5.000000000000000000e+00,5.000000000000000000e+00,5.000000000000000000e+00,5.000000000000000000e+00,5.000000000000000000e+00,5.000000000000000000e+00,3.543667554855346680e+00,3.512900114059448242e+00,3.536518335342407227e+00,3.488862752914428711e+00,3.496859073638916016e+00,3.512932300567626953e+00,3.594005346298217773e+00,3.679296731948852539e+00,5.000000000000000000e+00,5.000000000000000000e+00,5.000000000000000000e+00,5.000000000000000000e+00,5.000000000000000000e+00,5.000000000000000000e+00,5.000000000000000000e+00,5.000000000000000000e+00,5.000000000000000000e+00,5.000000000000000000e+00,5.000000000000000000e+00,5.000000000000000000e+00,5.000000000000000000e+00,5.000000000000000000e+00,4.993860721588134766e+00,4.828562736511230469e+00,4.673856735229492188e+00,4.528756618499755859e+00,4.392393589019775391e+00,4.264003276824951172e+00,4.142905235290527344e+00,4.028496265411376953e+00,3.920235872268676758e+00,3.817642211914062500e+00,3.720281124114990234e+00,3.627762794494628906e+00,3.539734125137329102e+00,3.455876111984252930e+00,3.375899791717529297e+00,3.299541473388671875e+00,3.226560831069946289e+00,3.156738758087158203e+00,3.089874744415283203e+00,3.025784254074096680e+00,2.964298486709594727e+00,2.905262231826782227e+00,2.848530769348144531e+00,2.793972969055175781e+00,2.741465806961059570e+00,2.690895795822143555e+00
5.000000000000000000e+00,5.000000000000000000e+00,5.000000000000000000e+00,5.000000000000000000e+00,5.000000000000000000e+00,5.000000000000000000e+00,5.000000000000000000e+00,5.000000000000000000e+00,5.000000000000000000e+00,5.000000000000000000e+00,5.000000000000000000e+00,5.000000000000000000e+00,5.000000000000000000e+00,5.000000000000000000e+00,5.000000000000000000e+00,5.000000000000000000e+00,5.000000000000000000e+00,5.000000000000000000e+00,5.000000000000000000e+00,5.000000000000000000e+00,5.000000000000000000e+00,5.000000000000000000e+00,5.000000000000000000e+00,5.000000000000000000e+00,5.000000000000000000e+00,5.000000000000000000e+00,5.000000000000000000e+00,5.000000000000000000e+00,5.000000000000000000e+00,5.000000000000000000e+00,5.000000000000000000e+00,5.000000000000000000e+00,3.519568204879760742e+00,3.513463497161865234e+00,3.520190000534057617e+00,3.500191450119018555e+00,3.485008716583251953e+00,3.504168748855590820e+00,3.561610937118530273e+00,3.701754093170166016e+00,5.000000000000000000e+00,5.000000000000000000e+00,5.000000000000000000e+00,5.000000000000000000e+00,5.000000000000000000e+00,5.000000000000000000e+00,5.000000000000000000e+00,5.000000000000000000e+00,5.000000000000000000e+00,5.000000000000000000e+00,5.000000000000000000e+00,5.000000000000000000e+00,5.000000000000000000e+00,5.000000000000000000e+00,4.993991374969482422e+00,4.828684806823730469e+00,4.673971176147460938e+00,4.528863906860351562e+00,4.392495155334472656e+00,4.264098644256591797e+00,4.142995357513427734e+00,4.028581142425537109e+00,3.920316457748413086e+00,3.817718505859375000e+00,3.720353603363037109e+00,3.627831697463989258e+00,3.539799928665161133e+00,3.455939054489135742e+00,3.375959634780883789e+00,3.299598455429077148e+00,3.226615428924560547e+00,3.156790971755981445e+00,3.089924812316894531e+00,3.025832414627075195e+00,2.964344739913940430e+00,2.905306339263916016e+00,2.848573684692382812e+00,2.794013977050781250e+00,2.741505384445190430e+00,2.690933942794799805e+00
5.000000000000000000e+00,5.000000000000000000e+00,5.000000000000000000e+00,5.000000000000000000e+00,5.000000000000000000e+00,5.000000000000000000e+00,5.000000000000000000e+00,5.000000000000000000e+00,5.000000000000000000e+00,5.000000000000000000e+00,5.000000000000000000e+00,5.000000000000000000e+00,5.000000000000000000e+00,5.000000000000000000e+00,5.000000000000000000e+00,5.000000000000000000e+00,5.000000000000000000e+00,5.000000000000000000e+00,5.000000000000000000e+00,5.000000000000000000e+00,5.000000000000000000e+00,5.000000000000000000e+00,5.000000000000000000e+00,5.000000000000000000e+00,5.000000000000000000e+00,5.000000000000000000e+00,5.000000000000000000e+00,5.000000000000000000e+00,5.000000000000000000e+00,5.000000000000000000e+00,5.000000000000000000e+00,5.000000000000000000e+00,3.510840654373168945e+00,3.464772462844848633e+00,3.509240388870239258e+00,3.493218660354614258e+00,3.493254423141479492e+00,3.525162220001220703e+00,3.584885597229003906e+00,3.685261249542236328e+00,5.000000000000000000e+00,5.000000000000000000e+00,5.000000000000000000e+00,5.000000000000000000e+00,5.000000000000000000e+00,5.000000000000000000e+00,5.000000000000000000e+00,5.000000000000000000e+00,5.000000000000000000e+00,5.000000000000000000e+00,5.000000000000000000e+00,5.000000000000000000e+00,5.000000000000000000e+00,5.000000000000000000e+00,4.994126319885253906e+00,4.828809738159179688e+00,4.674088001251220703e+00,4.528973102569580078e+00,4.392596721649169922e+00,4.264194011688232422e+00,4.143085479736328125e+00,4.028666496276855469e+00,3.920397043228149414e+00,3.817795038223266602e+00,3.720426321029663086e+00,3.627900838851928711e+00,3.539865493774414062e+00,3.456001758575439453e+00,3.376019716262817383e+00,3.299655675888061523e+00,3.226670026779174805e+00,3.156843185424804688e+00,3.089974880218505859e+00,3.025880336761474609e+00,2.964390754699707031e+00,2.905350685119628906e+00,2.848616123199462891e+00,2.794055223464965820e+00,2.741544723510742188e+00,2.690971851348876953e+00
5.000000000000000000e+00,5.000000000000000000e+00,5.000000000000000000e+00,5.000000000000000000e+00,5.000000000000000000e+00,5.000000000000000000e+00,5.000000000000000000e+00,5.000000000000000000e+00,5.000000000000000000e+00,5.000000000000000000e+00,5.000000000000000000e+00,5.000000000000000000e+00,5.000000000000000000e+00,5.000000000000000000e+00,5.000000000000000000e+00,5.000000000000000000e+00,5.000000000000000000e+00,5.000000000000000000e+00,5.000000000000000000e+00,5.000000000000000000e+00,5.000000000000000000e+00,5.000000000000000000e+00,5.000000000000000000e+00,5.000000000000000000e+00,5.000000000000000000e+00,5.000000000000000000e+00,5.000000000000000000e+00,5.000000000000000000e+00,5.000000000000000000e+00,5.000000000000000000e+00,5.000000000000000000e+00,5.000000000000000000e+00,5.000000000000000000e+00,3.418756246566772461e+00,3.509895324707031250e+00,3.509634733200073242e+00,3.514540195465087891e+00,3.526178836822509766e+00,3.534904956817626953e+00,3.672172784805297852e+00,5.000000000000000000e+00,5.000000000000000000e+00,5.000000000000000000e+00,5.000000000000000000e+00,5.000000000000000000e+00,5.000000000000000000e+00,5.000000000000000000e+00,5.000000000000000000e+00,5.000000000000000000e+00,5.000000000000000000e+00,5.000000000000000000e+00,5.000000000000000000e+00,5.000000000000000000e+00,5.000000000000000000e+00,4.994263648986816406e+00,4.828938484191894531e+00,4.674207687377929688e+00,4.529085636138916016e+00,4.392703056335449219e+00,4.264294147491455078e+00,4.143179416656494141e+00,4.028754711151123047e+00,3.920480012893676758e+00,3.817873239517211914e+00,3.720499992370605469e+00,3.627970695495605469e+00,3.539931535720825195e+00,3.456064462661743164e+00,3.376079559326171875e+00,3.299712657928466797e+00,3.226724624633789062e+00,3.156895637512207031e+00,3.090024948120117188e+00,3.025928497314453125e+00,2.964436769485473633e+00,2.905395030975341797e+00,2.848658800125122070e+00,2.794096231460571289e+00,2.741584062576293945e+00,2.691009759902954102e+00
5.000000000000000000e+00,5.000000000000000000e+00,5.000000000000000000e+00,5.000000000000000000e+00,5.000000000000000000e+00,5.000000000000000000e+00,5.000000000000000000e+00,5.000000000000000000e+00,5.000000000000000000e+00,5.000000000000000000e+00,5.000000000000000000e+00,5.000000000000000000e+00,5.000000000000000000e+00,5.000000000000000000e+00,5.000000000000000000e+00,5.000000000000000000e+00,5.000000000000000000e+00,5.000000000000000000e+00,5.000000000000000000e+00,5.000000000000000000e+00,5.000000000000000000e+00,5.000000000000000000e+00,5.000000000000000000e+00,5.000000000000000000e+00,5.000000000000000000e+00,5.000000000000000000e+00,5.000000000000000000e+00,5.000000000000000000e+00,5.000000000000000000e+00,5.000000000000000000e+00,5.000000000000000000e+00,5.000000000000000000e+00,5.000000000000000000e+00,3.390088796615600586e+00,3.509120464324951172e+00,3.506037712097167969e+00,3.542172431945800781e+00,3.465204238891601562e+00,3.473057985305786133e+00,3.665299654006958008e+00,5.000000000000000000e+00,5.000000000000000000e+00,5.000000000000000000e+00,5.000000000000000000e+00,5.000000000000000000e+00,5.000000000000000000e+00,5.000000000000000000e+00,5.000000000000000000e+00,5.000000000000000000e+00,5.000000000000000000e+00,5.000000000000000000e+00,5.000000000000000000e+00,5.000000000000000000e+00,5.000000000000000000e+00,4.994400978088378906e+00,4.829066753387451172e+00,4.674328327178955078e+00,4.529198646545410156e+00,4.392809391021728516e+00,4.264394283294677734e+00,4.143273830413818359e+00,4.028843879699707031e+00,3.920564651489257812e+00,3.817953586578369141e+00,3.720576524734497070e+00,3.628043174743652344e+00,3.540000677108764648e+00,3.456130027770996094e+00,3.376141548156738281e+00,3.299772024154663086e+00,3.226781129837036133e+00,3.156949281692504883e+00,3.090075731277465820e+00,3.025976896286010742e+00,2.964483261108398438e+00,2.905439376831054688e+00,2.848701477050781250e+00,2.794137001037597656e+00,2.741623878479003906e+00,2.691047906875610352e+00
5.000000000000000000e+00,5.000000000000000000e+00,5.000000000000000000e+00,5.000000000000000000e+00,5.000000000000000000e+00,5.000000000000000000e+00,5.000000000000000000e+00,5.000000000000000000e+00,5.000000000000000000e+00,5.000000000000000000e+00,5.000000000000000000e+00,5.000000000000000000e+00,5.000000000000000000e+00,5.000000000000000000e+00,5.000000000000000000e+00,5.000000000000000000e+00,5.000000000000000000e+00,5.000000000000000000e+00,5.000000000000000000e+00,5.000000000000000000e+00,5.000000000000000000e+00,5.000000000000000000e+00,5.000000000000000000e+00,5.000000000000000000e+00,5.000000000000000000e+00,5.000000000000000000e+00,5.000000000000000000e+00,5.000000000000000000e+00,5.000000000000000000e+00,5.000000000000000000e+00,5.000000000000000000e+00,5.000000000000000000e+00,5.000000000000000000e+00,3.332410097122192383e+00,3.518616676330566406e+00,3.508212804794311523e+00,3.599419593811035156e+00,3.440929651260375977e+00,3.432929992675781250e+00,3.641454935073852539e+00,5.000000000000000000e+00,5.000000000000000000e+00,5.000000000000000000e+00,5.000000000000000000e+00,5.000000000000000000e+00,5.000000000000000000e+00,5.000000000000000000e+00,5.000000000000000000e+00,5.000000000000000000e+00,5.000000000000000000e+00,5.000000000000000000e+00,5.000000000000000000e+00,5.000000000000000000e+00,5.000000000000000000e+00,4.994538307189941406e+00,4.829195499420166016e+00,4.674448490142822266e+00,4.529311656951904297e+00,4.392915725708007812e+00,4.264494419097900391e+00,4.143368244171142578e+00,4.028933525085449219e+00,3.920649528503417969e+00,3.818033933639526367e+00,3.720652818679809570e+00,3.628115415573120117e+00,3.540069580078125000e+00,3.456195831298828125e+00,3.376204490661621094e+00,3.299832105636596680e+00,3.226838588714599609e+00,3.157003879547119141e+00,3.090128421783447266e+00,3.026027441024780273e+00,2.964531660079956055e+00,2.905485868453979492e+00,2.848745822906494141e+00,2.794179439544677734e+00,2.741664409637451172e+00,2.691086769104003906e+00
5.000000000000000000e+00,5.000000000000000000e+00,5.000000000000000000e+00,5.000000000000000000e+00,5.000000000000000000e+00,5.000000000000000000e+00,5.000000000000000000e+00,5.000000000000000000e+00,5.000000000000000000e+00,5.000000000000000000e+00,5.000000000000000000e+00,5.000000000000000000e+00,5.000000000000000000e+00,5.000000000000000000e+00,5.000000000000000000e+00,5.000000000000000000e+00,5.000000000000000000e+00,5.000000000000000000e+00,5.000000000000000000e+00,5.000000000000000000e+00,5.000000000000000000e+00,5.000000000000000000e+00,5.000000000000000000e+00,5.000000000000000000e+00,5.000000000000000000e+00,5.000000000000000000e+00,5.000000000000000000e+00,5.000000000000000000e+00,5.000000000000000000e+00,5.000000000000000000e+00,5.000000000000000000e+00,5.000000000000000000e+00,5.000000000000000000e+00,3.296409130096435547e+00,3.535867929458618164e+00,3.523512125015258789e+00,5.000000000000000000e+00,3.413362979888916016e+00,3.398374080657958984e+00,3.620466947555541992e+00,5.000000000000000000e+00,5.000000000000000000e+00,5.000000000000000000e+00,5.000000000000000000e+00,5.000000000000000000e+00,5.000000000000000000e+00,5.000000000000000000e+00,5.000000000000000000e+00,5.000000000000000000e+00,5.000000000000000000e+00,5.000000000000000000e+00,5.000000000000000000e+00,5.000000000000000000e+00,5.000000000000000000e+00,4.994675636291503906e+00,4.829323291778564453e+00,4.674569129943847656e+00,4.529424667358398438e+00,4.393021583557128906e+00,4.264594554901123047e+00,4.143463134765625000e+00,4.029022693634033203e+00,3.920734167098999023e+00,3.818114280700683594e+00,3.720728635787963867e+00,3.628187894821166992e+00,3.540138483047485352e+00,3.456261634826660156e+00,3.376267194747924805e+00,3.299891710281372070e+00,3.226895570755004883e+00,3.157058954238891602e+00,3.090181112289428711e+00,3.026077985763549805e+00,2.964580059051513672e+00,2.905532121658325195e+00,2.848790407180786133e+00,2.794222354888916016e+00,2.741705894470214844e+00,2.691126823425292969e+00
5.000000000000000000e+00,5.000000000000000000e+00,5.000000000000000000e+00,5.000000000000000000e+00,5.000000000000000000e+00,5.000000000000000000e+00,5.000000000000000000e+00,5.000000000000000000e+00,5.000000000000000000e+00,5.000000000000000000e+00,5.000000000000000000e+00,5.000000000000000000e+00,5.000000000000000000e+00,5.000000000000000000e+00,5.000000000000000000e+00,5.000000000000000000e+00,5.000000000000000000e+00,5.000000000000000000e+00,5.000000000000000000e+00,5.000000000000000000e+00,5.000000000000000000e+00,5.000000000000000000e+00,5.000000000000000000e+00,5.000000000000000000e+00,5.000000000000000000e+00,5.000000000000000000e+00,5.000000000000000000e+00,5.000000000000000000e+00,5.000000000000000000e+00,5.000000000000000000e+00,5.000000000000000000e+00,5.000000000000000000e+00,5.000000000000000000e+00,5.000000000000000000e+00,3.555499076843261719e+00,3.540731906890869141e+00,5.000000000000000000e+00,3.403166532516479492e+00,3.372850418090820312e+00,5.000000000000000000e+00,5.000000000000000000e+00,5.000000000000000000e+00,5.000000000000000000e+00,5.000000000000000000e+00,5.000000000000000000e+00,5.000000000000000000e+00,5.000000000000000000e+00,5.000000000000000000e+00,5.000000000000000000e+00,5.000000000000000000e+00,5.000000000000000000e+00,5.000000000000000000e+00,5.000000000000000000e+00,5.000000000000000000e+00,4.994812965393066406e+00,4.829452037811279297e+00,4.674689292907714844e+00,4.529537677764892578e+00,4.393127918243408203e+00,4.264694690704345703e+00,4.143557548522949219e+00,4.029111862182617188e+00,3.920818567276000977e+00,3.818194389343261719e+00,3.720804929733276367e+00,3.628260612487792969e+00,3.540207624435424805e+00,3.456327438354492188e+00,3.376329898834228516e+00,3.299951791763305664e+00,3.226953029632568359e+00,3.157113790512084961e+00,3.090233802795410156e+00,3.026128530502319336e+00,2.964628458023071289e+00,2.905578613281250000e+00,2.848834991455078125e+00,2.794265508651733398e+00,2.741747140884399414e+00,2.691166639328002930e+00
5.000000000000000000e+00,5.000000000000000000e+00,5.000000000000000000e+00,5.000000000000000000e+00,5.000000000000000000e+00,5.000000000000000000e+00,5.000000000000000000e+00,5.000000000000000000e+00,5.000000000000000000e+00,5.000000000000000000e+00,5.000000000000000000e+00,5.000000000000000000e+00,5.000000000000000000e+00,5.000000000000000000e+00,5.000000000000000000e+00,5.000000000000000000e+00,5.000000000000000000e+00,5.000000000000000000e+00,5.000000000000000000e+00,5.000000000000000000e+00,5.000000000000000000e+00,5.000000000000000000e+00,5.000000000000000000e+00,5.000000000000000000e+00,5.000000000000000000e+00,5.000000000000000000e+00,5.000000000000000000e+00,5.000000000000000000e+00,5.000000000000000000e+00,5.000000000000000000e+00,5.000000000000000000e+00,5.000000000000000000e+00,5.000000000000000000e+00,5.000000000000000000e+00,3.591456890106201172e+00,3.556955099105834961e+00,5.000000000000000000e+00,3.394725561141967773e+00,3.346577882766723633e+00,5.000000000000000000e+00,5.000000000000000000e+00,5.000000000000000000e+00,5.000000000000000000e+00,5.000000000000000000e+00,5.000000000000000000e+00,5.000000000000000000e+00,5.000000000000000000e+00,5.000000000000000000e+00,5.000000000000000000e+00,5.000000000000000000e+00,5.000000000000000000e+00,5.000000000000000000e+00,5.000000000000000000e+00,5.000000000000000000e+00,4.994950771331787109e+00,4.829580307006835938e+00,4.674809455871582031e+00,4.529650688171386719e+00,4.393234252929687500e+00,4.264794826507568359e+00,4.143651962280273438e+00,4.029201507568359375e+00,3.920903444290161133e+00,3.818274736404418945e+00,3.720881223678588867e+00,3.628333091735839844e+00,3.540276288986206055e+00,3.456393003463745117e+00,3.376392602920532227e+00,3.300011873245239258e+00,3.227010488510131836e+00,3.157168865203857422e+00,3.090286016464233398e+00,3.026178598403930664e+00,2.964676856994628906e+00,2.905625104904174805e+00,2.848879814147949219e+00,2.794308662414550781e+00,2.741788387298583984e+00,2.691206455230712891e+00
5.000000000000000000e+00,5.000000000000000000e+00,5.000000000000000000e+00,5.000000000000000000e+00,5.000000000000000000e+00,5.000000000000000000e+00,5.000000000000000000e+00,5.000000000000000000e+00,5.000000000000000000e+00,5.000000000000000000e+00,5.000000000000000000e+00,5.000000000000000000e+00,5.000000000000000000e+00,5.000000000000000000e+00,5.000000000000000000e+00,5.000000000000000000e+00,5.000000000000000000e+00,5.000000000000000000e+00,5.000000000000000000e+00,5.000000000000000000e+00,5.000000000000000000e+00,5.000000000000000000e+00,5.000000000000000000e+00,5.000000000000000000e+00,5.000000000000000000e+00,5.000000000000000000e+00,5.000000000000000000e+00,5.000000000000000000e+00,5.000000000000000000e+00,5.000000000000000000e+00,5.000000000000000000e+00,5.000000000000000000e+00,5.000000000000000000e+00,5.000000000000000000e+00,3.654608011245727539e+00,3.573525190353393555e+00,5.000000000000000000e+00,3.403709411621093750e+00,3.354357004165649414e+00,5.000000000000000000e+00,5.000000000000000000e+00,5.000000000000000000e+00,5.000000000000000000e+00,5.000000000000000000e+00,5.000000000000000000e+00,5.000000000000000000e+00,5.000000000000000000e+00,5.000000000000000000e+00,5.000000000000000000e+00,5.000000000000000000e+00,5.000000000000000000e+00,5.000000000000000000e+00,5.000000000000000000e+00,5.000000000000000000e+00,4.995087623596191406e+00,4.829709053039550781e+00,4.674929618835449219e+00,4.529763221740722656e+00,4.393340587615966797e+00,4.264894962310791016e+00,4.143746376037597656e+00,4.029290676116943359e+00,3.920988082885742188e+00,3.818355083465576172e+00,3.720957756042480469e+00,3.628405332565307617e+00,3.540345430374145508e+00,3.456458806991577148e+00,3.376455545425415039e+00,3.300071954727172852e+00,3.227067947387695312e+00,3.157223463058471680e+00,3.090338706970214844e+00,3.026229143142700195e+00,2.964725255966186523e+00,2.905671834945678711e+00,2.848924398422241211e+00,2.794351339340209961e+00,2.741829872131347656e+00,2.691246509552001953e+00
5.000000000000000000e+00,5.000000000000000000e+00,5.000000000000000000e+00,5.000000000000000000e+00,5.000000000000000000e+00,5.000000000000000000e+00,5.000000000000000000e+00,5.000000000000000000e+00,5.000000000000000000e+00,5.000000000000000000e+00,5.000000000000000000e+00,5.000000000000000000e+00,5.000000000000000000e+00,5.000000000000000000e+00,5.000000000000000000e+00,5.000000000000000000e+00,5.000000000000000000e+00,5.000000000000000000e+00,5.000000000000000000e+00,5.000000000000000000e+00,5.000000000000000000e+00,5.000000000000000000e+00,5.000000000000000000e+00,5.000000000000000000e+00,5.000000000000000000e+00,5.000000000000000000e+00,5.000000000000000000e+00,5.000000000000000000e+00,5.000000000000000000e+00,5.000000000000000000e+00,5.000000000000000000e+00,5.000000000000000000e+00,5.000000000000000000e+00,5.000000000000000000e+00,3.679475545883178711e+00,3.599171638488769531e+00,5.000000000000000000e+00,5.000000000000000000e+00,3.372995853424072266e+00,3.416026830673217773e+00,5.000000000000000000e+00,5.000000000000000000e+00,5.000000000000000000e+00,5.000000000000000000e+00,5.000000000000000000e+00,5.000000000000000000e+00,5.000000000000000000e+00,5.000000000000000000e+00,5.000000000000000000e+00,5.000000000000000000e+00,5.000000000000000000e+00,5.000000000000000000e+00,5.000000000000000000e+00,5.000000000000000000e+00,4.995225429534912109e+00,4.829837322235107422e+00,4.675050258636474609e+00,4.529876232147216797e+00,4.393446922302246094e+00,4.264995098114013672e+00,4.143840789794921875e+00,4.029380321502685547e+00,3.921072959899902344e+00,3.818434953689575195e+00,3.721033573150634766e+00,3.628477811813354492e+00,3.540414571762084961e+00,3.456524848937988281e+00,3.376518487930297852e+00,3.300131559371948242e+00,3.227124929428100586e+00,3.157278537750244141e+00,3.090391397476196289e+00,3.026279687881469727e+00,2.964773654937744141e+00,2.905718088150024414e+00,2.848969221115112305e+00,2.794394493103027344e+00,2.741871356964111328e+00,2.691286325454711914e+00
5.000000000000000000e+00,5.000000000000000000e+00,5.000000000000000000e+00,5.000000000000000000e+00,5.000000000000000000e+00,5.000000000000000000e+00,5.000000000000000000e+00,5.000000000000000000e+00,5.000000000000000000e+00,5.000000000000000000e+00,5.000000000000000000e+00,5.000000000000000000e+00,5.000000000000000000e+00,5.000000000000000000e+00,5.000000000000000000e+00,5.000000000000000000e+00,5.000000000000000000e+00,5.000000000000000000e+00,5.000000000000000000e+00,5.000000000000000000e+00,5.000000000000000000e+00,5.000000000000000000e+00,5.000000000000000000e+00,5.000000000000000000e+00,5.000000000000000000e+00,5.000000000000000000e+00,5.000000000000000000e+00,5.000000000000000000e+00,5.000000000000000000e+00,5.000000000000000000e+00,5.000000000000000000e+00,5.000000000000000000e+00,5.000000000000000000e+00,5.000000000000000000e+00,3.693729400634765625e+00,3.656447410583496094e+00,5.000000000000000000e+00,5.000000000000000000e+00,3.380719423294067383e+00,3.412542581558227539e+00,5.000000000000000000e+00,5.000000000000000000e+00,5.000000000000000000e+00,5.000000000000000000e+00,5.000000000000000000e+00,5.000000000000000000e+00,5.000000000000000000e+00,5.000000000000000000e+00,5.000000000000000000e+00,5.000000000000000000e+00,5.000000000000000000e+00,5.000000000000000000e+00,5.000000000000000000e+00,5.000000000000000000e+00,4.995362281799316406e+00,4.829966068267822266e+00,4.675170421600341797e+00,4.529989242553710938e+00,4.393553256988525391e+00,4.265095233917236328e+00,4.143935680389404297e+00,4.029469490051269531e+00,3.921157121658325195e+00,3.818515300750732422e+00,3.721109867095947266e+00,3.628550529479980469e+00,3.540483713150024414e+00,3.456590652465820312e+00,3.376580953598022461e+00,3.300191640853881836e+00,3.227182388305664062e+00,3.157333374023437500e+00,3.090444087982177734e+00,3.026329755783081055e+00,2.964821815490722656e+00,2.905764579772949219e+00,2.849013805389404297e+00,2.794437408447265625e+00,2.741912841796875000e+00,2.691326141357421875e+00
5.000000000000000000e+00,5.000000000000000000e+00,5.000000000000000000e+00,5.000000000000000000e+00,5.000000000000000000e+00,5.000000000000000000e+00,5.000000000000000000e+00,5.000000000000000000e+00,5.000000000000000000e+00,5.000000000000000000e+00,5.000000000000000000e+00,5.000000000000000000e+00,5.000000000000000000e+00,5.000000000000000000e+00,5.000000000000000000e+00,5.000000000000000000e+00,5.000000000000000000e+00,5.000000000000000000e+00,5.000000000000000000e+00,5.000000000000000000e+00,5.000000000000000000e+00,5.000000000000000000e+00,5.000000000000000000e+00,5.000000000000000000e+00,5.000000000000000000e+00,5.000000000000000000e+00,5.000000000000000000e+00,5.000000000000000000e+00,5.000000000000000000e+00,5.000000000000000000e+00,5.000000000000000000e+00,5.000000000000000000e+00,5.000000000000000000e+00,5.000000000000000000e+00,3.731490612030029297e+00,3.699145555496215820e+00,5.000000000000000000e+00,5.000000000000000000e+00,3.376385211944580078e+00,3.407947540283203125e+00,5.000000000000000000e+00,5.000000000000000000e+00,5.000000000000000000e+00,5.000000000000000000e+00,5.000000000000000000e+00,5.000000000000000000e+00,5.000000000000000000e+00,5.000000000000000000e+00,5.000000000000000000e+00,5.000000000000000000e+00,5.000000000000000000e+00,5.000000000000000000e+00,5.000000000000000000e+00,5.000000000000000000e+00,4.995499610900878906e+00,4.830094337463378906e+00,4.675291061401367188e+00,4.530102252960205078e+00,4.393659114837646484e+00,4.265195369720458984e+00,4.144030094146728516e+00,4.029559135437011719e+00,3.921241998672485352e+00,3.818595886230468750e+00,3.721186161041259766e+00,3.628623008728027344e+00,3.540552377700805664e+00,3.456656217575073242e+00,3.376643657684326172e+00,3.300251722335815430e+00,3.227239847183227539e+00,3.157388448715209961e+00,3.090496540069580078e+00,3.026380300521850586e+00,2.964870452880859375e+00,2.905811071395874023e+00,2.849058628082275391e+00,2.794480562210083008e+00,2.741954088211059570e+00,2.691365957260131836e+00
5.000000000000000000e+00,5.000000000000000000e+00,5.000000000000000000e+00,5.000000000000000000e+00,5.000000000000000000e+00,5.000000000000000000e+00,5.000000000000000000e+00,5.000000000000000000e+00,5.000000000000000000e+00,5.000000000000000000e+00,5.000000000000000000e+00,5.000000000000000000e+00,5.000000000000000000e+00,5.000000000000000000e+00,5.000000000000000000e+00,5.000000000000000000e+00,5.000000000000000000e+00,5.000000000000000000e+00,5.000000000000000000e+00,5.000000000000000000e+00,5.000000000000000000e+00,5.000000000000000000e+00,5.000000000000000000e+00,5.000000000000000000e+00,5.000000000000000000e+00,5.000000000000000000e+00,5.000000000000000000e+00,5.000000000000000000e+00,5.000000000000000000e+00,5.000000000000000000e+00,5.000000000000000000e+00,5.000000000000000000e+00,5.000000000000000000e+00,5.000000000000000000e+00,3.768979072570800781e+00,3.724281549453735352e+00,5.000000000000000000e+00,5.000000000000000000e+00,3.371968746185302734e+00,3.404568910598754883e+00,5.000000000000000000e+00,5.000000000000000000e+00,5.000000000000000000e+00,5.000000000000000000e+00,5.000000000000000000e+00,5.000000000000000000e+00,5.000000000000000000e+00,5.000000000000000000e+00,5.000000000000000000e+00,5.000000000000000000e+00,5.000000000000000000e+00,5.000000000000000000e+00,5.000000000000000000e+00,5.000000000000000000e+00,4.995637416839599609e+00,4.830222606658935547e+00,4.675411224365234375e+00,4.530215263366699219e+00,4.393765926361083984e+00,4.265295505523681641e+00,4.144124507904052734e+00,4.029648303985595703e+00,3.921326637268066406e+00,3.818676233291625977e+00,3.721262693405151367e+00,3.628695249557495117e+00,3.540621519088745117e+00,3.456722021102905273e+00,3.376706600189208984e+00,3.300311803817749023e+00,3.227296829223632812e+00,3.157443046569824219e+00,3.090549230575561523e+00,3.026430845260620117e+00,2.964918851852416992e+00,2.905857801437377930e+00,2.849103212356567383e+00,2.794523239135742188e+00,2.741995573043823242e+00,2.691406011581420898e+00
5.000000000000000000e+00,5.000000000000000000e+00,5.000000000000000000e+00,5.000000000000000000e+00,5.000000000000000000e+00,5.000000000000000000e+00,5.000000000000000000e+00,5.000000000000000000e+00,5.000000000000000000e+00,5.000000000000000000e+00,5.000000000000000000e+00,5.000000000000000000e+00,5.000000000000000000e+00,5.000000000000000000e+00,5.000000000000000000e+00,5.000000000000000000e+00,5.000000000000000000e+00,5.000000000000000000e+00,5.000000000000000000e+00,5.000000000000000000e+00,5.000000000000000000e+00,5.000000000000000000e+00,5.000000000000000000e+00,5.000000000000000000e+00,5.000000000000000000e+00,5.000000000000000000e+00,5.000000000000000000e+00,5.000000000000000000e+00,5.000000000000000000e+00,5.000000000000000000e+00,5.000000000000000000e+00,5.000000000000000000e+00,5.000000000000000000e+00,5.000000000000000000e+00,5.000000000000000000e+00,3.750331401824951172e+00,5.000000000000000000e+00,5.000000000000000000e+00,3.369864463806152344e+00,3.405631065368652344e+00,5.000000000000000000e+00,5.000000000000000000e+00,5.000000000000000000e+00,5.000000000000000000e+00,5.000000000000000000e+00,5.000000000000000000e+00,5.000000000000000000e+00,5.000000000000000000e+00,5.000000000000000000e+00,5.000000000000000000e+00,5.000000000000000000e+00,5.000000000000000000e+00,5.000000000000000000e+00,5.000000000000000000e+00,4.995774269104003906e+00,4.830350875854492188e+00,4.675531864166259766e+00,4.530328273773193359e+00,4.393871784210205078e+00,4.265396118164062500e+00,4.144219398498535156e+00,4.029737949371337891e+00,3.921411514282226562e+00,3.818756103515625000e+00,3.721338510513305664e+00,3.628767967224121094e+00,3.540690660476684570e+00,3.456787824630737305e+00,3.376769542694091797e+00,3.300371646881103516e+00,3.227354288101196289e+00,3.157498121261596680e+00,3.090601682662963867e+00,3.026481389999389648e+00,2.964967250823974609e+00,2.905904054641723633e+00,2.849147796630859375e+00,2.794566392898559570e+00,2.742037057876586914e+00,2.691445827484130859e+00
5.000000000000000000e+00,5.000000000000000000e+00,5.000000000000000000e+00,5.000000000000000000e+00,5.000000000000000000e+00,5.000000000000000000e+00,5.000000000000000000e+00,5.000000000000000000e+00,5.000000000000000000e+00,5.000000000000000000e+00,5.000000000000000000e+00,5.000000000000000000e+00,5.000000000000000000e+00,5.000000000000000000e+00,5.000000000000000000e+00,5.000000000000000000e+00,5.000000000000000000e+00,5.000000000000000000e+00,5.000000000000000000e+00,5.000000000000000000e+00,5.000000000000000000e+00,5.000000000000000000e+00,5.000000000000000000e+00,5.000000000000000000e+00,5.000000000000000000e+00,5.000000000000000000e+00,5.000000000000000000e+00,5.000000000000000000e+00,5.000000000000000000e+00,5.000000000000000000e+00,5.000000000000000000e+00,5.000000000000000000e+00,5.000000000000000000e+00,5.000000000000000000e+00,5.000000000000000000e+00,3.790963649749755859e+00,5.000000000000000000e+00,5.000000000000000000e+00,3.372469425201416016e+00,3.407358884811401367e+00,5.000000000000000000e+00,5.000000000000000000e+00,5.000000000000000000e+00,5.000000000000000000e+00,5.000000000000000000e+00,5.000000000000000000e+00,5.000000000000000000e+00,5.000000000000000000e+00,5.000000000000000000e+00,5.000000000000000000e+00,5.000000000000000000e+00,5.000000000000000000e+00,5.000000000000000000e+00,5.000000000000000000e+00,4.995912075042724609e+00,4.830479621887207031e+00,4.675652027130126953e+00,4.530441284179687500e+00,4.393978595733642578e+00,4.265495777130126953e+00,4.144313812255859375e+00,4.029827117919921875e+00,3.921495914459228516e+00,3.818836450576782227e+00,3.721414804458618164e+00,3.628840446472167969e+00,3.540759801864624023e+00,3.456853389739990234e+00,3.376832008361816406e+00,3.300431489944458008e+00,3.227411746978759766e+00,3.157552957534790039e+00,3.090654373168945312e+00,3.026531457901000977e+00,2.965015649795532227e+00,2.905950546264648438e+00,2.849192619323730469e+00,2.794609546661376953e+00,2.742078304290771484e+00,2.691485643386840820e+00
4.871544837951660156e+00,4.870333194732666016e+00,4.869122028350830078e+00,4.867911815643310547e+00,4.866702079772949219e+00,4.865492820739746094e+00,4.864284515380859375e+00,4.863076210021972656e+00,4.861869335174560547e+00,4.860662460327148438e+00,4.859456539154052734e+00,4.858250617980957031e+00,4.857045650482177734e+00,4.855841636657714844e+00,4.854638099670410156e+00,4.853434562683105469e+00,4.852231979370117188e+00,4.851030349731445312e+00,4.849829196929931641e+00,4.848628520965576172e+00,4.847428321838378906e+00,4.846229076385498047e+00,4.845029830932617188e+00,4.843831539154052734e+00,4.842633724212646484e+00,4.841436386108398438e+00,4.840240001678466797e+00,4.839043617248535156e+00,4.837848186492919922e+00,4.836653232574462891e+00,4.835459232330322266e+00,4.834265708923339844e+00,4.833072662353515625e+00,4.831880092620849609e+00,4.830688476562500000e+00,3.789080142974853516e+00,4.828306198120117188e+00,4.827116012573242188e+00,3.373917818069458008e+00,3.331069469451904297e+00,4.823549270629882812e+00,4.822361469268798828e+00,4.821174144744873047e+00,4.819987773895263672e+00,4.818801879882812500e+00,4.817616462707519531e+00,4.816431522369384766e+00,4.815247535705566406e+00,4.814063549041748047e+00,4.812880516052246094e+00,4.811697959899902344e+00,4.810515880584716797e+00,4.809334754943847656e+00,4.808153629302978516e+00,4.806973457336425781e+00,4.805793762207031250e+00,4.675772666931152344e+00,4.530554294586181641e+00,4.394084453582763672e+00,4.265596389770507812e+00,4.144408226013183594e+00,4.029916763305664062e+00,3.921580553054809570e+00,3.818917036056518555e+00,3.721491336822509766e+00,3.628913164138793945e+00,3.540828466415405273e+00,3.456919193267822266e+00,3.376894950866699219e+00,3.300491571426391602e+00,3.227469205856323242e+00,3.157608032226562500e+00,3.090706825256347656e+00,3.026582002639770508e+00,2.965064048767089844e+00,2.905997037887573242e+00,2.849237442016601562e+00,2.794652223587036133e+00,2.742119550704956055e+00,2.691525459289550781e+00
3.776066780090332031e+00,3.775338888168334961e+00,3.774610996246337891e+00,3.773883819580078125e+00,3.773156404495239258e+00,3.772429704666137695e+00,3.771703481674194336e+00,3.770976781845092773e+00,3.770251035690307617e+00,3.769525527954101562e+00,3.768799781799316406e+00,3.768074750900268555e+00,3.767349720001220703e+00,3.766625404357910156e+00,3.765901088714599609e+00,3.765177011489868164e+00,3.764453172683715820e+00,3.763729572296142578e+00,3.763006448745727539e+00,3.762283802032470703e+00,3.761560916900634766e+00,3.760838747024536133e+00,3.760116815567016602e+00,3.759394645690917969e+00,3.758673191070556641e+00,3.757951736450195312e+00,3.757230997085571289e+00,3.756510496139526367e+00,3.755789756774902344e+00,3.755069732666015625e+00,3.754349708557128906e+00,3.753630161285400391e+00,3.752910852432250977e+00,3.752191543579101562e+00,3.751472949981689453e+00,3.716686010360717773e+00,3.703247547149658203e+00,3.749318361282348633e+00,3.398592233657836914e+00,3.747883319854736328e+00,3.747166395187377930e+00,3.746449232101440430e+00,3.745732784271240234e+00,3.745016098022460938e+00,3.744300365447998047e+00,3.743584871292114258e+00,3.742869138717651367e+00,3.742153882980346680e+00,3.741438865661621094e+00,3.740724325180053711e+00,3.740010023117065430e+00,3.739295721054077148e+00,3.738582134246826172e+00,3.737868785858154297e+00,3.737155199050903320e+00,3.736442327499389648e+00,3.735729217529296875e+00,3.735016822814941406e+00,3.734304904937744141e+00,3.733592748641967773e+00,3.732881307601928711e+00,3.732169628143310547e+00,3.731458663940429688e+00,3.730747938156127930e+00,3.721567153930664062e+00,3.628985166549682617e+00,3.540897607803344727e+00,3.456985235214233398e+00,3.376957654953002930e+00,3.300551652908325195e+00,3.227526426315307617e+00,3.157662630081176758e+00,3.090759515762329102e+00,3.026632547378540039e+00,2.965112447738647461e+00,2.906043767929077148e+00,2.849282026290893555e+00,2.794695377349853516e+00,2.742161035537719727e+00,2.691565513610839844e+00
3.082823514938354492e+00,3.082338571548461914e+00,3.081853628158569336e+00,3.081368446350097656e+00,3.080883741378784180e+00,3.080399036407470703e+00,3.079914808273315430e+00,3.079430580139160156e+00,3.078946113586425781e+00,3.078462362289428711e+00,3.077978610992431641e+00,3.077494621276855469e+00,3.077011346817016602e+00,3.076527595520019531e+00,3.076044559478759766e+00,3.075561523437500000e+00,3.075078487396240234e+00,3.074595689773559570e+00,3.074112892150878906e+00,3.073630571365356445e+00,3.073148488998413086e+00,3.072666168212890625e+00,3.072184085845947266e+00,3.071702480316162109e+00,3.071220397949218750e+00,3.070739030838012695e+00,3.070257425308227539e+00,3.069776296615600586e+00,3.069295167922973633e+00,3.068814039230346680e+00,3.068333387374877930e+00,3.067852497100830078e+00,3.067372083663940430e+00,3.066891908645629883e+00,3.066411495208740234e+00,3.065931558609008789e+00,3.065451622009277344e+00,3.064971923828125000e+00,3.064492464065551758e+00,3.064012765884399414e+00,3.063533544540405273e+00,3.063054561614990234e+00,3.062575340270996094e+00,3.062096595764160156e+00,3.061617612838745117e+00,3.061139345169067383e+00,3.060660839080810547e+00,3.060182571411132812e+00,3.059704542160034180e+00,3.059226274490356445e+00,3.058748722076416016e+00,3.058271169662475586e+00,3.057793378829956055e+00,3.057316064834594727e+00,3.056838989257812500e+00,3.056361675262451172e+00,3.055884838104248047e+00,3.055408000946044922e+00,3.054931402206420898e+00,3.054455041885375977e+00,3.053978681564331055e+00,3.053502559661865234e+00,3.053026199340820312e+00,3.052550554275512695e+00,3.052074909210205078e+00,3.051599025726318359e+00,3.051123857498168945e+00,3.050648689270019531e+00,3.050173282623291016e+00,3.049698352813720703e+00,3.049223423004150391e+00,3.048748731613159180e+00,3.048274278640747070e+00,3.026683092117309570e+00,2.965160608291625977e+00,2.906090021133422852e+00,2.849326610565185547e+00,2.794738531112670898e+00,2.742202520370483398e+00,2.691605329513549805e+00
2.604641199111938477e+00,2.604294538497924805e+00,2.603948354721069336e+00,2.603602170944213867e+00,2.603255987167358398e+00,2.602910041809082031e+00,2.602564096450805664e+00,2.602218389511108398e+00,2.601872682571411133e+00,2.601526975631713867e+00,2.601181507110595703e+00,2.600836038589477539e+00,2.600490570068359375e+00,2.600145339965820312e+00,2.599800109863281250e+00,2.599455118179321289e+00,2.599110126495361328e+00,2.598765134811401367e+00,2.598420381546020508e+00,2.598075628280639648e+00,2.597731113433837891e+00,2.597386598587036133e+00,2.597042083740234375e+00,2.596697807312011719e+00,2.596353292465209961e+00,2.596009254455566406e+00,2.595665216445922852e+00,2.595321178436279297e+00,2.594977378845214844e+00,2.594633579254150391e+00,2.594289779663085938e+00,2.593946218490600586e+00,2.593602418899536133e+00,2.593259096145629883e+00,2.592915773391723633e+00,2.592572450637817383e+00,2.592229366302490234e+00,2.591886281967163086e+00,2.591543197631835938e+00,2.591200351715087891e+00,2.590857505798339844e+00,2.590514898300170898e+00,2.590172290802001953e+00,2.589829683303833008e+00,2.589487314224243164e+00,2.589144945144653320e+00,2.588802576065063477e+00,2.588460445404052734e+00,2.588118314743041992e+00,2.587776422500610352e+00,2.587434530258178711e+00,2.587092638015747070e+00,2.586750984191894531e+00,2.586409330368041992e+00,2.586067914962768555e+00,2.585726499557495117e+00,2.585385084152221680e+00,2.585043907165527344e+00,2.584702491760253906e+00,2.584361553192138672e+00,2.584020614624023438e+00,2.583679676055908203e+00,2.583338737487792969e+00,2.582998037338256836e+00,2.582657337188720703e+00,2.582316875457763672e+00,2.581976413726806641e+00,2.581635951995849609e+00,2.581295967102050781e+00,2.580955505371093750e+00,2.580615520477294922e+00,2.580275297164916992e+00,2.579935550689697266e+00,2.579595804214477539e+00,2.579255819320678711e+00,2.578916311264038086e+00,2.578576564788818359e+00,2.578237295150756836e+00,2.577898025512695312e+00,2.577558517456054688e+00
2.254882097244262695e+00,2.254622459411621094e+00,2.254362821578979492e+00,2.254103422164916992e+00,2.253844022750854492e+00,2.253584623336791992e+00,2.253325462341308594e+00,2.253066062927246094e+00,2.252806901931762695e+00,2.252547740936279297e+00,2.252288818359375000e+00,2.252029657363891602e+00,2.251770734786987305e+00,2.251511812210083008e+00,2.251253128051757812e+00,2.250994205474853516e+00,2.250735521316528320e+00,2.250477075576782227e+00,2.250218391418457031e+00,2.249959945678710938e+00,2.249701261520385742e+00,2.249443054199218750e+00,2.249184608459472656e+00,2.248926401138305664e+00,2.248668193817138672e+00,2.248409986495971680e+00,2.248151779174804688e+00,2.247893810272216797e+00,2.247635841369628906e+00,2.247377872467041016e+00,2.247120141983032227e+00,2.246862173080444336e+00,2.246604442596435547e+00,2.246346712112426758e+00,2.246089220046997070e+00,2.245831489562988281e+00,2.245573997497558594e+00,2.245316505432128906e+00,2.245059013366699219e+00,2.244801759719848633e+00,2.244544506072998047e+00,2.244287252426147461e+00,2.244030237197875977e+00,2.243772983551025391e+00,2.243515968322753906e+00,2.243258953094482422e+00,2.243001937866210938e+00,2.242745161056518555e+00,2.242488384246826172e+00,2.242231607437133789e+00,2.241974830627441406e+00,2.241718292236328125e+00,2.241461753845214844e+00,2.241205215454101562e+00,2.240948677062988281e+00,2.240692377090454102e+00,2.240436077117919922e+00,2.240179777145385742e+00,2.239923477172851562e+00,2.239667177200317383e+00,2.239411115646362305e+00,2.239155292510986328e+00,2.238899230957031250e+00,2.238643169403076172e+00,2.238387346267700195e+00,2.238131523132324219e+00,2.237875699996948242e+00,2.237620115280151367e+00,2.237364530563354492e+00,2.237108945846557617e+00,2.236853361129760742e+00,2.236598014831542969e+00,2.236342430114746094e+00,2.236087083816528320e+00,2.235831975936889648e+00,2.235576629638671875e+00,2.235321521759033203e+00,2.235066175460815430e+00,2.234811305999755859e+00,2.234556198120117188e+00
1.987941622734069824e+00,1.987739086151123047e+00,1.987536311149597168e+00,1.987333893775939941e+00,1.987131476402282715e+00,1.986929059028625488e+00,1.986726760864257812e+00,1.986524462699890137e+00,1.986322879791259766e+00,1.986121535301208496e+00,1.985920071601867676e+00,1.985718727111816406e+00,1.985517501831054688e+00,1.985316157341003418e+00,1.985114812850952148e+00,1.984913825988769531e+00,1.984712600708007812e+00,1.984511375427246094e+00,1.984310507774353027e+00,1.984109401702880859e+00,1.983908295631408691e+00,1.983707308769226074e+00,1.983506560325622559e+00,1.983305573463439941e+00,1.983104705810546875e+00,1.982904076576232910e+00,1.982703208923339844e+00,1.982502460479736328e+00,1.982301950454711914e+00,1.982101202011108398e+00,1.981900572776794434e+00,1.981700181961059570e+00,1.981499552726745605e+00,1.981299042701721191e+00,1.981098532676696777e+00,1.980898261070251465e+00,1.980697870254516602e+00,1.980497479438781738e+00,1.980297446250915527e+00,1.980097055435180664e+00,1.979896903038024902e+00,1.979696869850158691e+00,1.979496717453002930e+00,1.979296565055847168e+00,1.979096651077270508e+00,1.978896617889404297e+00,1.978696584701538086e+00,1.978496670722961426e+00,1.978296875953674316e+00,1.978097081184387207e+00,1.977897167205810547e+00,1.977697610855102539e+00,1.977497816085815430e+00,1.977298021316528320e+00,1.977098584175109863e+00,1.976898908615112305e+00,1.976699352264404297e+00,1.976500034332275391e+00,1.976300477981567383e+00,1.976100921630859375e+00,1.975901484489440918e+00,1.975702285766601562e+00,1.975502967834472656e+00,1.975303649902343750e+00,1.975104570388793945e+00,1.974905371665954590e+00,1.974706053733825684e+00,1.974507212638854980e+00,1.974308013916015625e+00,1.974108934402465820e+00,1.973910093307495117e+00,1.973711133003234863e+00,1.973512172698974609e+00,1.973313212394714355e+00,1.973114609718322754e+00,1.972915768623352051e+00,1.972716927528381348e+00,1.972518324851989746e+00,1.972319602966308594e+00,1.972121000289916992e+00
1.777514219284057617e+00,1.777352333068847656e+00,1.777190446853637695e+00,1.777028322219848633e+00,1.776866436004638672e+00,1.776704668998718262e+00,1.776542901992797852e+00,1.776380896568298340e+00,1.776219248771667480e+00,1.776057481765747070e+00,1.775895833969116211e+00,1.775734186172485352e+00,1.775572299957275391e+00,1.775410771369934082e+00,1.775249242782592773e+00,1.775088071823120117e+00,1.774927139282226562e+00,1.774766206741333008e+00,1.774605512619018555e+00,1.774444699287414551e+00,1.774283885955810547e+00,1.774123191833496094e+00,1.773962497711181641e+00,1.773801684379577637e+00,1.773641228675842285e+00,1.773480534553527832e+00,1.773319840431213379e+00,1.773159265518188477e+00,1.772998809814453125e+00,1.772838234901428223e+00,1.772677779197692871e+00,1.772517442703247070e+00,1.772356986999511719e+00,1.772196531295776367e+00,1.772036314010620117e+00,1.771875858306884766e+00,1.771715521812438965e+00,1.771555423736572266e+00,1.771395087242126465e+00,1.771234869956970215e+00,1.771074533462524414e+00,1.770914554595947266e+00,1.770754337310791016e+00,1.770594239234924316e+00,1.770434260368347168e+00,1.770274162292480469e+00,1.770114064216613770e+00,1.769954204559326172e+00,1.769794225692749023e+00,1.769634246826171875e+00,1.769474506378173828e+00,1.769314527511596680e+00,1.769154667854309082e+00,1.768994808197021484e+00,1.768835186958312988e+00,1.768675327301025391e+00,1.768515586853027344e+00,1.768355965614318848e+00,1.768196225166320801e+00,1.768036603927612305e+00,1.767877101898193359e+00,1.767717480659484863e+00,1.767557859420776367e+00,1.767398476600646973e+00,1.767238974571228027e+00,1.767079353332519531e+00,1.766919970512390137e+00,1.766760587692260742e+00,1.766601204872131348e+00,1.766441822052001953e+00,1.766282558441162109e+00,1.766123294830322266e+00,1.765963912010192871e+00,1.765804886817932129e+00,1.765645623207092285e+00,1.765486359596252441e+00,1.765327334403991699e+00,1.765168190002441406e+00,1.765009045600891113e+00,1.764850020408630371e+00
1.607370972633361816e+00,1.607238531112670898e+00,1.607106208801269531e+00,1.606973767280578613e+00,1.606841325759887695e+00,1.606709003448486328e+00,1.606576681137084961e+00,1.606444358825683594e+00,1.606311917304992676e+00,1.606179714202880859e+00,1.606047391891479492e+00,1.605915188789367676e+00,1.605782866477966309e+00,1.605650663375854492e+00,1.605518579483032227e+00,1.605386495590209961e+00,1.605254292488098145e+00,1.605122089385986328e+00,1.604990005493164062e+00,1.604858040809631348e+00,1.604725956916809082e+00,1.604593873023986816e+00,1.604461908340454102e+00,1.604330420494079590e+00,1.604199051856994629e+00,1.604067683219909668e+00,1.603936195373535156e+00,1.603804945945739746e+00,1.603673577308654785e+00,1.603542208671569824e+00,1.603411078453063965e+00,1.603279709815979004e+00,1.603148460388183594e+00,1.603017330169677734e+00,1.602886080741882324e+00,1.602754831314086914e+00,1.602623701095581055e+00,1.602492570877075195e+00,1.602361440658569336e+00,1.602230310440063477e+00,1.602099299430847168e+00,1.601968288421630859e+00,1.601837158203125000e+00,1.601706266403198242e+00,1.601575255393981934e+00,1.601444244384765625e+00,1.601313352584838867e+00,1.601182341575622559e+00,1.601051449775695801e+00,1.600920557975769043e+00,1.600789785385131836e+00,1.600658893585205078e+00,1.600528001785278320e+00,1.600397348403930664e+00,1.600266456604003906e+00,1.600135684013366699e+00,1.600005030632019043e+00,1.599874258041381836e+00,1.599743604660034180e+00,1.599612951278686523e+00,1.599482297897338867e+00,1.599351644515991211e+00,1.599220991134643555e+00,1.599090456962585449e+00,1.598959922790527344e+00,1.598829269409179688e+00,1.598698854446411133e+00,1.598568320274353027e+00,1.598437786102294922e+00,1.598307490348815918e+00,1.598176956176757812e+00,1.598046541213989258e+00,1.597916245460510254e+00,1.597785830497741699e+00,1.597655415534973145e+00,1.597525119781494141e+00,1.597394824028015137e+00,1.597264528274536133e+00,1.597134232521057129e+00,1.597004055976867676e+00
1.466954469680786133e+00,1.466844201087951660e+00,1.466733813285827637e+00,1.466623544692993164e+00,1.466513276100158691e+00,1.466403007507324219e+00,1.466292738914489746e+00,1.466182589530944824e+00,1.466072320938110352e+00,1.465962052345275879e+00,1.465851902961730957e+00,1.465741753578186035e+00,1.465631723403930664e+00,1.465521454811096191e+00,1.465411305427551270e+00,1.465301275253295898e+00,1.465191245079040527e+00,1.465081095695495605e+00,1.464971065521240234e+00,1.464861035346984863e+00,1.464751005172729492e+00,1.464641094207763672e+00,1.464530944824218750e+00,1.464421033859252930e+00,1.464311122894287109e+00,1.464201211929321289e+00,1.464091181755065918e+00,1.463981389999389648e+00,1.463871479034423828e+00,1.463761687278747559e+00,1.463651895523071289e+00,1.463542580604553223e+00,1.463433146476745605e+00,1.463323831558227539e+00,1.463214516639709473e+00,1.463105082511901855e+00,1.462995886802673340e+00,1.462886571884155273e+00,1.462777256965637207e+00,1.462668180465698242e+00,1.462558865547180176e+00,1.462449550628662109e+00,1.462340354919433594e+00,1.462231278419494629e+00,1.462122082710266113e+00,1.462012887001037598e+00,1.461903810501098633e+00,1.461794614791870117e+00,1.461685538291931152e+00,1.461576461791992188e+00,1.461467385292053223e+00,1.461358308792114258e+00,1.461249351501464844e+00,1.461140275001525879e+00,1.461031198501586914e+00,1.460922241210937500e+00,1.460813283920288086e+00,1.460704326629638672e+00,1.460595369338989258e+00,1.460486531257629395e+00,1.460377573966979980e+00,1.460268616676330566e+00,1.460159897804260254e+00,1.460050940513610840e+00,1.459942102432250977e+00,1.459833383560180664e+00,1.459724426269531250e+00,1.459615588188171387e+00,1.459506869316101074e+00,1.459398150444030762e+00,1.459289312362670898e+00,1.459180593490600586e+00,1.459071993827819824e+00,1.458963274955749512e+00,1.458854556083679199e+00,1.458745956420898438e+00,1.458637237548828125e+00,1.458528518676757812e+00,1.458420038223266602e+00,1.458311438560485840e+00
1.349099874496459961e+00,1.349006533622741699e+00,1.348913311958312988e+00,1.348820090293884277e+00,1.348726749420166016e+00,1.348633408546447754e+00,1.348540186882019043e+00,1.348446965217590332e+00,1.348353862762451172e+00,1.348260521888732910e+00,1.348167300224304199e+00,1.348074197769165039e+00,1.347980976104736328e+00,1.347887873649597168e+00,1.347794651985168457e+00,1.347701549530029297e+00,1.347608447074890137e+00,1.347515344619750977e+00,1.347422242164611816e+00,1.347329139709472656e+00,1.347236156463623047e+00,1.347143054008483887e+00,1.347049951553344727e+00,1.346956968307495117e+00,1.346863985061645508e+00,1.346771001815795898e+00,1.346678018569946289e+00,1.346584916114807129e+00,1.346492052078247070e+00,1.346399068832397461e+00,1.346306204795837402e+00,1.346213221549987793e+00,1.346120238304138184e+00,1.346027374267578125e+00,1.345934510231018066e+00,1.345841646194458008e+00,1.345748782157897949e+00,1.345655918121337891e+00,1.345563292503356934e+00,1.345470905303955078e+00,1.345378518104553223e+00,1.345286011695861816e+00,1.345193624496459961e+00,1.345101237297058105e+00,1.345008850097656250e+00,1.344916582107543945e+00,1.344824194908142090e+00,1.344731807708740234e+00,1.344639420509338379e+00,1.344547152519226074e+00,1.344454765319824219e+00,1.344362497329711914e+00,1.344270348548889160e+00,1.344177961349487305e+00,1.344085693359375000e+00,1.343993544578552246e+00,1.343901276588439941e+00,1.343809008598327637e+00,1.343716859817504883e+00,1.343624711036682129e+00,1.343532443046569824e+00,1.343440294265747070e+00,1.343348145484924316e+00,1.343255996704101562e+00,1.343163847923278809e+00,1.343071818351745605e+00,1.342979669570922852e+00,1.342887520790100098e+00,1.342795491218566895e+00,1.342703461647033691e+00,1.342611312866210938e+00,1.342519402503967285e+00,1.342427253723144531e+00,1.342335224151611328e+00,1.342243194580078125e+00,1.342151284217834473e+00,1.342059254646301270e+00,1.341967344284057617e+00,1.341875433921813965e+00,1.341783404350280762e+00
1.248773932456970215e+00,1.248693943023681641e+00,1.248614072799682617e+00,1.248534083366394043e+00,1.248454213142395020e+00,1.248374223709106445e+00,1.248294353485107422e+00,1.248214483261108398e+00,1.248134613037109375e+00,1.248054742813110352e+00,1.247974872589111328e+00,1.247895002365112305e+00,1.247815251350402832e+00,1.247735381126403809e+00,1.247655510902404785e+00,1.247575759887695312e+00,1.247495889663696289e+00,1.247416138648986816e+00,1.247336268424987793e+00,1.247256517410278320e+00,1.247176885604858398e+00,1.247097134590148926e+00,1.247017383575439453e+00,1.246937632560729980e+00,1.246857881546020508e+00,1.246778249740600586e+00,1.246698498725891113e+00,1.246618747711181641e+00,1.246539115905761719e+00,1.246459484100341797e+00,1.246379852294921875e+00,1.246300220489501953e+00,1.246220469474792480e+00,1.246140837669372559e+00,1.246061325073242188e+00,1.245981693267822266e+00,1.245902061462402344e+00,1.245822429656982422e+00,1.245742917060852051e+00,1.245663404464721680e+00,1.245583772659301758e+00,1.245504260063171387e+00,1.245424747467041016e+00,1.245345234870910645e+00,1.245265722274780273e+00,1.245186209678649902e+00,1.245107054710388184e+00,1.245027899742126465e+00,1.244948744773864746e+00,1.244869589805603027e+00,1.244790434837341309e+00,1.244711399078369141e+00,1.244632244110107422e+00,1.244553089141845703e+00,1.244474053382873535e+00,1.244395017623901367e+00,1.244315862655639648e+00,1.244236826896667480e+00,1.244157791137695312e+00,1.244078755378723145e+00,1.243999719619750977e+00,1.243920803070068359e+00,1.243841767311096191e+00,1.243762731552124023e+00,1.243683815002441406e+00,1.243604779243469238e+00,1.243525743484497070e+00,1.243446946144104004e+00,1.243367910385131836e+00,1.243288993835449219e+00,1.243209958076477051e+00,1.243131160736083984e+00,1.243052244186401367e+00,1.242973327636718750e+00,1.242894530296325684e+00,1.242815613746643066e+00,1.242736697196960449e+00,1.242657899856567383e+00,1.242578983306884766e+00,1.242500185966491699e+00
1.162336707115173340e+00,1.162267327308654785e+00,1.162198066711425781e+00,1.162128925323486328e+00,1.162059664726257324e+00,1.161990404129028320e+00,1.161921143531799316e+00,1.161851882934570312e+00,1.161782741546630859e+00,1.161713600158691406e+00,1.161644339561462402e+00,1.161575198173522949e+00,1.161505937576293945e+00,1.161436796188354492e+00,1.161367654800415039e+00,1.161298513412475586e+00,1.161229372024536133e+00,1.161160230636596680e+00,1.161091089248657227e+00,1.161021947860717773e+00,1.160952806472778320e+00,1.160883784294128418e+00,1.160814642906188965e+00,1.160745501518249512e+00,1.160676479339599609e+00,1.160607457160949707e+00,1.160538315773010254e+00,1.160469293594360352e+00,1.160400271415710449e+00,1.160331249237060547e+00,1.160262227058410645e+00,1.160193204879760742e+00,1.160124063491821289e+00,1.160055160522460938e+00,1.159986138343811035e+00,1.159917235374450684e+00,1.159848213195800781e+00,1.159779191017150879e+00,1.159710288047790527e+00,1.159641265869140625e+00,1.159572362899780273e+00,1.159503340721130371e+00,1.159434437751770020e+00,1.159365534782409668e+00,1.159296631813049316e+00,1.159227728843688965e+00,1.159158825874328613e+00,1.159089922904968262e+00,1.159021019935607910e+00,1.158952236175537109e+00,1.158883213996887207e+00,1.158814430236816406e+00,1.158745646476745605e+00,1.158676862716674805e+00,1.158608317375183105e+00,1.158539772033691406e+00,1.158471226692199707e+00,1.158402800559997559e+00,1.158334255218505859e+00,1.158265709877014160e+00,1.158197283744812012e+00,1.158128738403320312e+00,1.158060193061828613e+00,1.157991766929626465e+00,1.157923340797424316e+00,1.157854795455932617e+00,1.157786369323730469e+00,1.157717943191528320e+00,1.157649517059326172e+00,1.157581090927124023e+00,1.157512664794921875e+00,1.157444238662719727e+00,1.157375812530517578e+00,1.157307505607604980e+00,1.157239079475402832e+00,1.157170653343200684e+00,1.157102346420288086e+00,1.157034039497375488e+00,1.156965613365173340e+00,1.156897187232971191e+00
1.087090730667114258e+00,1.087030053138732910e+00,1.086969494819641113e+00,1.086908936500549316e+00,1.086848378181457520e+00,1.086787819862365723e+00,1.086727142333984375e+00,1.086666703224182129e+00,1.086606144905090332e+00,1.086545586585998535e+00,1.086485147476196289e+00,1.086424469947814941e+00,1.086364030838012695e+00,1.086303472518920898e+00,1.086243033409118652e+00,1.086182475090026855e+00,1.086122035980224609e+00,1.086061596870422363e+00,1.086001157760620117e+00,1.085940599441528320e+00,1.085880160331726074e+00,1.085819721221923828e+00,1.085759282112121582e+00,1.085698843002319336e+00,1.085638403892517090e+00,1.085577964782714844e+00,1.085517525672912598e+00,1.085457086563110352e+00,1.085396647453308105e+00,1.085336327552795410e+00,1.085275888442993164e+00,1.085215568542480469e+00,1.085155129432678223e+00,1.085094809532165527e+00,1.085034370422363281e+00,1.084974050521850586e+00,1.084913730621337891e+00,1.084853291511535645e+00,1.084792971611022949e+00,1.084732651710510254e+00,1.084672331809997559e+00,1.084612011909484863e+00,1.084551692008972168e+00,1.084491372108459473e+00,1.084431052207946777e+00,1.084370851516723633e+00,1.084310531616210938e+00,1.084250211715698242e+00,1.084190011024475098e+00,1.084129691123962402e+00,1.084069371223449707e+00,1.084009170532226562e+00,1.083948969841003418e+00,1.083888769149780273e+00,1.083828449249267578e+00,1.083768248558044434e+00,1.083708047866821289e+00,1.083647847175598145e+00,1.083587646484375000e+00,1.083527326583862305e+00,1.083467245101928711e+00,1.083407282829284668e+00,1.083347320556640625e+00,1.083287358283996582e+00,1.083227515220642090e+00,1.083167552947998047e+00,1.083107709884643555e+00,1.083047747611999512e+00,1.082987785339355469e+00,1.082927942276000977e+00,1.082868099212646484e+00,1.082808136940002441e+00,1.082748293876647949e+00,1.082688450813293457e+00,1.082628607749938965e+00,1.082568764686584473e+00,1.082508921623229980e+00,1.082449078559875488e+00,1.082389235496520996e+00,1.082329511642456055e+00
1.020994663238525391e+00,1.020941257476806641e+00,1.020887851715087891e+00,1.020834326744079590e+00,1.020780920982360840e+00,1.020727515220642090e+00,1.020674109458923340e+00,1.020620703697204590e+00,1.020567297935485840e+00,1.020513892173767090e+00,1.020460486412048340e+00,1.020407080650329590e+00,1.020353674888610840e+00,1.020300388336181641e+00,1.020246982574462891e+00,1.020193696022033691e+00,1.020140290260314941e+00,1.020086884498596191e+00,1.020033597946166992e+00,1.019980192184448242e+00,1.019926786422729492e+00,1.019873499870300293e+00,1.019820213317871094e+00,1.019766926765441895e+00,1.019713640213012695e+00,1.019660234451293945e+00,1.019606947898864746e+00,1.019553661346435547e+00,1.019500374794006348e+00,1.019447088241577148e+00,1.019393801689147949e+00,1.019340515136718750e+00,1.019287228584289551e+00,1.019233942031860352e+00,1.019180655479431152e+00,1.019127488136291504e+00,1.019074201583862305e+00,1.019020915031433105e+00,1.018967628479003906e+00,1.018914461135864258e+00,1.018861293792724609e+00,1.018808007240295410e+00,1.018754720687866211e+00,1.018701553344726562e+00,1.018648386001586914e+00,1.018595218658447266e+00,1.018542051315307617e+00,1.018488764762878418e+00,1.018435597419738770e+00,1.018382430076599121e+00,1.018329262733459473e+00,1.018276095390319824e+00,1.018222928047180176e+00,1.018169760704040527e+00,1.018116593360900879e+00,1.018063426017761230e+00,1.018010377883911133e+00,1.017957210540771484e+00,1.017904043197631836e+00,1.017850995063781738e+00,1.017797827720642090e+00,1.017744660377502441e+00,1.017691612243652344e+00,1.017638564109802246e+00,1.017585396766662598e+00,1.017532348632812500e+00,1.017479300498962402e+00,1.017426133155822754e+00,1.017373085021972656e+00,1.017320275306701660e+00,1.017267465591430664e+00,1.017214655876159668e+00,1.017161846160888672e+00,1.017108917236328125e+00,1.017056107521057129e+00,1.017003297805786133e+00,1.016950488090515137e+00,1.016897678375244141e+00,1.016844868659973145e+00,1.016792178153991699e+00
9.624754786491394043e-01,9.624280333518981934e-01,9.623805284500122070e-01,9.623330235481262207e-01,9.622855782508850098e-01,9.622380733489990234e-01,9.621906280517578125e-01,9.621430635452270508e-01,9.620956182479858398e-01,9.620481729507446289e-01,9.620007276535034180e-01,9.619533419609069824e-01,9.619058966636657715e-01,9.618584513664245605e-01,9.618110656738281250e-01,9.617636203765869141e-01,9.617161154747009277e-01,9.616686701774597168e-01,9.616212844848632812e-01,9.615738987922668457e-01,9.615265130996704102e-01,9.614791274070739746e-01,9.614317417144775391e-01,9.613843560218811035e-01,9.613369703292846680e-01,9.612894654273986816e-01,9.612421393394470215e-01,9.611947536468505859e-01,9.611474275588989258e-01,9.611000418663024902e-01,9.610527157783508301e-01,9.610053896903991699e-01,9.609580039978027344e-01,9.609106779098510742e-01,9.608632326126098633e-01,9.608159661293029785e-01,9.607686400413513184e-01,9.607213139533996582e-01,9.606739878654479980e-01,9.606266617774963379e-01,9.605793952941894531e-01,9.605320692062377930e-01,9.604848027229309082e-01,9.604374170303344727e-01,9.603901505470275879e-01,9.603428244590759277e-01,9.602955579757690430e-01,9.602482914924621582e-01,9.602010250091552734e-01,9.601537585258483887e-01,9.601065516471862793e-01,9.600592851638793945e-01,9.600118994712829590e-01,9.599646925926208496e-01,9.599174261093139648e-01,9.598702192306518555e-01,9.598230123519897461e-01,9.597757458686828613e-01,9.597285389900207520e-01,9.596813321113586426e-01,9.596340060234069824e-01,9.595867991447448730e-01,9.595395922660827637e-01,9.594924449920654297e-01,9.594452381134033203e-01,9.593980312347412109e-01,9.593508839607238770e-01,9.593036770820617676e-01,9.592565298080444336e-01,9.592092633247375488e-01,9.591620564460754395e-01,9.591149091720581055e-01,9.590677618980407715e-01,9.590206146240234375e-01,9.589734673500061035e-01,9.589263200759887695e-01,9.588792920112609863e-01,9.588323235511779785e-01,9.587854146957397461e-01,9.587385058403015137e-01
9.103007316589355469e-01,9.102582931518554688e-01,9.102157950401306152e-01,9.101733565330505371e-01,9.101308584213256836e-01,9.100884199142456055e-01,9.100459814071655273e-01,9.100034832954406738e-01,9.099609851837158203e-01,9.099185466766357422e-01,9.098761081695556641e-01,9.098336696624755859e-01,9.097912311553955078e-01,9.097487926483154297e-01,9.097063541412353516e-01,9.096639752388000488e-01,9.096215367317199707e-01,9.095790386199951172e-01,9.095366001129150391e-01,9.094942212104797363e-01,9.094517827033996582e-01,9.094094038009643555e-01,9.093670248985290527e-01,9.093246459960937500e-01,9.092822670936584473e-01,9.092398881912231445e-01,9.091973900794982910e-01,9.091550111770629883e-01,9.091126322746276855e-01,9.090703129768371582e-01,9.090279340744018555e-01,9.089855551719665527e-01,9.089432358741760254e-01,9.089008569717407227e-01,9.088584184646606445e-01,9.088160991668701172e-01,9.087737798690795898e-01,9.087314605712890625e-01,9.086890816688537598e-01,9.086467623710632324e-01,9.086044430732727051e-01,9.085621237754821777e-01,9.085198044776916504e-01,9.084774255752563477e-01,9.084351062774658203e-01,9.083928465843200684e-01,9.083505272865295410e-01,9.083082079887390137e-01,9.082659482955932617e-01,9.082236886024475098e-01,9.081813693046569824e-01,9.081391096115112305e-01,9.080967307090759277e-01,9.080544710159301758e-01,9.080122113227844238e-01,9.079699516296386719e-01,9.079276919364929199e-01,9.078854322433471680e-01,9.078431725502014160e-01,9.078009128570556641e-01,9.077587127685546875e-01,9.077163338661193848e-01,9.076741337776184082e-01,9.076318740844726562e-01,9.075896739959716797e-01,9.075474739074707031e-01,9.075052142143249512e-01,9.074630141258239746e-01,9.074208140373229980e-01,9.073786139488220215e-01,9.073362946510314941e-01,9.072940945625305176e-01,9.072518944740295410e-01,9.072096943855285645e-01,9.071675539016723633e-01,9.071253538131713867e-01,9.070831537246704102e-01,9.070410132408142090e-01,9.069988131523132324e-01,9.069565534591674805e-01
8.634918332099914551e-01,8.634535670280456543e-01,8.634153604507446289e-01,8.633771538734436035e-01,8.633389472961425781e-01,8.633007407188415527e-01,8.632625341415405273e-01,8.632243871688842773e-01,8.631861805915832520e-01,8.631478548049926758e-01,8.631097078323364258e-01,8.630715012550354004e-01,8.630333542823791504e-01,8.629951477050781250e-01,8.629570007324218750e-01,8.629187941551208496e-01,8.628806471824645996e-01,8.628423810005187988e-01,8.628042340278625488e-01,8.627660870552062988e-01,8.627278804779052734e-01,8.626897335052490234e-01,8.626515865325927734e-01,8.626134395599365234e-01,8.625753521919250488e-01,8.625372052192687988e-01,8.624989390373229980e-01,8.624608516693115234e-01,8.624227046966552734e-01,8.623845577239990234e-01,8.623464703559875488e-01,8.623083233833312988e-01,8.622702360153198242e-01,8.622320890426635742e-01,8.621940016746520996e-01,8.621557950973510742e-01,8.621177077293395996e-01,8.620796203613281250e-01,8.620415329933166504e-01,8.620034456253051758e-01,8.619653582572937012e-01,8.619272708892822266e-01,8.618891835212707520e-01,8.618510961532592773e-01,8.618129491806030273e-01,8.617748618125915527e-01,8.617368340492248535e-01,8.616987466812133789e-01,8.616606593132019043e-01,8.616226315498352051e-01,8.615845441818237305e-01,8.615465164184570312e-01,8.615084886550903320e-01,8.614703416824340820e-01,8.614323139190673828e-01,8.613942861557006836e-01,8.613562583923339844e-01,8.613182306289672852e-01,8.612802028656005859e-01,8.612421751022338867e-01,8.612041473388671875e-01,8.611660003662109375e-01,8.611280322074890137e-01,8.610900044441223145e-01,8.610519766807556152e-01,8.610140085220336914e-01,8.609759807586669922e-01,8.609380125999450684e-01,8.608999848365783691e-01,8.608620166778564453e-01,8.608239293098449707e-01,8.607859611511230469e-01,8.607479929924011230e-01,8.607100248336791992e-01,8.606720566749572754e-01,8.606340885162353516e-01,8.605961203575134277e-01,8.605581521987915039e-01,8.605201840400695801e-01,8.604821562767028809e-01
8.212614059448242188e-01,8.212268352508544922e-01,8.211922645568847656e-01,8.211576938629150391e-01,8.211231231689453125e-01,8.210885524749755859e-01,8.210540413856506348e-01,8.210194706916809082e-01,8.209848999977111816e-01,8.209502696990966797e-01,8.209157586097717285e-01,8.208811879158020020e-01,8.208466768264770508e-01,8.208121061325073242e-01,8.207775950431823730e-01,8.207430839538574219e-01,8.207085132598876953e-01,8.206740021705627441e-01,8.206394314765930176e-01,8.206049203872680664e-01,8.205703496932983398e-01,8.205358386039733887e-01,8.205013871192932129e-01,8.204668760299682617e-01,8.204323649406433105e-01,8.203978538513183594e-01,8.203633427619934082e-01,8.203287720680236816e-01,8.202942609786987305e-01,8.202598094940185547e-01,8.202252984046936035e-01,8.201907873153686523e-01,8.201563358306884766e-01,8.201218247413635254e-01,8.200873732566833496e-01,8.200529217720031738e-01,8.200183510780334473e-01,8.199838995933532715e-01,8.199494481086730957e-01,8.199149370193481445e-01,8.198804855346679688e-01,8.198460340499877930e-01,8.198115825653076172e-01,8.197771310806274414e-01,8.197426199913024902e-01,8.197081685066223145e-01,8.196737170219421387e-01,8.196392655372619629e-01,8.196048736572265625e-01,8.195704221725463867e-01,8.195359706878662109e-01,8.195015788078308105e-01,8.194671273231506348e-01,8.194326162338256836e-01,8.193982243537902832e-01,8.193638324737548828e-01,8.193293809890747070e-01,8.192949891090393066e-01,8.192605972290039062e-01,8.192261457443237305e-01,8.191917538642883301e-01,8.191573619842529297e-01,8.191229104995727539e-01,8.190885186195373535e-01,8.190541267395019531e-01,8.190197348594665527e-01,8.189853429794311523e-01,8.189509510993957520e-01,8.189166188240051270e-01,8.188822269439697266e-01,8.188478350639343262e-01,8.188133835792541504e-01,8.187790513038635254e-01,8.187446594238281250e-01,8.187103271484375000e-01,8.186759352684020996e-01,8.186416029930114746e-01,8.186072111129760742e-01,8.185728788375854492e-01,8.185385465621948242e-01
7.829691767692565918e-01,7.829377055168151855e-01,7.829062938690185547e-01,7.828748226165771484e-01,7.828434109687805176e-01,7.828119993209838867e-01,7.827805876731872559e-01,7.827491760253906250e-01,7.827178239822387695e-01,7.826864123344421387e-01,7.826549410820007324e-01,7.826235294342041016e-01,7.825921177864074707e-01,7.825607061386108398e-01,7.825293540954589844e-01,7.824979424476623535e-01,7.824665904045104980e-01,7.824351787567138672e-01,7.824037075042724609e-01,7.823723554611206055e-01,7.823410034179687500e-01,7.823095917701721191e-01,7.822782397270202637e-01,7.822468876838684082e-01,7.822154760360717773e-01,7.821841239929199219e-01,7.821527719497680664e-01,7.821213603019714355e-01,7.820900082588195801e-01,7.820586562156677246e-01,7.820273041725158691e-01,7.819959521293640137e-01,7.819646000862121582e-01,7.819332480430603027e-01,7.819018959999084473e-01,7.818705439567565918e-01,7.818391323089599609e-01,7.818078398704528809e-01,7.817764878273010254e-01,7.817451953887939453e-01,7.817138433456420898e-01,7.816824913024902344e-01,7.816511988639831543e-01,7.816199064254760742e-01,7.815885543823242188e-01,7.815572023391723633e-01,7.815258502960205078e-01,7.814945578575134277e-01,7.814632654190063477e-01,7.814319729804992676e-01,7.814006805419921875e-01,7.813693284988403320e-01,7.813380360603332520e-01,7.813067436218261719e-01,7.812753915786743164e-01,7.812440991401672363e-01,7.812128067016601562e-01,7.811815738677978516e-01,7.811502814292907715e-01,7.811189889907836914e-01,7.810876965522766113e-01,7.810564637184143066e-01,7.810251712799072266e-01,7.809938192367553711e-01,7.809625864028930664e-01,7.809312939643859863e-01,7.809000611305236816e-01,7.808687686920166016e-01,7.808375358581542969e-01,7.808063030242919922e-01,7.807750105857849121e-01,7.807437181472778320e-01,7.807124853134155273e-01,7.806811928749084473e-01,7.806499600410461426e-01,7.806187272071838379e-01,7.805874943733215332e-01,7.805562615394592285e-01,7.805250287055969238e-01,7.804937958717346191e-01
7.480886578559875488e-01,7.480598688125610352e-01,7.480311989784240723e-01,7.480025291442871094e-01,7.479738593101501465e-01,7.479451894760131836e-01,7.479164600372314453e-01,7.478877902030944824e-01,7.478591203689575195e-01,7.478304505348205566e-01,7.478017210960388184e-01,7.477730512619018555e-01,7.477444410324096680e-01,7.477157711982727051e-01,7.476871013641357422e-01,7.476584315299987793e-01,7.476297616958618164e-01,7.476011514663696289e-01,7.475724816322326660e-01,7.475437521934509277e-01,7.475151419639587402e-01,7.474864721298217773e-01,7.474578619003295898e-01,7.474291920661926270e-01,7.474005818367004395e-01,7.473719716072082520e-01,7.473433017730712891e-01,7.473146915435791016e-01,7.472860217094421387e-01,7.472573518753051758e-01,7.472287416458129883e-01,7.472001314163208008e-01,7.471715211868286133e-01,7.471429109573364258e-01,7.471143007278442383e-01,7.470856904983520508e-01,7.470570802688598633e-01,7.470284104347229004e-01,7.469998002052307129e-01,7.469711899757385254e-01,7.469425797462463379e-01,7.469139695167541504e-01,7.468853592872619629e-01,7.468568086624145508e-01,7.468281984329223633e-01,7.467995285987854004e-01,7.467709779739379883e-01,7.467423677444458008e-01,7.467137575149536133e-01,7.466852068901062012e-01,7.466565966606140137e-01,7.466280460357666016e-01,7.465994954109191895e-01,7.465708851814270020e-01,7.465422749519348145e-01,7.465137243270874023e-01,7.464851140975952148e-01,7.464565634727478027e-01,7.464280128479003906e-01,7.463994622230529785e-01,7.463709115982055664e-01,7.463423609733581543e-01,7.463138103485107422e-01,7.462851405143737793e-01,7.462566494941711426e-01,7.462280988693237305e-01,7.461995482444763184e-01,7.461709976196289062e-01,7.461424469947814941e-01,7.461138963699340820e-01,7.460854053497314453e-01,7.460568547248840332e-01,7.460282444953918457e-01,7.459996938705444336e-01,7.459712028503417969e-01,7.459426522254943848e-01,7.459141612052917480e-01,7.458856105804443359e-01,7.458571195602416992e-01,7.458285689353942871e-01
7.161833047866821289e-01,7.161570191383361816e-01,7.161306738853454590e-01,7.161043882369995117e-01,7.160781025886535645e-01,7.160518169403076172e-01,7.160255312919616699e-01,7.159992456436157227e-01,7.159730195999145508e-01,7.159467339515686035e-01,7.159204483032226562e-01,7.158941030502319336e-01,7.158678174018859863e-01,7.158415913581848145e-01,7.158153057098388672e-01,7.157890200614929199e-01,7.157627940177917480e-01,7.157365083694458008e-01,7.157102823257446289e-01,7.156839966773986816e-01,7.156577110290527344e-01,7.156314253807067871e-01,7.156051993370056152e-01,7.155789136886596680e-01,7.155526876449584961e-01,7.155264616012573242e-01,7.155001759529113770e-01,7.154739499092102051e-01,7.154476642608642578e-01,7.154214382171630859e-01,7.153952121734619141e-01,7.153689265251159668e-01,7.153427004814147949e-01,7.153164744377136230e-01,7.152902483940124512e-01,7.152640223503112793e-01,7.152377963066101074e-01,7.152115106582641602e-01,7.151852846145629883e-01,7.151591181755065918e-01,7.151328921318054199e-01,7.151066660881042480e-01,7.150804400444030762e-01,7.150542736053466797e-01,7.150280475616455078e-01,7.150018215179443359e-01,7.149755954742431641e-01,7.149493694305419922e-01,7.149231433868408203e-01,7.148969769477844238e-01,7.148707509040832520e-01,7.148445844650268555e-01,7.148183584213256836e-01,7.147921919822692871e-01,7.147660255432128906e-01,7.147397398948669434e-01,7.147135734558105469e-01,7.146874070167541504e-01,7.146611809730529785e-01,7.146350145339965820e-01,7.146088480949401855e-01,7.145826816558837891e-01,7.145565152168273926e-01,7.145303487777709961e-01,7.145041227340698242e-01,7.144779562950134277e-01,7.144517898559570312e-01,7.144256234169006348e-01,7.143994569778442383e-01,7.143732905387878418e-01,7.143471240997314453e-01,7.143209576606750488e-01,7.142947316169738770e-01,7.142685651779174805e-01,7.142424583435058594e-01,7.142162919044494629e-01,7.141901254653930664e-01,7.141640186309814453e-01,7.141378521919250488e-01,7.141116857528686523e-01
6.868881583213806152e-01,6.868640184402465820e-01,6.868397593498229980e-01,6.868155598640441895e-01,6.867914199829101562e-01,6.867672204971313477e-01,6.867430210113525391e-01,6.867188811302185059e-01,6.866946816444396973e-01,6.866705417633056641e-01,6.866463422775268555e-01,6.866221427917480469e-01,6.865979433059692383e-01,6.865738034248352051e-01,6.865496635437011719e-01,6.865254640579223633e-01,6.865013241767883301e-01,6.864771842956542969e-01,6.864529848098754883e-01,6.864288449287414551e-01,6.864046454429626465e-01,6.863805055618286133e-01,6.863563656806945801e-01,6.863322257995605469e-01,6.863080263137817383e-01,6.862838864326477051e-01,6.862597465515136719e-01,6.862356066703796387e-01,6.862114667892456055e-01,6.861872673034667969e-01,6.861631870269775391e-01,6.861390471458435059e-01,6.861149072647094727e-01,6.860907673835754395e-01,6.860666275024414062e-01,6.860424876213073730e-01,6.860184073448181152e-01,6.859942674636840820e-01,6.859700679779052734e-01,6.859459877014160156e-01,6.859218478202819824e-01,6.858977079391479492e-01,6.858736276626586914e-01,6.858494877815246582e-01,6.858254075050354004e-01,6.858012676239013672e-01,6.857771873474121094e-01,6.857529878616333008e-01,6.857289075851440430e-01,6.857048273086547852e-01,6.856806874275207520e-01,6.856566071510314941e-01,6.856325268745422363e-01,6.856083869934082031e-01,6.855843067169189453e-01,6.855601668357849121e-01,6.855360865592956543e-01,6.855120062828063965e-01,6.854879260063171387e-01,6.854637861251831055e-01,6.854397058486938477e-01,6.854156255722045898e-01,6.853915452957153320e-01,6.853674650192260742e-01,6.853433251380920410e-01,6.853193044662475586e-01,6.852952241897583008e-01,6.852711439132690430e-01,6.852470636367797852e-01,6.852229833602905273e-01,6.851989030838012695e-01,6.851748824119567871e-01,6.851508021354675293e-01,6.851266622543334961e-01,6.851026415824890137e-01,6.850785613059997559e-01,6.850544810295104980e-01,6.850304603576660156e-01,6.850063800811767578e-01,6.849823594093322754e-01
6.598954796791076660e-01,6.598731279373168945e-01,6.598508358001708984e-01,6.598284244537353516e-01,6.598061323165893555e-01,6.597838401794433594e-01,6.597614884376525879e-01,6.597391963005065918e-01,6.597169041633605957e-01,6.596945524215698242e-01,6.596722602844238281e-01,6.596499681472778320e-01,6.596276164054870605e-01,6.596053242683410645e-01,6.595829725265502930e-01,6.595606803894042969e-01,6.595383882522583008e-01,6.595160961151123047e-01,6.594938039779663086e-01,6.594715118408203125e-01,6.594492197036743164e-01,6.594268679618835449e-01,6.594045758247375488e-01,6.593822836875915527e-01,6.593599915504455566e-01,6.593377590179443359e-01,6.593154668807983398e-01,6.592931747436523438e-01,6.592708826065063477e-01,6.592485904693603516e-01,6.592262983322143555e-01,6.592040061950683594e-01,6.591817140579223633e-01,6.591594815254211426e-01,6.591371893882751465e-01,6.591148972511291504e-01,6.590926647186279297e-01,6.590703725814819336e-01,6.590480804443359375e-01,6.590257883071899414e-01,6.590035557746887207e-01,6.589812636375427246e-01,6.589590311050415039e-01,6.589367389678955078e-01,6.589145064353942871e-01,6.588922739028930664e-01,6.588699817657470703e-01,6.588476896286010742e-01,6.588254570960998535e-01,6.588031649589538574e-01,6.587809324264526367e-01,6.587586998939514160e-01,6.587364673614501953e-01,6.587142348289489746e-01,6.586920022964477539e-01,6.586697101593017578e-01,6.586474180221557617e-01,6.586251854896545410e-01,6.586029529571533203e-01,6.585807204246520996e-01,6.585584878921508789e-01,6.585362553596496582e-01,6.585140228271484375e-01,6.584917902946472168e-01,6.584696173667907715e-01,6.584473252296447754e-01,6.584250926971435547e-01,6.584028601646423340e-01,6.583806276321411133e-01,6.583584547042846680e-01,6.583362221717834473e-01,6.583139896392822266e-01,6.582917571067810059e-01,6.582695841789245605e-01,6.582472920417785645e-01,6.582251191139221191e-01,6.582028865814208984e-01,6.581806540489196777e-01,6.581584811210632324e-01,6.581362485885620117e-01
6.349439620971679688e-01,6.349232792854309082e-01,6.349026560783386230e-01,6.348819732666015625e-01,6.348612904548645020e-01,6.348406076431274414e-01,6.348199248313903809e-01,6.347993016242980957e-01,6.347786188125610352e-01,6.347579956054687500e-01,6.347373127937316895e-01,6.347166895866394043e-01,6.346960067749023438e-01,6.346753239631652832e-01,6.346547007560729980e-01,6.346340179443359375e-01,6.346133947372436523e-01,6.345927715301513672e-01,6.345720887184143066e-01,6.345514655113220215e-01,6.345308423042297363e-01,6.345101594924926758e-01,6.344894766807556152e-01,6.344688534736633301e-01,6.344482302665710449e-01,6.344276070594787598e-01,6.344069838523864746e-01,6.343863606452941895e-01,6.343657374382019043e-01,6.343451142311096191e-01,6.343244314193725586e-01,6.343038082122802734e-01,6.342831850051879883e-01,6.342625617980957031e-01,6.342419385910034180e-01,6.342213153839111328e-01,6.342006921768188477e-01,6.341800689697265625e-01,6.341594457626342773e-01,6.341387629508972168e-01,6.341181993484497070e-01,6.340975761413574219e-01,6.340769529342651367e-01,6.340563297271728516e-01,6.340357661247253418e-01,6.340151429176330566e-01,6.339945197105407715e-01,6.339739561080932617e-01,6.339532732963562012e-01,6.339327096939086914e-01,6.339120864868164062e-01,6.338914632797241211e-01,6.338708996772766113e-01,6.338502764701843262e-01,6.338297128677368164e-01,6.338090896606445312e-01,6.337884664535522461e-01,6.337679028511047363e-01,6.337472796440124512e-01,6.337267160415649414e-01,6.337060928344726562e-01,6.336855292320251465e-01,6.336649656295776367e-01,6.336443424224853516e-01,6.336237788200378418e-01,6.336031556129455566e-01,6.335825920104980469e-01,6.335619688034057617e-01,6.335414052009582520e-01,6.335208415985107422e-01,6.335002779960632324e-01,6.334797143936157227e-01,6.334591507911682129e-01,6.334385871887207031e-01,6.334179639816284180e-01,6.333974003791809082e-01,6.333768367767333984e-01,6.333562731742858887e-01,6.333357095718383789e-01,6.333151459693908691e-01
