3.101243734359741211e+00,3.179973840713500977e+00,3.262805223464965820e+00,3.350067615509033203e+00,3.442125797271728516e+00,3.539386510848999023e+00,3.642303466796875000e+00,3.751384019851684570e+00,3.867200613021850586e+00,3.990396261215209961e+00,4.121698856353759766e+00,4.261937141418457031e+00,4.412053585052490234e+00,4.573132038116455078e+00,5.000000000000000000e+00,5.000000000000000000e+00,5.000000000000000000e+00,5.000000000000000000e+00,5.000000000000000000e+00,5.000000000000000000e+00,5.000000000000000000e+00,5.000000000000000000e+00,5.000000000000000000e+00,5.000000000000000000e+00,5.000000000000000000e+00,5.000000000000000000e+00,5.000000000000000000e+00,5.000000000000000000e+00,5.000000000000000000e+00,5.000000000000000000e+00,5.000000000000000000e+00,5.000000000000000000e+00,5.000000000000000000e+00,5.000000000000000000e+00,5.000000000000000000e+00,5.000000000000000000e+00,5.000000000000000000e+00,5.000000000000000000e+00,5.000000000000000000e+00,5.000000000000000000e+00,5.000000000000000000e+00,5.000000000000000000e+00,5.000000000000000000e+00,5.000000000000000000e+00,5.000000000000000000e+00,5.000000000000000000e+00,5.000000000000000000e+00,5.000000000000000000e+00,5.000000000000000000e+00,5.000000000000000000e+00,5.000000000000000000e+00,5.000000000000000000e+00,5.000000000000000000e+00,5.000000000000000000e+00,5.000000000000000000e+00,5.000000000000000000e+00,5.000000000000000000e+00,5.000000000000000000e+00,5.000000000000000000e+00,5.000000000000000000e+00,5.000000000000000000e+00,5.000000000000000000e+00,5.000000000000000000e+00,5.000000000000000000e+00,5.000000000000000000e+00,5.000000000000000000e+00,6.007378101348876953e-01,5.834118127822875977e-01,5.677028894424438477e-01,5.555782914161682129e-01,5.467177629470825195e-01,5.407524704933166504e-01,5.349159836769104004e-01,5.302747488021850586e-01,5.257969498634338379e-01,5.213940739631652832e-01,5.170643925666809082e-01,5.128059983253479004e-01,5.103426575660705566e-01,5.128177404403686523e-01
3.101184606552124023e+00,3.179911375045776367e+00,3.262739896774291992e+00,3.349998712539672852e+00,3.442053079605102539e+00,3.539309501647949219e+00,3.642221927642822266e+00,3.751297712326049805e+00,3.867108821868896484e+00,3.990298509597778320e+00,4.121594905853271484e+00,4.261825561523437500e+00,4.411934375762939453e+00,4.573003768920898438e+00,4.746279239654541016e+00,5.000000000000000000e+00,5.000000000000000000e+00,5.000000000000000000e+00,5.000000000000000000e+00,5.000000000000000000e+00,5.000000000000000000e+00,5.000000000000000000e+00,5.000000000000000000e+00,5.000000000000000000e+00,5.000000000000000000e+00,5.000000000000000000e+00,5.000000000000000000e+00,5.000000000000000000e+00,5.000000000000000000e+00,5.000000000000000000e+00,5.000000000000000000e+00,5.000000000000000000e+00,5.000000000000000000e+00,5.000000000000000000e+00,5.000000000000000000e+00,5.000000000000000000e+00,5.000000000000000000e+00,5.000000000000000000e+00,5.000000000000000000e+00,5.000000000000000000e+00,5.000000000000000000e+00,5.000000000000000000e+00,5.000000000000000000e+00,5.000000000000000000e+00,5.000000000000000000e+00,5.000000000000000000e+00,5.000000000000000000e+00,5.000000000000000000e+00,5.000000000000000000e+00,5.000000000000000000e+00,5.000000000000000000e+00,5.000000000000000000e+00,5.000000000000000000e+00,5.000000000000000000e+00,5.000000000000000000e+00,5.000000000000000000e+00,5.000000000000000000e+00,5.000000000000000000e+00,5.000000000000000000e+00,5.000000000000000000e+00,5.000000000000000000e+00,5.000000000000000000e+00,5.000000000000000000e+00,5.000000000000000000e+00,5.000000000000000000e+00,5.000000000000000000e+00,6.009222865104675293e-01,5.835858583450317383e-01,5.672217011451721191e-01,5.548771619796752930e-01,5.469473004341125488e-01,5.409770011901855469e-01,5.360100269317626953e-01,5.314352512359619141e-01,5.269379019737243652e-01,5.225160121917724609e-01,5.181677341461181641e-01,5.138912200927734375e-01,5.127599239349365234e-01,5.152586102485656738e-01
3.101124286651611328e+00,3.179849386215209961e+00,3.262674570083618164e+00,3.349929809570312500e+00,3.441980361938476562e+00,3.539232730865478516e+00,3.642140150070190430e+00,3.751211404800415039e+00,3.867017030715942383e+00,3.990200757980346680e+00,4.121490478515625000e+00,4.261713504791259766e+00,4.411814689636230469e+00,4.572875022888183594e+00,4.746140480041503906e+00,4.933053016662597656e+00,5.000000000000000000e+00,5.000000000000000000e+00,5.000000000000000000e+00,5.000000000000000000e+00,5.000000000000000000e+00,5.000000000000000000e+00,5.000000000000000000e+00,5.000000000000000000e+00,5.000000000000000000e+00,5.000000000000000000e+00,5.000000000000000000e+00,5.000000000000000000e+00,5.000000000000000000e+00,5.000000000000000000e+00,5.000000000000000000e+00,5.000000000000000000e+00,5.000000000000000000e+00,5.000000000000000000e+00,5.000000000000000000e+00,5.000000000000000000e+00,5.000000000000000000e+00,5.000000000000000000e+00,5.000000000000000000e+00,5.000000000000000000e+00,5.000000000000000000e+00,5.000000000000000000e+00,5.000000000000000000e+00,5.000000000000000000e+00,5.000000000000000000e+00,5.000000000000000000e+00,5.000000000000000000e+00,5.000000000000000000e+00,5.000000000000000000e+00,5.000000000000000000e+00,5.000000000000000000e+00,5.000000000000000000e+00,5.000000000000000000e+00,5.000000000000000000e+00,5.000000000000000000e+00,5.000000000000000000e+00,5.000000000000000000e+00,5.000000000000000000e+00,5.000000000000000000e+00,5.000000000000000000e+00,5.000000000000000000e+00,5.000000000000000000e+00,5.000000000000000000e+00,5.000000000000000000e+00,5.000000000000000000e+00,5.000000000000000000e+00,6.011069416999816895e-01,5.837600231170654297e-01,5.673861503601074219e-01,5.541777610778808594e-01,5.471770167350769043e-01,5.418707132339477539e-01,5.371958017349243164e-01,5.326008200645446777e-01,5.280838012695312500e-01,5.236427187919616699e-01,5.192757844924926758e-01,5.149810314178466797e-01,5.152003169059753418e-01,5.177227854728698730e-01
3.101058244705200195e+00,3.179786443710327148e+00,3.262609243392944336e+00,3.349860906600952148e+00,3.441907644271850586e+00,3.539155721664428711e+00,3.642058610916137695e+00,3.751124858856201172e+00,3.866925239562988281e+00,3.990103006362915039e+00,4.121386051177978516e+00,4.261602401733398438e+00,4.411695480346679688e+00,4.572746753692626953e+00,4.746002197265625000e+00,4.932903766632080078e+00,5.000000000000000000e+00,5.000000000000000000e+00,5.000000000000000000e+00,5.000000000000000000e+00,5.000000000000000000e+00,5.000000000000000000e+00,5.000000000000000000e+00,5.000000000000000000e+00,5.000000000000000000e+00,5.000000000000000000e+00,5.000000000000000000e+00,5.000000000000000000e+00,5.000000000000000000e+00,5.000000000000000000e+00,5.000000000000000000e+00,5.000000000000000000e+00,5.000000000000000000e+00,5.000000000000000000e+00,5.000000000000000000e+00,5.000000000000000000e+00,5.000000000000000000e+00,5.000000000000000000e+00,5.000000000000000000e+00,5.000000000000000000e+00,5.000000000000000000e+00,5.000000000000000000e+00,5.000000000000000000e+00,5.000000000000000000e+00,5.000000000000000000e+00,5.000000000000000000e+00,5.000000000000000000e+00,5.000000000000000000e+00,5.000000000000000000e+00,5.000000000000000000e+00,5.000000000000000000e+00,5.000000000000000000e+00,5.000000000000000000e+00,5.000000000000000000e+00,5.000000000000000000e+00,5.000000000000000000e+00,5.000000000000000000e+00,5.000000000000000000e+00,5.000000000000000000e+00,5.000000000000000000e+00,5.000000000000000000e+00,5.000000000000000000e+00,5.000000000000000000e+00,5.000000000000000000e+00,5.000000000000000000e+00,5.000000000000000000e+00,6.012917160987854004e-01,5.839342474937438965e-01,5.675507783889770508e-01,5.535207986831665039e-01,5.478609800338745117e-01,5.430825948715209961e-01,5.383868217468261719e-01,5.337715148925781250e-01,5.292347073554992676e-01,5.247743725776672363e-01,5.203885436058044434e-01,5.160754919052124023e-01,5.176638960838317871e-01,5.202107429504394531e-01
3.100992202758789062e+00,3.179717063903808594e+00,3.262542963027954102e+00,3.349792003631591797e+00,3.441834926605224609e+00,3.539078474044799805e+00,3.641977310180664062e+00,3.751038551330566406e+00,3.866833448410034180e+00,3.990005254745483398e+00,4.121281623840332031e+00,4.261490821838378906e+00,4.411575794219970703e+00,4.572618007659912109e+00,4.745863914489746094e+00,4.932754516601562500e+00,5.000000000000000000e+00,5.000000000000000000e+00,5.000000000000000000e+00,5.000000000000000000e+00,5.000000000000000000e+00,5.000000000000000000e+00,5.000000000000000000e+00,5.000000000000000000e+00,5.000000000000000000e+00,5.000000000000000000e+00,5.000000000000000000e+00,5.000000000000000000e+00,5.000000000000000000e+00,5.000000000000000000e+00,5.000000000000000000e+00,5.000000000000000000e+00,5.000000000000000000e+00,5.000000000000000000e+00,5.000000000000000000e+00,5.000000000000000000e+00,5.000000000000000000e+00,5.000000000000000000e+00,5.000000000000000000e+00,5.000000000000000000e+00,5.000000000000000000e+00,5.000000000000000000e+00,5.000000000000000000e+00,5.000000000000000000e+00,5.000000000000000000e+00,5.000000000000000000e+00,5.000000000000000000e+00,5.000000000000000000e+00,5.000000000000000000e+00,5.000000000000000000e+00,5.000000000000000000e+00,5.000000000000000000e+00,5.000000000000000000e+00,5.000000000000000000e+00,5.000000000000000000e+00,5.000000000000000000e+00,5.000000000000000000e+00,5.000000000000000000e+00,5.000000000000000000e+00,5.000000000000000000e+00,5.000000000000000000e+00,5.000000000000000000e+00,5.000000000000000000e+00,5.000000000000000000e+00,5.000000000000000000e+00,6.199090480804443359e-01,6.014765501022338867e-01,5.841085910797119141e-01,5.677154660224914551e-01,5.539852380752563477e-01,5.490998029708862305e-01,5.442998409271240234e-01,5.395831465721130371e-01,5.349473953247070312e-01,5.303906202316284180e-01,5.259109139442443848e-01,5.215061306953430176e-01,5.176050662994384766e-01,5.201513171195983887e-01,5.227226614952087402e-01
3.100926399230957031e+00,3.179647922515869141e+00,3.262470006942749023e+00,3.349722146987915039e+00,3.441762208938598633e+00,3.539001703262329102e+00,3.641895771026611328e+00,3.750952243804931641e+00,3.866741657257080078e+00,3.989907503128051758e+00,4.121177196502685547e+00,4.261379241943359375e+00,4.411456108093261719e+00,4.572489738464355469e+00,4.745725631713867188e+00,4.932605266571044922e+00,5.000000000000000000e+00,5.000000000000000000e+00,5.000000000000000000e+00,5.000000000000000000e+00,5.000000000000000000e+00,5.000000000000000000e+00,5.000000000000000000e+00,5.000000000000000000e+00,5.000000000000000000e+00,5.000000000000000000e+00,5.000000000000000000e+00,5.000000000000000000e+00,5.000000000000000000e+00,5.000000000000000000e+00,5.000000000000000000e+00,5.000000000000000000e+00,5.000000000000000000e+00,5.000000000000000000e+00,5.000000000000000000e+00,5.000000000000000000e+00,5.000000000000000000e+00,5.000000000000000000e+00,5.000000000000000000e+00,5.000000000000000000e+00,5.000000000000000000e+00,5.000000000000000000e+00,5.000000000000000000e+00,5.000000000000000000e+00,5.000000000000000000e+00,5.000000000000000000e+00,5.000000000000000000e+00,5.000000000000000000e+00,5.000000000000000000e+00,5.000000000000000000e+00,5.000000000000000000e+00,5.000000000000000000e+00,5.000000000000000000e+00,5.000000000000000000e+00,5.000000000000000000e+00,5.000000000000000000e+00,5.000000000000000000e+00,5.000000000000000000e+00,5.000000000000000000e+00,5.000000000000000000e+00,5.000000000000000000e+00,5.000000000000000000e+00,5.000000000000000000e+00,5.000000000000000000e+00,5.000000000000000000e+00,6.201055049896240234e-01,6.016615033149719238e-01,5.841120481491088867e-01,5.669167637825012207e-01,5.548593997955322266e-01,5.500421524047851562e-01,5.453078746795654297e-01,5.406543612480163574e-01,5.360796451568603516e-01,5.315516591072082520e-01,5.270523428916931152e-01,5.226285457611083984e-01,5.200918912887573242e-01,5.226626396179199219e-01,5.252589583396911621e-01
3.100860357284545898e+00,3.179578304290771484e+00,3.262397050857543945e+00,3.349645137786865234e+00,3.441688537597656250e+00,3.538924694061279297e+00,3.641814470291137695e+00,3.750865936279296875e+00,3.866649866104125977e+00,3.989809751510620117e+00,4.121073246002197266e+00,4.261267662048339844e+00,4.411336898803710938e+00,4.572361469268798828e+00,4.745587348937988281e+00,4.932455539703369141e+00,5.000000000000000000e+00,5.000000000000000000e+00,5.000000000000000000e+00,5.000000000000000000e+00,5.000000000000000000e+00,5.000000000000000000e+00,5.000000000000000000e+00,5.000000000000000000e+00,5.000000000000000000e+00,5.000000000000000000e+00,5.000000000000000000e+00,5.000000000000000000e+00,5.000000000000000000e+00,5.000000000000000000e+00,5.000000000000000000e+00,5.000000000000000000e+00,5.000000000000000000e+00,5.000000000000000000e+00,5.000000000000000000e+00,5.000000000000000000e+00,5.000000000000000000e+00,5.000000000000000000e+00,5.000000000000000000e+00,5.000000000000000000e+00,5.000000000000000000e+00,5.000000000000000000e+00,5.000000000000000000e+00,5.000000000000000000e+00,5.000000000000000000e+00,5.000000000000000000e+00,5.000000000000000000e+00,5.000000000000000000e+00,5.000000000000000000e+00,5.000000000000000000e+00,5.000000000000000000e+00,5.000000000000000000e+00,5.000000000000000000e+00,5.000000000000000000e+00,5.000000000000000000e+00,5.000000000000000000e+00,5.000000000000000000e+00,5.000000000000000000e+00,5.000000000000000000e+00,5.000000000000000000e+00,5.000000000000000000e+00,5.000000000000000000e+00,5.000000000000000000e+00,5.000000000000000000e+00,5.000000000000000000e+00,6.201040744781494141e-01,6.007594466209411621e-01,5.825852155685424805e-01,5.654783844947814941e-01,5.557264089584350586e-01,5.508941411972045898e-01,5.461452603340148926e-01,5.414775609970092773e-01,5.368888974189758301e-01,5.323774218559265137e-01,5.280213356018066406e-01,5.237368345260620117e-01,5.229823589324951172e-01,5.252000093460083008e-01,5.278200507164001465e-01
3.100794553756713867e+00,3.179508924484252930e+00,3.262324094772338867e+00,3.349568367004394531e+00,3.441607236862182617e+00,3.538846969604492188e+00,3.641732931137084961e+00,3.750779390335083008e+00,3.866558074951171875e+00,3.989711999893188477e+00,4.120968818664550781e+00,4.261156082153320312e+00,4.411217212677001953e+00,4.572233200073242188e+00,4.745449066162109375e+00,4.932305812835693359e+00,5.000000000000000000e+00,5.000000000000000000e+00,5.000000000000000000e+00,5.000000000000000000e+00,5.000000000000000000e+00,5.000000000000000000e+00,5.000000000000000000e+00,5.000000000000000000e+00,5.000000000000000000e+00,5.000000000000000000e+00,5.000000000000000000e+00,5.000000000000000000e+00,5.000000000000000000e+00,5.000000000000000000e+00,5.000000000000000000e+00,5.000000000000000000e+00,5.000000000000000000e+00,5.000000000000000000e+00,5.000000000000000000e+00,5.000000000000000000e+00,5.000000000000000000e+00,5.000000000000000000e+00,5.000000000000000000e+00,5.000000000000000000e+00,5.000000000000000000e+00,5.000000000000000000e+00,5.000000000000000000e+00,5.000000000000000000e+00,5.000000000000000000e+00,5.000000000000000000e+00,5.000000000000000000e+00,5.000000000000000000e+00,5.000000000000000000e+00,5.000000000000000000e+00,5.000000000000000000e+00,5.000000000000000000e+00,5.000000000000000000e+00,5.000000000000000000e+00,5.000000000000000000e+00,5.000000000000000000e+00,5.000000000000000000e+00,5.000000000000000000e+00,5.000000000000000000e+00,5.000000000000000000e+00,5.000000000000000000e+00,5.000000000000000000e+00,5.000000000000000000e+00,5.000000000000000000e+00,5.000000000000000000e+00,6.176949739456176758e-01,5.986526608467102051e-01,5.807493925094604492e-01,5.634939074516296387e-01,5.567826628684997559e-01,5.520207881927490234e-01,5.473396778106689453e-01,5.427373051643371582e-01,5.382115840911865234e-01,5.337608456611633301e-01,5.293830633163452148e-01,5.250765085220336914e-01,5.266611576080322266e-01,5.292283296585083008e-01,5.314993858337402344e-01
3.100728511810302734e+00,3.179439544677734375e+00,3.262250900268554688e+00,3.349491357803344727e+00,3.441526174545288086e+00,3.538761138916015625e+00,3.641651153564453125e+00,3.750693082809448242e+00,3.866466283798217773e+00,3.989613771438598633e+00,4.120864391326904297e+00,4.261044979095458984e+00,4.411097526550292969e+00,4.572104930877685547e+00,4.745310306549072266e+00,4.932156562805175781e+00,5.000000000000000000e+00,5.000000000000000000e+00,5.000000000000000000e+00,5.000000000000000000e+00,5.000000000000000000e+00,5.000000000000000000e+00,5.000000000000000000e+00,5.000000000000000000e+00,5.000000000000000000e+00,5.000000000000000000e+00,5.000000000000000000e+00,5.000000000000000000e+00,5.000000000000000000e+00,5.000000000000000000e+00,5.000000000000000000e+00,5.000000000000000000e+00,5.000000000000000000e+00,5.000000000000000000e+00,5.000000000000000000e+00,5.000000000000000000e+00,5.000000000000000000e+00,5.000000000000000000e+00,5.000000000000000000e+00,5.000000000000000000e+00,5.000000000000000000e+00,5.000000000000000000e+00,5.000000000000000000e+00,5.000000000000000000e+00,5.000000000000000000e+00,5.000000000000000000e+00,5.000000000000000000e+00,5.000000000000000000e+00,5.000000000000000000e+00,5.000000000000000000e+00,5.000000000000000000e+00,5.000000000000000000e+00,5.000000000000000000e+00,5.000000000000000000e+00,5.000000000000000000e+00,5.000000000000000000e+00,5.000000000000000000e+00,5.000000000000000000e+00,5.000000000000000000e+00,5.000000000000000000e+00,5.000000000000000000e+00,5.000000000000000000e+00,5.000000000000000000e+00,5.000000000000000000e+00,5.000000000000000000e+00,6.133428812026977539e-01,5.939283967018127441e-01,5.757052302360534668e-01,5.649419426918029785e-01,5.595341920852661133e-01,5.542290806770324707e-01,5.490235686302185059e-01,5.441760420799255371e-01,5.396264791488647461e-01,5.351523756980895996e-01,5.307518243789672852e-01,5.273799300193786621e-01,5.302903652191162109e-01,5.332331061363220215e-01,5.356253385543823242e-01
3.100662708282470703e+00,3.179370403289794922e+00,3.262177944183349609e+00,3.349414587020874023e+00,3.441444873809814453e+00,3.538675308227539062e+00,3.641559839248657227e+00,3.750606298446655273e+00,3.866374492645263672e+00,3.989516019821166992e+00,4.120760440826416016e+00,4.260932922363281250e+00,4.410978317260742188e+00,4.571976184844970703e+00,4.745172500610351562e+00,4.932007312774658203e+00,5.000000000000000000e+00,5.000000000000000000e+00,5.000000000000000000e+00,5.000000000000000000e+00,5.000000000000000000e+00,5.000000000000000000e+00,5.000000000000000000e+00,5.000000000000000000e+00,5.000000000000000000e+00,5.000000000000000000e+00,5.000000000000000000e+00,5.000000000000000000e+00,5.000000000000000000e+00,5.000000000000000000e+00,5.000000000000000000e+00,5.000000000000000000e+00,5.000000000000000000e+00,5.000000000000000000e+00,5.000000000000000000e+00,5.000000000000000000e+00,5.000000000000000000e+00,5.000000000000000000e+00,5.000000000000000000e+00,5.000000000000000000e+00,5.000000000000000000e+00,5.000000000000000000e+00,5.000000000000000000e+00,5.000000000000000000e+00,5.000000000000000000e+00,5.000000000000000000e+00,5.000000000000000000e+00,5.000000000000000000e+00,5.000000000000000000e+00,5.000000000000000000e+00,5.000000000000000000e+00,5.000000000000000000e+00,5.000000000000000000e+00,5.000000000000000000e+00,5.000000000000000000e+00,5.000000000000000000e+00,5.000000000000000000e+00,5.000000000000000000e+00,5.000000000000000000e+00,5.000000000000000000e+00,5.000000000000000000e+00,5.000000000000000000e+00,5.000000000000000000e+00,5.000000000000000000e+00,6.270002126693725586e-01,6.071014404296875000e-01,5.884268879890441895e-01,5.734699368476867676e-01,5.678985714912414551e-01,5.624343752861022949e-01,5.570743680000305176e-01,5.518155694007873535e-01,5.466551184654235840e-01,5.415902733802795410e-01,5.366184115409851074e-01,5.321276783943176270e-01,5.310190916061401367e-01,5.339699387550354004e-01,5.369538664817810059e-01,5.398158431053161621e-01
3.100596904754638672e+00,3.179301023483276367e+00,3.262104988098144531e+00,3.349337339401245117e+00,3.441363811492919922e+00,3.538589477539062500e+00,3.641469001770019531e+00,3.750509977340698242e+00,3.866282224655151367e+00,3.989418506622314453e+00,4.120656013488769531e+00,4.260821819305419922e+00,4.410858631134033203e+00,4.571847915649414062e+00,4.745034217834472656e+00,4.931858062744140625e+00,5.000000000000000000e+00,5.000000000000000000e+00,5.000000000000000000e+00,5.000000000000000000e+00,5.000000000000000000e+00,5.000000000000000000e+00,5.000000000000000000e+00,5.000000000000000000e+00,5.000000000000000000e+00,5.000000000000000000e+00,5.000000000000000000e+00,5.000000000000000000e+00,5.000000000000000000e+00,5.000000000000000000e+00,5.000000000000000000e+00,5.000000000000000000e+00,5.000000000000000000e+00,5.000000000000000000e+00,5.000000000000000000e+00,5.000000000000000000e+00,5.000000000000000000e+00,5.000000000000000000e+00,5.000000000000000000e+00,5.000000000000000000e+00,5.000000000000000000e+00,5.000000000000000000e+00,5.000000000000000000e+00,5.000000000000000000e+00,5.000000000000000000e+00,5.000000000000000000e+00,5.000000000000000000e+00,5.000000000000000000e+00,5.000000000000000000e+00,5.000000000000000000e+00,5.000000000000000000e+00,5.000000000000000000e+00,5.000000000000000000e+00,5.000000000000000000e+00,5.000000000000000000e+00,5.000000000000000000e+00,5.000000000000000000e+00,5.000000000000000000e+00,5.000000000000000000e+00,5.000000000000000000e+00,5.000000000000000000e+00,5.000000000000000000e+00,5.000000000000000000e+00,6.393709778785705566e-01,6.188632845878601074e-01,5.996302366256713867e-01,5.829634666442871094e-01,5.766757130622863770e-01,5.705221295356750488e-01,5.649576187133789062e-01,5.595584511756896973e-01,5.542614459991455078e-01,5.490638017654418945e-01,5.439627766609191895e-01,5.389556288719177246e-01,5.346547365188598633e-01,5.359578132629394531e-01,5.377872586250305176e-01,5.407267808914184570e-01,5.437868833541870117e-01
3.100530624389648438e+00,3.179231643676757812e+00,3.262032032012939453e+00,3.349260330200195312e+00,3.441282510757446289e+00,3.538503646850585938e+00,3.641378164291381836e+00,3.750412940979003906e+00,3.866179943084716797e+00,3.989320755004882812e+00,4.120551586151123047e+00,4.260710239410400391e+00,4.410739421844482422e+00,4.571719646453857422e+00,4.744895935058593750e+00,4.931708812713623047e+00,5.000000000000000000e+00,5.000000000000000000e+00,5.000000000000000000e+00,5.000000000000000000e+00,5.000000000000000000e+00,5.000000000000000000e+00,5.000000000000000000e+00,5.000000000000000000e+00,5.000000000000000000e+00,5.000000000000000000e+00,5.000000000000000000e+00,5.000000000000000000e+00,5.000000000000000000e+00,5.000000000000000000e+00,5.000000000000000000e+00,5.000000000000000000e+00,5.000000000000000000e+00,5.000000000000000000e+00,5.000000000000000000e+00,5.000000000000000000e+00,5.000000000000000000e+00,5.000000000000000000e+00,5.000000000000000000e+00,5.000000000000000000e+00,5.000000000000000000e+00,5.000000000000000000e+00,5.000000000000000000e+00,5.000000000000000000e+00,5.000000000000000000e+00,5.000000000000000000e+00,5.000000000000000000e+00,5.000000000000000000e+00,5.000000000000000000e+00,5.000000000000000000e+00,5.000000000000000000e+00,5.000000000000000000e+00,5.000000000000000000e+00,5.000000000000000000e+00,5.000000000000000000e+00,5.000000000000000000e+00,5.000000000000000000e+00,5.000000000000000000e+00,5.000000000000000000e+00,5.000000000000000000e+00,5.000000000000000000e+00,5.000000000000000000e+00,6.516326665878295898e-01,6.307367682456970215e-01,6.107705831527709961e-01,5.932829380035400391e-01,5.867718458175659180e-01,5.804021358489990234e-01,5.741692185401916504e-01,5.680687427520751953e-01,5.620965957641601562e-01,5.564681291580200195e-01,5.512291789054870605e-01,5.460880398750305176e-01,5.414385795593261719e-01,5.424808263778686523e-01,5.435270071029663086e-01,5.453348159790039062e-01,5.472289323806762695e-01,5.491363406181335449e-01
3.100464820861816406e+00,3.179162502288818359e+00,3.261959075927734375e+00,3.349183559417724609e+00,3.441200971603393555e+00,3.538417816162109375e+00,3.641287088394165039e+00,3.750316619873046875e+00,3.866077423095703125e+00,3.989211559295654297e+00,4.120447158813476562e+00,4.260598659515380859e+00,4.410619735717773438e+00,4.571590900421142578e+00,4.744757652282714844e+00,4.931559085845947266e+00,5.000000000000000000e+00,5.000000000000000000e+00,5.000000000000000000e+00,5.000000000000000000e+00,5.000000000000000000e+00,5.000000000000000000e+00,5.000000000000000000e+00,5.000000000000000000e+00,5.000000000000000000e+00,5.000000000000000000e+00,5.000000000000000000e+00,5.000000000000000000e+00,5.000000000000000000e+00,5.000000000000000000e+00,5.000000000000000000e+00,5.000000000000000000e+00,5.000000000000000000e+00,5.000000000000000000e+00,5.000000000000000000e+00,5.000000000000000000e+00,5.000000000000000000e+00,5.000000000000000000e+00,5.000000000000000000e+00,5.000000000000000000e+00,5.000000000000000000e+00,5.000000000000000000e+00,5.000000000000000000e+00,5.000000000000000000e+00,5.000000000000000000e+00,5.000000000000000000e+00,5.000000000000000000e+00,5.000000000000000000e+00,5.000000000000000000e+00,5.000000000000000000e+00,5.000000000000000000e+00,5.000000000000000000e+00,5.000000000000000000e+00,5.000000000000000000e+00,5.000000000000000000e+00,5.000000000000000000e+00,5.000000000000000000e+00,5.000000000000000000e+00,5.000000000000000000e+00,5.000000000000000000e+00,5.000000000000000000e+00,6.633550524711608887e-01,6.430747509002685547e-01,6.223326325416564941e-01,6.039742827415466309e-01,5.972277522087097168e-01,5.906302928924560547e-01,5.841770172119140625e-01,5.778631567955017090e-01,5.716843605041503906e-01,5.656363368034362793e-01,5.597149729728698730e-01,5.539162158966064453e-01,5.484014749526977539e-01,5.494659543037414551e-01,5.505393147468566895e-01,5.516169071197509766e-01,5.530970692634582520e-01,5.550457239151000977e-01,5.570080876350402832e-01
3.100398778915405273e+00,3.179093122482299805e+00,3.261886119842529297e+00,3.349106550216674805e+00,3.441119909286499023e+00,3.538331985473632812e+00,3.641196250915527344e+00,3.750220298767089844e+00,3.865974426269531250e+00,3.989102602005004883e+00,4.120331287384033203e+00,4.260487079620361328e+00,4.410500049591064453e+00,4.571462631225585938e+00,4.744619369506835938e+00,4.931409835815429688e+00,5.000000000000000000e+00,5.000000000000000000e+00,5.000000000000000000e+00,5.000000000000000000e+00,5.000000000000000000e+00,5.000000000000000000e+00,5.000000000000000000e+00,5.000000000000000000e+00,5.000000000000000000e+00,5.000000000000000000e+00,5.000000000000000000e+00,5.000000000000000000e+00,5.000000000000000000e+00,5.000000000000000000e+00,5.000000000000000000e+00,5.000000000000000000e+00,5.000000000000000000e+00,5.000000000000000000e+00,5.000000000000000000e+00,5.000000000000000000e+00,5.000000000000000000e+00,5.000000000000000000e+00,5.000000000000000000e+00,5.000000000000000000e+00,5.000000000000000000e+00,5.000000000000000000e+00,5.000000000000000000e+00,5.000000000000000000e+00,5.000000000000000000e+00,5.000000000000000000e+00,5.000000000000000000e+00,5.000000000000000000e+00,5.000000000000000000e+00,5.000000000000000000e+00,5.000000000000000000e+00,5.000000000000000000e+00,5.000000000000000000e+00,5.000000000000000000e+00,5.000000000000000000e+00,5.000000000000000000e+00,5.000000000000000000e+00,5.000000000000000000e+00,5.000000000000000000e+00,5.000000000000000000e+00,6.755068898200988770e-01,6.555849909782409668e-01,6.343409419059753418e-01,6.150580048561096191e-01,6.080630421638488770e-01,6.012254357337951660e-01,5.945398211479187012e-01,5.880013108253479004e-01,5.816050171852111816e-01,5.753463506698608398e-01,5.692209601402282715e-01,5.626816153526306152e-01,5.582081675529479980e-01,5.575755238533020020e-01,5.582858324050903320e-01,5.589979887008666992e-01,5.599512457847595215e-01,5.610836744308471680e-01,5.630890130996704102e-01,3.711737394332885742e+00
3.100332975387573242e+00,3.179023742675781250e+00,3.261813163757324219e+00,3.349029779434204102e+00,3.441038608551025391e+00,3.538246154785156250e+00,3.641105413436889648e+00,3.750123739242553711e+00,3.865872144699096680e+00,3.988993406295776367e+00,4.120214462280273438e+00,4.260363101959228516e+00,4.410380840301513672e+00,4.571334362030029297e+00,4.744481086730957031e+00,4.931260108947753906e+00,5.000000000000000000e+00,5.000000000000000000e+00,5.000000000000000000e+00,5.000000000000000000e+00,5.000000000000000000e+00,5.000000000000000000e+00,5.000000000000000000e+00,5.000000000000000000e+00,5.000000000000000000e+00,5.000000000000000000e+00,5.000000000000000000e+00,5.000000000000000000e+00,5.000000000000000000e+00,5.000000000000000000e+00,5.000000000000000000e+00,5.000000000000000000e+00,5.000000000000000000e+00,5.000000000000000000e+00,5.000000000000000000e+00,5.000000000000000000e+00,5.000000000000000000e+00,5.000000000000000000e+00,5.000000000000000000e+00,5.000000000000000000e+00,5.000000000000000000e+00,5.000000000000000000e+00,5.000000000000000000e+00,5.000000000000000000e+00,5.000000000000000000e+00,5.000000000000000000e+00,5.000000000000000000e+00,5.000000000000000000e+00,5.000000000000000000e+00,5.000000000000000000e+00,5.000000000000000000e+00,5.000000000000000000e+00,5.000000000000000000e+00,5.000000000000000000e+00,5.000000000000000000e+00,5.000000000000000000e+00,5.000000000000000000e+00,5.000000000000000000e+00,5.000000000000000000e+00,6.881122589111328125e-01,6.674513220787048340e-01,6.468216776847839355e-01,6.265562176704406738e-01,6.192988157272338867e-01,6.122075915336608887e-01,6.052769422531127930e-01,5.985015034675598145e-01,5.918759703636169434e-01,5.849285125732421875e-01,5.779406428337097168e-01,5.713581442832946777e-01,5.684538483619689941e-01,5.663290023803710938e-01,5.670617818832397461e-01,5.677964687347412109e-01,5.685330629348754883e-01,5.692715644836425781e-01,5.700119733810424805e-01,3.810548543930053711e+00,3.711835384368896484e+00
3.100267171859741211e+00,3.178954362869262695e+00,3.261740207672119141e+00,3.348953008651733398e+00,3.440957546234130859e+00,3.538160085678100586e+00,3.641014575958251953e+00,3.750027418136596680e+00,3.865769624710083008e+00,3.988884449005126953e+00,4.120098114013671875e+00,4.260238647460937500e+00,4.410247802734375000e+00,4.571206092834472656e+00,4.744342803955078125e+00,4.931110858917236328e+00,5.000000000000000000e+00,5.000000000000000000e+00,5.000000000000000000e+00,5.000000000000000000e+00,5.000000000000000000e+00,5.000000000000000000e+00,5.000000000000000000e+00,5.000000000000000000e+00,5.000000000000000000e+00,5.000000000000000000e+00,5.000000000000000000e+00,5.000000000000000000e+00,5.000000000000000000e+00,5.000000000000000000e+00,5.000000000000000000e+00,5.000000000000000000e+00,5.000000000000000000e+00,5.000000000000000000e+00,5.000000000000000000e+00,5.000000000000000000e+00,5.000000000000000000e+00,5.000000000000000000e+00,5.000000000000000000e+00,5.000000000000000000e+00,5.000000000000000000e+00,5.000000000000000000e+00,5.000000000000000000e+00,5.000000000000000000e+00,5.000000000000000000e+00,5.000000000000000000e+00,5.000000000000000000e+00,5.000000000000000000e+00,5.000000000000000000e+00,5.000000000000000000e+00,5.000000000000000000e+00,5.000000000000000000e+00,5.000000000000000000e+00,5.000000000000000000e+00,5.000000000000000000e+00,5.000000000000000000e+00,5.000000000000000000e+00,5.000000000000000000e+00,5.000000000000000000e+00,6.797550916671752930e-01,6.595856547355651855e-01,6.384925246238708496e-01,6.309576034545898438e-01,6.235984563827514648e-01,6.164090633392333984e-01,6.090068817138671875e-01,6.014356613159179688e-01,5.940504074096679688e-01,5.868442654609680176e-01,5.820968151092529297e-01,5.790826678276062012e-01,5.760995745658874512e-01,5.761179924011230469e-01,5.768763422966003418e-01,5.776367187500000000e-01,5.783990621566772461e-01,4.024725437164306641e+00,3.914764404296875000e+00,3.810652017593383789e+00,3.711933612823486328e+00
3.100201129913330078e+00,3.178884983062744141e+00,3.261667013168334961e+00,3.348875999450683594e+00,3.440876245498657227e+00,3.538074254989624023e+00,3.640923738479614258e+00,3.749931097030639648e+00,3.865667104721069336e+00,3.988774776458740234e+00,4.119981765747070312e+00,4.260114192962646484e+00,4.410114765167236328e+00,4.571063995361328125e+00,4.744204521179199219e+00,4.930961608886718750e+00,5.000000000000000000e+00,5.000000000000000000e+00,5.000000000000000000e+00,5.000000000000000000e+00,5.000000000000000000e+00,5.000000000000000000e+00,5.000000000000000000e+00,5.000000000000000000e+00,5.000000000000000000e+00,5.000000000000000000e+00,5.000000000000000000e+00,5.000000000000000000e+00,5.000000000000000000e+00,5.000000000000000000e+00,5.000000000000000000e+00,5.000000000000000000e+00,5.000000000000000000e+00,5.000000000000000000e+00,5.000000000000000000e+00,5.000000000000000000e+00,5.000000000000000000e+00,5.000000000000000000e+00,5.000000000000000000e+00,5.000000000000000000e+00,5.000000000000000000e+00,5.000000000000000000e+00,5.000000000000000000e+00,5.000000000000000000e+00,5.000000000000000000e+00,5.000000000000000000e+00,5.000000000000000000e+00,5.000000000000000000e+00,5.000000000000000000e+00,5.000000000000000000e+00,5.000000000000000000e+00,5.000000000000000000e+00,5.000000000000000000e+00,5.000000000000000000e+00,5.000000000000000000e+00,5.000000000000000000e+00,5.000000000000000000e+00,5.000000000000000000e+00,6.928891539573669434e-01,6.715985536575317383e-01,6.508923768997192383e-01,6.430638432502746582e-01,6.351527571678161621e-01,6.269218921661376953e-01,6.189016103744506836e-01,6.110839843750000000e-01,6.034613251686096191e-01,5.964107513427734375e-01,5.932469367980957031e-01,5.901165604591369629e-01,5.870189666748046875e-01,5.854681730270385742e-01,5.862513780593872070e-01,5.870366692543029785e-01,5.878240466117858887e-01,4.141164779663085938e+00,4.024840831756591797e+00,3.914873600006103516e+00,3.810755014419555664e+00,3.712031364440917969e+00
3.100097179412841797e+00,3.178798437118530273e+00,3.261594057083129883e+00,3.348799228668212891e+00,3.440795183181762695e+00,3.537988424301147461e+00,3.640832424163818359e+00,3.749834537506103516e+00,3.865564823150634766e+00,3.988665819168090820e+00,4.119865417480468750e+00,4.259989738464355469e+00,4.409981250762939453e+00,4.570920467376708984e+00,4.744051456451416016e+00,4.930812358856201172e+00,5.000000000000000000e+00,5.000000000000000000e+00,5.000000000000000000e+00,5.000000000000000000e+00,5.000000000000000000e+00,5.000000000000000000e+00,5.000000000000000000e+00,5.000000000000000000e+00,5.000000000000000000e+00,5.000000000000000000e+00,5.000000000000000000e+00,5.000000000000000000e+00,5.000000000000000000e+00,5.000000000000000000e+00,5.000000000000000000e+00,5.000000000000000000e+00,5.000000000000000000e+00,5.000000000000000000e+00,5.000000000000000000e+00,5.000000000000000000e+00,5.000000000000000000e+00,5.000000000000000000e+00,5.000000000000000000e+00,5.000000000000000000e+00,5.000000000000000000e+00,5.000000000000000000e+00,5.000000000000000000e+00,5.000000000000000000e+00,5.000000000000000000e+00,5.000000000000000000e+00,5.000000000000000000e+00,5.000000000000000000e+00,5.000000000000000000e+00,5.000000000000000000e+00,5.000000000000000000e+00,5.000000000000000000e+00,5.000000000000000000e+00,5.000000000000000000e+00,5.000000000000000000e+00,5.000000000000000000e+00,5.000000000000000000e+00,7.122621536254882812e-01,6.873181462287902832e-01,6.640830636024475098e-01,6.546637415885925293e-01,6.459228992462158203e-01,6.374123096466064453e-01,6.291231513023376465e-01,6.210468411445617676e-01,6.131752133369445801e-01,6.081215739250183105e-01,6.048326492309570312e-01,6.015790104866027832e-01,5.983603000640869141e-01,5.951758027076721191e-01,5.959361195564270020e-01,5.967476367950439453e-01,5.975612998008728027e-01,4.264542579650878906e+00,4.141286849975585938e+00,4.024956226348876953e+00,3.914982080459594727e+00,3.810858249664306641e+00,3.712129354476928711e+00
3.099981784820556641e+00,3.178677320480346680e+00,3.261471986770629883e+00,3.348695516586303711e+00,3.440712213516235352e+00,3.537902593612670898e+00,3.640741586685180664e+00,3.749738216400146484e+00,3.865462303161621094e+00,3.988556861877441406e+00,4.119749069213867188e+00,4.259865283966064453e+00,4.409847736358642578e+00,4.570777416229248047e+00,4.743897438049316406e+00,4.930647373199462891e+00,5.000000000000000000e+00,5.000000000000000000e+00,5.000000000000000000e+00,5.000000000000000000e+00,5.000000000000000000e+00,5.000000000000000000e+00,5.000000000000000000e+00,5.000000000000000000e+00,5.000000000000000000e+00,5.000000000000000000e+00,5.000000000000000000e+00,5.000000000000000000e+00,5.000000000000000000e+00,5.000000000000000000e+00,5.000000000000000000e+00,5.000000000000000000e+00,5.000000000000000000e+00,5.000000000000000000e+00,5.000000000000000000e+00,5.000000000000000000e+00,5.000000000000000000e+00,5.000000000000000000e+00,5.000000000000000000e+00,5.000000000000000000e+00,5.000000000000000000e+00,5.000000000000000000e+00,5.000000000000000000e+00,5.000000000000000000e+00,5.000000000000000000e+00,5.000000000000000000e+00,5.000000000000000000e+00,5.000000000000000000e+00,5.000000000000000000e+00,5.000000000000000000e+00,5.000000000000000000e+00,5.000000000000000000e+00,5.000000000000000000e+00,5.000000000000000000e+00,5.000000000000000000e+00,5.000000000000000000e+00,5.000000000000000000e+00,7.063529491424560547e-01,6.818360090255737305e-01,6.645208001136779785e-01,6.560593247413635254e-01,6.478105783462524414e-01,6.396880149841308594e-01,6.313399076461791992e-01,6.237611770629882812e-01,6.203014254570007324e-01,6.168797612190246582e-01,6.134957075119018555e-01,6.101485490798950195e-01,6.068376302719116211e-01,6.059463024139404297e-01,6.067852377891540527e-01,4.534603118896484375e+00,4.395497322082519531e+00,4.264671802520751953e+00,4.141408920288085938e+00,4.025071144104003906e+00,3.915091276168823242e+00,3.810961723327636719e+00,3.712227582931518555e+00
3.099877834320068359e+00,3.178555965423583984e+00,3.261344671249389648e+00,3.348560810089111328e+00,3.440570592880249023e+00,3.537778854370117188e+00,3.640640497207641602e+00,3.749641418457031250e+00,3.865360021591186523e+00,3.988447666168212891e+00,4.119632720947265625e+00,4.259740829467773438e+00,4.409714221954345703e+00,4.570633888244628906e+00,4.743742942810058594e+00,4.930480480194091797e+00,5.000000000000000000e+00,5.000000000000000000e+00,5.000000000000000000e+00,5.000000000000000000e+00,5.000000000000000000e+00,5.000000000000000000e+00,5.000000000000000000e+00,5.000000000000000000e+00,5.000000000000000000e+00,5.000000000000000000e+00,5.000000000000000000e+00,5.000000000000000000e+00,5.000000000000000000e+00,5.000000000000000000e+00,5.000000000000000000e+00,5.000000000000000000e+00,5.000000000000000000e+00,5.000000000000000000e+00,5.000000000000000000e+00,5.000000000000000000e+00,5.000000000000000000e+00,5.000000000000000000e+00,5.000000000000000000e+00,5.000000000000000000e+00,5.000000000000000000e+00,5.000000000000000000e+00,5.000000000000000000e+00,5.000000000000000000e+00,5.000000000000000000e+00,5.000000000000000000e+00,5.000000000000000000e+00,5.000000000000000000e+00,5.000000000000000000e+00,5.000000000000000000e+00,5.000000000000000000e+00,5.000000000000000000e+00,5.000000000000000000e+00,5.000000000000000000e+00,5.000000000000000000e+00,5.000000000000000000e+00,5.000000000000000000e+00,7.005642652511596680e-01,6.764407157897949219e-01,6.655676960945129395e-01,6.570796966552734375e-01,6.488054394721984863e-01,6.407369971275329590e-01,6.341001391410827637e-01,6.329791545867919922e-01,6.294165849685668945e-01,6.258939504623413086e-01,6.224105358123779297e-01,6.189656257629394531e-01,6.162984371185302734e-01,6.171663403511047363e-01,4.682957649230957031e+00,4.534749507904052734e+00,4.395634651184082031e+00,4.264801025390625000e+00,4.141530990600585938e+00,4.025186538696289062e+00,3.915200471878051758e+00,3.811065196990966797e+00,3.712325334548950195e+00
3.099811315536499023e+00,3.178475618362426758e+00,3.261235952377319336e+00,3.348426580429077148e+00,3.440428256988525391e+00,3.537628889083862305e+00,3.640481233596801758e+00,3.749493598937988281e+00,3.865235805511474609e+00,3.988338708877563477e+00,4.119516372680664062e+00,4.259616374969482422e+00,4.409581184387207031e+00,4.570490837097167969e+00,4.743588447570800781e+00,4.930314064025878906e+00,5.000000000000000000e+00,5.000000000000000000e+00,5.000000000000000000e+00,5.000000000000000000e+00,5.000000000000000000e+00,5.000000000000000000e+00,5.000000000000000000e+00,5.000000000000000000e+00,5.000000000000000000e+00,5.000000000000000000e+00,5.000000000000000000e+00,5.000000000000000000e+00,5.000000000000000000e+00,5.000000000000000000e+00,5.000000000000000000e+00,5.000000000000000000e+00,5.000000000000000000e+00,5.000000000000000000e+00,5.000000000000000000e+00,5.000000000000000000e+00,5.000000000000000000e+00,5.000000000000000000e+00,5.000000000000000000e+00,5.000000000000000000e+00,5.000000000000000000e+00,5.000000000000000000e+00,5.000000000000000000e+00,5.000000000000000000e+00,5.000000000000000000e+00,5.000000000000000000e+00,5.000000000000000000e+00,5.000000000000000000e+00,5.000000000000000000e+00,5.000000000000000000e+00,5.000000000000000000e+00,5.000000000000000000e+00,5.000000000000000000e+00,5.000000000000000000e+00,5.000000000000000000e+00,5.000000000000000000e+00,7.203981280326843262e-01,6.948696970939636230e-01,6.753557920455932617e-01,6.666179299354553223e-01,6.581032872200012207e-01,6.498034000396728516e-01,6.419250965118408203e-01,6.393184661865234375e-01,6.381365060806274414e-01,6.369587779045104980e-01,6.351754665374755859e-01,6.315882205963134766e-01,6.280413269996643066e-01,6.279088258743286133e-01,4.841347694396972656e+00,4.683113574981689453e+00,4.534895896911621094e+00,4.395771980285644531e+00,4.264930725097656250e+00,4.141653060913085938e+00,4.025301933288574219e+00,3.915309667587280273e+00,3.811168193817138672e+00,3.712423563003540039e+00
3.099745035171508789e+00,3.178405761718750000e+00,3.261162757873535156e+00,3.348344087600708008e+00,3.440315008163452148e+00,3.537480831146240234e+00,3.640322446823120117e+00,3.749324798583984375e+00,3.865056753158569336e+00,3.988160371780395508e+00,4.119364261627197266e+00,4.259491920471191406e+00,4.409447669982910156e+00,4.570347309112548828e+00,4.743434429168701172e+00,4.930147171020507812e+00,5.000000000000000000e+00,5.000000000000000000e+00,5.000000000000000000e+00,5.000000000000000000e+00,5.000000000000000000e+00,5.000000000000000000e+00,5.000000000000000000e+00,5.000000000000000000e+00,5.000000000000000000e+00,5.000000000000000000e+00,5.000000000000000000e+00,5.000000000000000000e+00,5.000000000000000000e+00,5.000000000000000000e+00,5.000000000000000000e+00,5.000000000000000000e+00,5.000000000000000000e+00,5.000000000000000000e+00,5.000000000000000000e+00,5.000000000000000000e+00,5.000000000000000000e+00,5.000000000000000000e+00,5.000000000000000000e+00,5.000000000000000000e+00,5.000000000000000000e+00,5.000000000000000000e+00,5.000000000000000000e+00,5.000000000000000000e+00,5.000000000000000000e+00,5.000000000000000000e+00,5.000000000000000000e+00,5.000000000000000000e+00,5.000000000000000000e+00,5.000000000000000000e+00,5.000000000000000000e+00,5.000000000000000000e+00,5.000000000000000000e+00,5.000000000000000000e+00,5.000000000000000000e+00,5.000000000000000000e+00,7.143531441688537598e-01,6.892669200897216797e-01,6.764371395111083984e-01,6.676714420318603516e-01,6.591300368309020996e-01,6.510493159294128418e-01,6.451322436332702637e-01,6.445736289024353027e-01,6.433721184730529785e-01,6.421750187873840332e-01,6.409824490547180176e-01,6.397942304611206055e-01,5.000000000000000000e+00,5.000000000000000000e+00,4.841514587402343750e+00,4.683269977569580078e+00,4.535042285919189453e+00,4.395909786224365234e+00,4.265059947967529297e+00,4.141775131225585938e+00,4.025417327880859375e+00,3.915418386459350586e+00,3.811271667480468750e+00,3.712521791458129883e+00
3.099678754806518555e+00,3.178335905075073242e+00,3.261089086532592773e+00,3.348266839981079102e+00,3.440233230590820312e+00,3.537394762039184570e+00,3.640203475952148438e+00,3.749167680740356445e+00,3.864877700805664062e+00,3.987969875335693359e+00,4.119160652160644531e+00,4.259276866912841797e+00,4.409261226654052734e+00,4.570193767547607422e+00,4.743279933929443359e+00,4.929980278015136719e+00,5.000000000000000000e+00,5.000000000000000000e+00,5.000000000000000000e+00,5.000000000000000000e+00,5.000000000000000000e+00,5.000000000000000000e+00,5.000000000000000000e+00,5.000000000000000000e+00,5.000000000000000000e+00,5.000000000000000000e+00,5.000000000000000000e+00,5.000000000000000000e+00,5.000000000000000000e+00,5.000000000000000000e+00,5.000000000000000000e+00,5.000000000000000000e+00,5.000000000000000000e+00,5.000000000000000000e+00,5.000000000000000000e+00,5.000000000000000000e+00,5.000000000000000000e+00,5.000000000000000000e+00,5.000000000000000000e+00,5.000000000000000000e+00,5.000000000000000000e+00,5.000000000000000000e+00,5.000000000000000000e+00,5.000000000000000000e+00,5.000000000000000000e+00,5.000000000000000000e+00,5.000000000000000000e+00,5.000000000000000000e+00,5.000000000000000000e+00,5.000000000000000000e+00,5.000000000000000000e+00,5.000000000000000000e+00,5.000000000000000000e+00,5.000000000000000000e+00,5.000000000000000000e+00,7.350136041641235352e-01,7.084113359451293945e-01,6.865499615669250488e-01,6.775219440460205078e-01,6.687282919883728027e-01,6.604367494583129883e-01,6.525686979293823242e-01,6.505722999572753906e-01,6.499159932136535645e-01,6.486944556236267090e-01,6.474775075912475586e-01,6.462650895118713379e-01,6.450572609901428223e-01,5.000000000000000000e+00,5.000000000000000000e+00,4.841681003570556641e+00,4.683425903320312500e+00,4.535188674926757812e+00,4.396047115325927734e+00,4.265189647674560547e+00,4.141896724700927734e+00,4.025532245635986328e+00,3.915527582168579102e+00,3.811372518539428711e+00,3.712611198425292969e+00
3.099612474441528320e+00,3.178266286849975586e+00,3.261015653610229492e+00,3.348189353942871094e+00,3.440151691436767578e+00,3.537308216094970703e+00,3.640112400054931641e+00,3.749070405960083008e+00,3.864753007888793945e+00,3.987801551818847656e+00,4.118957519531250000e+00,4.259059429168701172e+00,4.409028053283691406e+00,4.569943428039550781e+00,4.743049144744873047e+00,4.929785728454589844e+00,5.000000000000000000e+00,5.000000000000000000e+00,5.000000000000000000e+00,5.000000000000000000e+00,5.000000000000000000e+00,5.000000000000000000e+00,5.000000000000000000e+00,5.000000000000000000e+00,5.000000000000000000e+00,5.000000000000000000e+00,5.000000000000000000e+00,5.000000000000000000e+00,5.000000000000000000e+00,5.000000000000000000e+00,5.000000000000000000e+00,5.000000000000000000e+00,5.000000000000000000e+00,5.000000000000000000e+00,5.000000000000000000e+00,5.000000000000000000e+00,5.000000000000000000e+00,5.000000000000000000e+00,5.000000000000000000e+00,5.000000000000000000e+00,5.000000000000000000e+00,5.000000000000000000e+00,5.000000000000000000e+00,5.000000000000000000e+00,5.000000000000000000e+00,5.000000000000000000e+00,5.000000000000000000e+00,5.000000000000000000e+00,5.000000000000000000e+00,5.000000000000000000e+00,5.000000000000000000e+00,5.000000000000000000e+00,5.000000000000000000e+00,5.000000000000000000e+00,5.000000000000000000e+00,7.287219762802124023e-01,7.025890350341796875e-01,6.876674890518188477e-01,6.786102652549743652e-01,6.700987815856933594e-01,6.620002985000610352e-01,6.565549969673156738e-01,6.561048030853271484e-01,6.553475856781005859e-01,6.541056036949157715e-01,6.528682708740234375e-01,6.516356468200683594e-01,5.000000000000000000e+00,5.000000000000000000e+00,5.000000000000000000e+00,4.841847896575927734e+00,4.683581829071044922e+00,4.535334587097167969e+00,4.396184921264648438e+00,4.265318870544433594e+00,4.142019271850585938e+00,4.025640964508056641e+00,3.915623664855957031e+00,3.811459541320800781e+00,3.712693691253662109e+00
3.099546194076538086e+00,3.178196430206298828e+00,3.260942459106445312e+00,3.348111867904663086e+00,3.440069913864135742e+00,3.537221908569335938e+00,3.640020847320556641e+00,3.748973608016967773e+00,3.864649772644042969e+00,3.987692117691040039e+00,4.118826389312744141e+00,4.258879184722900391e+00,4.408794879913330078e+00,4.569693088531494141e+00,4.742779731750488281e+00,4.929494380950927734e+00,5.000000000000000000e+00,5.000000000000000000e+00,5.000000000000000000e+00,5.000000000000000000e+00,5.000000000000000000e+00,5.000000000000000000e+00,5.000000000000000000e+00,5.000000000000000000e+00,5.000000000000000000e+00,5.000000000000000000e+00,5.000000000000000000e+00,5.000000000000000000e+00,5.000000000000000000e+00,5.000000000000000000e+00,5.000000000000000000e+00,5.000000000000000000e+00,5.000000000000000000e+00,5.000000000000000000e+00,5.000000000000000000e+00,5.000000000000000000e+00,5.000000000000000000e+00,5.000000000000000000e+00,5.000000000000000000e+00,5.000000000000000000e+00,5.000000000000000000e+00,5.000000000000000000e+00,5.000000000000000000e+00,5.000000000000000000e+00,5.000000000000000000e+00,5.000000000000000000e+00,5.000000000000000000e+00,5.000000000000000000e+00,5.000000000000000000e+00,5.000000000000000000e+00,5.000000000000000000e+00,5.000000000000000000e+00,5.000000000000000000e+00,5.000000000000000000e+00,7.502344846725463867e-01,7.225371599197387695e-01,6.981214880943298340e-01,6.887886524200439453e-01,6.800477504730224609e-01,6.717084646224975586e-01,6.635712385177612305e-01,6.621903181076049805e-01,6.617323160171508789e-01,6.608707308769226074e-01,6.596077084541320801e-01,6.583495140075683594e-01,5.000000000000000000e+00,5.000000000000000000e+00,5.000000000000000000e+00,5.000000000000000000e+00,4.842014789581298828e+00,4.683737754821777344e+00,4.535481452941894531e+00,4.396318435668945312e+00,4.265436649322509766e+00,4.142122268676757812e+00,4.025738239288330078e+00,3.915715456008911133e+00,3.811546564102172852e+00,3.712776422500610352e+00
3.099479913711547852e+00,3.178127050399780273e+00,3.260868787765502930e+00,3.348034620285034180e+00,3.439988136291503906e+00,3.537135601043701172e+00,3.639929533004760742e+00,3.748876571655273438e+00,3.864547014236450195e+00,3.987582206726074219e+00,4.118709564208984375e+00,4.258753776550292969e+00,4.408657073974609375e+00,4.569498062133789062e+00,4.742519378662109375e+00,4.929203033447265625e+00,5.000000000000000000e+00,5.000000000000000000e+00,5.000000000000000000e+00,5.000000000000000000e+00,5.000000000000000000e+00,5.000000000000000000e+00,5.000000000000000000e+00,5.000000000000000000e+00,5.000000000000000000e+00,5.000000000000000000e+00,5.000000000000000000e+00,5.000000000000000000e+00,5.000000000000000000e+00,5.000000000000000000e+00,5.000000000000000000e+00,5.000000000000000000e+00,5.000000000000000000e+00,5.000000000000000000e+00,5.000000000000000000e+00,5.000000000000000000e+00,5.000000000000000000e+00,5.000000000000000000e+00,5.000000000000000000e+00,5.000000000000000000e+00,5.000000000000000000e+00,5.000000000000000000e+00,5.000000000000000000e+00,5.000000000000000000e+00,5.000000000000000000e+00,5.000000000000000000e+00,5.000000000000000000e+00,5.000000000000000000e+00,5.000000000000000000e+00,5.000000000000000000e+00,5.000000000000000000e+00,5.000000000000000000e+00,5.000000000000000000e+00,5.000000000000000000e+00,7.436806559562683105e-01,7.164563536643981934e-01,6.992769837379455566e-01,6.902965903282165527e-01,6.817056536674499512e-01,6.733258962631225586e-01,6.683896183967590332e-01,6.679230332374572754e-01,6.674571633338928223e-01,6.664877533912658691e-01,6.652032136917114258e-01,6.639236211776733398e-01,5.000000000000000000e+00,5.000000000000000000e+00,5.000000000000000000e+00,5.000000000000000000e+00,4.842181682586669922e+00,4.683884620666503906e+00,4.535609245300292969e+00,4.396434307098388672e+00,4.265545845031738281e+00,4.142225265502929688e+00,4.025835514068603516e+00,3.915807247161865234e+00,3.811633586883544922e+00,3.712858915328979492e+00
3.099413633346557617e+00,3.178057193756103516e+00,3.260795593261718750e+00,3.347957134246826172e+00,3.439906597137451172e+00,3.537049055099487305e+00,3.639837980270385742e+00,3.748779773712158203e+00,3.864443778991699219e+00,3.987472772598266602e+00,4.118592262268066406e+00,4.258628845214843750e+00,4.408523082733154297e+00,4.569354057312011719e+00,4.742364406585693359e+00,4.928991794586181641e+00,5.000000000000000000e+00,5.000000000000000000e+00,5.000000000000000000e+00,5.000000000000000000e+00,5.000000000000000000e+00,5.000000000000000000e+00,5.000000000000000000e+00,5.000000000000000000e+00,5.000000000000000000e+00,5.000000000000000000e+00,5.000000000000000000e+00,5.000000000000000000e+00,5.000000000000000000e+00,5.000000000000000000e+00,5.000000000000000000e+00,5.000000000000000000e+00,5.000000000000000000e+00,5.000000000000000000e+00,5.000000000000000000e+00,5.000000000000000000e+00,5.000000000000000000e+00,5.000000000000000000e+00,5.000000000000000000e+00,5.000000000000000000e+00,5.000000000000000000e+00,5.000000000000000000e+00,5.000000000000000000e+00,5.000000000000000000e+00,5.000000000000000000e+00,5.000000000000000000e+00,5.000000000000000000e+00,5.000000000000000000e+00,5.000000000000000000e+00,5.000000000000000000e+00,5.000000000000000000e+00,5.000000000000000000e+00,5.000000000000000000e+00,7.669970989227294922e-01,7.373480796813964844e-01,7.104817628860473633e-01,7.008590698242187500e-01,6.920048594474792480e-01,6.833716034889221191e-01,6.749510765075683594e-01,6.742307543754577637e-01,6.737560033798217773e-01,6.732819080352783203e-01,6.722011566162109375e-01,6.708945035934448242e-01,5.000000000000000000e+00,5.000000000000000000e+00,5.000000000000000000e+00,5.000000000000000000e+00,5.000000000000000000e+00,4.842322349548339844e+00,4.684015750885009766e+00,4.535732746124267578e+00,4.396550178527832031e+00,4.265655040740966797e+00,4.142328262329101562e+00,4.025932788848876953e+00,3.915899515151977539e+00,3.811721086502075195e+00,3.712941646575927734e+00
3.099347352981567383e+00,3.177987575531005859e+00,3.260722160339355469e+00,3.347879886627197266e+00,3.439824819564819336e+00,3.536962985992431641e+00,3.639746665954589844e+00,3.748682498931884766e+00,3.864341020584106445e+00,3.987362861633300781e+00,4.118475437164306641e+00,4.258503437042236328e+00,4.408389091491699219e+00,4.569210052490234375e+00,4.742208957672119141e+00,4.928823947906494141e+00,5.000000000000000000e+00,5.000000000000000000e+00,5.000000000000000000e+00,5.000000000000000000e+00,5.000000000000000000e+00,5.000000000000000000e+00,5.000000000000000000e+00,5.000000000000000000e+00,5.000000000000000000e+00,5.000000000000000000e+00,5.000000000000000000e+00,5.000000000000000000e+00,5.000000000000000000e+00,5.000000000000000000e+00,5.000000000000000000e+00,5.000000000000000000e+00,5.000000000000000000e+00,5.000000000000000000e+00,5.000000000000000000e+00,5.000000000000000000e+00,5.000000000000000000e+00,5.000000000000000000e+00,5.000000000000000000e+00,5.000000000000000000e+00,5.000000000000000000e+00,5.000000000000000000e+00,5.000000000000000000e+00,5.000000000000000000e+00,5.000000000000000000e+00,5.000000000000000000e+00,5.000000000000000000e+00,5.000000000000000000e+00,5.000000000000000000e+00,5.000000000000000000e+00,5.000000000000000000e+00,5.000000000000000000e+00,5.000000000000000000e+00,7.600536942481994629e-01,7.313629984855651855e-01,7.121633887290954590e-01,7.026200890541076660e-01,6.937216520309448242e-01,6.850457787513732910e-01,6.806586980819702148e-01,6.801748275756835938e-01,6.796916723251342773e-01,6.792092919349670410e-01,6.780132651329040527e-01,5.000000000000000000e+00,5.000000000000000000e+00,5.000000000000000000e+00,5.000000000000000000e+00,5.000000000000000000e+00,5.000000000000000000e+00,4.842462539672851562e+00,4.684147357940673828e+00,4.535855770111083984e+00,4.396665573120117188e+00,4.265763759613037109e+00,4.142431259155273438e+00,4.026029586791992188e+00,3.915991544723510742e+00,3.811808109283447266e+00,3.713024616241455078e+00
3.099281072616577148e+00,3.177917718887329102e+00,3.260648965835571289e+00,3.347802400588989258e+00,3.439743280410766602e+00,3.536876440048217773e+00,3.639655113220214844e+00,3.748585939407348633e+00,3.864237785339355469e+00,3.987253427505493164e+00,4.118358135223388672e+00,4.258378505706787109e+00,4.408254623413085938e+00,4.569066047668457031e+00,4.742053985595703125e+00,4.928656578063964844e+00,5.000000000000000000e+00,5.000000000000000000e+00,5.000000000000000000e+00,5.000000000000000000e+00,5.000000000000000000e+00,5.000000000000000000e+00,5.000000000000000000e+00,5.000000000000000000e+00,5.000000000000000000e+00,5.000000000000000000e+00,5.000000000000000000e+00,5.000000000000000000e+00,5.000000000000000000e+00,5.000000000000000000e+00,5.000000000000000000e+00,5.000000000000000000e+00,5.000000000000000000e+00,5.000000000000000000e+00,5.000000000000000000e+00,5.000000000000000000e+00,5.000000000000000000e+00,5.000000000000000000e+00,5.000000000000000000e+00,5.000000000000000000e+00,5.000000000000000000e+00,5.000000000000000000e+00,5.000000000000000000e+00,5.000000000000000000e+00,5.000000000000000000e+00,5.000000000000000000e+00,5.000000000000000000e+00,5.000000000000000000e+00,5.000000000000000000e+00,5.000000000000000000e+00,5.000000000000000000e+00,5.000000000000000000e+00,7.882694602012634277e-01,7.536959648132324219e-01,7.254742980003356934e-01,7.147949934005737305e-01,7.049897313117980957e-01,6.954498887062072754e-01,6.872103810310363770e-01,6.867172122001647949e-01,6.862246990203857422e-01,6.857329607009887695e-01,6.852418780326843262e-01,6.839268207550048828e-01,5.000000000000000000e+00,5.000000000000000000e+00,5.000000000000000000e+00,5.000000000000000000e+00,5.000000000000000000e+00,5.000000000000000000e+00,4.842603206634521484e+00,4.684278964996337891e+00,4.535979747772216797e+00,4.396781444549560547e+00,4.265872955322265625e+00,4.142533779144287109e+00,4.026126861572265625e+00,3.916083335876464844e+00,3.811895132064819336e+00,3.713107109069824219e+00
3.099214792251586914e+00,3.177848339080810547e+00,3.260575532913208008e+00,3.347725391387939453e+00,3.439661502838134766e+00,3.536790370941162109e+00,3.639563560485839844e+00,3.748488664627075195e+00,3.864135026931762695e+00,3.987143516540527344e+00,4.118241310119628906e+00,4.258253574371337891e+00,4.408120632171630859e+00,4.568922042846679688e+00,4.741899013519287109e+00,4.928488731384277344e+00,5.000000000000000000e+00,5.000000000000000000e+00,5.000000000000000000e+00,5.000000000000000000e+00,5.000000000000000000e+00,5.000000000000000000e+00,5.000000000000000000e+00,5.000000000000000000e+00,5.000000000000000000e+00,5.000000000000000000e+00,5.000000000000000000e+00,5.000000000000000000e+00,5.000000000000000000e+00,5.000000000000000000e+00,5.000000000000000000e+00,5.000000000000000000e+00,5.000000000000000000e+00,5.000000000000000000e+00,5.000000000000000000e+00,5.000000000000000000e+00,5.000000000000000000e+00,5.000000000000000000e+00,5.000000000000000000e+00,5.000000000000000000e+00,5.000000000000000000e+00,5.000000000000000000e+00,5.000000000000000000e+00,5.000000000000000000e+00,5.000000000000000000e+00,5.000000000000000000e+00,5.000000000000000000e+00,5.000000000000000000e+00,5.000000000000000000e+00,5.000000000000000000e+00,5.000000000000000000e+00,5.000000000000000000e+00,7.788183689117431641e-01,7.474436759948730469e-01,7.276033163070678711e-01,7.174460291862487793e-01,7.075684666633605957e-01,6.979591250419616699e-01,6.935086250305175781e-01,6.928844451904296875e-01,6.923831105232238770e-01,6.918825507164001465e-01,6.913264393806457520e-01,5.000000000000000000e+00,5.000000000000000000e+00,5.000000000000000000e+00,5.000000000000000000e+00,5.000000000000000000e+00,5.000000000000000000e+00,5.000000000000000000e+00,4.842743873596191406e+00,4.684410572052001953e+00,4.536102771759033203e+00,4.396897792816162109e+00,4.265982151031494141e+00,4.142636775970458984e+00,4.026224136352539062e+00,3.916175127029418945e+00,3.811982393264770508e+00,3.713189601898193359e+00
3.099148511886596680e+00,3.177778482437133789e+00,3.260502338409423828e+00,3.347647905349731445e+00,3.439580202102661133e+00,3.536703824996948242e+00,3.639472246170043945e+00,3.748391628265380859e+00,3.864031791687011719e+00,3.987034082412719727e+00,4.118124485015869141e+00,4.258128166198730469e+00,4.407986640930175781e+00,4.568778038024902344e+00,4.741743564605712891e+00,4.928321361541748047e+00,5.000000000000000000e+00,5.000000000000000000e+00,5.000000000000000000e+00,5.000000000000000000e+00,5.000000000000000000e+00,5.000000000000000000e+00,5.000000000000000000e+00,5.000000000000000000e+00,5.000000000000000000e+00,5.000000000000000000e+00,5.000000000000000000e+00,5.000000000000000000e+00,5.000000000000000000e+00,5.000000000000000000e+00,5.000000000000000000e+00,5.000000000000000000e+00,5.000000000000000000e+00,5.000000000000000000e+00,5.000000000000000000e+00,5.000000000000000000e+00,5.000000000000000000e+00,5.000000000000000000e+00,5.000000000000000000e+00,5.000000000000000000e+00,5.000000000000000000e+00,5.000000000000000000e+00,5.000000000000000000e+00,5.000000000000000000e+00,5.000000000000000000e+00,5.000000000000000000e+00,5.000000000000000000e+00,5.000000000000000000e+00,5.000000000000000000e+00,5.000000000000000000e+00,5.000000000000000000e+00,5.000000000000000000e+00,7.707852125167846680e-01,7.412942051887512207e-01,7.303504347801208496e-01,7.201168537139892578e-01,7.101660966873168945e-01,7.013087272644042969e-01,7.001854777336120605e-01,6.994665265083312988e-01,6.987489461898803711e-01,6.981434226036071777e-01,6.974755525588989258e-01,5.000000000000000000e+00,5.000000000000000000e+00,5.000000000000000000e+00,5.000000000000000000e+00,5.000000000000000000e+00,5.000000000000000000e+00,5.000000000000000000e+00,4.842884540557861328e+00,4.684541702270507812e+00,4.536225795745849609e+00,4.397013664245605469e+00,4.266091346740722656e+00,4.142739772796630859e+00,4.026321411132812500e+00,3.916267156600952148e+00,3.812069416046142578e+00,3.713272333145141602e+00
3.099082231521606445e+00,3.177708864212036133e+00,3.260428667068481445e+00,3.347570657730102539e+00,3.439498424530029297e+00,3.536617755889892578e+00,3.639380693435668945e+00,3.748294830322265625e+00,3.863928556442260742e+00,3.986924171447753906e+00,4.118007183074951172e+00,4.258003234863281250e+00,4.407852649688720703e+00,4.568634033203125000e+00,4.741588592529296875e+00,4.855196475982666016e+00,4.853997230529785156e+00,4.852798938751220703e+00,4.851600646972656250e+00,4.850403785705566406e+00,4.849206924438476562e+00,4.848011016845703125e+00,4.846815586090087891e+00,4.845620632171630859e+00,4.844426155090332031e+00,4.843232631683349609e+00,4.842039585113525391e+00,4.840846538543701172e+00,4.839654922485351562e+00,4.838463783264160156e+00,4.837272644042968750e+00,4.836082458496093750e+00,4.834892749786376953e+00,4.833703517913818359e+00,4.832515239715576172e+00,4.831327438354492188e+00,4.830140113830566406e+00,4.828953266143798828e+00,4.827767372131347656e+00,4.826581954956054688e+00,4.825397014617919922e+00,4.824212551116943359e+00,4.823028564453125000e+00,4.821845531463623047e+00,4.820662975311279297e+00,4.819480895996093750e+00,4.818299293518066406e+00,4.817118644714355469e+00,4.815937995910644531e+00,4.814758300781250000e+00,4.813579082489013672e+00,8.007608652114868164e-01,7.642474174499511719e-01,7.437275648117065430e-01,7.331183552742004395e-01,7.228075861930847168e-01,7.126230001449584961e-01,7.077267169952392578e-01,7.069922089576721191e-01,7.062591314315795898e-01,7.055276632308959961e-01,7.047976851463317871e-01,4.799474239349365234e+00,4.798302650451660156e+00,4.797131538391113281e+00,4.795960903167724609e+00,4.794791221618652344e+00,4.793621540069580078e+00,4.792452812194824219e+00,4.791284561157226562e+00,4.790117263793945312e+00,4.684673309326171875e+00,4.536349296569824219e+00,4.397129058837890625e+00,4.266200065612792969e+00,4.142842292785644531e+00,4.026418209075927734e+00,3.916358947753906250e+00,3.812156438827514648e+00,3.713354825973510742e+00
3.099016189575195312e+00,3.177639007568359375e+00,3.260355710983276367e+00,3.347493171691894531e+00,3.439416885375976562e+00,3.536531209945678711e+00,3.639289617538452148e+00,3.748197555541992188e+00,3.771289348602294922e+00,3.770565748214721680e+00,3.769842624664306641e+00,3.769119977951049805e+00,3.768397331237792969e+00,3.767674684524536133e+00,3.766952514648437500e+00,3.766230821609497070e+00,3.765509366989135742e+00,3.764788150787353516e+00,3.764067173004150391e+00,3.763346195220947266e+00,3.762625932693481445e+00,3.761905908584594727e+00,3.761186122894287109e+00,3.760466575622558594e+00,3.759747266769409180e+00,3.759027719497680664e+00,3.758309125900268555e+00,3.757590770721435547e+00,3.756872653961181641e+00,3.756154537200927734e+00,3.755437135696411133e+00,3.754719257354736328e+00,3.754002332687377930e+00,3.753285408020019531e+00,3.752568960189819336e+00,3.751852750778198242e+00,3.751136779785156250e+00,3.750420570373535156e+00,3.749705076217651367e+00,3.748990058898925781e+00,3.748275041580200195e+00,3.747560501098632812e+00,3.746845722198486328e+00,3.746131658554077148e+00,3.745417833328247070e+00,3.744704484939575195e+00,3.743991136550903320e+00,3.743278264999389648e+00,3.742565155029296875e+00,3.741852760314941406e+00,3.741140604019165039e+00,7.910097241401672363e-01,7.578195929527282715e-01,7.465980052947998047e-01,7.359054684638977051e-01,7.253441810607910156e-01,7.167071700096130371e-01,7.146815657615661621e-01,7.139325737953186035e-01,7.131850123405456543e-01,7.124391198158264160e-01,3.733323812484741211e+00,3.732614994049072266e+00,3.731906414031982422e+00,3.731198072433471680e+00,3.730489969253540039e+00,3.729781627655029297e+00,3.729074001312255859e+00,3.728366851806640625e+00,3.727659702301025391e+00,3.726953029632568359e+00,3.726246356964111328e+00,3.725539922714233398e+00,3.724833726882934570e+00,3.724128007888793945e+00,3.723422765731811523e+00,3.722717523574829102e+00,3.722012281417846680e+00,3.721307516098022461e+00,3.713437557220458984e+00
3.083500146865844727e+00,3.083016395568847656e+00,3.082532644271850586e+00,3.082049369812011719e+00,3.081566333770751953e+00,3.081083059310913086e+00,3.080600023269653320e+00,3.080117464065551758e+00,3.079634666442871094e+00,3.079152107238769531e+00,3.078669786453247070e+00,3.078187704086303711e+00,3.077705860137939453e+00,3.077224016189575195e+00,3.076742172241210938e+00,3.076260566711425781e+00,3.075779199600219727e+00,3.075298070907592773e+00,3.074816942214965820e+00,3.074336051940917969e+00,3.073854923248291016e+00,3.073374509811401367e+00,3.072894096374511719e+00,3.072413682937622070e+00,3.071933507919311523e+00,3.071453571319580078e+00,3.070973396301269531e+00,3.070493698120117188e+00,3.070014238357543945e+00,3.069534778594970703e+00,3.069055557250976562e+00,3.068576335906982422e+00,3.068097114562988281e+00,3.067618370056152344e+00,3.067139625549316406e+00,3.066661119461059570e+00,3.066182851791381836e+00,3.065704584121704102e+00,3.065226316452026367e+00,3.064748525619506836e+00,3.064270734786987305e+00,3.063793182373046875e+00,3.063315629959106445e+00,3.062838077545166016e+00,3.062361001968383789e+00,3.061883926391601562e+00,3.061407089233398438e+00,3.060930252075195312e+00,3.060453891754150391e+00,3.059977054595947266e+00,8.239757418632507324e-01,7.818239927291870117e-01,7.605826258659362793e-01,7.494793534278869629e-01,7.385276556015014648e-01,7.278915047645568848e-01,7.229012846946716309e-01,7.217743992805480957e-01,7.210103869438171387e-01,7.202480435371398926e-01,3.054745912551879883e+00,3.054270982742309570e+00,3.053796529769897461e+00,3.053322076797485352e+00,3.052847862243652344e+00,3.052373886108398438e+00,3.051899671554565430e+00,3.051425933837890625e+00,3.050952434539794922e+00,3.050478935241699219e+00,3.050005674362182617e+00,3.049532413482666016e+00,3.049059152603149414e+00,3.048586130142211914e+00,3.048113584518432617e+00,3.047640800476074219e+00,3.047168493270874023e+00,3.046696186065673828e+00,3.046223878860473633e+00,3.045751810073852539e+00
2.605121135711669922e+00,2.604775667190551758e+00,2.604430675506591797e+00,2.604085683822631836e+00,2.603740692138671875e+00,2.603395700454711914e+00,2.603050947189331055e+00,2.602706193923950195e+00,2.602361440658569336e+00,2.602016687393188477e+00,2.601672410964965820e+00,2.601328134536743164e+00,2.600983858108520508e+00,2.600639820098876953e+00,2.600295782089233398e+00,2.599951505661010742e+00,2.599607706069946289e+00,2.599264144897460938e+00,2.598920345306396484e+00,2.598576784133911133e+00,2.598233222961425781e+00,2.597889661788940430e+00,2.597546339035034180e+00,2.597203254699707031e+00,2.596860170364379883e+00,2.596517086029052734e+00,2.596174001693725586e+00,2.595831155776977539e+00,2.595488309860229492e+00,2.595145702362060547e+00,2.594803094863891602e+00,2.594460725784301758e+00,2.594118118286132812e+00,2.593775749206542969e+00,2.593433618545532227e+00,2.593091487884521484e+00,2.592749357223510742e+00,2.592407464981079102e+00,2.592065334320068359e+00,2.591723680496215820e+00,2.591382026672363281e+00,2.591040372848510742e+00,2.590698957443237305e+00,2.590357542037963867e+00,2.590015888214111328e+00,2.589674711227416992e+00,2.589333534240722656e+00,2.588992595672607422e+00,2.588651657104492188e+00,2.588310718536376953e+00,8.136546015739440918e-01,7.751011252403259277e-01,7.635633945465087891e-01,7.521994113922119141e-01,7.411686778068542480e-01,7.327969670295715332e-01,7.297905087471008301e-01,7.290095090866088867e-01,7.282300591468811035e-01,2.584906816482543945e+00,2.584566831588745117e+00,2.584227085113525391e+00,2.583887338638305664e+00,2.583547592163085938e+00,2.583208084106445312e+00,2.582868814468383789e+00,2.582529306411743164e+00,2.582190036773681641e+00,2.581850767135620117e+00,2.581511735916137695e+00,2.581172704696655273e+00,2.580833911895751953e+00,2.580495119094848633e+00,2.580156087875366211e+00,2.579817533493041992e+00,2.579478979110717773e+00,2.579140424728393555e+00,2.578802108764648438e+00,2.578463792800903320e+00,2.578125476837158203e+00
2.255239725112915039e+00,2.254981040954589844e+00,2.254722356796264648e+00,2.254463672637939453e+00,2.254204988479614258e+00,2.253946542739868164e+00,2.253688097000122070e+00,2.253429651260375977e+00,2.253171443939208984e+00,2.252912998199462891e+00,2.252654790878295898e+00,2.252396583557128906e+00,2.252138376235961914e+00,2.251880407333374023e+00,2.251622438430786133e+00,2.251364707946777344e+00,2.251106739044189453e+00,2.250848770141601562e+00,2.250591278076171875e+00,2.250333547592163086e+00,2.250076055526733398e+00,2.249818325042724609e+00,2.249560832977294922e+00,2.249303340911865234e+00,2.249046087265014648e+00,2.248788833618164062e+00,2.248531579971313477e+00,2.248274087905883789e+00,2.248017072677612305e+00,2.247760057449340820e+00,2.247503042221069336e+00,2.247246026992797852e+00,2.246989250183105469e+00,2.246732234954833984e+00,2.246475458145141602e+00,2.246218681335449219e+00,2.245962142944335938e+00,2.245705604553222656e+00,2.245448827743530273e+00,2.245192289352416992e+00,2.244935989379882812e+00,2.244679450988769531e+00,2.244423151016235352e+00,2.244167089462280273e+00,2.243910789489746094e+00,2.243654489517211914e+00,2.243398427963256836e+00,2.243142366409301758e+00,2.242886543273925781e+00,2.242630720138549805e+00,8.270061612129211426e-01,7.781869173049926758e-01,7.663868069648742676e-01,7.549391984939575195e-01,7.438285946846008301e-01,7.392736077308654785e-01,7.371879816055297852e-01,7.363910079002380371e-01,2.240329980850219727e+00,2.240074634552001953e+00,2.239819526672363281e+00,2.239564180374145508e+00,2.239309072494506836e+00,2.239053964614868164e+00,2.238798856735229492e+00,2.238543987274169922e+00,2.238289117813110352e+00,2.238034248352050781e+00,2.237779140472412109e+00,2.237524509429931641e+00,2.237269878387451172e+00,2.237015247344970703e+00,2.236760616302490234e+00,2.236506223678588867e+00,2.236251592636108398e+00,2.235997200012207031e+00,2.235742807388305664e+00,2.235488653182983398e+00,2.235234498977661133e+00,2.234980344772338867e+00
1.988212347030639648e+00,1.988011360168457031e+00,1.987810254096984863e+00,1.987609148025512695e+00,1.987408280372619629e+00,1.987207293510437012e+00,1.987006306648254395e+00,1.986805558204650879e+00,1.986604690551757812e+00,1.986404061317443848e+00,1.986203193664550781e+00,1.986002445220947266e+00,1.985801935195922852e+00,1.985601186752319336e+00,1.985400557518005371e+00,1.985200166702270508e+00,1.984999299049377441e+00,1.984799027442932129e+00,1.984598517417907715e+00,1.984398245811462402e+00,1.984197854995727539e+00,1.983997702598571777e+00,1.983797311782836914e+00,1.983597040176391602e+00,1.983397006988525391e+00,1.983196735382080078e+00,1.982996821403503418e+00,1.982796669006347656e+00,1.982596635818481445e+00,1.982396841049194336e+00,1.982196807861328125e+00,1.981997013092041016e+00,1.981797099113464355e+00,1.981597423553466797e+00,1.981397509574890137e+00,1.981197714805603027e+00,1.980998158454895020e+00,1.980798482894897461e+00,1.980599045753479004e+00,1.980399370193481445e+00,1.980199694633483887e+00,1.980000376701354980e+00,1.979800820350646973e+00,1.979601502418518066e+00,1.979402065277099609e+00,1.979202628135681152e+00,1.979003548622131348e+00,1.978804230690002441e+00,1.978605151176452637e+00,8.427097201347351074e-01,8.117162585258483887e-01,7.811196446418762207e-01,7.692311406135559082e-01,7.576990723609924316e-01,7.496258020401000977e-01,7.458658218383789062e-01,7.447369694709777832e-01,1.976813912391662598e+00,1.976615309715270996e+00,1.976416468620300293e+00,1.976217865943908691e+00,1.976019024848937988e+00,1.975820541381835938e+00,1.975621819496154785e+00,1.975423216819763184e+00,1.975224852561950684e+00,1.975026249885559082e+00,1.974827885627746582e+00,1.974629402160644531e+00,1.974430918693542480e+00,1.974232792854309082e+00,1.974034428596496582e+00,1.973836302757263184e+00,1.973637938499450684e+00,1.973439693450927734e+00,1.973241686820983887e+00,1.973043560981750488e+00,1.972845673561096191e+00,1.972647547721862793e+00,1.972449779510498047e+00
1.777724504470825195e+00,1.777563571929931641e+00,1.777402758598327637e+00,1.777242183685302734e+00,1.777081370353698730e+00,1.776920676231384277e+00,1.776760220527648926e+00,1.776599526405334473e+00,1.776439070701599121e+00,1.776278376579284668e+00,1.776117801666259766e+00,1.775957465171813965e+00,1.775796890258789062e+00,1.775636434555053711e+00,1.775476098060607910e+00,1.775315642356872559e+00,1.775155305862426758e+00,1.774995088577270508e+00,1.774834752082824707e+00,1.774674415588378906e+00,1.774514079093933105e+00,1.774353981018066406e+00,1.774193763732910156e+00,1.774033546447753906e+00,1.773873567581176758e+00,1.773713350296020508e+00,1.773553490638732910e+00,1.773393392562866211e+00,1.773233413696289062e+00,1.773073434829711914e+00,1.772913455963134766e+00,1.772753596305847168e+00,1.772593617439270020e+00,1.772433876991271973e+00,1.772274017333984375e+00,1.772114157676696777e+00,1.771954536437988281e+00,1.771794676780700684e+00,1.771635055541992188e+00,1.771475315093994141e+00,1.771315574645996094e+00,1.771156072616577148e+00,1.770996451377868652e+00,1.770836949348449707e+00,1.770677328109741211e+00,1.770517945289611816e+00,1.770358443260192871e+00,1.770198941230773926e+00,8.633401393890380859e-01,8.301688432693481445e-01,8.033759593963623047e-01,7.928141355514526367e-01,7.841049432754516602e-01,7.604792118072509766e-01,7.564047574996948242e-01,7.532742619514465332e-01,7.746808528900146484e-01,1.768606185913085938e+00,1.768446922302246094e+00,1.768287777900695801e+00,1.768128871917724609e+00,1.767969727516174316e+00,1.767810821533203125e+00,1.767651677131652832e+00,1.767492651939392090e+00,1.767333865165710449e+00,1.767174839973449707e+00,1.767016172409057617e+00,1.766857147216796875e+00,1.766698360443115234e+00,1.766539692878723145e+00,1.766380786895751953e+00,1.766222238540649414e+00,1.766063451766967773e+00,1.765904784202575684e+00,1.765746116638183594e+00,1.765587449073791504e+00,1.765429019927978516e+00,1.765270352363586426e+00,1.765111923217773438e+00
1.607537627220153809e+00,1.607406139373779297e+00,1.607274770736694336e+00,1.607143282890319824e+00,1.607011914253234863e+00,1.606880545616149902e+00,1.606749057769775391e+00,1.606617808341979980e+00,1.606486439704895020e+00,1.606355071067810059e+00,1.606223940849304199e+00,1.606092572212219238e+00,1.605961322784423828e+00,1.605830192565917969e+00,1.605698943138122559e+00,1.605567693710327148e+00,1.605436682701110840e+00,1.605305552482604980e+00,1.605174303054809570e+00,1.605043292045593262e+00,1.604912161827087402e+00,1.604781150817871094e+00,1.604650139808654785e+00,1.604519128799438477e+00,1.604388117790222168e+00,1.604257106781005859e+00,1.604126214981079102e+00,1.603995203971862793e+00,1.603864431381225586e+00,1.603733539581298828e+00,1.603602647781372070e+00,1.603471875190734863e+00,1.603340983390808105e+00,1.603210330009460449e+00,1.603079557418823242e+00,1.602948665618896484e+00,1.602818131446838379e+00,1.602687358856201172e+00,1.602556705474853516e+00,1.602426052093505859e+00,1.602295517921447754e+00,1.602164864540100098e+00,1.602034211158752441e+00,1.601903676986694336e+00,1.601773023605346680e+00,1.601642608642578125e+00,1.601512074470520020e+00,1.601381540298461914e+00,8.502442240715026855e-01,8.248267769813537598e-01,8.015424609184265137e-01,7.933945655822753906e-01,7.861290574073791504e-01,7.809918522834777832e-01,7.633073329925537109e-01,1.600338578224182129e+00,1.600208163261413574e+00,1.600077986717224121e+00,1.599947690963745117e+00,1.599817395210266113e+00,1.599687218666076660e+00,1.599557042121887207e+00,1.599426984786987305e+00,1.599296689033508301e+00,1.599166512489318848e+00,1.599036574363708496e+00,1.598906397819519043e+00,1.598776459693908691e+00,1.598646283149719238e+00,1.598516464233398438e+00,1.598386406898498535e+00,1.598256349563598633e+00,1.598126411437988281e+00,1.597996473312377930e+00,1.597866654396057129e+00,1.597736716270446777e+00,1.597606778144836426e+00,1.597476959228515625e+00,1.597347140312194824e+00,1.597217440605163574e+00
1.467088937759399414e+00,1.466979503631591797e+00,1.466869950294494629e+00,1.466760516166687012e+00,1.466651082038879395e+00,1.466541528701782227e+00,1.466432213783264160e+00,1.466322779655456543e+00,1.466213345527648926e+00,1.466104030609130859e+00,1.465994596481323242e+00,1.465885281562805176e+00,1.465775966644287109e+00,1.465666651725769043e+00,1.465557336807250977e+00,1.465448141098022461e+00,1.465338826179504395e+00,1.465229511260986328e+00,1.465120315551757812e+00,1.465011119842529297e+00,1.464901804924011230e+00,1.464792728424072266e+00,1.464683532714843750e+00,1.464574456214904785e+00,1.464465260505676270e+00,1.464356184005737305e+00,1.464247107505798340e+00,1.464137911796569824e+00,1.464028835296630859e+00,1.463919758796691895e+00,1.463810682296752930e+00,1.463701725006103516e+00,1.463592648506164551e+00,1.463483810424804688e+00,1.463374733924865723e+00,1.463265895843505859e+00,1.463156938552856445e+00,1.463047981262207031e+00,1.462939143180847168e+00,1.462830185890197754e+00,1.462721467018127441e+00,1.462612509727478027e+00,1.462503671646118164e+00,1.462394952774047852e+00,1.462286114692687988e+00,1.462177395820617676e+00,1.462068557739257812e+00,8.692784905433654785e-01,8.433811068534851074e-01,8.182497620582580566e-01,7.983127236366271973e-01,7.911344766616821289e-01,7.846198081970214844e-01,7.817841172218322754e-01,1.461198925971984863e+00,1.461090445518493652e+00,1.460981726646423340e+00,1.460873246192932129e+00,1.460764646530151367e+00,1.460656046867370605e+00,1.460547566413879395e+00,1.460438966751098633e+00,1.460330486297607422e+00,1.460222005844116211e+00,1.460113644599914551e+00,1.460005044937133789e+00,1.459896564483642578e+00,1.459788203239440918e+00,1.459679722785949707e+00,1.459571480751037598e+00,1.459463000297546387e+00,1.459354639053344727e+00,1.459246277809143066e+00,1.459137916564941406e+00,1.459029674530029297e+00,1.458921313285827637e+00,1.458813190460205078e+00,1.458704829216003418e+00,1.458596587181091309e+00,1.458488345146179199e+00
1.349210023880004883e+00,1.349117398262023926e+00,1.349024772644042969e+00,1.348932147026062012e+00,1.348839521408081055e+00,1.348747014999389648e+00,1.348654508590698242e+00,1.348561882972717285e+00,1.348469495773315430e+00,1.348376870155334473e+00,1.348284363746643066e+00,1.348191976547241211e+00,1.348099470138549805e+00,1.348006963729858398e+00,1.347914576530456543e+00,1.347822070121765137e+00,1.347729563713073730e+00,1.347637295722961426e+00,1.347544789314270020e+00,1.347452521324157715e+00,1.347360134124755859e+00,1.347267746925354004e+00,1.347175478935241699e+00,1.347083091735839844e+00,1.346990704536437988e+00,1.346898436546325684e+00,1.346806168556213379e+00,1.346713781356811523e+00,1.346621632575988770e+00,1.346529364585876465e+00,1.346436977386474609e+00,1.346344709396362305e+00,1.346252441406250000e+00,1.346160292625427246e+00,1.346068143844604492e+00,1.345975995063781738e+00,1.345883727073669434e+00,1.345791578292846680e+00,1.345699548721313477e+00,1.345607280731201172e+00,1.345515251159667969e+00,1.345423102378845215e+00,1.345330953598022461e+00,1.345238924026489258e+00,1.345146894454956055e+00,1.345054864883422852e+00,1.344962835311889648e+00,8.649353384971618652e-01,8.393655419349670410e-01,8.169140815734863281e-01,7.952945828437805176e-01,7.860961556434631348e-01,7.800432443618774414e-01,7.806916236877441406e-01,1.344226837158203125e+00,1.344135046005249023e+00,1.344043016433715820e+00,1.343951225280761719e+00,1.343859314918518066e+00,1.343767523765563965e+00,1.343675613403320312e+00,1.343583703041076660e+00,1.343491911888122559e+00,1.343400001525878906e+00,1.343308210372924805e+00,1.343216419219970703e+00,1.343124628067016602e+00,1.343032836914062500e+00,1.342941045761108398e+00,1.342849373817443848e+00,1.342757582664489746e+00,1.342665910720825195e+00,1.342574119567871094e+00,1.342482447624206543e+00,1.342390775680541992e+00,1.342299103736877441e+00,1.342207431793212891e+00,1.342115759849548340e+00,1.342024087905883789e+00,1.341932535171508789e+00
1.248865008354187012e+00,1.248785734176635742e+00,1.248706459999084473e+00,1.248627066612243652e+00,1.248547792434692383e+00,1.248468399047851562e+00,1.248389124870300293e+00,1.248309850692749023e+00,1.248230576515197754e+00,1.248151302337646484e+00,1.248072028160095215e+00,1.247992753982543945e+00,1.247913479804992676e+00,1.247834324836730957e+00,1.247755050659179688e+00,1.247675776481628418e+00,1.247596740722656250e+00,1.247517466545104980e+00,1.247438311576843262e+00,1.247359156608581543e+00,1.247279882431030273e+00,1.247200846672058105e+00,1.247121691703796387e+00,1.247042536735534668e+00,1.246963500976562500e+00,1.246884346008300781e+00,1.246805191040039062e+00,1.246726155281066895e+00,1.246647000312805176e+00,1.246567964553833008e+00,1.246488928794860840e+00,1.246409773826599121e+00,1.246330738067626953e+00,1.246251821517944336e+00,1.246172666549682617e+00,1.246093630790710449e+00,1.246014595031738281e+00,1.245935678482055664e+00,1.245856761932373047e+00,1.245777726173400879e+00,1.245698809623718262e+00,1.245619773864746094e+00,1.245540976524353027e+00,1.245461940765380859e+00,1.245383024215698242e+00,1.245304226875305176e+00,1.245225191116333008e+00,1.245146393775939941e+00,8.389902710914611816e-01,8.181016445159912109e-01,7.902942299842834473e-01,7.793820500373840332e-01,7.708311676979064941e-01,7.695840001106262207e-01,7.820178270339965820e-01,1.244515657424926758e+00,1.244436860084533691e+00,1.244358062744140625e+00,1.244279265403747559e+00,1.244200587272644043e+00,1.244121789932250977e+00,1.244042992591857910e+00,1.243964314460754395e+00,1.243885517120361328e+00,1.243806838989257812e+00,1.243728160858154297e+00,1.243649363517761230e+00,1.243570804595947266e+00,1.243492007255554199e+00,1.243413448333740234e+00,1.243334770202636719e+00,1.243256211280822754e+00,1.243177533149719238e+00,1.243098855018615723e+00,1.243020296096801758e+00,1.242941617965698242e+00,1.242863059043884277e+00,1.242784500122070312e+00,1.242705821990966797e+00,1.242627382278442383e+00
1.162412881851196289e+00,1.162344217300415039e+00,1.162275433540344238e+00,1.162206768989562988e+00,1.162137985229492188e+00,1.162069201469421387e+00,1.162000536918640137e+00,1.161931872367858887e+00,1.161863088607788086e+00,1.161794543266296387e+00,1.161725759506225586e+00,1.161657094955444336e+00,1.161588549613952637e+00,1.161519765853881836e+00,1.161451220512390137e+00,1.161382555961608887e+00,1.161313891410827637e+00,1.161245346069335938e+00,1.161176681518554688e+00,1.161108016967773438e+00,1.161039590835571289e+00,1.160970926284790039e+00,1.160902261734008789e+00,1.160833835601806641e+00,1.160765171051025391e+00,1.160696625709533691e+00,1.160628080368041992e+00,1.160559535026550293e+00,1.160490989685058594e+00,1.160422563552856445e+00,1.160354018211364746e+00,1.160285472869873047e+00,1.160217046737670898e+00,1.160148501396179199e+00,1.160079956054687500e+00,1.160011529922485352e+00,1.159943103790283203e+00,1.159874677658081055e+00,1.159806132316589355e+00,1.159737706184387207e+00,1.159669280052185059e+00,1.159600853919982910e+00,1.159532427787780762e+00,1.159464001655578613e+00,1.159395575523376465e+00,1.159327268600463867e+00,1.159258842468261719e+00,1.159190535545349121e+00,1.159122109413146973e+00,8.339940309524536133e-01,7.938165068626403809e-01,7.715438008308410645e-01,7.628120183944702148e-01,7.612984776496887207e-01,7.691283226013183594e-01,1.158643841743469238e+00,1.158575534820556641e+00,1.158507227897644043e+00,1.158438920974731445e+00,1.158370733261108398e+00,1.158302426338195801e+00,1.158234119415283203e+00,1.158165931701660156e+00,1.158097624778747559e+00,1.158029437065124512e+00,1.157961249351501465e+00,1.157893061637878418e+00,1.157824754714965820e+00,1.157756567001342773e+00,1.157688379287719727e+00,1.157620191574096680e+00,1.157552123069763184e+00,1.157483935356140137e+00,1.157415747642517090e+00,1.157347559928894043e+00,1.157279372215270996e+00,1.157211303710937500e+00,1.157143115997314453e+00,1.157075047492980957e+00,1.157006978988647461e+00
1.087154984474182129e+00,1.087094783782958984e+00,1.087034702301025391e+00,1.086974620819091797e+00,1.086914420127868652e+00,1.086854457855224609e+00,1.086794257164001465e+00,1.086734175682067871e+00,1.086674094200134277e+00,1.086614012718200684e+00,1.086553931236267090e+00,1.086493849754333496e+00,1.086433768272399902e+00,1.086373805999755859e+00,1.086313724517822266e+00,1.086253643035888672e+00,1.086193680763244629e+00,1.086133599281311035e+00,1.086073637008666992e+00,1.086013555526733398e+00,1.085953593254089355e+00,1.085893511772155762e+00,1.085833668708801270e+00,1.085773587226867676e+00,1.085713624954223633e+00,1.085653662681579590e+00,1.085593700408935547e+00,1.085533738136291504e+00,1.085473775863647461e+00,1.085413813591003418e+00,1.085353851318359375e+00,1.085294008255004883e+00,1.085234045982360840e+00,1.085174083709716797e+00,1.085114240646362305e+00,1.085054278373718262e+00,1.084994435310363770e+00,1.084934473037719727e+00,1.084874629974365234e+00,1.084814786911010742e+00,1.084754824638366699e+00,1.084694981575012207e+00,1.084635019302368164e+00,1.084575176239013672e+00,1.084515333175659180e+00,1.084455490112304688e+00,1.084395647048950195e+00,1.084335803985595703e+00,1.084275960922241211e+00,1.084216237068176270e+00,7.967083454132080078e-01,7.665648460388183594e-01,7.554875612258911133e-01,7.522489428520202637e-01,7.578610181808471680e-01,1.083857536315917969e+00,1.083797693252563477e+00,1.083737969398498535e+00,1.083678245544433594e+00,1.083618521690368652e+00,1.083558678627014160e+00,1.083499073982238770e+00,1.083439230918884277e+00,1.083379507064819336e+00,1.083319902420043945e+00,1.083260178565979004e+00,1.083200454711914062e+00,1.083140730857849121e+00,1.083081007003784180e+00,1.083021402359008789e+00,1.082961678504943848e+00,1.082902073860168457e+00,1.082842350006103516e+00,1.082782745361328125e+00,1.082723021507263184e+00,1.082663416862487793e+00,1.082603812217712402e+00,1.082544207572937012e+00,1.082484602928161621e+00,1.082424879074096680e+00
1.021049380302429199e+00,1.020996332168579102e+00,1.020943284034729004e+00,1.020890235900878906e+00,1.020837187767028809e+00,1.020784139633178711e+00,1.020731210708618164e+00,1.020678162574768066e+00,1.020625114440917969e+00,1.020572185516357422e+00,1.020519137382507324e+00,1.020466208457946777e+00,1.020413279533386230e+00,1.020360231399536133e+00,1.020307183265686035e+00,1.020254373550415039e+00,1.020201325416564941e+00,1.020148396492004395e+00,1.020095467567443848e+00,1.020042538642883301e+00,1.019989490509033203e+00,1.019936680793762207e+00,1.019883632659912109e+00,1.019830703735351562e+00,1.019777894020080566e+00,1.019724965095520020e+00,1.019672036170959473e+00,1.019619107246398926e+00,1.019566178321838379e+00,1.019513368606567383e+00,1.019460439682006836e+00,1.019407629966735840e+00,1.019354701042175293e+00,1.019301891326904297e+00,1.019248962402343750e+00,1.019196152687072754e+00,1.019143342971801758e+00,1.019090414047241211e+00,1.019037604331970215e+00,1.018984794616699219e+00,1.018931865692138672e+00,1.018879175186157227e+00,1.018826246261596680e+00,1.018773436546325684e+00,1.018720746040344238e+00,1.018667817115783691e+00,1.018615007400512695e+00,1.018562197685241699e+00,1.018509387969970703e+00,1.018456697463989258e+00,1.018403887748718262e+00,7.603338956832885742e-01,7.476219534873962402e-01,7.419628500938415527e-01,7.457307577133178711e-01,7.618849277496337891e-01,1.018087387084960938e+00,1.018034696578979492e+00,1.017981886863708496e+00,1.017929196357727051e+00,1.017876505851745605e+00,1.017823815345764160e+00,1.017771124839782715e+00,1.017718315124511719e+00,1.017665743827819824e+00,1.017612934112548828e+00,1.017560362815856934e+00,1.017507672309875488e+00,1.017454981803894043e+00,1.017402291297912598e+00,1.017349600791931152e+00,1.017297029495239258e+00,1.017244338989257812e+00,1.017191767692565918e+00,1.017139077186584473e+00,1.017086386680603027e+00,1.017033815383911133e+00,1.016981124877929688e+00,1.016928553581237793e+00,1.016875982284545898e+00
9.625222086906433105e-01,9.624750614166259766e-01,9.624279141426086426e-01,9.623808264732360840e-01,9.623336791992187500e-01,9.622865319252014160e-01,9.622394442558288574e-01,9.621922969818115234e-01,9.621452689170837402e-01,9.620981812477111816e-01,9.620510339736938477e-01,9.620039463043212891e-01,9.619568586349487305e-01,9.619097709655761719e-01,9.618627429008483887e-01,9.618156552314758301e-01,9.617685675621032715e-01,9.617214798927307129e-01,9.616744518280029297e-01,9.616273641586303711e-01,9.615803956985473633e-01,9.615333080291748047e-01,9.614862799644470215e-01,9.614391922950744629e-01,9.613921642303466797e-01,9.613451361656188965e-01,9.612981677055358887e-01,9.612511396408081055e-01,9.612041115760803223e-01,9.611570835113525391e-01,9.611100554466247559e-01,9.610631465911865234e-01,9.610161781311035156e-01,9.609691500663757324e-01,9.609221220016479492e-01,9.608751535415649414e-01,9.608281254768371582e-01,9.607812762260437012e-01,9.607343077659606934e-01,9.606872797012329102e-01,9.606403112411499023e-01,9.605933427810668945e-01,9.605463743209838867e-01,9.604995250701904297e-01,9.604525566101074219e-01,9.604056477546691895e-01,9.603586792945861816e-01,9.603117108345031738e-01,9.602649211883544922e-01,9.602178335189819336e-01,9.601709246635437012e-01,7.532460093498229980e-01,7.390873432159423828e-01,7.326555252075195312e-01,7.331104874610900879e-01,7.462970614433288574e-01,7.743159532546997070e-01,9.598427414894104004e-01,9.597958922386169434e-01,9.597489833831787109e-01,9.597020745277404785e-01,9.596553444862365723e-01,9.596084356307983398e-01,9.595615863800048828e-01,9.595146775245666504e-01,9.594678282737731934e-01,9.594210982322692871e-01,9.593742489814758301e-01,9.593273997306823730e-01,9.592805504798889160e-01,9.592337012290954590e-01,9.591869711875915527e-01,9.591401219367980957e-01,9.590933322906494141e-01,9.590464830398559570e-01,9.589996933937072754e-01,9.589529633522033691e-01,9.589061737060546875e-01,9.588593840599060059e-01,9.588125944137573242e-01
9.103408455848693848e-01,9.102986454963684082e-01,9.102566242218017578e-01,9.102144241333007812e-01,9.101722240447998047e-01,9.101300835609436035e-01,9.100879430770874023e-01,9.100458621978759766e-01,9.100037217140197754e-01,9.099615812301635742e-01,9.099193811416625977e-01,9.098772406578063965e-01,9.098351001739501953e-01,9.097930788993835449e-01,9.097509384155273438e-01,9.097088575363159180e-01,9.096667170524597168e-01,9.096245765686035156e-01,9.095824956893920898e-01,9.095404744148254395e-01,9.094983339309692383e-01,9.094562530517578125e-01,9.094141125679016113e-01,9.093720316886901855e-01,9.093299508094787598e-01,9.092879891395568848e-01,9.092459082603454590e-01,9.092038273811340332e-01,9.091617465019226074e-01,9.091196656227111816e-01,9.090777039527893066e-01,9.090356230735778809e-01,9.089935421943664551e-01,9.089515209197998047e-01,9.089094400405883789e-01,9.088674187660217285e-01,9.088254570960998535e-01,9.087834358215332031e-01,9.087413549423217773e-01,9.086993336677551270e-01,9.086573123931884766e-01,9.086152911186218262e-01,9.085733890533447266e-01,9.085313677787780762e-01,9.084893465042114258e-01,9.084473252296447754e-01,9.084053039550781250e-01,9.083634018898010254e-01,9.083214402198791504e-01,9.082794189453125000e-01,9.082374572753906250e-01,7.478346228599548340e-01,7.326008081436157227e-01,7.261925935745239258e-01,7.246602177619934082e-01,7.366014122962951660e-01,7.520481348037719727e-01,9.079437255859375000e-01,9.079017639160156250e-01,9.078598022460937500e-01,9.078178405761718750e-01,9.077759981155395508e-01,9.077340364456176758e-01,9.076920747756958008e-01,9.076501727104187012e-01,9.076082110404968262e-01,9.075663685798645020e-01,9.075244665145874023e-01,9.074825644493103027e-01,9.074406623840332031e-01,9.073987007141113281e-01,9.073569178581237793e-01,9.073150157928466797e-01,9.072731137275695801e-01,9.072312116622924805e-01,9.071894288063049316e-01,9.071475267410278320e-01,9.071056246757507324e-01,9.070637822151184082e-01,9.070218801498413086e-01
