3.780757427215576172e+00,3.740405082702636719e+00,3.700904607772827148e+00,3.662230253219604492e+00,3.624355316162109375e+00,3.587256193161010742e+00,3.550908565521240234e+00,3.515290260314941406e+00,3.480379581451416016e+00,3.446155071258544922e+00,3.412597417831420898e+00,3.379686832427978516e+00,3.347405195236206055e+00,3.315734148025512695e+00,3.284657001495361328e+00,3.254156827926635742e+00,3.224217891693115234e+00,3.194824695587158203e+00,3.165962934494018555e+00,3.137617588043212891e+00,3.109775543212890625e+00,3.082423210144042969e+00,3.055547952651977539e+00,3.029137134552001953e+00,3.003179073333740234e+00,2.977661848068237305e+00,2.952574968338012695e+00,2.927906990051269531e+00,2.903648138046264648e+00,2.879787683486938477e+00,2.856316328048706055e+00,2.833224296569824219e+00,2.810502767562866211e+00,2.788142919540405273e+00,2.766135692596435547e+00,2.744473457336425781e+00,2.723147630691528320e+00,2.702150821685791016e+00,6.902356147766113281e-01,6.836454272270202637e-01,6.791282296180725098e-01,6.746702194213867188e-01,6.699631810188293457e-01,6.647199392318725586e-01,6.613693833351135254e-01,6.573806405067443848e-01,6.534397006034851074e-01,6.495456695556640625e-01,6.527483463287353516e-01,6.566531658172607422e-01,6.606050729751586914e-01,2.438880920410156250e+00,2.422025680541992188e+00,1.006667494773864746e+00,2.389003753662109375e+00,9.787883758544921875e-01,2.356870651245117188e+00,2.341125726699829102e+00,2.325590133666992188e+00,2.310259103775024414e+00,2.295129299163818359e+00,2.280195951461791992e+00,2.265455961227416992e+00,2.250905036926269531e+00,2.236540079116821289e+00,2.222357273101806641e+00,2.208353042602539062e+00,2.194524288177490234e+00,2.180867910385131836e+00,2.167380094528198242e+00,2.154058218002319336e+00,2.140899181365966797e+00,2.127899885177612305e+00,2.115057468414306641e+00,2.102369070053100586e+00,2.089832067489624023e+00,2.077443838119506836e+00,2.065201520919799805e+00,2.053102493286132812e+00,2.041144609451293945e+00
3.780758380889892578e+00,3.740405559539794922e+00,3.700905561447143555e+00,3.662230491638183594e+00,3.624356031417846680e+00,3.587256431579589844e+00,3.550909280776977539e+00,3.515290737152099609e+00,3.480379819869995117e+00,3.446155309677124023e+00,3.412597656250000000e+00,3.379687070846557617e+00,3.347405433654785156e+00,3.315734624862670898e+00,3.284657239913940430e+00,3.254157304763793945e+00,3.224218130111694336e+00,3.194825410842895508e+00,3.165963172912597656e+00,3.137618303298950195e+00,3.109775781631469727e+00,3.082423686981201172e+00,3.055548191070556641e+00,3.029137611389160156e+00,3.003179311752319336e+00,2.977662324905395508e+00,2.952575206756591797e+00,2.927907466888427734e+00,2.903648376464843750e+00,2.879787921905517578e+00,2.856316566467285156e+00,2.833224534988403320e+00,2.810503005981445312e+00,2.788143157958984375e+00,2.766136169433593750e+00,2.744473695755004883e+00,2.723148107528686523e+00,2.702151060104370117e+00,7.058417797088623047e-01,6.858467459678649902e-01,6.813004612922668457e-01,6.768140196800231934e-01,6.723862886428833008e-01,6.675354242324829102e-01,6.635675430297851562e-01,6.595522761344909668e-01,6.555853486061096191e-01,6.517632603645324707e-01,6.526325345039367676e-01,6.565486788749694824e-01,6.605122089385986328e-01,2.438881158828735352e+00,2.422025680541992188e+00,2.405401468276977539e+00,2.389003992080688477e+00,2.372828722000122070e+00,2.356870889663696289e+00,2.341126203536987305e+00,2.325590372085571289e+00,2.310259580612182617e+00,2.295129299163818359e+00,2.280195951461791992e+00,2.265455961227416992e+00,2.250905275344848633e+00,2.236540079116821289e+00,2.222357273101806641e+00,2.208353281021118164e+00,2.194524526596069336e+00,2.180868148803710938e+00,2.167380332946777344e+00,2.154058456420898438e+00,2.140899419784545898e+00,2.127899885177612305e+00,2.115057706832885742e+00,2.102369308471679688e+00,2.089832544326782227e+00,2.077444076538085938e+00,2.065201759338378906e+00,2.053102970123291016e+00,2.041144847869873047e+00
3.780758619308471680e+00,3.740406274795532227e+00,3.700906038284301758e+00,3.662231445312500000e+00,3.624356508255004883e+00,3.587257146835327148e+00,3.550909519195556641e+00,3.515291452407836914e+00,3.480380296707153320e+00,3.446156024932861328e+00,3.412598133087158203e+00,3.379687786102294922e+00,3.347405910491943359e+00,3.315735101699829102e+00,3.284657478332519531e+00,3.254157781600952148e+00,3.224218606948852539e+00,3.194825649261474609e+00,3.165963649749755859e+00,3.137618541717529297e+00,3.109776496887207031e+00,3.082424163818359375e+00,3.055548906326293945e+00,3.029137849807739258e+00,3.003179788589477539e+00,2.977662563323974609e+00,2.952575683593750000e+00,2.927907705307006836e+00,2.903648853302001953e+00,2.879788398742675781e+00,2.856317043304443359e+00,2.833224773406982422e+00,2.810503482818603516e+00,2.788143157958984375e+00,2.766136407852172852e+00,2.744473934173583984e+00,2.723148345947265625e+00,2.702151298522949219e+00,7.221699357032775879e-01,6.880623102188110352e-01,6.834866404533386230e-01,6.789714694023132324e-01,6.745155453681945801e-01,6.701177358627319336e-01,6.657803058624267578e-01,6.618053913116455078e-01,6.579447984695434570e-01,6.541899442672729492e-01,6.541855335235595703e-01,6.561492085456848145e-01,6.599704623222351074e-01,2.438881635665893555e+00,2.422026157379150391e+00,2.405401945114135742e+00,2.389004468917846680e+00,2.372829198837280273e+00,2.356871366500854492e+00,2.341126680374145508e+00,2.325590848922729492e+00,2.310260057449340820e+00,2.295130014419555664e+00,2.280196905136108398e+00,2.265456676483154297e+00,2.250905990600585938e+00,2.236541032791137695e+00,2.222358226776123047e+00,2.208353996276855469e+00,2.194525241851806641e+00,2.180868864059448242e+00,2.167381048202514648e+00,2.154059171676635742e+00,2.140900135040283203e+00,2.127900838851928711e+00,2.115058422088623047e+00,2.102370262145996094e+00,2.089833021163940430e+00,2.077444791793823242e+00,2.065202474594116211e+00,2.053103446960449219e+00,2.041145563125610352e+00
3.780759096145629883e+00,3.740406751632690430e+00,3.700906753540039062e+00,3.662231683731079102e+00,3.624357223510742188e+00,3.587257623672485352e+00,3.550910234451293945e+00,3.515291690826416016e+00,3.480381011962890625e+00,3.446156501770019531e+00,3.412598848342895508e+00,3.379688262939453125e+00,3.347406387329101562e+00,3.315735340118408203e+00,3.284658193588256836e+00,3.254158020019531250e+00,3.224218845367431641e+00,3.194826126098632812e+00,3.165964126586914062e+00,3.137619018554687500e+00,3.109776735305786133e+00,3.082424640655517578e+00,3.055549383163452148e+00,3.029138326644897461e+00,3.003180503845214844e+00,2.977663516998291016e+00,2.952576398849487305e+00,2.927908658981323242e+00,2.903649568557739258e+00,2.879789113998413086e+00,2.856317758560180664e+00,2.833225727081298828e+00,2.810504436492919922e+00,2.788144111633300781e+00,2.766137361526489258e+00,2.744475126266479492e+00,2.723149061203002930e+00,2.702152490615844727e+00,2.681476831436157227e+00,6.908843517303466797e-01,6.856869459152221680e-01,6.811853051185607910e-01,6.767792701721191406e-01,6.724298596382141113e-01,6.681903004646301270e-01,6.642551422119140625e-01,6.604104638099670410e-01,6.566346883773803711e-01,6.561112999916076660e-01,6.580865979194641113e-01,6.600738763809204102e-01,2.438882589340209961e+00,2.422027349472045898e+00,2.405402898788452148e+00,2.389005422592163086e+00,2.372830152511596680e+00,2.356872081756591797e+00,2.341127395629882812e+00,2.325591802597045898e+00,2.310261011123657227e+00,2.295130729675292969e+00,2.280197620391845703e+00,2.265457630157470703e+00,2.250906944274902344e+00,2.236541748046875000e+00,2.222358942031860352e+00,2.208354711532592773e+00,2.194525957107543945e+00,2.180869579315185547e+00,2.167382001876831055e+00,2.154059886932373047e+00,2.140900850296020508e+00,2.127901554107666016e+00,2.115059137344360352e+00,2.102370738983154297e+00,2.089833974838256836e+00,2.077445507049560547e+00,2.065203189849853516e+00,2.053104162216186523e+00,2.041146278381347656e+00
3.780760526657104492e+00,3.740407705307006836e+00,3.700907707214355469e+00,3.662233114242553711e+00,3.624358177185058594e+00,3.587258815765380859e+00,3.550911664962768555e+00,3.515293359756469727e+00,3.480382204055786133e+00,3.446157932281494141e+00,3.412600278854370117e+00,3.379689693450927734e+00,3.347407817840576172e+00,3.315737009048461914e+00,3.284659862518310547e+00,3.254159688949584961e+00,3.224220752716064453e+00,3.194827795028686523e+00,3.165965557098388672e+00,3.137620687484741211e+00,3.109778642654418945e+00,3.082426071166992188e+00,3.055550813674926758e+00,3.029139995574951172e+00,3.003181934356689453e+00,2.977664709091186523e+00,2.952577829360961914e+00,2.927910089492797852e+00,2.903650999069213867e+00,2.879790544509887695e+00,2.856319189071655273e+00,2.833226919174194336e+00,2.810505628585815430e+00,2.788145542144775391e+00,2.766138792037963867e+00,2.744476079940795898e+00,2.723150491714477539e+00,2.702153682708740234e+00,2.681478023529052734e+00,7.028942108154296875e-01,6.884447932243347168e-01,6.838625669479370117e-01,6.793792843818664551e-01,6.749964952468872070e-01,6.706876754760742188e-01,6.667503714561462402e-01,6.629020571708679199e-01,6.590978503227233887e-01,6.580972671508789062e-01,6.601111292839050293e-01,6.621372699737548828e-01,6.808884143829345703e-01,2.422028064727783203e+00,2.405403852462768555e+00,2.389006614685058594e+00,2.372830867767333984e+00,2.356873273849487305e+00,2.341128587722778320e+00,2.325592756271362305e+00,2.310261726379394531e+00,2.295131683349609375e+00,2.280198574066162109e+00,2.265458583831787109e+00,2.250907659530639648e+00,2.236542701721191406e+00,2.222359657287597656e+00,2.208355665206909180e+00,2.194526910781860352e+00,2.180870294570922852e+00,2.167382717132568359e+00,2.154060840606689453e+00,2.140901803970336914e+00,2.127902269363403320e+00,2.115059852600097656e+00,2.102371692657470703e+00,2.089834451675415039e+00,2.077446222305297852e+00,2.065203905105590820e+00,2.053105115890502930e+00,2.041146993637084961e+00
3.780762672424316406e+00,3.740410327911376953e+00,3.700910091400146484e+00,3.662235260009765625e+00,3.624360561370849609e+00,3.587261199951171875e+00,3.550913572311401367e+00,3.515295267105102539e+00,3.480384349822998047e+00,3.446160078048706055e+00,3.412601947784423828e+00,3.379691600799560547e+00,3.347409963607788086e+00,3.315738677978515625e+00,3.284661531448364258e+00,3.254161596298217773e+00,3.224222660064697266e+00,3.194829463958740234e+00,3.165967464447021484e+00,3.137622356414794922e+00,3.109780073165893555e+00,3.082427740097045898e+00,3.055552482604980469e+00,3.029141426086425781e+00,3.003183364868164062e+00,2.977666378021240234e+00,2.952579498291015625e+00,2.927911281585693359e+00,2.903652429580688477e+00,2.879791975021362305e+00,2.856320381164550781e+00,2.833228349685668945e+00,2.810507059097290039e+00,2.788146734237670898e+00,2.766139745712280273e+00,2.744477510452270508e+00,2.723151922225952148e+00,2.702154874801635742e+00,2.681479215621948242e+00,7.153285145759582520e-01,6.914057135581970215e-01,6.867842078208923340e-01,6.821851730346679688e-01,6.772238612174987793e-01,6.723297834396362305e-01,6.673645377159118652e-01,6.626494526863098145e-01,6.604460477828979492e-01,6.610057950019836426e-01,6.623730659484863281e-01,6.644132137298583984e-01,2.438884496688842773e+00,2.422029256820678711e+00,2.405405044555664062e+00,2.389007329940795898e+00,2.372832059860229492e+00,2.356874227523803711e+00,2.341129302978515625e+00,2.325593709945678711e+00,2.310262680053710938e+00,2.295132637023925781e+00,2.280199527740478516e+00,2.265459299087524414e+00,2.250908613204956055e+00,2.236543416976928711e+00,2.222360610961914062e+00,2.208356618881225586e+00,2.194527626037597656e+00,2.180871248245239258e+00,2.167383432388305664e+00,2.154061555862426758e+00,2.140902280807495117e+00,2.127902984619140625e+00,2.115060567855834961e+00,2.102372169494628906e+00,2.089835405349731445e+00,2.077446937561035156e+00,2.065204620361328125e+00,2.053105592727661133e+00,2.041147708892822266e+00
3.780765295028686523e+00,3.740412712097167969e+00,3.700912237167358398e+00,3.662237644195556641e+00,3.624362945556640625e+00,3.587263107299804688e+00,3.550915718078613281e+00,3.515297412872314453e+00,3.480386257171630859e+00,3.446161985397338867e+00,3.412604093551635742e+00,3.379693746566772461e+00,3.347411632537841797e+00,3.315740823745727539e+00,3.284663438796997070e+00,3.254163026809692383e+00,3.224224090576171875e+00,3.194831132888793945e+00,3.165969133377075195e+00,3.137623786926269531e+00,3.109781742095947266e+00,3.082429409027099609e+00,3.055553913116455078e+00,3.029143095016479492e+00,3.003185033798217773e+00,2.977667808532714844e+00,2.952580690383911133e+00,2.927912950515747070e+00,2.903653860092163086e+00,2.879793167114257812e+00,2.856321811676025391e+00,2.833229780197143555e+00,2.810508251190185547e+00,2.788148164749145508e+00,2.766141176223754883e+00,2.744478702545166016e+00,2.723152875900268555e+00,2.702156066894531250e+00,2.681480646133422852e+00,7.214833498001098633e-01,6.917655467987060547e-01,6.860368847846984863e-01,6.806287169456481934e-01,6.756899356842041016e-01,6.707748174667358398e-01,6.671148538589477539e-01,6.648816466331481934e-01,6.629852652549743652e-01,6.642179489135742188e-01,6.654553413391113281e-01,6.667047739028930664e-01,2.438885688781738281e+00,2.422029972076416016e+00,2.405405759811401367e+00,2.389008283615112305e+00,2.372833013534545898e+00,2.356874942779541016e+00,2.341130256652832031e+00,2.325594663619995117e+00,2.310263633728027344e+00,2.295133590698242188e+00,2.280200242996215820e+00,2.265460252761840820e+00,2.250909328460693359e+00,2.236544370651245117e+00,2.222361564636230469e+00,2.208357334136962891e+00,2.194528579711914062e+00,2.180871963500976562e+00,2.167384147644042969e+00,2.154062271118164062e+00,2.140903234481811523e+00,2.127903699874877930e+00,2.115061283111572266e+00,2.102373123168945312e+00,2.089836120605468750e+00,2.077447652816772461e+00,2.065205335617065430e+00,2.053106307983398438e+00,2.041148185729980469e+00
3.780767440795898438e+00,3.740414857864379883e+00,3.700914621353149414e+00,3.662240028381347656e+00,3.624364852905273438e+00,3.587265491485595703e+00,3.550918102264404297e+00,3.515299320220947266e+00,3.480388402938842773e+00,3.446164131164550781e+00,3.412605762481689453e+00,3.379695415496826172e+00,3.347413539886474609e+00,3.315742731094360352e+00,3.284665107727050781e+00,3.254164934158325195e+00,3.224225997924804688e+00,3.194832801818847656e+00,3.165970802307128906e+00,3.137625694274902344e+00,3.109783411026000977e+00,3.082430839538574219e+00,3.055555582046508789e+00,3.029144763946533203e+00,3.003186225891113281e+00,2.977669239044189453e+00,2.952582359313964844e+00,2.927914142608642578e+00,2.903655052185058594e+00,2.879794597625732422e+00,2.856323242187500000e+00,2.833231210708618164e+00,2.810509681701660156e+00,2.788149595260620117e+00,2.766142368316650391e+00,2.744479894638061523e+00,2.723154306411743164e+00,2.702157258987426758e+00,2.681481599807739258e+00,7.046943306922912598e-01,6.917034983634948730e-01,6.858972311019897461e-01,6.801876425743103027e-01,6.745722889900207520e-01,6.709589958190917969e-01,6.683555245399475098e-01,6.657721400260925293e-01,6.673638820648193359e-01,6.685720682144165039e-01,6.697846055030822754e-01,6.710014939308166504e-01,2.438886642456054688e+00,2.422031164169311523e+00,2.405406951904296875e+00,2.389009237289428711e+00,2.372833728790283203e+00,2.356875896453857422e+00,2.341131210327148438e+00,2.325595378875732422e+00,2.310264587402343750e+00,2.295134544372558594e+00,2.280201196670532227e+00,2.265460968017578125e+00,2.250910282135009766e+00,2.236545085906982422e+00,2.222362279891967773e+00,2.208358049392700195e+00,2.194529294967651367e+00,2.180872678756713867e+00,2.167385101318359375e+00,2.154063224792480469e+00,2.140903949737548828e+00,2.127904653549194336e+00,2.115062236785888672e+00,2.102373600006103516e+00,2.089836835861206055e+00,2.077448368072509766e+00,2.065206050872802734e+00,2.053107023239135742e+00,2.041148900985717773e+00
3.780770063400268555e+00,3.740417480468750000e+00,3.700916767120361328e+00,3.662241935729980469e+00,3.624367237091064453e+00,3.587267637252807617e+00,3.550919771194458008e+00,3.515301465988159180e+00,3.480390548706054688e+00,3.446165800094604492e+00,3.412607908248901367e+00,3.379697561264038086e+00,3.347415208816528320e+00,3.315744400024414062e+00,3.284667015075683594e+00,3.254166841506958008e+00,3.224227666854858398e+00,3.194834709167480469e+00,3.165972471237182617e+00,3.137627124786376953e+00,3.109784841537475586e+00,3.082432508468627930e+00,3.055557250976562500e+00,3.029146194458007812e+00,3.003187894821166992e+00,2.977670907974243164e+00,2.952583551406860352e+00,2.927915811538696289e+00,2.903656721115112305e+00,2.879796028137207031e+00,2.856324672698974609e+00,2.833232641220092773e+00,2.810510873794555664e+00,2.788150787353515625e+00,2.766143798828125000e+00,2.744481325149536133e+00,2.723155260086059570e+00,2.702158451080322266e+00,2.681483030319213867e+00,6.972444057464599609e-01,6.905195116996765137e-01,6.847330331802368164e-01,6.790426969528198242e-01,6.738640666007995605e-01,6.712380647659301758e-01,6.686323881149291992e-01,6.676796674728393555e-01,6.720362901687622070e-01,6.732614636421203613e-01,6.744911074638366699e-01,8.217485547065734863e-01,2.438887596130371094e+00,2.422032117843627930e+00,2.405407667160034180e+00,2.389010190963745117e+00,2.372834920883178711e+00,2.356876850128173828e+00,2.341132164001464844e+00,2.325596332550048828e+00,2.310265541076660156e+00,2.295135259628295898e+00,2.280202150344848633e+00,2.265461921691894531e+00,2.250910997390747070e+00,2.236546039581298828e+00,2.222363233566284180e+00,2.208358764648437500e+00,2.194530010223388672e+00,2.180873632431030273e+00,2.167385816574096680e+00,2.154063701629638672e+00,2.140904664993286133e+00,2.127905368804931641e+00,2.115062713623046875e+00,2.102374553680419922e+00,2.089837551116943359e+00,2.077449083328247070e+00,2.065206766128540039e+00,2.053107738494873047e+00,2.041149854660034180e+00
3.780772447586059570e+00,3.740419387817382812e+00,3.700919151306152344e+00,3.662244319915771484e+00,3.624369144439697266e+00,3.587269544601440430e+00,3.550922155380249023e+00,3.515303611755371094e+00,3.480392217636108398e+00,3.446167945861816406e+00,3.412610054016113281e+00,3.379699230194091797e+00,3.347417354583740234e+00,3.315746307373046875e+00,3.284668684005737305e+00,3.254168510437011719e+00,3.224229574203491211e+00,3.194836378097534180e+00,3.165973901748657227e+00,3.137628793716430664e+00,3.109786510467529297e+00,3.082433938980102539e+00,3.055558681488037109e+00,3.029147624969482422e+00,3.003189563751220703e+00,2.977672100067138672e+00,2.952585220336914062e+00,2.927917242050170898e+00,2.903657913208007812e+00,2.879797458648681641e+00,2.856326103210449219e+00,2.833233833312988281e+00,2.810512065887451172e+00,2.788151979446411133e+00,2.766144990921020508e+00,2.744482517242431641e+00,2.723156690597534180e+00,2.702159881591796875e+00,7.390766739845275879e-01,6.961694359779357910e-01,6.893395781517028809e-01,6.835727691650390625e-01,6.779016256332397461e-01,6.741454601287841797e-01,6.715173125267028809e-01,6.700963973999023438e-01,6.709435582160949707e-01,6.767745614051818848e-01,6.780170798301696777e-01,6.792641878128051758e-01,8.286073207855224609e-01,2.438888549804687500e+00,2.422033071517944336e+00,2.405408859252929688e+00,2.389011383056640625e+00,2.372835636138916016e+00,2.356877803802490234e+00,2.341133117675781250e+00,2.325597286224365234e+00,2.310266256332397461e+00,2.295136213302612305e+00,2.280203104019165039e+00,2.265462875366210938e+00,2.250911951065063477e+00,2.236546993255615234e+00,2.222363948822021484e+00,2.208359718322753906e+00,2.194530963897705078e+00,2.180874347686767578e+00,2.167386531829833984e+00,2.154064655303955078e+00,2.140905618667602539e+00,2.127906084060668945e+00,2.115063667297363281e+00,2.102375268936157227e+00,2.089838266372680664e+00,2.077449798583984375e+00,2.065207481384277344e+00,2.053108453750610352e+00,2.041150331497192383e+00
3.780774593353271484e+00,3.740422010421752930e+00,3.700921535491943359e+00,3.662246227264404297e+00,3.624371528625488281e+00,3.587271928787231445e+00,3.550924062728881836e+00,3.515305519104003906e+00,3.480394363403320312e+00,3.446170091629028320e+00,3.412611722946166992e+00,3.379701137542724609e+00,3.347419261932373047e+00,3.315747976303100586e+00,3.284670591354370117e+00,3.254170417785644531e+00,3.224231004714965820e+00,3.194838047027587891e+00,3.165975809097290039e+00,3.137630701065063477e+00,3.109787940979003906e+00,3.082435607910156250e+00,3.055560350418090820e+00,3.029149055480957031e+00,3.003190994262695312e+00,2.977673768997192383e+00,2.952586650848388672e+00,2.927918434143066406e+00,2.903659343719482422e+00,2.879798889160156250e+00,2.856327295303344727e+00,2.833235263824462891e+00,2.810513496398925781e+00,2.788153171539306641e+00,2.766146183013916016e+00,2.744483709335327148e+00,2.723157882690429688e+00,2.702160835266113281e+00,7.296655774116516113e-01,6.950978040695190430e-01,6.881636977195739746e-01,6.824164390563964844e-01,6.770783066749572754e-01,6.744271516799926758e-01,6.725306510925292969e-01,6.724757552146911621e-01,6.757335662841796875e-01,6.815801858901977539e-01,6.828403472900390625e-01,8.129191398620605469e-01,8.355815410614013672e-01,2.438889503479003906e+00,2.422034025192260742e+00,2.405409574508666992e+00,2.389012098312377930e+00,2.372836589813232422e+00,2.356878757476806641e+00,2.341133832931518555e+00,2.325598239898681641e+00,2.310267210006713867e+00,2.295136928558349609e+00,2.280203819274902344e+00,2.265463590621948242e+00,2.250912904739379883e+00,2.236547708511352539e+00,2.222364664077758789e+00,2.208360671997070312e+00,2.194531679153442383e+00,2.180875062942504883e+00,2.167387485504150391e+00,2.154065370559692383e+00,2.140906333923339844e+00,2.127906799316406250e+00,2.115064382553100586e+00,2.102375984191894531e+00,2.089838981628417969e+00,2.077450513839721680e+00,2.065207958221435547e+00,2.053109169006347656e+00,2.041151046752929688e+00
3.780777215957641602e+00,3.740424394607543945e+00,3.700923681259155273e+00,3.662248849868774414e+00,3.624373912811279297e+00,3.587273836135864258e+00,3.550926208496093750e+00,3.515307664871215820e+00,3.480396270751953125e+00,3.446171760559082031e+00,3.412613868713378906e+00,3.379703283309936523e+00,3.347420930862426758e+00,3.315749883651733398e+00,3.284672498703002930e+00,3.254172086715698242e+00,3.224232912063598633e+00,3.194839715957641602e+00,3.165977239608764648e+00,3.137632131576538086e+00,3.109789848327636719e+00,3.082437515258789062e+00,3.055561542510986328e+00,3.029150724411010742e+00,3.003192424774169922e+00,2.977675199508666992e+00,2.952588081359863281e+00,2.927920103073120117e+00,2.903661012649536133e+00,2.879800081253051758e+00,2.856328725814819336e+00,2.833236694335937500e+00,2.810514688491821289e+00,2.788154602050781250e+00,2.766147613525390625e+00,2.744484901428222656e+00,2.723159074783325195e+00,8.720604181289672852e-01,7.060214281082153320e-01,6.940294504165649414e-01,6.869918107986450195e-01,6.812639832496643066e-01,6.773623824119567871e-01,6.749826669692993164e-01,6.749273538589477539e-01,6.748720407485961914e-01,6.805924773216247559e-01,6.864544749259948730e-01,6.877328157424926758e-01,8.190686702728271484e-01,8.425665497779846191e-01,2.438890695571899414e+00,2.422034978866577148e+00,2.405410766601562500e+00,2.389013051986694336e+00,2.372837543487548828e+00,2.356879711151123047e+00,2.341134786605834961e+00,2.325599193572998047e+00,2.310267925262451172e+00,2.295137882232666016e+00,2.280204772949218750e+00,2.265464544296264648e+00,2.250913619995117188e+00,2.236548423767089844e+00,2.222365617752075195e+00,2.208361387252807617e+00,2.194532632827758789e+00,2.180876016616821289e+00,2.167388200759887695e+00,2.154066085815429688e+00,2.140907049179077148e+00,2.127907514572143555e+00,2.115065097808837891e+00,2.102376699447631836e+00,2.089839696884155273e+00,2.077451229095458984e+00,2.065208911895751953e+00,2.053109884262084961e+00,2.041151762008666992e+00
3.780779361724853516e+00,3.740426540374755859e+00,3.700926065444946289e+00,3.662251234054565430e+00,3.624375820159912109e+00,3.587276220321655273e+00,3.550928592681884766e+00,3.515309572219848633e+00,3.480398416519165039e+00,3.446173906326293945e+00,3.412615537643432617e+00,3.379704952239990234e+00,3.347422838211059570e+00,3.315751791000366211e+00,3.284674167633056641e+00,3.254173755645751953e+00,3.224234819412231445e+00,3.194841384887695312e+00,3.165979146957397461e+00,3.137633800506591797e+00,3.109791278839111328e+00,3.082438945770263672e+00,3.055563211441040039e+00,3.029152393341064453e+00,3.003193855285644531e+00,2.977676630020141602e+00,2.952589511871337891e+00,2.927921295166015625e+00,2.903662204742431641e+00,2.879801750183105469e+00,2.856330156326293945e+00,2.833237886428833008e+00,2.810516119003295898e+00,2.788156032562255859e+00,2.766148805618286133e+00,8.896953463554382324e-01,8.753575086593627930e-01,8.648062944412231445e-01,7.049191594123840332e-01,6.929643154144287109e-01,6.858238577842712402e-01,6.803233027458190918e-01,6.776467561721801758e-01,6.773968935012817383e-01,6.773411631584167480e-01,6.785511970520019531e-01,6.855218410491943359e-01,6.913990378379821777e-01,6.926958560943603516e-01,8.359985351562500000e-01,2.455983638763427734e+00,2.438891410827636719e+00,2.422035932540893555e+00,2.405411720275878906e+00,2.389014005661010742e+00,2.372838497161865234e+00,2.356880664825439453e+00,2.341135740280151367e+00,2.325599908828735352e+00,2.310268878936767578e+00,2.295138835906982422e+00,2.280205488204956055e+00,2.265465259552001953e+00,2.250914573669433594e+00,2.236549377441406250e+00,2.222366333007812500e+00,2.208362102508544922e+00,2.194533348083496094e+00,2.180876731872558594e+00,2.167388916015625000e+00,2.154067039489746094e+00,2.140907764434814453e+00,2.127908229827880859e+00,2.115065813064575195e+00,2.102377414703369141e+00,2.089840412139892578e+00,2.077451944351196289e+00,2.065209627151489258e+00,2.053110599517822266e+00,2.041152477264404297e+00
3.780781984329223633e+00,3.740428924560546875e+00,3.700928211212158203e+00,3.662253141403198242e+00,3.624378204345703125e+00,3.587278604507446289e+00,3.550930500030517578e+00,3.515311717987060547e+00,3.480400562286376953e+00,3.446175813674926758e+00,3.412617683410644531e+00,3.379707098007202148e+00,3.347424507141113281e+00,3.315753459930419922e+00,3.284676074981689453e+00,3.254175662994384766e+00,3.224236249923706055e+00,3.194843053817749023e+00,3.165980815887451172e+00,3.137635231018066406e+00,3.109792947769165039e+00,3.082440614700317383e+00,3.055564641952514648e+00,3.029153823852539062e+00,3.003195524215698242e+00,2.977678298950195312e+00,2.952590942382812500e+00,2.927922964096069336e+00,2.903663635253906250e+00,2.879802942276000977e+00,2.856331348419189453e+00,2.833239316940307617e+00,2.810517549514770508e+00,2.788157224655151367e+00,2.766150236129760742e+00,8.845347166061401367e-01,8.697317242622375488e-01,8.571825623512268066e-01,7.038204669952392578e-01,6.919025182723999023e-01,6.846598982810974121e-01,6.806101799011230469e-01,6.798846125602722168e-01,6.798284649848937988e-01,6.797723174095153809e-01,6.834508180618286133e-01,6.905230879783630371e-01,6.964153051376342773e-01,8.357449769973754883e-01,8.536430001258850098e-01,2.455984354019165039e+00,2.438892602920532227e+00,2.422037124633789062e+00,2.405412673950195312e+00,2.389014959335327148e+00,2.372839450836181641e+00,2.356881380081176758e+00,2.341136693954467773e+00,2.325600862503051758e+00,2.310269832611083984e+00,2.295139551162719727e+00,2.280206441879272461e+00,2.265466213226318359e+00,2.250915288925170898e+00,2.236550092697143555e+00,2.222367286682128906e+00,2.208362817764282227e+00,2.194534063339233398e+00,2.180877447128295898e+00,2.167389869689941406e+00,2.154067754745483398e+00,2.140908479690551758e+00,2.127909183502197266e+00,2.115066528320312500e+00,2.102378129959106445e+00,2.089841127395629883e+00,2.077452659606933594e+00,2.065210342407226562e+00,2.053111314773559570e+00,2.041153192520141602e+00
3.780784368515014648e+00,3.740431070327758789e+00,3.700930595397949219e+00,3.662255525588989258e+00,3.624380111694335938e+00,3.587280273437500000e+00,3.550932645797729492e+00,3.515313863754272461e+00,3.480402469635009766e+00,3.446177721023559570e+00,3.412619829177856445e+00,3.379708766937255859e+00,3.347426652908325195e+00,3.315755367279052734e+00,3.284677505493164062e+00,3.254177331924438477e+00,3.224238157272338867e+00,3.194844961166381836e+00,3.165982246398925781e+00,3.137637138366699219e+00,3.109794616699218750e+00,3.082442045211791992e+00,3.055566310882568359e+00,3.029155492782592773e+00,3.003196716308593750e+00,2.977679729461669922e+00,2.952592372894287109e+00,2.927924394607543945e+00,2.903665065765380859e+00,2.879804372787475586e+00,2.856332778930664062e+00,2.833240509033203125e+00,2.810518741607666016e+00,2.788158655166625977e+00,8.945901989936828613e-01,8.794398903846740723e-01,8.648054599761962891e-01,7.150222063064575195e-01,7.027251720428466797e-01,6.908439397811889648e-01,6.835995316505432129e-01,6.823906302452087402e-01,6.823340654373168945e-01,6.822775006294250488e-01,6.822209358215332031e-01,6.884217858314514160e-01,6.955977678298950195e-01,7.015049457550048828e-01,8.570482134819030762e-01,2.473318576812744141e+00,2.455985546112060547e+00,2.438893556594848633e+00,2.422037839889526367e+00,2.405413627624511719e+00,2.389016151428222656e+00,2.372840404510498047e+00,2.356882572174072266e+00,2.341137647628784180e+00,2.325601816177368164e+00,2.310270786285400391e+00,2.295140504837036133e+00,2.280207157135009766e+00,2.265466928482055664e+00,2.250916242599487305e+00,2.236551046371459961e+00,2.222368001937866211e+00,2.208363771438598633e+00,2.194535017013549805e+00,2.180878162384033203e+00,2.167390584945678711e+00,2.154068470001220703e+00,2.140909433364868164e+00,2.127909898757934570e+00,2.115067243576049805e+00,2.102379083633422852e+00,2.089841842651367188e+00,2.077453374862670898e+00,2.065211296081542969e+00,2.053112268447875977e+00,2.041154146194458008e+00
3.780786514282226562e+00,3.740433692932128906e+00,3.700932979583740234e+00,3.662257432937622070e+00,3.624382495880126953e+00,3.587282657623291016e+00,3.550934553146362305e+00,3.515315771102905273e+00,3.480404615402221680e+00,3.446179866790771484e+00,3.412621498107910156e+00,3.379710674285888672e+00,3.347428560256958008e+00,3.315757036209106445e+00,3.284679412841796875e+00,3.254179239273071289e+00,3.224239587783813477e+00,3.194846391677856445e+00,3.165984153747558594e+00,3.137638807296752930e+00,3.109796047210693359e+00,3.082443714141845703e+00,3.055567979812622070e+00,3.029156684875488281e+00,3.003198385238647461e+00,2.977681159973144531e+00,2.952593803405761719e+00,2.927925586700439453e+00,2.903666496276855469e+00,2.879805803298950195e+00,2.856333971023559570e+00,2.833241939544677734e+00,2.810520172119140625e+00,9.049004316329956055e-01,8.893669843673706055e-01,8.744032382965087891e-01,8.681961297988891602e-01,7.146344184875488281e-01,7.016332149505615234e-01,6.897885799407958984e-01,6.849152445793151855e-01,6.848582625389099121e-01,6.848012804985046387e-01,6.847442984580993652e-01,6.863332986831665039e-01,6.934656500816345215e-01,7.007476687431335449e-01,2.508730411529541016e+00,2.490899324417114258e+00,2.473319768905639648e+00,2.455986499786376953e+00,2.438894510269165039e+00,2.422039031982421875e+00,2.405414581298828125e+00,2.389017105102539062e+00,2.372841596603393555e+00,2.356883764266967773e+00,2.341138601303100586e+00,2.325603008270263672e+00,2.310271978378295898e+00,2.295141696929931641e+00,2.280208349227905273e+00,2.265468120574951172e+00,2.250917196273803711e+00,2.236552000045776367e+00,2.222369194030761719e+00,2.208364963531494141e+00,2.194535970687866211e+00,2.180879354476928711e+00,2.167391538619995117e+00,2.154069423675537109e+00,2.140910387039184570e+00,2.127910852432250977e+00,2.115068435668945312e+00,2.102379798889160156e+00,2.089842796325683594e+00,2.077454328536987305e+00,2.065211772918701172e+00,2.053112983703613281e+00,2.041154861450195312e+00
3.780789136886596680e+00,3.740435600280761719e+00,3.700935125350952148e+00,3.662259817123413086e+00,3.624384880065917969e+00,3.587284564971923828e+00,3.550936698913574219e+00,3.515317916870117188e+00,3.480406284332275391e+00,3.446181774139404297e+00,3.412623643875122070e+00,3.379712820053100586e+00,3.347430229187011719e+00,3.315759181976318359e+00,3.284681558609008789e+00,3.254180908203125000e+00,3.224241495132446289e+00,3.194848299026489258e+00,3.165985584259033203e+00,3.137640237808227539e+00,3.109797954559326172e+00,3.082445383071899414e+00,3.055569410324096680e+00,3.029158353805541992e+00,3.003200054168701172e+00,2.977682590484619141e+00,2.952595233917236328e+00,2.927927255630493164e+00,2.903667688369750977e+00,2.879806995391845703e+00,2.856335401535034180e+00,2.833243608474731445e+00,9.154511094093322754e-01,8.995391130447387695e-01,8.842164278030395508e-01,8.756768107414245605e-01,8.718759417533874512e-01,7.168115377426147461e-01,7.036066055297851562e-01,6.908794641494750977e-01,6.872156858444213867e-01,6.871435046195983887e-01,6.870713829994201660e-01,6.869992017745971680e-01,6.885158419609069824e-01,6.958491206169128418e-01,7.033403515815734863e-01,2.508731842041015625e+00,2.490900516510009766e+00,2.473320960998535156e+00,2.455987691879272461e+00,2.438895702362060547e+00,2.422039985656738281e+00,2.405415773391723633e+00,2.389018058776855469e+00,2.372842550277709961e+00,2.356884479522705078e+00,2.341139554977416992e+00,2.325603961944580078e+00,2.310272693634033203e+00,2.295142650604248047e+00,2.280209302902221680e+00,2.265469074249267578e+00,2.250918149948120117e+00,2.236552953720092773e+00,2.222369909286499023e+00,2.208365678787231445e+00,2.194536685943603516e+00,2.180880069732666016e+00,2.167392253875732422e+00,2.154070377349853516e+00,2.140911102294921875e+00,2.127911567687988281e+00,2.115069150924682617e+00,2.102380752563476562e+00,2.089843511581420898e+00,2.077455043792724609e+00,2.065212726593017578e+00,2.053113698959350586e+00,2.041155576705932617e+00
3.780791282653808594e+00,3.740438222885131836e+00,3.700937509536743164e+00,3.662261962890625000e+00,3.624386787414550781e+00,3.587286949157714844e+00,3.550939083099365234e+00,3.515319824218750000e+00,3.480408668518066406e+00,3.446184158325195312e+00,3.412625551223754883e+00,3.379714727401733398e+00,3.347432613372802734e+00,3.315761327743530273e+00,3.284683227539062500e+00,3.254183053970336914e+00,3.224243640899658203e+00,3.194849967956542969e+00,3.165987730026245117e+00,3.137642383575439453e+00,3.109799623489379883e+00,3.082447052001953125e+00,3.055571317672729492e+00,3.029160261154174805e+00,3.003201723098754883e+00,2.977684259414672852e+00,2.952597141265869141e+00,2.927928686141967773e+00,2.903669595718383789e+00,2.879808902740478516e+00,2.856337070465087891e+00,9.262506365776062012e-01,9.099643230438232422e-01,8.942524194717407227e-01,8.832873106002807617e-01,8.794204592704772949e-01,8.755872249603271484e-01,7.185746431350708008e-01,7.057169675827026367e-01,6.929140090942382812e-01,6.894327402114868164e-01,6.893600821495056152e-01,6.892874836921691895e-01,6.892189979553222656e-01,6.904757618904113770e-01,6.975197792053222656e-01,7.050471901893615723e-01,2.508732795715332031e+00,2.490901470184326172e+00,2.473321914672851562e+00,2.455988883972167969e+00,2.438896656036376953e+00,2.422041177749633789e+00,2.405416727066040039e+00,2.389019012451171875e+00,2.372843503952026367e+00,2.356885433197021484e+00,2.341140508651733398e+00,2.325604677200317383e+00,2.310273647308349609e+00,2.295143604278564453e+00,2.280210018157958984e+00,2.265469789505004883e+00,2.250919103622436523e+00,2.236553668975830078e+00,2.222370624542236328e+00,2.208366394042968750e+00,2.194537401199340820e+00,2.180880784988403320e+00,2.167393207550048828e+00,2.154071092605590820e+00,2.140911817550659180e+00,2.127912282943725586e+00,2.115069866180419922e+00,2.102381229400634766e+00,2.089844226837158203e+00,2.077455759048461914e+00,2.065213441848754883e+00,2.053114414215087891e+00,2.041156291961669922e+00
3.780794143676757812e+00,3.740440845489501953e+00,3.700939893722534180e+00,3.662264585494995117e+00,3.624389410018920898e+00,3.587289094924926758e+00,3.550941228866577148e+00,3.515322208404541016e+00,3.480411052703857422e+00,3.446185827255249023e+00,3.412627696990966797e+00,3.379716634750366211e+00,3.347434282302856445e+00,3.315762996673583984e+00,3.284685134887695312e+00,3.254184722900390625e+00,3.224245071411132812e+00,3.194851875305175781e+00,3.165989398956298828e+00,3.137643814086914062e+00,3.109801292419433594e+00,3.082448720932006836e+00,3.055572748184204102e+00,3.029161691665649414e+00,3.003203153610229492e+00,2.977685928344726562e+00,2.952598333358764648e+00,2.927930355072021484e+00,2.903671026229858398e+00,2.879810094833374023e+00,9.377858638763427734e-01,9.206340909004211426e-01,9.045430421829223633e-01,8.910313844680786133e-01,8.870965838432312012e-01,8.834869265556335449e-01,8.800582885742187500e-01,7.202413678169250488e-01,7.078399062156677246e-01,6.949605941772460938e-01,6.916642189025878906e-01,6.915911436080932617e-01,6.915180087089538574e-01,6.915385723114013672e-01,6.927292346954345703e-01,6.991984248161315918e-01,7.067623138427734375e-01,2.508733987808227539e+00,2.490902662277221680e+00,2.473322868347167969e+00,2.455989599227905273e+00,2.438897848129272461e+00,2.422042131423950195e+00,2.405417680740356445e+00,2.389019966125488281e+00,2.372844457626342773e+00,2.356886386871337891e+00,2.341141462326049805e+00,2.325605630874633789e+00,2.310274362564086914e+00,2.295144319534301758e+00,2.280210971832275391e+00,2.265470743179321289e+00,2.250919818878173828e+00,2.236554622650146484e+00,2.222371578216552734e+00,2.208367109298706055e+00,2.194538354873657227e+00,2.180881738662719727e+00,2.167393922805786133e+00,2.154071807861328125e+00,2.140912532806396484e+00,2.127913236618041992e+00,2.115070581436157227e+00,2.102382183074951172e+00,2.089844942092895508e+00,2.077456474304199219e+00,2.065213918685913086e+00,2.053115129470825195e+00,2.041157007217407227e+00
3.780796527862548828e+00,3.740442991256713867e+00,3.700942277908325195e+00,3.662266969680786133e+00,3.624391317367553711e+00,3.587291479110717773e+00,3.550943374633789062e+00,3.515324115753173828e+00,3.480412721633911133e+00,3.446187973022460938e+00,3.412629604339599609e+00,3.379718542098999023e+00,3.347436189651489258e+00,3.315764904022216797e+00,3.284686803817749023e+00,3.254186391830444336e+00,3.224246978759765625e+00,3.194853782653808594e+00,3.165990829467773438e+00,3.137645483016967773e+00,3.109802961349487305e+00,3.082450151443481445e+00,3.055574417114257812e+00,3.029163360595703125e+00,3.003204584121704102e+00,2.977687358856201172e+00,2.952600002288818359e+00,2.927931785583496094e+00,2.903672218322753906e+00,9.516314268112182617e-01,9.320358633995056152e-01,9.152376651763916016e-01,8.991917371749877930e-01,8.951812386512756348e-01,8.916613459587097168e-01,8.881691098213195801e-01,8.857060670852661133e-01,7.219157814979553223e-01,7.099757790565490723e-01,6.970192790031433105e-01,6.939101219177246094e-01,6.938365697860717773e-01,6.937630176544189453e-01,6.938737630844116211e-01,6.949974298477172852e-01,7.008852362632751465e-01,7.084857821464538574e-01,2.508735179901123047e+00,2.490903615951538086e+00,2.473324060440063477e+00,2.455990791320800781e+00,2.438898563385009766e+00,2.422043085098266602e+00,2.405418634414672852e+00,2.389020919799804688e+00,2.372845411300659180e+00,2.356887340545654297e+00,2.341142416000366211e+00,2.325606346130371094e+00,2.310275316238403320e+00,2.295145273208618164e+00,2.280211687088012695e+00,2.265471458435058594e+00,2.250920772552490234e+00,2.236555576324462891e+00,2.222372293472290039e+00,2.208368062973022461e+00,2.194539308547973633e+00,2.180882453918457031e+00,2.167394638061523438e+00,2.154072523117065430e+00,2.140913248062133789e+00,2.127913951873779297e+00,2.115071296691894531e+00,2.102382898330688477e+00,2.089845657348632812e+00,2.077457189559936523e+00,2.065214872360229492e+00,2.053115606307983398e+00,2.041157484054565430e+00
3.780798673629760742e+00,3.740445613861083984e+00,3.700944662094116211e+00,3.662268877029418945e+00,3.624393701553344727e+00,3.587293624877929688e+00,3.550945281982421875e+00,3.515326261520385742e+00,3.480414867401123047e+00,3.446190118789672852e+00,3.412631511688232422e+00,3.379720449447631836e+00,3.347438097000122070e+00,3.315766572952270508e+00,3.284688711166381836e+00,3.254188299179077148e+00,3.224248647689819336e+00,3.194855213165283203e+00,3.165992736816406250e+00,3.137647390365600586e+00,3.109804391860961914e+00,3.082451820373535156e+00,3.055576086044311523e+00,3.029164552688598633e+00,3.003206253051757812e+00,2.977688789367675781e+00,2.952601194381713867e+00,2.927932977676391602e+00,9.682832956314086914e-01,9.438319206237792969e-01,9.266098141670227051e-01,9.100049138069152832e-01,9.039213657379150391e-01,8.999884128570556641e-01,8.964307308197021484e-01,8.933081626892089844e-01,9.006577730178833008e-01,7.235980629920959473e-01,7.121244668960571289e-01,6.990901827812194824e-01,6.961706876754760742e-01,6.960965991020202637e-01,6.960703134536743164e-01,6.962247490882873535e-01,6.972805261611938477e-01,7.025801539421081543e-01,7.102177739143371582e-01,2.508735895156860352e+00,2.490904569625854492e+00,2.473325014114379883e+00,2.455991744995117188e+00,2.438899755477905273e+00,2.422044038772583008e+00,2.405419588088989258e+00,2.389021873474121094e+00,2.372846364974975586e+00,2.356888294219970703e+00,2.341143369674682617e+00,2.325607538223266602e+00,2.310276269912719727e+00,2.295145988464355469e+00,2.280212640762329102e+00,2.265472412109375000e+00,2.250921487808227539e+00,2.236556291580200195e+00,2.222373247146606445e+00,2.208369016647338867e+00,2.194540023803710938e+00,2.180883407592773438e+00,2.167395591735839844e+00,2.154073238372802734e+00,2.140914201736450195e+00,2.127914667129516602e+00,2.115072011947631836e+00,2.102383613586425781e+00,2.089846372604370117e+00,2.077457904815673828e+00,2.065215349197387695e+00,2.053116321563720703e+00,2.041158437728881836e+00
3.780801296234130859e+00,3.740447521209716797e+00,3.700946807861328125e+00,3.662271261215209961e+00,3.624396085739135742e+00,3.587295532226562500e+00,3.550947427749633789e+00,3.515328645706176758e+00,3.480416774749755859e+00,3.446191787719726562e+00,3.412633419036865234e+00,3.379722595214843750e+00,3.347439765930175781e+00,3.315768480300903320e+00,3.284690618515014648e+00,3.254189968109130859e+00,3.224250555038452148e+00,3.194857120513916016e+00,3.165994167327880859e+00,3.137648820877075195e+00,3.109806060791015625e+00,3.082453489303588867e+00,3.055577516555786133e+00,3.029166221618652344e+00,3.003207683563232422e+00,2.977690219879150391e+00,2.952602863311767578e+00,9.925042986869812012e-01,9.578055143356323242e-01,9.382680058479309082e-01,9.212464094161987305e-01,9.143471717834472656e-01,9.096933603286743164e-01,9.050866961479187012e-01,9.012514352798461914e-01,9.085198640823364258e-01,9.161229729652404785e-01,7.252882122993469238e-01,7.142863273620605469e-01,7.011734843254089355e-01,6.984459757804870605e-01,6.983714103698730469e-01,6.984362602233886719e-01,6.985917687416076660e-01,6.995788216590881348e-01,7.042832970619201660e-01,7.119581699371337891e-01,2.508737087249755859e+00,2.490905761718750000e+00,2.473325967788696289e+00,2.455992698669433594e+00,2.438900709152221680e+00,2.422044992446899414e+00,2.405420541763305664e+00,2.389022827148437500e+00,2.372847080230712891e+00,2.356889247894287109e+00,2.341144323348999023e+00,2.325608491897583008e+00,2.310277223587036133e+00,2.295147180557250977e+00,2.280213832855224609e+00,2.265473365783691406e+00,2.250922441482543945e+00,2.236557245254516602e+00,2.222374200820922852e+00,2.208369970321655273e+00,2.194540977478027344e+00,2.180884361267089844e+00,2.167396306991577148e+00,2.154074192047119141e+00,2.140914916992187500e+00,2.127915382385253906e+00,2.115072727203369141e+00,2.102384328842163086e+00,2.089847326278686523e+00,2.077458381652832031e+00,2.065215826034545898e+00,2.053116798400878906e+00,2.041158676147460938e+00
3.780803442001342773e+00,3.740450143814086914e+00,3.700949192047119141e+00,3.662273406982421875e+00,3.624397993087768555e+00,3.587297916412353516e+00,3.550949811935424805e+00,3.515330314636230469e+00,3.480418920516967773e+00,3.446193933486938477e+00,3.412635326385498047e+00,3.379724264144897461e+00,3.347441911697387695e+00,3.315770387649536133e+00,3.284692287445068359e+00,3.254191875457763672e+00,3.224252223968505859e+00,3.194858551025390625e+00,3.165996074676513672e+00,3.137650489807128906e+00,3.109807491302490234e+00,3.082454919815063477e+00,3.055579185485839844e+00,3.029167890548706055e+00,3.003209114074707031e+00,2.977691650390625000e+00,2.952604293823242188e+00,9.722530841827392578e-01,9.502233862876892090e-01,9.327693581581115723e-01,9.250162839889526367e-01,9.202535152435302734e-01,9.155395030975341797e-01,9.108005166053771973e-01,9.166951775550842285e-01,9.242586493492126465e-01,9.321286082267761230e-01,7.269862294197082520e-01,7.160327434539794922e-01,7.032691836357116699e-01,7.007362246513366699e-01,7.006618976593017578e-01,7.008183598518371582e-01,7.009748816490173340e-01,7.018921375274658203e-01,7.065879106521606445e-01,7.137072086334228516e-01,2.508738040924072266e+00,2.490906715393066406e+00,2.473327159881591797e+00,2.455993652343750000e+00,2.438901662826538086e+00,2.422045946121215820e+00,2.405421495437622070e+00,2.389023542404174805e+00,2.372848033905029297e+00,2.356889963150024414e+00,2.341145038604736328e+00,2.325609207153320312e+00,2.310277938842773438e+00,2.295147657394409180e+00,2.280214071273803711e+00,2.265473842620849609e+00,2.250922918319702148e+00,2.236557722091674805e+00,2.222374439239501953e+00,2.208370208740234375e+00,2.194541215896606445e+00,2.180884599685668945e+00,2.167396783828735352e+00,2.154074430465698242e+00,2.140915393829345703e+00,2.127915620803833008e+00,2.115073204040527344e+00,2.102384567260742188e+00,2.089847564697265625e+00,2.077458620071411133e+00,2.065216302871704102e+00,2.053117036819458008e+00,2.041158914566040039e+00
3.780806064605712891e+00,3.740452527999877930e+00,3.700951337814331055e+00,3.662275791168212891e+00,3.624400377273559570e+00,3.587299823760986328e+00,3.550951719284057617e+00,3.515332698822021484e+00,3.480421066284179688e+00,3.446195840835571289e+00,3.412637233734130859e+00,3.379726171493530273e+00,3.347443580627441406e+00,3.315772056579589844e+00,3.284694194793701172e+00,3.254193782806396484e+00,3.224253892898559570e+00,3.194860458374023438e+00,3.165997743606567383e+00,3.137652158737182617e+00,3.109809637069702148e+00,3.082456827163696289e+00,3.055580854415893555e+00,3.029169559478759766e+00,3.003210783004760742e+00,2.977693319320678711e+00,9.871432185173034668e-01,9.640603661537170410e-01,9.445841312408447266e-01,9.359373450279235840e-01,9.310616850852966309e-01,9.261707067489624023e-01,9.212459325790405273e-01,9.258971810340881348e-01,9.333351254463195801e-01,9.408935308456420898e-01,2.723173856735229492e+00,7.286922335624694824e-01,7.176877260208129883e-01,7.053774595260620117e-01,7.030416131019592285e-01,7.030591964721679688e-01,7.032167315483093262e-01,7.033743858337402344e-01,7.042208909988403320e-01,7.089480161666870117e-01,7.154647707939147949e-01,2.508738756179809570e+00,2.490907192230224609e+00,2.473327398300170898e+00,2.455994129180908203e+00,2.438902139663696289e+00,2.422046184539794922e+00,2.405421733856201172e+00,2.389024257659912109e+00,2.372848510742187500e+00,2.356890439987182617e+00,2.341145277023315430e+00,2.325609445571899414e+00,2.310278177261352539e+00,2.295147895812988281e+00,2.280214548110961914e+00,2.265474319458007812e+00,2.250923156738281250e+00,2.236557960510253906e+00,2.222374916076660156e+00,2.208370447158813477e+00,2.194541692733764648e+00,2.180884838104248047e+00,2.167397022247314453e+00,2.154074907302856445e+00,2.140915632247924805e+00,2.127915859222412109e+00,2.115073442459106445e+00,2.102385044097900391e+00,2.089847803115844727e+00,2.077459096908569336e+00,2.065216541290283203e+00,2.053117513656616211e+00,2.041159152984619141e+00
3.780808448791503906e+00,3.740454912185668945e+00,3.700953483581542969e+00,3.662277936935424805e+00,3.624402284622192383e+00,3.587301969528198242e+00,3.550953865051269531e+00,3.515334367752075195e+00,3.480422735214233398e+00,3.446197509765625000e+00,3.412638902664184570e+00,3.379727602005004883e+00,3.347445011138916016e+00,3.315773248672485352e+00,3.284695386886596680e+00,3.254194498062133789e+00,3.224255084991455078e+00,3.194861412048339844e+00,3.165998697280883789e+00,3.137653112411499023e+00,3.109810113906860352e+00,3.082457304000854492e+00,3.055581331253051758e+00,3.029170036315917969e+00,3.003211259841918945e+00,2.977693796157836914e+00,9.786987304687500000e-01,9.567020535469055176e-01,9.471192955970764160e-01,9.420685768127441406e-01,9.369736909866333008e-01,9.319337010383605957e-01,9.352858662605285645e-01,9.428760409355163574e-01,9.505903124809265137e-01,2.744500398635864258e+00,2.723174333572387695e+00,7.304062843322753906e-01,7.193502187728881836e-01,7.074984312057495117e-01,7.053621411323547363e-01,7.054730057716369629e-01,7.056316137313842773e-01,7.057903409004211426e-01,7.065651416778564453e-01,7.113238573074340820e-01,7.172310352325439453e-01,2.508738994598388672e+00,2.490907669067382812e+00,2.473327875137329102e+00,2.455994606018066406e+00,2.438902378082275391e+00,2.422046899795532227e+00,2.405422210693359375e+00,2.389024496078491211e+00,2.372848749160766602e+00,2.356890678405761719e+00,2.341145515441894531e+00,2.325609683990478516e+00,2.310278654098510742e+00,2.295148372650146484e+00,2.280215024948120117e+00,2.265474557876586914e+00,2.250923633575439453e+00,2.236558198928833008e+00,2.222375154495239258e+00,2.208370685577392578e+00,2.194541931152343750e+00,2.180885076522827148e+00,2.167397260665893555e+00,2.154075145721435547e+00,2.140915870666503906e+00,2.127916336059570312e+00,2.115073680877685547e+00,2.102385282516479492e+00,2.089848041534423828e+00,2.077459335327148438e+00,2.065216779708862305e+00,2.053117752075195312e+00,2.041159391403198242e+00
3.780809640884399414e+00,3.740455865859985352e+00,3.700954675674438477e+00,3.662278890609741211e+00,3.624403238296508789e+00,3.587302684783935547e+00,3.550954580307006836e+00,3.515335083007812500e+00,3.480423450469970703e+00,3.446198225021362305e+00,3.412639617919921875e+00,3.379728555679321289e+00,3.347445726394653320e+00,3.315774202346801758e+00,3.284696102142333984e+00,3.254195451736450195e+00,3.224255561828613281e+00,3.194862127304077148e+00,3.165999174118041992e+00,3.137653589248657227e+00,3.109810829162597656e+00,3.082458019256591797e+00,3.055582046508789062e+00,1.034549355506896973e+00,1.017750859260559082e+00,1.001004099845886230e+00,9.848650097846984863e-01,9.585217833518981934e-01,9.532479047775268555e-01,9.480317234992980957e-01,9.428724050521850586e-01,9.451873302459716797e-01,9.526139497756958008e-01,9.604892134666442871e-01,2.766163825988769531e+00,2.744501113891601562e+00,2.723174810409545898e+00,7.321283221244812012e-01,7.210205793380737305e-01,7.096321582794189453e-01,7.077437639236450195e-01,7.079033851623535156e-01,7.080631256103515625e-01,7.082229256629943848e-01,7.089250683784484863e-01,7.137156724929809570e-01,7.190060019493103027e-01,2.508739471435546875e+00,2.490908145904541016e+00,2.473328113555908203e+00,2.455995082855224609e+00,2.438902854919433594e+00,2.422047138214111328e+00,2.405422687530517578e+00,2.389024734497070312e+00,2.372849225997924805e+00,2.356891155242919922e+00,2.341145992279052734e+00,2.325610160827636719e+00,2.310278892517089844e+00,2.295148611068725586e+00,2.280215263366699219e+00,2.265474796295166016e+00,2.250923871994018555e+00,2.236558675765991211e+00,2.222375631332397461e+00,2.208371162414550781e+00,2.194542169570922852e+00,2.180885553359985352e+00,2.167397499084472656e+00,2.154075384140014648e+00,2.140916109085083008e+00,2.127916574478149414e+00,2.115073919296264648e+00,2.102385520935058594e+00,2.089848518371582031e+00,2.077459573745727539e+00,2.065217018127441406e+00,2.053117990493774414e+00,2.041159868240356445e+00
3.780810356140136719e+00,3.740456581115722656e+00,3.700955629348754883e+00,3.662279605865478516e+00,3.624404191970825195e+00,3.587303876876831055e+00,3.550955295562744141e+00,3.515336275100708008e+00,3.480424165725708008e+00,3.446199178695678711e+00,3.412640333175659180e+00,3.379729270935058594e+00,3.347446441650390625e+00,3.315774917602539062e+00,3.284696817398071289e+00,3.254196166992187500e+00,3.224256515502929688e+00,3.194862842559814453e+00,3.166000127792358398e+00,3.137654304504394531e+00,3.109811544418334961e+00,3.082458496093750000e+00,3.055582761764526367e+00,1.018878817558288574e+00,1.007664322853088379e+00,9.933369755744934082e-01,9.775788187980651855e-01,9.751138687133789062e-01,9.593538045883178711e-01,9.540707468986511230e-01,9.562672376632690430e-01,9.625551104545593262e-01,2.810532093048095703e+00,2.788171768188476562e+00,2.766164302825927734e+00,2.744501590728759766e+00,2.723175287246704102e+00,7.341610789299011230e-01,7.226986885070800781e-01,7.117788791656494141e-01,7.101898789405822754e-01,7.103506326675415039e-01,7.105114459991455078e-01,7.106723785400390625e-01,7.113767862319946289e-01,7.162585854530334473e-01,7.212078571319580078e-01,2.508739709854125977e+00,2.490908384323120117e+00,2.473328828811645508e+00,2.455995321273803711e+00,2.438903331756591797e+00,2.422047376632690430e+00,2.405423164367675781e+00,2.389025211334228516e+00,2.372849464416503906e+00,2.356891393661499023e+00,2.341146469116210938e+00,2.325610637664794922e+00,2.310279369354248047e+00,2.295149087905883789e+00,2.280215501785278320e+00,2.265475273132324219e+00,2.250924110412597656e+00,2.236558914184570312e+00,2.222375869750976562e+00,2.208371639251708984e+00,2.194542407989501953e+00,2.180885791778564453e+00,2.167397975921630859e+00,2.154075860977172852e+00,2.140916585922241211e+00,2.127916812896728516e+00,2.115074396133422852e+00,2.102385759353637695e+00,2.089848756790161133e+00,2.077459812164306641e+00,2.065217256546020508e+00,2.053118228912353516e+00,2.041160106658935547e+00
3.780811309814453125e+00,3.740457773208618164e+00,3.700956344604492188e+00,3.662280797958374023e+00,3.624404907226562500e+00,3.587304592132568359e+00,3.550956010818481445e+00,3.515336990356445312e+00,3.480424880981445312e+00,3.446199893951416016e+00,3.412641048431396484e+00,3.379729986190795898e+00,3.347447395324707031e+00,3.315775632858276367e+00,3.284697771072387695e+00,3.254196643829345703e+00,3.224257230758666992e+00,3.194863319396972656e+00,3.166000604629516602e+00,3.137654781341552734e+00,3.109812259674072266e+00,3.082459449768066406e+00,3.055583238601684570e+00,1.013908028602600098e+00,1.000140905380249023e+00,9.859628081321716309e-01,9.798790216445922852e-01,9.796800017356872559e-01,9.823780059814453125e-01,9.676100015640258789e-01,9.727060198783874512e-01,2.833254814147949219e+00,2.810532808303833008e+00,2.788172245025634766e+00,2.766165018081665039e+00,2.744502067565917969e+00,2.723176002502441406e+00,7.370784282684326172e-01,7.252777814865112305e-01,7.138490676879882812e-01,7.128102779388427734e-01,7.130364775657653809e-01,7.132628560066223145e-01,7.134892940521240234e-01,7.160400748252868652e-01,7.209863066673278809e-01,2.526828765869140625e+00,2.508740425109863281e+00,2.490908861160278320e+00,2.473329067230224609e+00,2.455995798110961914e+00,2.438903570175170898e+00,2.422047853469848633e+00,2.405423402786254883e+00,2.389025688171386719e+00,2.372849941253662109e+00,2.356891870498657227e+00,2.341146707534790039e+00,2.325610876083374023e+00,2.310279607772827148e+00,2.295149326324462891e+00,2.280215978622436523e+00,2.265475511550903320e+00,2.250924587249755859e+00,2.236559391021728516e+00,2.222376346588134766e+00,2.208371877670288086e+00,2.194542884826660156e+00,2.180886030197143555e+00,2.167398214340209961e+00,2.154076099395751953e+00,2.140916824340820312e+00,2.127917289733886719e+00,2.115074634552001953e+00,2.102385997772216797e+00,2.089848995208740234e+00,2.077460289001464844e+00,2.065217494964599609e+00,2.053118467330932617e+00,2.041160345077514648e+00
3.777289390563964844e+00,3.740458726882934570e+00,3.700957298278808594e+00,3.662281513214111328e+00,3.624405622482299805e+00,3.587305307388305664e+00,3.550957202911376953e+00,3.515337705612182617e+00,3.480426073074340820e+00,3.446200609207153320e+00,3.412642002105712891e+00,3.379730701446533203e+00,3.347448110580444336e+00,3.315776348114013672e+00,3.284698247909545898e+00,3.254197359085083008e+00,3.224257707595825195e+00,3.194864273071289062e+00,3.166001319885253906e+00,3.137655735015869141e+00,3.109812736511230469e+00,3.082459926605224609e+00,3.055583715438842773e+00,1.012328982353210449e+00,9.982759952545166016e-01,9.818213582038879395e-01,9.813613295555114746e-01,9.818572402000427246e-01,9.869366288185119629e-01,2.879819631576538086e+00,2.856347799301147461e+00,2.833255290985107422e+00,2.810533285140991211e+00,2.788172721862792969e+00,2.766165494918823242e+00,2.744502544403076172e+00,2.723176479339599609e+00,7.400029897689819336e-01,7.281249165534973145e-01,7.166069149971008301e-01,7.156898975372314453e-01,7.159180045127868652e-01,7.161461710929870605e-01,7.163854837417602539e-01,7.197629213333129883e-01,7.257769107818603516e-01,2.526829242706298828e+00,2.508740663528442383e+00,2.490909337997436523e+00,2.473329544067382812e+00,2.455996274948120117e+00,2.438904047012329102e+00,2.422048330307006836e+00,2.405423641204833984e+00,2.389025926589965820e+00,2.372850179672241211e+00,2.356892108917236328e+00,2.341147184371948242e+00,2.325611114501953125e+00,2.310280084609985352e+00,2.295149803161621094e+00,2.280216217041015625e+00,2.265475988388061523e+00,2.250925064086914062e+00,2.236559629440307617e+00,2.222376585006713867e+00,2.208372116088867188e+00,2.194543123245239258e+00,2.180886268615722656e+00,2.167398452758789062e+00,2.154076337814331055e+00,2.140917062759399414e+00,2.127917528152465820e+00,2.115074872970581055e+00,2.102386474609375000e+00,2.089849233627319336e+00,2.077460527420043945e+00,2.065217733383178711e+00,2.053118944168090820e+00,2.041160583496093750e+00
3.083634376525878906e+00,3.083148717880249023e+00,3.082663536071777344e+00,3.082178354263305664e+00,3.081693410873413086e+00,3.081208229064941406e+00,3.080723762512207031e+00,3.080239057540893555e+00,3.079754590988159180e+00,3.079270362854003906e+00,3.078786373138427734e+00,3.078302145004272461e+00,3.077818393707275391e+00,3.077334642410278320e+00,3.076851367950439453e+00,3.076367855072021484e+00,3.075884580612182617e+00,3.075401544570922852e+00,3.074918746948242188e+00,3.074435710906982422e+00,3.073953390121459961e+00,3.073471069335937500e+00,3.055584669113159180e+00,3.029173135757446289e+00,9.981667995452880859e-01,9.818428754806518555e-01,9.805081486701965332e-01,9.846753478050231934e-01,2.903681278228759766e+00,2.879820108413696289e+00,2.856348276138305664e+00,2.833255767822265625e+00,2.810533761978149414e+00,2.788173437118530273e+00,2.766165971755981445e+00,2.744503021240234375e+00,2.723176717758178711e+00,7.425330281257629395e-01,7.309944033622741699e-01,7.193862199783325195e-01,7.185930013656616211e-01,7.188228368759155273e-01,7.190529108047485352e-01,7.193993926048278809e-01,7.233780622482299805e-01,7.306315898895263672e-01,2.526829719543457031e+00,2.508741140365600586e+00,2.490909814834594727e+00,2.473329782485961914e+00,2.455996513366699219e+00,2.438904285430908203e+00,2.422048807144165039e+00,2.405424356460571289e+00,2.389026403427124023e+00,2.372850656509399414e+00,2.356892585754394531e+00,2.341147661209106445e+00,2.325611591339111328e+00,2.310280323028564453e+00,2.295150041580200195e+00,2.280216693878173828e+00,2.265476226806640625e+00,2.250925302505493164e+00,2.236560106277465820e+00,2.222376823425292969e+00,2.208372592926025391e+00,2.194543600082397461e+00,2.180886745452880859e+00,2.167398691177368164e+00,2.154076814651489258e+00,2.140917301177978516e+00,2.127917766571044922e+00,2.115075111389160156e+00,2.102386713027954102e+00,2.089849472045898438e+00,2.077460765838623047e+00,2.065218210220336914e+00,2.053119182586669922e+00,2.041160821914672852e+00
2.605216741561889648e+00,2.604870080947875977e+00,2.604523658752441406e+00,2.604177236557006836e+00,2.603831052780151367e+00,2.603484630584716797e+00,2.603138685226440430e+00,2.602792739868164062e+00,2.602446794509887695e+00,2.602100849151611328e+00,2.601755380630493164e+00,2.601409673690795898e+00,2.601064205169677734e+00,2.600718498229980469e+00,2.600373268127441406e+00,2.600028276443481445e+00,2.599682807922363281e+00,2.599337816238403320e+00,2.598992824554443359e+00,2.598648071289062500e+00,2.598303079605102539e+00,2.597958564758300781e+00,2.597613811492919922e+00,2.597269296646118164e+00,9.983701109886169434e-01,9.804401993751525879e-01,9.764586687088012695e-01,9.839849472045898438e-01,2.595547914505004883e+00,2.595204114913940430e+00,2.594860076904296875e+00,2.594516277313232422e+00,2.594172477722167969e+00,2.593829154968261719e+00,2.593485355377197266e+00,2.593142032623291016e+00,2.592798709869384766e+00,7.450804710388183594e-01,7.338865995407104492e-01,7.221871614456176758e-01,7.215196490287780762e-01,7.217514514923095703e-01,7.219833135604858398e-01,7.224388718605041504e-01,7.270297408103942871e-01,7.355515956878662109e-01,2.526830196380615234e+00,2.508741617202758789e+00,2.490910053253173828e+00,2.473330497741699219e+00,2.455996990203857422e+00,2.438905000686645508e+00,2.422049045562744141e+00,2.405424594879150391e+00,2.389026641845703125e+00,2.372851133346557617e+00,2.356892824172973633e+00,2.341147899627685547e+00,2.325611829757690430e+00,2.310280799865722656e+00,2.295150518417358398e+00,2.280216932296752930e+00,2.265476703643798828e+00,2.250925540924072266e+00,2.236560344696044922e+00,2.222377061843872070e+00,2.208372831344604492e+00,2.194543838500976562e+00,2.180886983871459961e+00,2.167399168014526367e+00,2.154077053070068359e+00,2.140917778015136719e+00,2.127918243408203125e+00,2.115075588226318359e+00,2.102386951446533203e+00,2.089849948883056641e+00,2.077461004257202148e+00,2.065218448638916016e+00,2.053119421005249023e+00,2.041161060333251953e+00
2.255311012268066406e+00,2.255051136016845703e+00,2.254791736602783203e+00,2.254532098770141602e+00,2.254272460937500000e+00,2.254013061523437500e+00,2.253753662109375000e+00,2.253494262695312500e+00,2.253235101699829102e+00,2.252975940704345703e+00,2.252716541290283203e+00,2.252457618713378906e+00,2.252198457717895508e+00,2.251939535140991211e+00,2.251680612564086914e+00,2.251421689987182617e+00,2.251162767410278320e+00,2.250904083251953125e+00,2.250645399093627930e+00,2.250386714935302734e+00,2.250128030776977539e+00,2.249869585037231445e+00,2.249611139297485352e+00,2.249352931976318359e+00,2.249094486236572266e+00,9.756237268447875977e-01,9.737834930419921875e-01,9.828287959098815918e-01,2.248061656951904297e+00,2.247803688049316406e+00,2.247545480728149414e+00,2.247287750244140625e+00,2.247030019760131836e+00,2.246772050857543945e+00,2.246514320373535156e+00,2.246256589889526367e+00,2.245999097824096680e+00,7.476454377174377441e-01,7.368017435073852539e-01,7.250099182128906250e-01,7.244702577590942383e-01,7.247039079666137695e-01,7.250405550003051758e-01,7.255039811134338379e-01,7.307184338569641113e-01,7.405384182929992676e-01,2.243425846099853516e+00,2.243168830871582031e+00,2.242912054061889648e+00,2.242655038833618164e+00,2.242398262023925781e+00,2.242141485214233398e+00,2.241884946823120117e+00,2.241628170013427734e+00,2.241371631622314453e+00,2.241115331649780273e+00,2.240858793258666992e+00,2.240602493286132812e+00,2.240345954895019531e+00,2.240089893341064453e+00,2.239833593368530273e+00,2.239577293395996094e+00,2.239321231842041016e+00,2.239065170288085938e+00,2.236560583114624023e+00,2.222377538681030273e+00,2.208373069763183594e+00,2.194544315338134766e+00,2.180887460708618164e+00,2.167399406433105469e+00,2.154077291488647461e+00,2.140918016433715820e+00,2.127918481826782227e+00,2.115075826644897461e+00,2.102387189865112305e+00,2.089850187301635742e+00,2.077461242675781250e+00,2.065218687057495117e+00,2.053119659423828125e+00,2.041161537170410156e+00
1.988267660140991211e+00,1.988065838813781738e+00,1.987863898277282715e+00,1.987662315368652344e+00,1.987460494041442871e+00,1.987258791923522949e+00,1.987057089805603027e+00,1.986855626106262207e+00,1.986654043197631836e+00,1.986452460289001465e+00,1.986250877380371094e+00,1.986049652099609375e+00,1.985848188400268555e+00,1.985646724700927734e+00,1.985445380210876465e+00,1.985244274139404297e+00,1.985043048858642578e+00,1.984841704368591309e+00,1.984640479087829590e+00,1.984439611434936523e+00,1.984238386154174805e+00,1.984037280082702637e+00,1.983836293220520020e+00,1.983635544776916504e+00,1.983434557914733887e+00,9.702726602554321289e-01,9.701848030090332031e-01,9.824969768524169922e-01,1.982631325721740723e+00,1.982430458068847656e+00,1.982230067253112793e+00,1.982029318809509277e+00,1.981828689575195312e+00,1.981628060340881348e+00,1.981427788734436035e+00,1.981227159500122070e+00,1.981026768684387207e+00,7.502281665802001953e-01,7.397401928901672363e-01,7.278548479080200195e-01,7.274451851844787598e-01,7.276807427406311035e-01,7.281278967857360840e-01,7.285953164100646973e-01,7.344447374343872070e-01,7.455932497978210449e-01,1.979024767875671387e+00,1.978824734687805176e+00,1.978624701499938965e+00,1.978425025939941406e+00,1.978225111961364746e+00,1.978025197982788086e+00,1.977825403213500977e+00,1.977625727653503418e+00,1.977426052093505859e+00,1.977226257324218750e+00,1.977026581764221191e+00,1.976827263832092285e+00,1.976627588272094727e+00,1.976428031921386719e+00,1.976228594779968262e+00,1.976029276847839355e+00,1.975829839706420898e+00,1.975630402565002441e+00,1.975431084632873535e+00,1.975232005119323730e+00,1.975032687187194824e+00,1.974833488464355469e+00,1.974634289741516113e+00,1.974435329437255859e+00,1.974236249923706055e+00,1.974037170410156250e+00,1.973838090896606445e+00,1.973639369010925293e+00,1.973440408706665039e+00,1.973241448402404785e+00,1.973042845726013184e+00,1.972844004631042480e+00,1.972645282745361328e+00,1.972446441650390625e+00
1.777768373489379883e+00,1.777607083320617676e+00,1.777445673942565918e+00,1.777284383773803711e+00,1.777122974395751953e+00,1.776961922645568848e+00,1.776800632476806641e+00,1.776639342308044434e+00,1.776478171348571777e+00,1.776317119598388672e+00,1.776155948638916016e+00,1.775994896888732910e+00,1.775833725929260254e+00,1.775672912597656250e+00,1.775511860847473145e+00,1.775350809097290039e+00,1.775189876556396484e+00,1.775029063224792480e+00,1.774868130683898926e+00,1.774707198143005371e+00,1.774546623229980469e+00,1.774385690689086914e+00,1.774224877357482910e+00,1.774064183235168457e+00,1.773903608322143555e+00,9.633163213729858398e-01,9.659789800643920898e-01,9.817942976951599121e-01,1.031044960021972656e+00,1.773100376129150391e+00,1.772939801216125488e+00,1.772779226303100586e+00,1.772618889808654785e+00,1.772458434104919434e+00,1.772297978401184082e+00,1.772137522697448730e+00,1.771977305412292480e+00,7.528287172317504883e-01,7.423566579818725586e-01,7.307222485542297363e-01,7.304444909095764160e-01,7.307708859443664551e-01,7.312417030334472656e-01,7.317130565643310547e-01,7.382092475891113281e-01,7.507176399230957031e-01,1.770375251770019531e+00,1.770215272903442383e+00,1.770055294036865234e+00,1.769895195960998535e+00,1.769735217094421387e+00,1.769575476646423340e+00,1.769415497779846191e+00,1.769255638122558594e+00,1.769095659255981445e+00,1.768936038017272949e+00,1.768776178359985352e+00,1.768616437911987305e+00,1.768456697463989258e+00,1.768297076225280762e+00,1.768137335777282715e+00,1.767977714538574219e+00,1.767818093299865723e+00,1.767658591270446777e+00,1.767498970031738281e+00,1.767339468002319336e+00,1.767179965972900391e+00,1.767020583152770996e+00,1.766861081123352051e+00,1.766701698303222656e+00,1.766542434692382812e+00,1.766383051872253418e+00,1.766223669052124023e+00,1.766064286231994629e+00,1.765905261039733887e+00,1.765745997428894043e+00,1.765586733818054199e+00,1.765427470207214355e+00,1.765268564224243164e+00,1.765109300613403320e+00
1.607573509216308594e+00,1.607441544532775879e+00,1.607309579849243164e+00,1.607177734375000000e+00,1.607045888900756836e+00,1.606913924217224121e+00,1.606782078742980957e+00,1.606650352478027344e+00,1.606518507003784180e+00,1.606386661529541016e+00,1.606254816055297852e+00,1.606123208999633789e+00,1.605991482734680176e+00,1.605859756469726562e+00,1.605728149414062500e+00,1.605596423149108887e+00,1.605464816093444824e+00,1.605333089828491211e+00,1.605201721191406250e+00,1.605069994926452637e+00,1.604938507080078125e+00,1.604806900024414062e+00,1.604675531387329102e+00,1.604544043540954590e+00,9.677015542984008789e-01,9.600814580917358398e-01,9.620727896690368652e-01,9.816146492958068848e-01,1.026678919792175293e+00,1.603755474090576172e+00,1.603624224662780762e+00,1.603492856025695801e+00,1.603361606597900391e+00,1.603230237960815430e+00,1.603099107742309570e+00,1.602967858314514160e+00,1.602836608886718750e+00,7.554474472999572754e-01,7.449029088020324707e-01,7.336122989654541016e-01,7.334687709808349609e-01,7.339073419570922852e-01,7.343821525573730469e-01,7.348576784133911133e-01,7.420125603675842285e-01,7.559128403663635254e-01,1.601525783538818359e+00,1.601394772529602051e+00,1.601263880729675293e+00,1.601132988929748535e+00,1.601002097129821777e+00,1.600871205329895020e+00,1.600740313529968262e+00,1.600609540939331055e+00,1.600478649139404297e+00,1.600347876548767090e+00,1.600217103958129883e+00,1.600086450576782227e+00,1.599955558776855469e+00,1.599824905395507812e+00,1.599694132804870605e+00,1.599563598632812500e+00,1.599432945251464844e+00,1.599302172660827637e+00,1.599171757698059082e+00,1.599041104316711426e+00,1.598910570144653320e+00,1.598779916763305664e+00,1.598649501800537109e+00,1.598518967628479004e+00,1.598388314247131348e+00,1.598257660865783691e+00,1.598127245903015137e+00,1.597996592521667480e+00,1.597866177558898926e+00,1.597735643386840820e+00,1.597605228424072266e+00,1.597474694252014160e+00,1.597344398498535156e+00,1.597213864326477051e+00
1.467118620872497559e+00,1.467008829116821289e+00,1.466898918151855469e+00,1.466789007186889648e+00,1.466679096221923828e+00,1.466569423675537109e+00,1.466459512710571289e+00,1.466349720954895020e+00,1.466239929199218750e+00,1.466130137443542480e+00,1.466020345687866211e+00,1.465910553932189941e+00,1.465801000595092773e+00,1.465691208839416504e+00,1.465581536293029785e+00,1.465471744537353516e+00,1.465362191200256348e+00,1.465252518653869629e+00,1.465142846107482910e+00,1.465033173561096191e+00,1.464923739433288574e+00,1.464814066886901855e+00,1.464704513549804688e+00,1.464594960212707520e+00,9.659201502799987793e-01,9.575765132904052734e-01,9.579918384552001953e-01,9.789633750915527344e-01,1.009189248085021973e+00,1.463937997817993164e+00,1.463828563690185547e+00,1.463719248771667480e+00,1.463609814643859863e+00,1.463500380516052246e+00,1.463390946388244629e+00,1.463281750679016113e+00,1.463172435760498047e+00,7.580844163894653320e-01,7.474666237831115723e-01,7.365252375602722168e-01,7.365925312042236328e-01,7.370707988739013672e-01,7.375497817993164062e-01,7.380293607711791992e-01,7.458552718162536621e-01,1.462189078330993652e+00,1.462079882621765137e+00,1.461970806121826172e+00,1.461861610412597656e+00,1.461752533912658691e+00,1.461643338203430176e+00,1.461534380912780762e+00,1.461425304412841797e+00,1.461316227912902832e+00,1.461207151412963867e+00,1.461098194122314453e+00,1.460989117622375488e+00,1.460880160331726074e+00,1.460771203041076660e+00,1.460662126541137695e+00,1.460553050041198730e+00,1.460444092750549316e+00,1.460335016250610352e+00,1.460226058959960938e+00,1.460116982460021973e+00,1.460008144378662109e+00,1.459899187088012695e+00,1.459790110588073730e+00,1.459681272506713867e+00,1.459572315216064453e+00,1.459463477134704590e+00,1.459354639053344727e+00,1.459245800971984863e+00,1.459136962890625000e+00,1.459028244018554688e+00,1.458919286727905273e+00,1.458810448646545410e+00,1.458701729774475098e+00,1.458593010902404785e+00,1.458484292030334473e+00
1.349235057830810547e+00,1.349142074584960938e+00,1.349049210548400879e+00,1.348956227302551270e+00,1.348863363265991211e+00,1.348770380020141602e+00,1.348677515983581543e+00,1.348584651947021484e+00,1.348491787910461426e+00,1.348398923873901367e+00,1.348306179046630859e+00,1.348213315010070801e+00,1.348120450973510742e+00,1.348027586936950684e+00,1.347934842109680176e+00,1.347842097282409668e+00,1.347749352455139160e+00,1.347656488418579102e+00,1.347563862800598145e+00,1.347471117973327637e+00,1.347378373146057129e+00,1.347285628318786621e+00,1.347193121910095215e+00,1.347100377082824707e+00,1.347007632255554199e+00,9.577358961105346680e-01,9.499207735061645508e-01,9.589112401008605957e-01,9.876642823219299316e-01,1.346544623374938965e+00,1.346451997756958008e+00,1.346359491348266602e+00,1.346266865730285645e+00,1.346174359321594238e+00,1.346081852912902832e+00,1.345989227294921875e+00,1.345896720886230469e+00,1.345804333686828613e+00,7.500481009483337402e-01,7.394614815711975098e-01,7.397792339324951172e-01,7.402616739273071289e-01,7.407448291778564453e-01,7.412285208702087402e-01,7.497379183769226074e-01,1.345064759254455566e+00,1.344972372055053711e+00,1.344879984855651855e+00,1.344787597656250000e+00,1.344695091247558594e+00,1.344602823257446289e+00,1.344510316848754883e+00,1.344417929649353027e+00,1.344325542449951172e+00,1.344233155250549316e+00,1.344140887260437012e+00,1.344048500061035156e+00,1.343956112861633301e+00,1.343863844871520996e+00,1.343771576881408691e+00,1.343679189682006836e+00,1.343587040901184082e+00,1.343494653701782227e+00,1.343402385711669922e+00,1.343310236930847168e+00,1.343217968940734863e+00,1.343125820159912109e+00,1.343033552169799805e+00,1.342941403388977051e+00,1.342849135398864746e+00,1.342756986618041992e+00,1.342664837837219238e+00,1.342572689056396484e+00,1.342480540275573730e+00,1.342388391494750977e+00,1.342296361923217773e+00,1.342204213142395020e+00,1.342112183570861816e+00,1.342020153999328613e+00,1.341928124427795410e+00
1.248886585235595703e+00,1.248806834220886230e+00,1.248727202415466309e+00,1.248647570610046387e+00,1.248568058013916016e+00,1.248488426208496094e+00,1.248408794403076172e+00,1.248329162597656250e+00,1.248249650001525879e+00,1.248170137405395508e+00,1.248090505599975586e+00,1.248010993003845215e+00,1.247931480407714844e+00,1.247851967811584473e+00,1.247772455215454102e+00,1.247692942619323730e+00,1.247613430023193359e+00,1.247533917427062988e+00,1.247454524040222168e+00,1.247375011444091797e+00,1.247295618057250977e+00,1.247216105461120605e+00,1.247136712074279785e+00,1.247057318687438965e+00,1.246977925300598145e+00,1.246898531913757324e+00,9.436759352684020996e-01,9.473647475242614746e-01,9.752850532531738281e-01,1.246580958366394043e+00,1.246501564979553223e+00,1.246422290802001953e+00,1.246343016624450684e+00,1.246263623237609863e+00,1.246184349060058594e+00,1.246105074882507324e+00,1.246025800704956055e+00,1.245946407318115234e+00,7.823347449302673340e-01,7.605200409889221191e-01,7.526144981384277344e-01,7.516602277755737305e-01,7.546852231025695801e-01,7.590293288230895996e-01,1.245391249656677246e+00,1.245311975479125977e+00,1.245232701301574707e+00,1.245153427124023438e+00,1.245074152946472168e+00,1.244994997978210449e+00,1.244915723800659180e+00,1.244836568832397461e+00,1.244757294654846191e+00,1.244678139686584473e+00,1.244598984718322754e+00,1.244519829750061035e+00,1.244440555572509766e+00,1.244361400604248047e+00,1.244282364845275879e+00,1.244203090667724609e+00,1.244124054908752441e+00,1.244044899940490723e+00,1.243965864181518555e+00,1.243886709213256836e+00,1.243807673454284668e+00,1.243728637695312500e+00,1.243649601936340332e+00,1.243570446968078613e+00,1.243491411209106445e+00,1.243412494659423828e+00,1.243333339691162109e+00,1.243254423141479492e+00,1.243175387382507324e+00,1.243096470832824707e+00,1.243017435073852539e+00,1.242938518524169922e+00,1.242859482765197754e+00,1.242780447006225586e+00,1.242701649665832520e+00,1.242622613906860352e+00
1.162431359291076660e+00,1.162362337112426758e+00,1.162293434143066406e+00,1.162224411964416504e+00,1.162155389785766602e+00,1.162086486816406250e+00,1.162017583847045898e+00,1.161948561668395996e+00,1.161879658699035645e+00,1.161810636520385742e+00,1.161741852760314941e+00,1.161672830581665039e+00,1.161603927612304688e+00,1.161535024642944336e+00,1.161466121673583984e+00,1.161397218704223633e+00,1.161328434944152832e+00,1.161259531974792480e+00,1.161190629005432129e+00,1.161121845245361328e+00,1.161052942276000977e+00,1.160984158515930176e+00,1.160915374755859375e+00,1.160846471786499023e+00,1.160777688026428223e+00,1.160708904266357422e+00,1.160640120506286621e+00,9.409329891204833984e-01,1.160502314567565918e+00,1.160433530807495117e+00,1.160364627838134766e+00,1.160295844078063965e+00,1.160227060317993164e+00,1.160158276557922363e+00,1.160089492797851562e+00,1.160020589828491211e+00,1.159951925277709961e+00,1.159883141517639160e+00,7.793694734573364258e-01,7.616274356842041016e-01,7.551692724227905273e-01,7.523735761642456055e-01,7.558667659759521484e-01,7.599440813064575195e-01,7.701224088668823242e-01,1.159333229064941406e+00,1.159264564514160156e+00,1.159195899963378906e+00,1.159127116203308105e+00,1.159058570861816406e+00,1.158989787101745605e+00,1.158921241760253906e+00,1.158852577209472656e+00,1.158783912658691406e+00,1.158715248107910156e+00,1.158646583557128906e+00,1.158578038215637207e+00,1.158509373664855957e+00,1.158440828323364258e+00,1.158372163772583008e+00,1.158303737640380859e+00,1.158235073089599609e+00,1.158166527748107910e+00,1.158097982406616211e+00,1.158029437065124512e+00,1.157960891723632812e+00,1.157892346382141113e+00,1.157823801040649414e+00,1.157755255699157715e+00,1.157686829566955566e+00,1.157618284225463867e+00,1.157549738883972168e+00,1.157481312751770020e+00,1.157412767410278320e+00,1.157344341278076172e+00,1.157275915145874023e+00,1.157207489013671875e+00,1.157139062881469727e+00,1.157070636749267578e+00,1.157002210617065430e+00
1.087171077728271484e+00,1.087110757827758789e+00,1.087050437927246094e+00,1.086989998817443848e+00,1.086929798126220703e+00,1.086869359016418457e+00,1.086809039115905762e+00,1.086748719215393066e+00,1.086688518524169922e+00,1.086628198623657227e+00,1.086567878723144531e+00,1.086507558822631836e+00,1.086447358131408691e+00,1.086387038230895996e+00,1.086326718330383301e+00,1.086266517639160156e+00,1.086206197738647461e+00,1.086145877838134766e+00,1.086085557937622070e+00,1.086025238037109375e+00,1.085964918136596680e+00,1.085904717445373535e+00,1.085844397544860840e+00,1.085784196853637695e+00,1.085723876953125000e+00,1.085663676261901855e+00,1.085603475570678711e+00,1.085543274879455566e+00,1.085482954978942871e+00,1.085422754287719727e+00,1.085362553596496582e+00,1.085302352905273438e+00,1.085242152214050293e+00,1.085181951522827148e+00,1.085121750831604004e+00,1.085061550140380859e+00,1.085001468658447266e+00,7.965341806411743164e-01,7.759355306625366211e-01,7.633434534072875977e-01,7.562998533248901367e-01,7.527951002120971680e-01,7.562994360923767090e-01,7.580880522727966309e-01,7.610986232757568359e-01,7.702447772026062012e-01,1.084399938583374023e+00,1.084339976310729980e+00,1.084279775619506836e+00,1.084219694137573242e+00,1.084159612655639648e+00,1.084099531173706055e+00,1.084039449691772461e+00,1.083979368209838867e+00,1.083919405937194824e+00,1.083859324455261230e+00,1.083799242973327637e+00,1.083739280700683594e+00,1.083679199218750000e+00,1.083619236946105957e+00,1.083559155464172363e+00,1.083499193191528320e+00,1.083439111709594727e+00,1.083379149436950684e+00,1.083319187164306641e+00,1.083259224891662598e+00,1.083199262619018555e+00,1.083139181137084961e+00,1.083079218864440918e+00,1.083019256591796875e+00,1.082959413528442383e+00,1.082899451255798340e+00,1.082839488983154297e+00,1.082779526710510254e+00,1.082719683647155762e+00,1.082659721374511719e+00,1.082599759101867676e+00,1.082539916038513184e+00,1.082479953765869141e+00,1.082420110702514648e+00
1.021063566207885742e+00,1.021010279655456543e+00,1.020957112312316895e+00,1.020903825759887695e+00,1.020850539207458496e+00,1.020797371864318848e+00,1.020744085311889648e+00,1.020690798759460449e+00,1.020637631416320801e+00,1.020584344863891602e+00,1.020531058311462402e+00,1.020477890968322754e+00,1.020424604415893555e+00,1.020371437072753906e+00,1.020318269729614258e+00,1.020264983177185059e+00,1.020211815834045410e+00,1.020158648490905762e+00,1.020105361938476562e+00,1.020052194595336914e+00,1.019999027252197266e+00,1.019945859909057617e+00,1.019892692565917969e+00,1.019839525222778320e+00,1.019786357879638672e+00,1.019733190536499023e+00,1.019680023193359375e+00,1.019626855850219727e+00,1.019573807716369629e+00,1.019520640373229980e+00,1.019467592239379883e+00,1.019414424896240234e+00,1.019361257553100586e+00,1.019308209419250488e+00,1.019255042076110840e+00,1.019201993942260742e+00,1.019148826599121094e+00,7.919254899024963379e-01,7.771513462066650391e-01,7.643818855285644531e-01,7.571648955345153809e-01,7.535979151725769043e-01,7.520688176155090332e-01,7.516230344772338867e-01,7.520222663879394531e-01,7.551795244216918945e-01,7.641600966453552246e-01,1.018565177917480469e+00,1.018512248992919922e+00,1.018459200859069824e+00,1.018406152725219727e+00,1.018353104591369629e+00,1.018300175666809082e+00,1.018247127532958984e+00,1.018194079399108887e+00,1.018141150474548340e+00,1.018088102340698242e+00,1.018035173416137695e+00,1.017982244491577148e+00,1.017929315567016602e+00,1.017876267433166504e+00,1.017823338508605957e+00,1.017770409584045410e+00,1.017717480659484863e+00,1.017664551734924316e+00,1.017611622810363770e+00,1.017558693885803223e+00,1.017505764961242676e+00,1.017452836036682129e+00,1.017399907112121582e+00,1.017346978187561035e+00,1.017294049263000488e+00,1.017241239547729492e+00,1.017188310623168945e+00,1.017135381698608398e+00,1.017082571983337402e+00,1.017029643058776855e+00,1.016976833343505859e+00,1.016923904418945312e+00,1.016871094703674316e+00
9.625344872474670410e-01,9.624871015548706055e-01,9.624397158622741699e-01,9.623923301696777344e-01,9.623450636863708496e-01,9.622977375984191895e-01,9.622503519058227539e-01,9.622030258178710938e-01,9.621557593345642090e-01,9.621084332466125488e-01,9.620611071586608887e-01,9.620137810707092285e-01,9.619664549827575684e-01,9.619192481040954590e-01,9.618719220161437988e-01,9.618245959281921387e-01,9.617772698402404785e-01,9.617301225662231445e-01,9.616827964782714844e-01,9.616355299949645996e-01,9.615882039070129395e-01,9.615409374237060547e-01,9.614937901496887207e-01,9.614464640617370605e-01,9.613991975784301758e-01,9.613519310951232910e-01,9.613047838211059570e-01,9.612575769424438477e-01,9.612103104591369629e-01,9.611630439758300781e-01,9.611157774925231934e-01,9.610686898231506348e-01,9.610214233398437500e-01,9.609742164611816406e-01,9.609270095825195312e-01,9.608798623085021973e-01,9.608326554298400879e-01,7.891401648521423340e-01,7.765462994575500488e-01,7.659393548965454102e-01,7.569055557250976562e-01,7.509211301803588867e-01,7.484522461891174316e-01,7.463654279708862305e-01,7.456584572792053223e-01,7.465748190879821777e-01,7.503700256347656250e-01,7.580851912498474121e-01,9.602666497230529785e-01,9.602196216583251953e-01,9.601724743843078613e-01,9.601253271102905273e-01,9.600781798362731934e-01,9.600311517715454102e-01,9.599840044975280762e-01,9.599369168281555176e-01,9.598897695541381836e-01,9.598426222801208496e-01,9.597956538200378418e-01,9.597485065460205078e-01,9.597014188766479492e-01,9.596543312072753906e-01,9.596073627471923828e-01,9.595602750778198242e-01,9.595131874084472656e-01,9.594660997390747070e-01,9.594191312789916992e-01,9.593720436096191406e-01,9.593249559402465820e-01,9.592779278755187988e-01,9.592308402061462402e-01,9.591839313507080078e-01,9.591368436813354492e-01,9.590898156166076660e-01,9.590427875518798828e-01,9.589958786964416504e-01,9.589488506317138672e-01,9.589017629623413086e-01,9.588547945022583008e-01,9.588077664375305176e-01
9.103513360023498535e-01,9.103089570999145508e-01,9.102666974067687988e-01,9.102243185043334961e-01,9.101819396018981934e-01,9.101395606994628906e-01,9.100971817970275879e-01,9.100549221038818359e-01,9.100126028060913086e-01,9.099702239036560059e-01,9.099279046058654785e-01,9.098856449127197266e-01,9.098433256149291992e-01,9.098010063171386719e-01,9.097586274147033691e-01,9.097163081169128418e-01,9.096741080284118652e-01,9.096317887306213379e-01,9.095894694328308105e-01,9.095471501350402832e-01,9.095049500465393066e-01,9.094626307487487793e-01,9.094203710556030273e-01,9.093780517578125000e-01,9.093358516693115234e-01,9.092935919761657715e-01,9.092513322830200195e-01,9.092090129852294922e-01,9.091667532920837402e-01,9.091245532035827637e-01,9.090822935104370117e-01,9.090400338172912598e-01,9.089977741241455078e-01,9.089556336402893066e-01,9.089133739471435547e-01,9.088711738586425781e-01,9.088289141654968262e-01,7.891257405281066895e-01,7.759317755699157715e-01,7.662808895111083984e-01,7.576388716697692871e-01,7.506435513496398926e-01,7.448129653930664062e-01,7.424216866493225098e-01,7.405009865760803223e-01,7.405933141708374023e-01,7.421732544898986816e-01,7.447264790534973145e-01,7.506318688392639160e-01,7.593516707420349121e-01,9.082382321357727051e-01,9.081961512565612793e-01,9.081539511680603027e-01,9.081117510795593262e-01,9.080696105957031250e-01,9.080274701118469238e-01,9.079853892326354980e-01,9.079431891441345215e-01,9.079010486602783203e-01,9.078589081764221191e-01,9.078168272972106934e-01,9.077746868133544922e-01,9.077325463294982910e-01,9.076904058456420898e-01,9.076482653617858887e-01,9.076062440872192383e-01,9.075641632080078125e-01,9.075220227241516113e-01,9.074798822402954102e-01,9.074378609657287598e-01,9.073957800865173340e-01,9.073536992073059082e-01,9.073115587234497070e-01,9.072694778442382812e-01,9.072274565696716309e-01,9.071853756904602051e-01,9.071432948112487793e-01,9.071012139320373535e-01,9.070592522621154785e-01,9.070171713829040527e-01
8.635354638099670410e-01,8.634973168373107910e-01,8.634591698646545410e-01,8.634210824966430664e-01,8.633829355239868164e-01,8.633449077606201172e-01,8.633068203926086426e-01,8.632686734199523926e-01,8.632305860519409180e-01,8.631925582885742188e-01,8.631544709205627441e-01,8.631163835525512695e-01,8.630782365798950195e-01,8.630401492118835449e-01,8.630021810531616211e-01,8.629640936851501465e-01,8.629260063171386719e-01,8.628879189491271973e-01,8.628499507904052734e-01,8.628118634223937988e-01,8.627737760543823242e-01,8.627356886863708496e-01,8.626976609230041504e-01,8.626596927642822266e-01,8.626216053962707520e-01,8.625835776329040527e-01,8.625455498695373535e-01,8.625075817108154297e-01,8.624694943428039551e-01,8.624314665794372559e-01,8.623934388160705566e-01,8.623554110527038574e-01,8.623174428939819336e-01,8.622794151306152344e-01,8.622414469718933105e-01,8.622034192085266113e-01,8.621654510498046875e-01,8.621274828910827637e-01,7.788961529731750488e-01,7.664783000946044922e-01,7.570188045501708984e-01,7.483325600624084473e-01,7.408830523490905762e-01,7.364314198493957520e-01,7.343825697898864746e-01,7.332886457443237305e-01,7.339500188827514648e-01,7.356390357017517090e-01,7.377527356147766113e-01,7.438163757324218750e-01,7.507995963096618652e-01,7.562112808227539062e-01,7.574549317359924316e-01,8.615199923515319824e-01,8.614820837974548340e-01,8.614441752433776855e-01,8.614062070846557617e-01,8.613682389259338379e-01,8.613303303718566895e-01,8.612924814224243164e-01,8.612545132637023926e-01,8.612166047096252441e-01,8.611786961555480957e-01,8.611408472061157227e-01,8.611029386520385742e-01,8.610649704933166504e-01,8.610270619392395020e-01,8.609891533851623535e-01,8.609513640403747559e-01,8.609134554862976074e-01,8.608755469322204590e-01,8.608376383781433105e-01,8.607998490333557129e-01,8.607619404792785645e-01,8.607240319252014160e-01,8.606861829757690430e-01,8.606482744216918945e-01,8.606104850769042969e-01,8.605726361274719238e-01,8.605347275733947754e-01
8.212991356849670410e-01,8.212646245956420898e-01,8.212301135063171387e-01,8.211957216262817383e-01,8.211612105369567871e-01,8.211267590522766113e-01,8.210922479629516602e-01,8.210577964782714844e-01,8.210234045982360840e-01,8.209889531135559082e-01,8.209544420242309570e-01,8.209199905395507812e-01,8.208855986595153809e-01,8.208511471748352051e-01,8.208166956901550293e-01,8.207822442054748535e-01,8.207477927207946777e-01,8.207134604454040527e-01,8.206790089607238770e-01,8.206445574760437012e-01,8.206101059913635254e-01,8.205757737159729004e-01,8.205413222312927246e-01,8.205068707466125488e-01,8.204724788665771484e-01,8.204380273818969727e-01,8.204036951065063477e-01,8.203693032264709473e-01,8.203348517417907715e-01,8.203004598617553711e-01,8.202661275863647461e-01,8.202317357063293457e-01,8.201972842216491699e-01,8.201628923416137695e-01,8.201285004615783691e-01,8.200941681861877441e-01,8.200597763061523438e-01,8.200253844261169434e-01,8.199909925460815430e-01,8.199567198753356934e-01,8.199223279953002930e-01,7.522991895675659180e-01,7.403819561004638672e-01,7.324340939521789551e-01,7.278181314468383789e-01,7.250860929489135742e-01,7.238583564758300781e-01,7.253095507621765137e-01,7.273166775703430176e-01,7.288568615913391113e-01,7.352950572967529297e-01,7.342001199722290039e-01,7.357817888259887695e-01,7.482799291610717773e-01,8.194414973258972168e-01,8.194071650505065918e-01,8.193728327751159668e-01,8.193386197090148926e-01,8.193042874336242676e-01,8.192699551582336426e-01,8.192356228828430176e-01,8.192013502120971680e-01,8.191670775413513184e-01,8.191327452659606934e-01,8.190984129905700684e-01,8.190641403198242188e-01,8.190298676490783691e-01,8.189955949783325195e-01,8.189612627029418945e-01,8.189269900321960449e-01,8.188927769660949707e-01,8.188584446907043457e-01,8.188241720199584961e-01,8.187898993492126465e-01,8.187556266784667969e-01,8.187214136123657227e-01,8.186871409416198730e-01,8.186528682708740234e-01,8.186185956001281738e-01,8.185843825340270996e-01
7.830017805099487305e-01,7.829704284667968750e-01,7.829391360282897949e-01,7.829077839851379395e-01,7.828764319419860840e-01,7.828451395034790039e-01,7.828138470649719238e-01,7.827824950218200684e-01,7.827512025833129883e-01,7.827198505401611328e-01,7.826885581016540527e-01,7.826572656631469727e-01,7.826259136199951172e-01,7.825946211814880371e-01,7.825632691383361816e-01,7.825320363044738770e-01,7.825007438659667969e-01,7.824693918228149414e-01,7.824380993843078613e-01,7.824068665504455566e-01,7.823755741119384766e-01,7.823442816734313965e-01,7.823129296302795410e-01,7.822816371917724609e-01,7.822504639625549316e-01,7.822191715240478516e-01,7.821878790855407715e-01,7.821565866470336914e-01,7.821253538131713867e-01,7.820940613746643066e-01,7.820627689361572266e-01,7.820315361022949219e-01,7.820002436637878418e-01,7.819690108299255371e-01,7.819377779960632324e-01,7.819064855575561523e-01,7.818752527236938477e-01,7.818440198898315430e-01,7.818127870559692383e-01,7.817814946174621582e-01,7.817502617835998535e-01,7.817190289497375488e-01,7.816878557205200195e-01,7.354504466056823730e-01,7.237572669982910156e-01,7.168657183647155762e-01,7.142368555068969727e-01,7.129234075546264648e-01,7.133591771125793457e-01,7.160614728927612305e-01,7.148460745811462402e-01,7.190247178077697754e-01,7.291882038116455078e-01,7.395824790000915527e-01,7.379041910171508789e-01,7.812820076942443848e-01,7.812508344650268555e-01,7.812196016311645508e-01,7.811883687973022461e-01,7.811571955680847168e-01,7.811260223388671875e-01,7.810948491096496582e-01,7.810636162757873535e-01,7.810324430465698242e-01,7.810013294219970703e-01,7.809701561927795410e-01,7.809389233589172363e-01,7.809077501296997070e-01,7.808765769004821777e-01,7.808454632759094238e-01,7.808142900466918945e-01,7.807831168174743652e-01,7.807519435882568359e-01,7.807208299636840820e-01,7.806896567344665527e-01,7.806584835052490234e-01,7.806273102760314941e-01,7.805961370468139648e-01,7.805650830268859863e-01,7.805339097976684570e-01
7.481169700622558594e-01,7.480883598327636719e-01,7.480597496032714844e-01,7.480311393737792969e-01,7.480025887489318848e-01,7.479739785194396973e-01,7.479453682899475098e-01,7.479167580604553223e-01,7.478881478309631348e-01,7.478595972061157227e-01,7.478309869766235352e-01,7.478024363517761230e-01,7.477738261222839355e-01,7.477452754974365234e-01,7.477166652679443359e-01,7.476881146430969238e-01,7.476595044136047363e-01,7.476308941841125488e-01,7.476024031639099121e-01,7.475738525390625000e-01,7.475452423095703125e-01,7.475166916847229004e-01,7.474881410598754883e-01,7.474595904350280762e-01,7.474310398101806641e-01,7.474024295806884766e-01,7.473738789558410645e-01,7.473453879356384277e-01,7.473168373107910156e-01,7.472882270812988281e-01,7.472596764564514160e-01,7.472311854362487793e-01,7.472026348114013672e-01,7.471740841865539551e-01,7.471455335617065430e-01,7.471169829368591309e-01,7.470885515213012695e-01,7.470600008964538574e-01,7.470314502716064453e-01,7.470028996467590332e-01,7.469744086265563965e-01,7.469459176063537598e-01,7.469173669815063477e-01,7.468888163566589355e-01,7.468603253364562988e-01,7.169162034988403320e-01,7.103279829025268555e-01,7.065162062644958496e-01,7.050522565841674805e-01,7.023398280143737793e-01,7.096667885780334473e-01,7.093804478645324707e-01,7.138532996177673340e-01,7.229635119438171387e-01,7.465753555297851562e-01,7.465468645095825195e-01,7.465183734893798828e-01,7.464898228645324707e-01,7.464613914489746094e-01,7.464329004287719727e-01,7.464044094085693359e-01,7.463759183883666992e-01,7.463474273681640625e-01,7.463190555572509766e-01,7.462905645370483398e-01,7.462620735168457031e-01,7.462335824966430664e-01,7.462051510810852051e-01,7.461767196655273438e-01,7.461482286453247070e-01,7.461197376251220703e-01,7.460913062095642090e-01,7.460628747940063477e-01,7.460344433784484863e-01,7.460059523582458496e-01,7.459775209426879883e-01,7.459490895271301270e-01,7.459206581115722656e-01,7.458921670913696289e-01,7.458637356758117676e-01
