3.099380016326904297e+00,3.177753925323486328e+00,3.260194778442382812e+00,3.347026348114013672e+00,3.438610553741455078e+00,3.535342931747436523e+00,3.637671947479248047e+00,3.746100664138793945e+00,3.861192226409912109e+00,3.983580112457275391e+00,4.113980293273925781e+00,4.253206253051757812e+00,4.402185916900634766e+00,4.561981678009033203e+00,4.733814716339111328e+00,4.919099330902099609e+00,5.000000000000000000e+00,5.000000000000000000e+00,5.000000000000000000e+00,5.000000000000000000e+00,5.000000000000000000e+00,5.000000000000000000e+00,5.000000000000000000e+00,5.000000000000000000e+00,5.000000000000000000e+00,5.000000000000000000e+00,5.000000000000000000e+00,5.000000000000000000e+00,5.000000000000000000e+00,5.000000000000000000e+00,5.000000000000000000e+00,5.000000000000000000e+00,5.000000000000000000e+00,5.000000000000000000e+00,5.000000000000000000e+00,5.000000000000000000e+00,5.000000000000000000e+00,5.000000000000000000e+00,5.000000000000000000e+00,5.000000000000000000e+00,5.000000000000000000e+00,5.000000000000000000e+00,5.000000000000000000e+00,5.000000000000000000e+00,5.000000000000000000e+00,5.000000000000000000e+00,5.000000000000000000e+00,5.000000000000000000e+00,5.000000000000000000e+00,5.000000000000000000e+00,5.000000000000000000e+00,5.000000000000000000e+00,5.000000000000000000e+00,5.000000000000000000e+00,5.000000000000000000e+00,5.000000000000000000e+00,5.000000000000000000e+00,5.000000000000000000e+00,5.000000000000000000e+00,5.000000000000000000e+00,5.000000000000000000e+00,5.000000000000000000e+00,5.000000000000000000e+00,5.000000000000000000e+00,5.000000000000000000e+00,5.000000000000000000e+00,5.000000000000000000e+00,5.000000000000000000e+00,5.000000000000000000e+00,5.000000000000000000e+00,4.850917339324951172e+00,4.691622257232666016e+00,4.542456626892089844e+00,4.402483940124511719e+00,4.270879745483398438e+00,4.146914958953857422e+00,4.029943466186523438e+00,3.919390439987182617e+00,3.814740657806396484e+00,3.715533733367919922e+00
3.099313497543334961e+00,3.177684307098388672e+00,3.260121107101440430e+00,3.346948862075805664e+00,3.438528776168823242e+00,3.535260915756225586e+00,3.637588739395141602e+00,3.746012449264526367e+00,3.861098527908325195e+00,3.983480215072631836e+00,4.113873481750488281e+00,4.253092765808105469e+00,4.402063846588134766e+00,4.561850547790527344e+00,4.733674049377441406e+00,4.918947219848632812e+00,5.000000000000000000e+00,5.000000000000000000e+00,5.000000000000000000e+00,5.000000000000000000e+00,5.000000000000000000e+00,5.000000000000000000e+00,5.000000000000000000e+00,5.000000000000000000e+00,5.000000000000000000e+00,5.000000000000000000e+00,5.000000000000000000e+00,5.000000000000000000e+00,5.000000000000000000e+00,5.000000000000000000e+00,5.000000000000000000e+00,5.000000000000000000e+00,5.000000000000000000e+00,5.000000000000000000e+00,5.000000000000000000e+00,5.000000000000000000e+00,5.000000000000000000e+00,5.000000000000000000e+00,5.000000000000000000e+00,5.000000000000000000e+00,5.000000000000000000e+00,5.000000000000000000e+00,5.000000000000000000e+00,5.000000000000000000e+00,5.000000000000000000e+00,5.000000000000000000e+00,5.000000000000000000e+00,5.000000000000000000e+00,5.000000000000000000e+00,5.000000000000000000e+00,5.000000000000000000e+00,5.000000000000000000e+00,5.000000000000000000e+00,5.000000000000000000e+00,5.000000000000000000e+00,5.000000000000000000e+00,5.000000000000000000e+00,5.000000000000000000e+00,5.000000000000000000e+00,5.000000000000000000e+00,5.000000000000000000e+00,5.000000000000000000e+00,5.000000000000000000e+00,5.000000000000000000e+00,5.000000000000000000e+00,5.000000000000000000e+00,5.000000000000000000e+00,5.000000000000000000e+00,5.000000000000000000e+00,5.000000000000000000e+00,4.851060867309570312e+00,4.691756248474121094e+00,4.542582511901855469e+00,4.402601718902587891e+00,4.270990848541259766e+00,4.147019386291503906e+00,4.030042648315429688e+00,3.919483900070190430e+00,3.814829111099243164e+00,3.715617656707763672e+00
3.099246978759765625e+00,3.177614450454711914e+00,3.260047674179077148e+00,3.346871614456176758e+00,3.438446998596191406e+00,3.535174608230590820e+00,3.637501716613769531e+00,3.745924234390258789e+00,3.861004590988159180e+00,3.983380556106567383e+00,4.113767147064208984e+00,4.252978801727294922e+00,4.401942253112792969e+00,4.561719894409179688e+00,4.733532905578613281e+00,4.918795108795166016e+00,5.000000000000000000e+00,5.000000000000000000e+00,5.000000000000000000e+00,5.000000000000000000e+00,5.000000000000000000e+00,5.000000000000000000e+00,5.000000000000000000e+00,5.000000000000000000e+00,5.000000000000000000e+00,5.000000000000000000e+00,5.000000000000000000e+00,5.000000000000000000e+00,5.000000000000000000e+00,5.000000000000000000e+00,5.000000000000000000e+00,5.000000000000000000e+00,5.000000000000000000e+00,5.000000000000000000e+00,5.000000000000000000e+00,5.000000000000000000e+00,5.000000000000000000e+00,5.000000000000000000e+00,5.000000000000000000e+00,5.000000000000000000e+00,5.000000000000000000e+00,5.000000000000000000e+00,5.000000000000000000e+00,5.000000000000000000e+00,5.000000000000000000e+00,5.000000000000000000e+00,5.000000000000000000e+00,5.000000000000000000e+00,5.000000000000000000e+00,5.000000000000000000e+00,5.000000000000000000e+00,4.010963916778564453e+00,5.000000000000000000e+00,5.000000000000000000e+00,5.000000000000000000e+00,5.000000000000000000e+00,5.000000000000000000e+00,5.000000000000000000e+00,5.000000000000000000e+00,5.000000000000000000e+00,5.000000000000000000e+00,5.000000000000000000e+00,5.000000000000000000e+00,5.000000000000000000e+00,5.000000000000000000e+00,5.000000000000000000e+00,5.000000000000000000e+00,5.000000000000000000e+00,5.000000000000000000e+00,5.000000000000000000e+00,4.851203918457031250e+00,4.691890239715576172e+00,4.542707920074462891e+00,4.402719974517822266e+00,4.271101474761962891e+00,4.147124290466308594e+00,4.030141353607177734e+00,3.919576883316040039e+00,3.814914226531982422e+00,3.715695381164550781e+00
3.099180698394775391e+00,3.177544593811035156e+00,3.259974241256713867e+00,3.346794128417968750e+00,3.438365221023559570e+00,3.535088062286376953e+00,3.637410163879394531e+00,3.745832204818725586e+00,3.860911369323730469e+00,3.983280658721923828e+00,4.113660812377929688e+00,4.252865314483642578e+00,4.401820659637451172e+00,4.561588764190673828e+00,4.733392238616943359e+00,4.918642997741699219e+00,5.000000000000000000e+00,5.000000000000000000e+00,5.000000000000000000e+00,5.000000000000000000e+00,5.000000000000000000e+00,5.000000000000000000e+00,5.000000000000000000e+00,5.000000000000000000e+00,5.000000000000000000e+00,5.000000000000000000e+00,5.000000000000000000e+00,5.000000000000000000e+00,5.000000000000000000e+00,5.000000000000000000e+00,5.000000000000000000e+00,5.000000000000000000e+00,5.000000000000000000e+00,5.000000000000000000e+00,5.000000000000000000e+00,5.000000000000000000e+00,5.000000000000000000e+00,5.000000000000000000e+00,5.000000000000000000e+00,5.000000000000000000e+00,5.000000000000000000e+00,5.000000000000000000e+00,5.000000000000000000e+00,5.000000000000000000e+00,5.000000000000000000e+00,5.000000000000000000e+00,5.000000000000000000e+00,5.000000000000000000e+00,5.000000000000000000e+00,5.000000000000000000e+00,4.065797805786132812e+00,3.970415830612182617e+00,3.993685245513916016e+00,5.000000000000000000e+00,5.000000000000000000e+00,5.000000000000000000e+00,5.000000000000000000e+00,5.000000000000000000e+00,5.000000000000000000e+00,5.000000000000000000e+00,5.000000000000000000e+00,5.000000000000000000e+00,5.000000000000000000e+00,5.000000000000000000e+00,5.000000000000000000e+00,5.000000000000000000e+00,5.000000000000000000e+00,5.000000000000000000e+00,5.000000000000000000e+00,5.000000000000000000e+00,4.851347446441650391e+00,4.692024230957031250e+00,4.542833805084228516e+00,4.402837753295898438e+00,4.271212577819824219e+00,4.147225856781005859e+00,4.030233383178710938e+00,3.919661045074462891e+00,3.814994573593139648e+00,3.715771675109863281e+00
3.099114179611206055e+00,3.177474737167358398e+00,3.259900808334350586e+00,3.346716642379760742e+00,3.438283443450927734e+00,3.535001754760742188e+00,3.637318611145019531e+00,3.745735168457031250e+00,3.860813617706298828e+00,3.983180999755859375e+00,4.113554477691650391e+00,4.252751350402832031e+00,4.401699066162109375e+00,4.561458110809326172e+00,4.733251094818115234e+00,4.918490886688232422e+00,5.000000000000000000e+00,5.000000000000000000e+00,5.000000000000000000e+00,5.000000000000000000e+00,5.000000000000000000e+00,5.000000000000000000e+00,5.000000000000000000e+00,5.000000000000000000e+00,5.000000000000000000e+00,5.000000000000000000e+00,5.000000000000000000e+00,5.000000000000000000e+00,5.000000000000000000e+00,5.000000000000000000e+00,5.000000000000000000e+00,5.000000000000000000e+00,5.000000000000000000e+00,5.000000000000000000e+00,5.000000000000000000e+00,5.000000000000000000e+00,5.000000000000000000e+00,5.000000000000000000e+00,5.000000000000000000e+00,5.000000000000000000e+00,5.000000000000000000e+00,5.000000000000000000e+00,5.000000000000000000e+00,5.000000000000000000e+00,5.000000000000000000e+00,5.000000000000000000e+00,5.000000000000000000e+00,5.000000000000000000e+00,5.000000000000000000e+00,5.000000000000000000e+00,4.076655387878417969e+00,3.985543966293334961e+00,4.008062362670898438e+00,5.000000000000000000e+00,5.000000000000000000e+00,5.000000000000000000e+00,5.000000000000000000e+00,5.000000000000000000e+00,5.000000000000000000e+00,5.000000000000000000e+00,5.000000000000000000e+00,5.000000000000000000e+00,5.000000000000000000e+00,5.000000000000000000e+00,5.000000000000000000e+00,5.000000000000000000e+00,5.000000000000000000e+00,5.000000000000000000e+00,5.000000000000000000e+00,5.000000000000000000e+00,4.851490497589111328e+00,4.692158222198486328e+00,4.542956352233886719e+00,4.402948856353759766e+00,4.271313190460205078e+00,4.147320270538330078e+00,4.030323028564453125e+00,3.919745922088623047e+00,3.815074205398559570e+00,3.715847253799438477e+00
3.099048137664794922e+00,3.177404880523681641e+00,3.259827375411987305e+00,3.346639156341552734e+00,3.438201665878295898e+00,3.534915447235107422e+00,3.637227296829223633e+00,3.745638370513916016e+00,3.860710620880126953e+00,3.983076810836791992e+00,4.113448143005371094e+00,4.252637863159179688e+00,4.401576995849609375e+00,4.561327457427978516e+00,4.733110427856445312e+00,4.918338775634765625e+00,5.000000000000000000e+00,5.000000000000000000e+00,5.000000000000000000e+00,5.000000000000000000e+00,5.000000000000000000e+00,5.000000000000000000e+00,5.000000000000000000e+00,5.000000000000000000e+00,5.000000000000000000e+00,5.000000000000000000e+00,5.000000000000000000e+00,5.000000000000000000e+00,5.000000000000000000e+00,5.000000000000000000e+00,5.000000000000000000e+00,5.000000000000000000e+00,5.000000000000000000e+00,5.000000000000000000e+00,5.000000000000000000e+00,5.000000000000000000e+00,5.000000000000000000e+00,5.000000000000000000e+00,5.000000000000000000e+00,5.000000000000000000e+00,5.000000000000000000e+00,5.000000000000000000e+00,5.000000000000000000e+00,5.000000000000000000e+00,5.000000000000000000e+00,5.000000000000000000e+00,5.000000000000000000e+00,5.000000000000000000e+00,5.000000000000000000e+00,5.000000000000000000e+00,5.000000000000000000e+00,4.016264438629150391e+00,5.000000000000000000e+00,5.000000000000000000e+00,5.000000000000000000e+00,5.000000000000000000e+00,5.000000000000000000e+00,5.000000000000000000e+00,5.000000000000000000e+00,5.000000000000000000e+00,5.000000000000000000e+00,5.000000000000000000e+00,5.000000000000000000e+00,5.000000000000000000e+00,5.000000000000000000e+00,5.000000000000000000e+00,5.000000000000000000e+00,5.000000000000000000e+00,5.000000000000000000e+00,5.000000000000000000e+00,4.851626396179199219e+00,4.692281246185302734e+00,4.543069839477539062e+00,4.403055667877197266e+00,4.271413803100585938e+00,4.147414684295654297e+00,4.030412197113037109e+00,3.919830083847045898e+00,3.815154075622558594e+00,3.715923070907592773e+00
3.098981857299804688e+00,3.177335262298583984e+00,3.259753704071044922e+00,3.346561670303344727e+00,3.438120126724243164e+00,3.534828901290893555e+00,3.637135744094848633e+00,3.745541334152221680e+00,3.860607624053955078e+00,3.982967138290405273e+00,4.113337516784667969e+00,4.252523899078369141e+00,4.401455402374267578e+00,4.561196327209472656e+00,4.732969284057617188e+00,4.918186664581298828e+00,5.000000000000000000e+00,5.000000000000000000e+00,5.000000000000000000e+00,5.000000000000000000e+00,5.000000000000000000e+00,5.000000000000000000e+00,5.000000000000000000e+00,5.000000000000000000e+00,5.000000000000000000e+00,5.000000000000000000e+00,5.000000000000000000e+00,5.000000000000000000e+00,5.000000000000000000e+00,5.000000000000000000e+00,5.000000000000000000e+00,5.000000000000000000e+00,5.000000000000000000e+00,5.000000000000000000e+00,5.000000000000000000e+00,5.000000000000000000e+00,5.000000000000000000e+00,5.000000000000000000e+00,5.000000000000000000e+00,5.000000000000000000e+00,5.000000000000000000e+00,5.000000000000000000e+00,5.000000000000000000e+00,5.000000000000000000e+00,5.000000000000000000e+00,5.000000000000000000e+00,5.000000000000000000e+00,5.000000000000000000e+00,5.000000000000000000e+00,4.042133331298828125e+00,4.001860141754150391e+00,4.036793708801269531e+00,3.994727849960327148e+00,4.053208827972412109e+00,4.059356689453125000e+00,5.000000000000000000e+00,5.000000000000000000e+00,5.000000000000000000e+00,5.000000000000000000e+00,5.000000000000000000e+00,5.000000000000000000e+00,5.000000000000000000e+00,5.000000000000000000e+00,5.000000000000000000e+00,5.000000000000000000e+00,5.000000000000000000e+00,5.000000000000000000e+00,5.000000000000000000e+00,5.000000000000000000e+00,5.000000000000000000e+00,4.851755619049072266e+00,4.692401885986328125e+00,4.543183326721191406e+00,4.403162002563476562e+00,4.271513938903808594e+00,4.147509574890136719e+00,4.030501365661621094e+00,3.919914722442626953e+00,3.815234422683715820e+00,3.715999126434326172e+00
3.098915338516235352e+00,3.177265405654907227e+00,3.259680271148681641e+00,3.346484661102294922e+00,3.438038349151611328e+00,3.534742593765258789e+00,3.637044191360473633e+00,3.745444297790527344e+00,3.860504388809204102e+00,3.982857465744018555e+00,4.113220691680908203e+00,4.252406120300292969e+00,4.401333332061767578e+00,4.561065673828125000e+00,4.732828617095947266e+00,4.918034553527832031e+00,5.000000000000000000e+00,5.000000000000000000e+00,5.000000000000000000e+00,5.000000000000000000e+00,5.000000000000000000e+00,5.000000000000000000e+00,5.000000000000000000e+00,5.000000000000000000e+00,5.000000000000000000e+00,5.000000000000000000e+00,5.000000000000000000e+00,5.000000000000000000e+00,5.000000000000000000e+00,5.000000000000000000e+00,5.000000000000000000e+00,5.000000000000000000e+00,5.000000000000000000e+00,5.000000000000000000e+00,5.000000000000000000e+00,5.000000000000000000e+00,5.000000000000000000e+00,5.000000000000000000e+00,5.000000000000000000e+00,5.000000000000000000e+00,5.000000000000000000e+00,5.000000000000000000e+00,5.000000000000000000e+00,5.000000000000000000e+00,5.000000000000000000e+00,5.000000000000000000e+00,5.000000000000000000e+00,5.000000000000000000e+00,4.015457153320312500e+00,4.004425525665283203e+00,3.971978425979614258e+00,3.967815160751342773e+00,3.967658281326293945e+00,3.995594739913940430e+00,4.063770294189453125e+00,5.000000000000000000e+00,5.000000000000000000e+00,5.000000000000000000e+00,5.000000000000000000e+00,5.000000000000000000e+00,5.000000000000000000e+00,5.000000000000000000e+00,5.000000000000000000e+00,5.000000000000000000e+00,5.000000000000000000e+00,5.000000000000000000e+00,5.000000000000000000e+00,5.000000000000000000e+00,5.000000000000000000e+00,5.000000000000000000e+00,4.851885318756103516e+00,4.692523002624511719e+00,4.543296813964843750e+00,4.403268337249755859e+00,4.271614551544189453e+00,4.147603988647460938e+00,4.030591011047363281e+00,3.919999122619628906e+00,3.815314054489135742e+00,3.716074943542480469e+00
3.098849058151245117e+00,3.177195549011230469e+00,3.259606838226318359e+00,3.346407175064086914e+00,3.437956571578979492e+00,3.534656286239624023e+00,3.636952877044677734e+00,3.745347261428833008e+00,3.860401391983032227e+00,3.982747793197631836e+00,4.113103389739990234e+00,4.252280712127685547e+00,4.401206970214843750e+00,4.560935020446777344e+00,4.732687950134277344e+00,4.917882442474365234e+00,5.000000000000000000e+00,5.000000000000000000e+00,5.000000000000000000e+00,5.000000000000000000e+00,5.000000000000000000e+00,5.000000000000000000e+00,5.000000000000000000e+00,5.000000000000000000e+00,5.000000000000000000e+00,5.000000000000000000e+00,5.000000000000000000e+00,5.000000000000000000e+00,5.000000000000000000e+00,5.000000000000000000e+00,5.000000000000000000e+00,5.000000000000000000e+00,5.000000000000000000e+00,5.000000000000000000e+00,5.000000000000000000e+00,5.000000000000000000e+00,5.000000000000000000e+00,5.000000000000000000e+00,5.000000000000000000e+00,5.000000000000000000e+00,5.000000000000000000e+00,5.000000000000000000e+00,5.000000000000000000e+00,5.000000000000000000e+00,5.000000000000000000e+00,5.000000000000000000e+00,5.000000000000000000e+00,5.000000000000000000e+00,4.037977218627929688e+00,4.019889831542968750e+00,3.967590093612670898e+00,3.953822135925292969e+00,3.960569620132446289e+00,3.990973949432373047e+00,4.075398921966552734e+00,5.000000000000000000e+00,5.000000000000000000e+00,5.000000000000000000e+00,5.000000000000000000e+00,5.000000000000000000e+00,5.000000000000000000e+00,5.000000000000000000e+00,5.000000000000000000e+00,5.000000000000000000e+00,5.000000000000000000e+00,5.000000000000000000e+00,5.000000000000000000e+00,5.000000000000000000e+00,5.000000000000000000e+00,5.000000000000000000e+00,4.852014541625976562e+00,4.692644119262695312e+00,4.543410301208496094e+00,4.403375148773193359e+00,4.271714210510253906e+00,4.147698402404785156e+00,4.030680179595947266e+00,3.920083761215209961e+00,3.815394401550292969e+00,3.716150999069213867e+00
3.098782539367675781e+00,3.177125692367553711e+00,3.259533405303955078e+00,3.346329927444458008e+00,3.437874794006347656e+00,3.534569740295410156e+00,3.636861324310302734e+00,3.745250225067138672e+00,3.860298395156860352e+00,3.982638120651245117e+00,4.112986564636230469e+00,4.252155780792236328e+00,4.401072978973388672e+00,4.560799598693847656e+00,4.732546806335449219e+00,4.917730331420898438e+00,5.000000000000000000e+00,5.000000000000000000e+00,5.000000000000000000e+00,5.000000000000000000e+00,5.000000000000000000e+00,5.000000000000000000e+00,5.000000000000000000e+00,5.000000000000000000e+00,5.000000000000000000e+00,5.000000000000000000e+00,5.000000000000000000e+00,5.000000000000000000e+00,5.000000000000000000e+00,5.000000000000000000e+00,5.000000000000000000e+00,5.000000000000000000e+00,5.000000000000000000e+00,5.000000000000000000e+00,5.000000000000000000e+00,5.000000000000000000e+00,5.000000000000000000e+00,5.000000000000000000e+00,5.000000000000000000e+00,5.000000000000000000e+00,5.000000000000000000e+00,5.000000000000000000e+00,5.000000000000000000e+00,5.000000000000000000e+00,5.000000000000000000e+00,5.000000000000000000e+00,5.000000000000000000e+00,5.000000000000000000e+00,4.055273532867431641e+00,4.042961597442626953e+00,3.978492975234985352e+00,3.951611995697021484e+00,3.954259157180786133e+00,4.009900093078613281e+00,4.082405567169189453e+00,5.000000000000000000e+00,5.000000000000000000e+00,5.000000000000000000e+00,5.000000000000000000e+00,5.000000000000000000e+00,5.000000000000000000e+00,5.000000000000000000e+00,5.000000000000000000e+00,5.000000000000000000e+00,5.000000000000000000e+00,5.000000000000000000e+00,5.000000000000000000e+00,5.000000000000000000e+00,5.000000000000000000e+00,5.000000000000000000e+00,4.852144241333007812e+00,4.692765235900878906e+00,4.543523788452148438e+00,4.403481960296630859e+00,4.271814823150634766e+00,4.147792816162109375e+00,4.030769348144531250e+00,3.920168161392211914e+00,3.815474271774291992e+00,3.716226816177368164e+00
3.098688364028930664e+00,3.177042961120605469e+00,3.259459972381591797e+00,3.346252441406250000e+00,3.437793254852294922e+00,3.534483432769775391e+00,3.636770248413085938e+00,3.745153427124023438e+00,3.860195398330688477e+00,3.982528448104858398e+00,4.112869739532470703e+00,4.252030849456787109e+00,4.400938987731933594e+00,4.560655593872070312e+00,4.732401371002197266e+00,4.917578220367431641e+00,5.000000000000000000e+00,5.000000000000000000e+00,5.000000000000000000e+00,5.000000000000000000e+00,5.000000000000000000e+00,5.000000000000000000e+00,5.000000000000000000e+00,5.000000000000000000e+00,5.000000000000000000e+00,5.000000000000000000e+00,5.000000000000000000e+00,5.000000000000000000e+00,5.000000000000000000e+00,5.000000000000000000e+00,5.000000000000000000e+00,5.000000000000000000e+00,5.000000000000000000e+00,5.000000000000000000e+00,5.000000000000000000e+00,5.000000000000000000e+00,5.000000000000000000e+00,5.000000000000000000e+00,5.000000000000000000e+00,5.000000000000000000e+00,5.000000000000000000e+00,5.000000000000000000e+00,5.000000000000000000e+00,5.000000000000000000e+00,5.000000000000000000e+00,5.000000000000000000e+00,5.000000000000000000e+00,5.000000000000000000e+00,4.061913013458251953e+00,4.045596122741699219e+00,3.975245952606201172e+00,3.954230308532714844e+00,3.960469007492065430e+00,4.039431095123291016e+00,4.088720321655273438e+00,5.000000000000000000e+00,5.000000000000000000e+00,5.000000000000000000e+00,5.000000000000000000e+00,5.000000000000000000e+00,5.000000000000000000e+00,5.000000000000000000e+00,5.000000000000000000e+00,5.000000000000000000e+00,5.000000000000000000e+00,5.000000000000000000e+00,5.000000000000000000e+00,5.000000000000000000e+00,5.000000000000000000e+00,5.000000000000000000e+00,4.852273464202880859e+00,4.692886352539062500e+00,4.543637275695800781e+00,4.403588294982910156e+00,4.271914958953857422e+00,4.147887706756591797e+00,4.030858516693115234e+00,3.920252323150634766e+00,3.815554618835449219e+00,3.716302871704101562e+00
3.098589420318603516e+00,3.176938772201538086e+00,3.259353160858154297e+00,3.346157312393188477e+00,3.437711477279663086e+00,3.534397125244140625e+00,3.636678934097290039e+00,3.745056390762329102e+00,3.860092401504516602e+00,3.982418775558471680e+00,4.112752914428710938e+00,4.251905918121337891e+00,4.400804996490478516e+00,4.560512065887451172e+00,4.732246398925781250e+00,4.917421340942382812e+00,5.000000000000000000e+00,5.000000000000000000e+00,5.000000000000000000e+00,5.000000000000000000e+00,5.000000000000000000e+00,5.000000000000000000e+00,5.000000000000000000e+00,5.000000000000000000e+00,5.000000000000000000e+00,5.000000000000000000e+00,5.000000000000000000e+00,5.000000000000000000e+00,5.000000000000000000e+00,5.000000000000000000e+00,5.000000000000000000e+00,5.000000000000000000e+00,5.000000000000000000e+00,5.000000000000000000e+00,5.000000000000000000e+00,5.000000000000000000e+00,5.000000000000000000e+00,5.000000000000000000e+00,5.000000000000000000e+00,5.000000000000000000e+00,5.000000000000000000e+00,5.000000000000000000e+00,5.000000000000000000e+00,5.000000000000000000e+00,5.000000000000000000e+00,5.000000000000000000e+00,5.000000000000000000e+00,5.000000000000000000e+00,4.071248531341552734e+00,4.044417858123779297e+00,3.960750341415405273e+00,3.942515134811401367e+00,3.948837518692016602e+00,3.999125719070434570e+00,4.101699352264404297e+00,5.000000000000000000e+00,5.000000000000000000e+00,5.000000000000000000e+00,5.000000000000000000e+00,5.000000000000000000e+00,5.000000000000000000e+00,5.000000000000000000e+00,5.000000000000000000e+00,5.000000000000000000e+00,5.000000000000000000e+00,5.000000000000000000e+00,5.000000000000000000e+00,5.000000000000000000e+00,5.000000000000000000e+00,5.000000000000000000e+00,4.852403163909912109e+00,4.693007469177246094e+00,4.543750762939453125e+00,4.403695106506347656e+00,4.272015571594238281e+00,4.147982120513916016e+00,4.030948162078857422e+00,3.920337200164794922e+00,3.815634250640869141e+00,3.716378688812255859e+00
3.098489999771118164e+00,3.176834344863891602e+00,3.259243488311767578e+00,3.346041917800903320e+00,3.437589645385742188e+00,3.534287929534912109e+00,3.636583805084228516e+00,3.744959354400634766e+00,3.859989404678344727e+00,3.982309579849243164e+00,4.112635612487792969e+00,4.251780986785888672e+00,4.400671482086181641e+00,4.560368061065673828e+00,4.732091903686523438e+00,4.917253971099853516e+00,5.000000000000000000e+00,5.000000000000000000e+00,5.000000000000000000e+00,5.000000000000000000e+00,5.000000000000000000e+00,5.000000000000000000e+00,5.000000000000000000e+00,5.000000000000000000e+00,5.000000000000000000e+00,5.000000000000000000e+00,5.000000000000000000e+00,5.000000000000000000e+00,5.000000000000000000e+00,5.000000000000000000e+00,5.000000000000000000e+00,5.000000000000000000e+00,5.000000000000000000e+00,5.000000000000000000e+00,5.000000000000000000e+00,5.000000000000000000e+00,5.000000000000000000e+00,5.000000000000000000e+00,5.000000000000000000e+00,5.000000000000000000e+00,5.000000000000000000e+00,5.000000000000000000e+00,5.000000000000000000e+00,5.000000000000000000e+00,5.000000000000000000e+00,5.000000000000000000e+00,5.000000000000000000e+00,5.000000000000000000e+00,4.045946598052978516e+00,4.029544353485107422e+00,3.971037149429321289e+00,3.953419685363769531e+00,3.965859651565551758e+00,4.021444320678710938e+00,4.075006008148193359e+00,5.000000000000000000e+00,5.000000000000000000e+00,5.000000000000000000e+00,5.000000000000000000e+00,5.000000000000000000e+00,5.000000000000000000e+00,5.000000000000000000e+00,5.000000000000000000e+00,5.000000000000000000e+00,5.000000000000000000e+00,5.000000000000000000e+00,5.000000000000000000e+00,5.000000000000000000e+00,5.000000000000000000e+00,5.000000000000000000e+00,4.852532386779785156e+00,4.693128585815429688e+00,4.543864250183105469e+00,4.403801441192626953e+00,4.272115707397460938e+00,4.148076534271240234e+00,4.031037330627441406e+00,3.920421361923217773e+00,3.815714120864868164e+00,3.716454267501831055e+00
3.098419666290283203e+00,3.176744699478149414e+00,3.259133577346801758e+00,3.345926046371459961e+00,3.437467336654663086e+00,3.534158706665039062e+00,3.636447429656982422e+00,3.744833230972290039e+00,3.859878778457641602e+00,3.982199907302856445e+00,4.112518787384033203e+00,4.251656055450439453e+00,4.400537490844726562e+00,4.560224533081054688e+00,4.731936931610107422e+00,4.917087078094482422e+00,5.000000000000000000e+00,5.000000000000000000e+00,5.000000000000000000e+00,5.000000000000000000e+00,5.000000000000000000e+00,5.000000000000000000e+00,5.000000000000000000e+00,5.000000000000000000e+00,5.000000000000000000e+00,5.000000000000000000e+00,5.000000000000000000e+00,5.000000000000000000e+00,5.000000000000000000e+00,5.000000000000000000e+00,5.000000000000000000e+00,5.000000000000000000e+00,5.000000000000000000e+00,5.000000000000000000e+00,5.000000000000000000e+00,5.000000000000000000e+00,5.000000000000000000e+00,5.000000000000000000e+00,5.000000000000000000e+00,5.000000000000000000e+00,5.000000000000000000e+00,5.000000000000000000e+00,5.000000000000000000e+00,5.000000000000000000e+00,5.000000000000000000e+00,5.000000000000000000e+00,5.000000000000000000e+00,5.000000000000000000e+00,4.027790546417236328e+00,4.015577316284179688e+00,3.963397741317749023e+00,3.992780447006225586e+00,3.971787214279174805e+00,3.947898387908935547e+00,4.061789512634277344e+00,5.000000000000000000e+00,5.000000000000000000e+00,5.000000000000000000e+00,5.000000000000000000e+00,5.000000000000000000e+00,5.000000000000000000e+00,5.000000000000000000e+00,5.000000000000000000e+00,5.000000000000000000e+00,5.000000000000000000e+00,5.000000000000000000e+00,5.000000000000000000e+00,5.000000000000000000e+00,5.000000000000000000e+00,5.000000000000000000e+00,4.852661609649658203e+00,4.693249225616455078e+00,4.543977260589599609e+00,4.403908252716064453e+00,4.272216320037841797e+00,4.148171424865722656e+00,4.031126499176025391e+00,3.920506238937377930e+00,3.815794467926025391e+00,3.716530561447143555e+00
3.098353385925292969e+00,3.176674604415893555e+00,3.259058475494384766e+00,3.345829010009765625e+00,3.437346696853637695e+00,3.534029722213745117e+00,3.636310815811157227e+00,3.744688034057617188e+00,3.859724760055541992e+00,3.982053041458129883e+00,4.112389087677001953e+00,4.251531124114990234e+00,4.400403499603271484e+00,4.560080528259277344e+00,4.731781959533691406e+00,4.916919708251953125e+00,5.000000000000000000e+00,5.000000000000000000e+00,5.000000000000000000e+00,5.000000000000000000e+00,5.000000000000000000e+00,5.000000000000000000e+00,5.000000000000000000e+00,5.000000000000000000e+00,5.000000000000000000e+00,5.000000000000000000e+00,5.000000000000000000e+00,5.000000000000000000e+00,5.000000000000000000e+00,5.000000000000000000e+00,5.000000000000000000e+00,5.000000000000000000e+00,5.000000000000000000e+00,5.000000000000000000e+00,5.000000000000000000e+00,5.000000000000000000e+00,5.000000000000000000e+00,5.000000000000000000e+00,5.000000000000000000e+00,5.000000000000000000e+00,5.000000000000000000e+00,5.000000000000000000e+00,5.000000000000000000e+00,5.000000000000000000e+00,5.000000000000000000e+00,5.000000000000000000e+00,5.000000000000000000e+00,5.000000000000000000e+00,4.001673221588134766e+00,4.007094860076904297e+00,3.948517322540283203e+00,3.961590290069580078e+00,3.925293922424316406e+00,3.898379802703857422e+00,5.000000000000000000e+00,5.000000000000000000e+00,5.000000000000000000e+00,5.000000000000000000e+00,5.000000000000000000e+00,5.000000000000000000e+00,5.000000000000000000e+00,5.000000000000000000e+00,5.000000000000000000e+00,5.000000000000000000e+00,5.000000000000000000e+00,5.000000000000000000e+00,5.000000000000000000e+00,5.000000000000000000e+00,5.000000000000000000e+00,5.000000000000000000e+00,4.852791309356689453e+00,4.693370342254638672e+00,4.544090747833251953e+00,4.404014587402343750e+00,4.272316455841064453e+00,4.148265838623046875e+00,4.031216144561767578e+00,3.920590400695800781e+00,3.815874338150024414e+00,3.716606140136718750e+00
3.098286628723144531e+00,3.176604747772216797e+00,3.258984804153442383e+00,3.345751523971557617e+00,3.437264919281005859e+00,3.533924579620361328e+00,3.636178731918334961e+00,3.744543075561523438e+00,3.859570741653442383e+00,3.981889009475708008e+00,4.112214088439941406e+00,4.251358509063720703e+00,4.400249481201171875e+00,4.559937000274658203e+00,4.731627464294433594e+00,4.916752815246582031e+00,5.000000000000000000e+00,5.000000000000000000e+00,5.000000000000000000e+00,5.000000000000000000e+00,5.000000000000000000e+00,5.000000000000000000e+00,5.000000000000000000e+00,5.000000000000000000e+00,5.000000000000000000e+00,5.000000000000000000e+00,5.000000000000000000e+00,5.000000000000000000e+00,5.000000000000000000e+00,5.000000000000000000e+00,5.000000000000000000e+00,5.000000000000000000e+00,5.000000000000000000e+00,5.000000000000000000e+00,5.000000000000000000e+00,5.000000000000000000e+00,5.000000000000000000e+00,5.000000000000000000e+00,5.000000000000000000e+00,5.000000000000000000e+00,5.000000000000000000e+00,5.000000000000000000e+00,5.000000000000000000e+00,5.000000000000000000e+00,5.000000000000000000e+00,5.000000000000000000e+00,5.000000000000000000e+00,5.000000000000000000e+00,3.982486963272094727e+00,3.944965124130249023e+00,3.949327707290649414e+00,3.956974506378173828e+00,3.921608209609985352e+00,3.881041049957275391e+00,5.000000000000000000e+00,4.015512943267822266e+00,5.000000000000000000e+00,5.000000000000000000e+00,5.000000000000000000e+00,5.000000000000000000e+00,5.000000000000000000e+00,5.000000000000000000e+00,5.000000000000000000e+00,5.000000000000000000e+00,5.000000000000000000e+00,5.000000000000000000e+00,5.000000000000000000e+00,5.000000000000000000e+00,5.000000000000000000e+00,5.000000000000000000e+00,4.852920532226562500e+00,4.693491458892822266e+00,4.544204235076904297e+00,4.404121398925781250e+00,4.272416591644287109e+00,4.148360252380371094e+00,4.031305313110351562e+00,3.920675277709960938e+00,3.815954685211181641e+00,3.716682434082031250e+00
3.098220348358154297e+00,3.176534652709960938e+00,3.258911371231079102e+00,3.345673799514770508e+00,3.437182903289794922e+00,3.533838272094726562e+00,3.636086940765380859e+00,3.744429111480712891e+00,3.859426021575927734e+00,3.981724977493286133e+00,4.112039089202880859e+00,4.251172065734863281e+00,4.400049686431884766e+00,4.559732913970947266e+00,4.731442928314208984e+00,4.916585445404052734e+00,5.000000000000000000e+00,5.000000000000000000e+00,5.000000000000000000e+00,5.000000000000000000e+00,5.000000000000000000e+00,5.000000000000000000e+00,5.000000000000000000e+00,5.000000000000000000e+00,5.000000000000000000e+00,5.000000000000000000e+00,5.000000000000000000e+00,5.000000000000000000e+00,5.000000000000000000e+00,5.000000000000000000e+00,5.000000000000000000e+00,5.000000000000000000e+00,5.000000000000000000e+00,5.000000000000000000e+00,5.000000000000000000e+00,5.000000000000000000e+00,5.000000000000000000e+00,5.000000000000000000e+00,5.000000000000000000e+00,5.000000000000000000e+00,5.000000000000000000e+00,5.000000000000000000e+00,5.000000000000000000e+00,5.000000000000000000e+00,5.000000000000000000e+00,5.000000000000000000e+00,5.000000000000000000e+00,5.000000000000000000e+00,3.954488515853881836e+00,5.000000000000000000e+00,3.953609228134155273e+00,3.954334259033203125e+00,3.918642282485961914e+00,3.860979557037353516e+00,3.893699645996093750e+00,5.000000000000000000e+00,5.000000000000000000e+00,5.000000000000000000e+00,5.000000000000000000e+00,5.000000000000000000e+00,5.000000000000000000e+00,5.000000000000000000e+00,5.000000000000000000e+00,5.000000000000000000e+00,5.000000000000000000e+00,5.000000000000000000e+00,5.000000000000000000e+00,5.000000000000000000e+00,5.000000000000000000e+00,5.000000000000000000e+00,4.853050231933593750e+00,4.693612575531005859e+00,4.544318199157714844e+00,4.404227733612060547e+00,4.272517204284667969e+00,4.148455142974853516e+00,4.031394481658935547e+00,3.920759439468383789e+00,3.816034555435180664e+00,3.716758489608764648e+00
3.098153591156005859e+00,3.176465034484863281e+00,3.258837699890136719e+00,3.345596551895141602e+00,3.437101125717163086e+00,3.533751726150512695e+00,3.635995626449584961e+00,3.744331598281860352e+00,3.859322547912597656e+00,3.981599807739257812e+00,4.111878871917724609e+00,4.250985145568847656e+00,4.399849414825439453e+00,4.559517860412597656e+00,4.731212139129638672e+00,4.916342258453369141e+00,5.000000000000000000e+00,5.000000000000000000e+00,5.000000000000000000e+00,5.000000000000000000e+00,5.000000000000000000e+00,5.000000000000000000e+00,5.000000000000000000e+00,5.000000000000000000e+00,5.000000000000000000e+00,5.000000000000000000e+00,5.000000000000000000e+00,5.000000000000000000e+00,5.000000000000000000e+00,5.000000000000000000e+00,5.000000000000000000e+00,5.000000000000000000e+00,5.000000000000000000e+00,5.000000000000000000e+00,5.000000000000000000e+00,5.000000000000000000e+00,5.000000000000000000e+00,5.000000000000000000e+00,5.000000000000000000e+00,5.000000000000000000e+00,5.000000000000000000e+00,5.000000000000000000e+00,5.000000000000000000e+00,5.000000000000000000e+00,5.000000000000000000e+00,5.000000000000000000e+00,5.000000000000000000e+00,5.000000000000000000e+00,5.000000000000000000e+00,5.000000000000000000e+00,3.953927040100097656e+00,3.950896024703979492e+00,3.919595241546630859e+00,3.837444305419921875e+00,3.852848291397094727e+00,5.000000000000000000e+00,5.000000000000000000e+00,5.000000000000000000e+00,5.000000000000000000e+00,5.000000000000000000e+00,5.000000000000000000e+00,5.000000000000000000e+00,5.000000000000000000e+00,5.000000000000000000e+00,5.000000000000000000e+00,5.000000000000000000e+00,5.000000000000000000e+00,5.000000000000000000e+00,5.000000000000000000e+00,5.000000000000000000e+00,4.853179454803466797e+00,4.693733692169189453e+00,4.544431686401367188e+00,4.404334545135498047e+00,4.272617340087890625e+00,4.148549556732177734e+00,4.031483650207519531e+00,3.920846939086914062e+00,3.816120386123657227e+00,3.716842889785766602e+00
3.098087310791015625e+00,3.176394939422607422e+00,3.258764266967773438e+00,3.345518827438354492e+00,3.437019109725952148e+00,3.533665180206298828e+00,3.635903835296630859e+00,3.744234800338745117e+00,3.859219551086425781e+00,3.981489896774291992e+00,4.111761569976806641e+00,4.250846862792968750e+00,4.399670600891113281e+00,4.559303283691406250e+00,4.730980396270751953e+00,4.916092395782470703e+00,5.000000000000000000e+00,5.000000000000000000e+00,5.000000000000000000e+00,5.000000000000000000e+00,5.000000000000000000e+00,5.000000000000000000e+00,5.000000000000000000e+00,5.000000000000000000e+00,5.000000000000000000e+00,5.000000000000000000e+00,5.000000000000000000e+00,5.000000000000000000e+00,5.000000000000000000e+00,5.000000000000000000e+00,5.000000000000000000e+00,5.000000000000000000e+00,5.000000000000000000e+00,5.000000000000000000e+00,5.000000000000000000e+00,5.000000000000000000e+00,5.000000000000000000e+00,5.000000000000000000e+00,5.000000000000000000e+00,5.000000000000000000e+00,5.000000000000000000e+00,5.000000000000000000e+00,5.000000000000000000e+00,5.000000000000000000e+00,5.000000000000000000e+00,5.000000000000000000e+00,5.000000000000000000e+00,5.000000000000000000e+00,5.000000000000000000e+00,5.000000000000000000e+00,3.967134952545166016e+00,3.943073272705078125e+00,5.000000000000000000e+00,3.824765682220458984e+00,3.834626674652099609e+00,5.000000000000000000e+00,5.000000000000000000e+00,5.000000000000000000e+00,5.000000000000000000e+00,5.000000000000000000e+00,5.000000000000000000e+00,5.000000000000000000e+00,5.000000000000000000e+00,5.000000000000000000e+00,5.000000000000000000e+00,5.000000000000000000e+00,5.000000000000000000e+00,5.000000000000000000e+00,5.000000000000000000e+00,5.000000000000000000e+00,4.853309154510498047e+00,4.693854808807373047e+00,4.544545173645019531e+00,4.404441356658935547e+00,4.272719860076904297e+00,4.148650169372558594e+00,4.031582355499267578e+00,3.920940399169921875e+00,3.816209316253662109e+00,3.716926813125610352e+00
3.098020553588867188e+00,3.176325082778930664e+00,3.258690357208251953e+00,3.345441341400146484e+00,3.436937570571899414e+00,3.533578634262084961e+00,3.635812282562255859e+00,3.744137763977050781e+00,3.859116077423095703e+00,3.981380224227905273e+00,4.111644744873046875e+00,4.250721931457519531e+00,4.399536609649658203e+00,4.559149265289306641e+00,4.730779170989990234e+00,4.915842533111572266e+00,5.000000000000000000e+00,5.000000000000000000e+00,5.000000000000000000e+00,5.000000000000000000e+00,5.000000000000000000e+00,5.000000000000000000e+00,5.000000000000000000e+00,5.000000000000000000e+00,5.000000000000000000e+00,5.000000000000000000e+00,5.000000000000000000e+00,5.000000000000000000e+00,5.000000000000000000e+00,5.000000000000000000e+00,5.000000000000000000e+00,5.000000000000000000e+00,5.000000000000000000e+00,5.000000000000000000e+00,5.000000000000000000e+00,5.000000000000000000e+00,5.000000000000000000e+00,5.000000000000000000e+00,5.000000000000000000e+00,5.000000000000000000e+00,5.000000000000000000e+00,5.000000000000000000e+00,5.000000000000000000e+00,5.000000000000000000e+00,5.000000000000000000e+00,5.000000000000000000e+00,5.000000000000000000e+00,5.000000000000000000e+00,5.000000000000000000e+00,5.000000000000000000e+00,3.999272346496582031e+00,3.963099479675292969e+00,4.003211021423339844e+00,3.866124153137207031e+00,5.000000000000000000e+00,5.000000000000000000e+00,5.000000000000000000e+00,5.000000000000000000e+00,5.000000000000000000e+00,5.000000000000000000e+00,5.000000000000000000e+00,5.000000000000000000e+00,5.000000000000000000e+00,5.000000000000000000e+00,5.000000000000000000e+00,5.000000000000000000e+00,5.000000000000000000e+00,5.000000000000000000e+00,5.000000000000000000e+00,5.000000000000000000e+00,4.853438377380371094e+00,4.693976879119873047e+00,4.544664382934570312e+00,4.404557704925537109e+00,4.272831439971923828e+00,4.148755073547363281e+00,4.031681060791015625e+00,3.921033859252929688e+00,3.816298007965087891e+00,3.717010974884033203e+00
3.097954273223876953e+00,3.176255226135253906e+00,3.258616924285888672e+00,3.345364093780517578e+00,3.436855554580688477e+00,3.533492326736450195e+00,3.635720491409301758e+00,3.744040489196777344e+00,3.859013080596923828e+00,3.981270074844360352e+00,4.111527442932128906e+00,4.250596523284912109e+00,4.399402618408203125e+00,4.559005260467529297e+00,4.730624198913574219e+00,4.915669918060302734e+00,5.000000000000000000e+00,5.000000000000000000e+00,5.000000000000000000e+00,5.000000000000000000e+00,5.000000000000000000e+00,5.000000000000000000e+00,5.000000000000000000e+00,5.000000000000000000e+00,5.000000000000000000e+00,5.000000000000000000e+00,5.000000000000000000e+00,5.000000000000000000e+00,5.000000000000000000e+00,5.000000000000000000e+00,5.000000000000000000e+00,5.000000000000000000e+00,5.000000000000000000e+00,5.000000000000000000e+00,5.000000000000000000e+00,5.000000000000000000e+00,5.000000000000000000e+00,5.000000000000000000e+00,5.000000000000000000e+00,5.000000000000000000e+00,5.000000000000000000e+00,5.000000000000000000e+00,5.000000000000000000e+00,5.000000000000000000e+00,5.000000000000000000e+00,5.000000000000000000e+00,5.000000000000000000e+00,5.000000000000000000e+00,5.000000000000000000e+00,5.000000000000000000e+00,4.025202274322509766e+00,4.025583267211914062e+00,3.991326332092285156e+00,3.935761213302612305e+00,5.000000000000000000e+00,5.000000000000000000e+00,5.000000000000000000e+00,5.000000000000000000e+00,5.000000000000000000e+00,5.000000000000000000e+00,5.000000000000000000e+00,5.000000000000000000e+00,5.000000000000000000e+00,5.000000000000000000e+00,5.000000000000000000e+00,5.000000000000000000e+00,5.000000000000000000e+00,5.000000000000000000e+00,5.000000000000000000e+00,5.000000000000000000e+00,4.853577613830566406e+00,4.694110870361328125e+00,4.544789791107177734e+00,4.404675483703613281e+00,4.272942066192626953e+00,4.148859500885009766e+00,4.031780242919921875e+00,3.921127796173095703e+00,3.816386461257934570e+00,3.717095375061035156e+00
3.097887754440307617e+00,3.176185369491577148e+00,3.258543252944946289e+00,3.345286369323730469e+00,3.436773777008056641e+00,3.533405542373657227e+00,3.635629177093505859e+00,3.743943452835083008e+00,3.858909845352172852e+00,3.981160640716552734e+00,4.111410140991210938e+00,4.250471115112304688e+00,4.399268150329589844e+00,4.558861255645751953e+00,4.730469226837158203e+00,4.915502548217773438e+00,5.000000000000000000e+00,5.000000000000000000e+00,5.000000000000000000e+00,5.000000000000000000e+00,5.000000000000000000e+00,5.000000000000000000e+00,5.000000000000000000e+00,5.000000000000000000e+00,5.000000000000000000e+00,5.000000000000000000e+00,5.000000000000000000e+00,5.000000000000000000e+00,5.000000000000000000e+00,5.000000000000000000e+00,5.000000000000000000e+00,5.000000000000000000e+00,5.000000000000000000e+00,5.000000000000000000e+00,5.000000000000000000e+00,5.000000000000000000e+00,5.000000000000000000e+00,5.000000000000000000e+00,5.000000000000000000e+00,5.000000000000000000e+00,5.000000000000000000e+00,5.000000000000000000e+00,5.000000000000000000e+00,5.000000000000000000e+00,5.000000000000000000e+00,5.000000000000000000e+00,5.000000000000000000e+00,5.000000000000000000e+00,5.000000000000000000e+00,5.000000000000000000e+00,4.054922103881835938e+00,4.051071166992187500e+00,4.017179489135742188e+00,3.976246595382690430e+00,5.000000000000000000e+00,5.000000000000000000e+00,5.000000000000000000e+00,5.000000000000000000e+00,5.000000000000000000e+00,5.000000000000000000e+00,5.000000000000000000e+00,5.000000000000000000e+00,5.000000000000000000e+00,5.000000000000000000e+00,5.000000000000000000e+00,5.000000000000000000e+00,5.000000000000000000e+00,5.000000000000000000e+00,5.000000000000000000e+00,5.000000000000000000e+00,4.853721141815185547e+00,4.694245338439941406e+00,4.544915676116943359e+00,4.404793739318847656e+00,4.273053646087646484e+00,4.148964405059814453e+00,4.031879425048828125e+00,3.921221256256103516e+00,3.816475391387939453e+00,3.717179298400878906e+00
3.097821235656738281e+00,3.176115274429321289e+00,3.258469820022583008e+00,3.345208883285522461e+00,3.436691761016845703e+00,3.533319234848022461e+00,3.635537385940551758e+00,3.743846178054809570e+00,3.858806848526000977e+00,3.981050491333007812e+00,4.111293315887451172e+00,4.250346183776855469e+00,4.399134159088134766e+00,4.558717250823974609e+00,4.730314254760742188e+00,4.915335178375244141e+00,5.000000000000000000e+00,5.000000000000000000e+00,5.000000000000000000e+00,5.000000000000000000e+00,5.000000000000000000e+00,5.000000000000000000e+00,5.000000000000000000e+00,5.000000000000000000e+00,5.000000000000000000e+00,5.000000000000000000e+00,5.000000000000000000e+00,5.000000000000000000e+00,5.000000000000000000e+00,5.000000000000000000e+00,5.000000000000000000e+00,5.000000000000000000e+00,5.000000000000000000e+00,5.000000000000000000e+00,5.000000000000000000e+00,5.000000000000000000e+00,5.000000000000000000e+00,5.000000000000000000e+00,5.000000000000000000e+00,5.000000000000000000e+00,5.000000000000000000e+00,5.000000000000000000e+00,5.000000000000000000e+00,5.000000000000000000e+00,5.000000000000000000e+00,5.000000000000000000e+00,5.000000000000000000e+00,5.000000000000000000e+00,5.000000000000000000e+00,5.000000000000000000e+00,4.084414958953857422e+00,4.067108631134033203e+00,4.052424430847167969e+00,5.000000000000000000e+00,5.000000000000000000e+00,5.000000000000000000e+00,5.000000000000000000e+00,5.000000000000000000e+00,5.000000000000000000e+00,5.000000000000000000e+00,5.000000000000000000e+00,5.000000000000000000e+00,5.000000000000000000e+00,5.000000000000000000e+00,5.000000000000000000e+00,5.000000000000000000e+00,5.000000000000000000e+00,5.000000000000000000e+00,5.000000000000000000e+00,5.000000000000000000e+00,4.853864669799804688e+00,4.694379329681396484e+00,4.545041561126708984e+00,4.404911994934082031e+00,4.273164749145507812e+00,4.149069309234619141e+00,4.031978607177734375e+00,3.921315193176269531e+00,3.816564083099365234e+00,3.717263698577880859e+00
3.097754716873168945e+00,3.176045656204223633e+00,3.258396148681640625e+00,3.345131158828735352e+00,3.436610221862792969e+00,3.533232450485229492e+00,3.635446071624755859e+00,3.743749380111694336e+00,3.858703374862670898e+00,3.980940818786621094e+00,4.111176013946533203e+00,4.250220775604248047e+00,4.399000167846679688e+00,4.558573246002197266e+00,4.730159282684326172e+00,4.915167808532714844e+00,5.000000000000000000e+00,5.000000000000000000e+00,5.000000000000000000e+00,5.000000000000000000e+00,5.000000000000000000e+00,5.000000000000000000e+00,5.000000000000000000e+00,5.000000000000000000e+00,5.000000000000000000e+00,5.000000000000000000e+00,5.000000000000000000e+00,5.000000000000000000e+00,5.000000000000000000e+00,5.000000000000000000e+00,5.000000000000000000e+00,5.000000000000000000e+00,5.000000000000000000e+00,5.000000000000000000e+00,5.000000000000000000e+00,5.000000000000000000e+00,5.000000000000000000e+00,5.000000000000000000e+00,5.000000000000000000e+00,5.000000000000000000e+00,5.000000000000000000e+00,5.000000000000000000e+00,5.000000000000000000e+00,5.000000000000000000e+00,5.000000000000000000e+00,5.000000000000000000e+00,5.000000000000000000e+00,5.000000000000000000e+00,5.000000000000000000e+00,5.000000000000000000e+00,4.117398738861083984e+00,4.086956977844238281e+00,4.111667633056640625e+00,5.000000000000000000e+00,5.000000000000000000e+00,5.000000000000000000e+00,5.000000000000000000e+00,5.000000000000000000e+00,5.000000000000000000e+00,5.000000000000000000e+00,5.000000000000000000e+00,5.000000000000000000e+00,5.000000000000000000e+00,5.000000000000000000e+00,5.000000000000000000e+00,5.000000000000000000e+00,5.000000000000000000e+00,5.000000000000000000e+00,5.000000000000000000e+00,5.000000000000000000e+00,4.854008197784423828e+00,4.694513320922851562e+00,4.545166969299316406e+00,4.405029773712158203e+00,4.273275852203369141e+00,4.149174213409423828e+00,4.032077312469482422e+00,3.921408653259277344e+00,3.816652536392211914e+00,3.717347860336303711e+00
3.097688436508178711e+00,3.175975561141967773e+00,3.258322715759277344e+00,3.345053911209106445e+00,3.436528205871582031e+00,3.533146142959594727e+00,3.635354280471801758e+00,3.743652105331420898e+00,3.858600378036499023e+00,3.980830907821655273e+00,4.111059188842773438e+00,4.250095844268798828e+00,4.398866176605224609e+00,4.558429241180419922e+00,4.730004310607910156e+00,4.915000438690185547e+00,5.000000000000000000e+00,5.000000000000000000e+00,5.000000000000000000e+00,5.000000000000000000e+00,5.000000000000000000e+00,5.000000000000000000e+00,5.000000000000000000e+00,5.000000000000000000e+00,5.000000000000000000e+00,5.000000000000000000e+00,5.000000000000000000e+00,5.000000000000000000e+00,5.000000000000000000e+00,5.000000000000000000e+00,5.000000000000000000e+00,5.000000000000000000e+00,5.000000000000000000e+00,5.000000000000000000e+00,5.000000000000000000e+00,5.000000000000000000e+00,5.000000000000000000e+00,5.000000000000000000e+00,5.000000000000000000e+00,5.000000000000000000e+00,5.000000000000000000e+00,5.000000000000000000e+00,5.000000000000000000e+00,5.000000000000000000e+00,5.000000000000000000e+00,5.000000000000000000e+00,5.000000000000000000e+00,5.000000000000000000e+00,5.000000000000000000e+00,5.000000000000000000e+00,5.000000000000000000e+00,5.000000000000000000e+00,4.090314865112304688e+00,5.000000000000000000e+00,5.000000000000000000e+00,5.000000000000000000e+00,5.000000000000000000e+00,5.000000000000000000e+00,5.000000000000000000e+00,5.000000000000000000e+00,5.000000000000000000e+00,5.000000000000000000e+00,5.000000000000000000e+00,5.000000000000000000e+00,5.000000000000000000e+00,5.000000000000000000e+00,5.000000000000000000e+00,5.000000000000000000e+00,5.000000000000000000e+00,5.000000000000000000e+00,4.854151725769042969e+00,4.694647789001464844e+00,4.545292854309082031e+00,4.405148029327392578e+00,4.273386955261230469e+00,4.149279117584228516e+00,4.032176494598388672e+00,3.921502113342285156e+00,3.816741466522216797e+00,3.717431783676147461e+00
3.097621679306030273e+00,3.175905704498291016e+00,3.258249282836914062e+00,3.344976186752319336e+00,3.436446428298950195e+00,3.533059597015380859e+00,3.635262727737426758e+00,3.743555068969726562e+00,3.858497142791748047e+00,3.980721235275268555e+00,4.110942363739013672e+00,4.249970436096191406e+00,4.398732185363769531e+00,4.558285236358642578e+00,4.729849338531494141e+00,4.854072570800781250e+00,4.852861881256103516e+00,4.851652145385742188e+00,4.850442409515380859e+00,4.849233627319335938e+00,4.848024845123291016e+00,4.846817016601562500e+00,4.845610141754150391e+00,4.844403266906738281e+00,4.843197345733642578e+00,4.841992378234863281e+00,4.840787410736083984e+00,4.839583396911621094e+00,4.838379383087158203e+00,4.837176799774169922e+00,4.835974216461181641e+00,4.834772586822509766e+00,4.833571434020996094e+00,4.832370758056640625e+00,4.831170558929443359e+00,4.829971313476562500e+00,4.828772544860839844e+00,4.827574253082275391e+00,4.826376914978027344e+00,4.825179576873779297e+00,4.823983669281005859e+00,4.822787761688232422e+00,4.821592330932617188e+00,4.820397853851318359e+00,4.819203376770019531e+00,4.818010330200195312e+00,4.816817283630371094e+00,4.815625190734863281e+00,4.814433574676513672e+00,4.813242435455322266e+00,4.812051773071289062e+00,4.065034866333007812e+00,4.809672355651855469e+00,4.048925399780273438e+00,4.807295799255371094e+00,4.806107997894287109e+00,4.804921150207519531e+00,4.803734779357910156e+00,4.802548885345458984e+00,4.801363945007324219e+00,4.800179004669189453e+00,4.798995018005371094e+00,4.797811508178710938e+00,4.796628475189208984e+00,4.795446395874023438e+00,4.794264793395996094e+00,4.793083667755126953e+00,4.791903018951416016e+00,4.790722846984863281e+00,4.789543628692626953e+00,4.788364887237548828e+00,4.694782257080078125e+00,4.545419216156005859e+00,4.405266284942626953e+00,4.273498535156250000e+00,4.149384021759033203e+00,4.032275676727294922e+00,3.921596288681030273e+00,3.816830158233642578e+00,3.717516183853149414e+00
3.097555398941040039e+00,3.175835847854614258e+00,3.258175611495971680e+00,3.344898700714111328e+00,3.436364412307739258e+00,3.532973289489746094e+00,3.635171413421630859e+00,3.743457794189453125e+00,3.770660400390625000e+00,3.769929647445678711e+00,3.769199371337890625e+00,3.768469333648681641e+00,3.767739295959472656e+00,3.767010211944580078e+00,3.766280651092529297e+00,3.765551567077636719e+00,3.764823198318481445e+00,3.764094591140747070e+00,3.763366460800170898e+00,3.762639045715332031e+00,3.761911153793334961e+00,3.761183977127075195e+00,3.760457277297973633e+00,3.759730339050292969e+00,3.759003877639770508e+00,3.758277893066406250e+00,3.757551908493041992e+00,3.756826162338256836e+00,3.756100893020629883e+00,3.755376100540161133e+00,3.754651308059692383e+00,3.753926515579223633e+00,3.753202676773071289e+00,3.752478599548339844e+00,3.751754999160766602e+00,3.751031875610351562e+00,3.750308752059936523e+00,3.749585628509521484e+00,3.748863458633422852e+00,3.748141050338745117e+00,3.747419118881225586e+00,3.746697664260864258e+00,3.745976209640502930e+00,3.745254993438720703e+00,3.744534015655517578e+00,3.743813753128051758e+00,3.743093252182006836e+00,3.742372989654541016e+00,3.741653680801391602e+00,3.740934133529663086e+00,3.740214824676513672e+00,3.739496231079101562e+00,3.738777399063110352e+00,3.738059043884277344e+00,3.737341165542602539e+00,3.736623287200927734e+00,3.735905647277832031e+00,3.735188722610473633e+00,3.734471559524536133e+00,3.733754634857177734e+00,3.733038187026977539e+00,3.732322216033935547e+00,3.731606245040893555e+00,3.730890512466430664e+00,3.730175495147705078e+00,3.729460477828979492e+00,3.728745460510253906e+00,3.728031158447265625e+00,3.727316856384277344e+00,3.726602792739868164e+00,3.725889444351196289e+00,3.725175857543945312e+00,3.724462509155273438e+00,3.723749876022338867e+00,3.723037242889404297e+00,3.722324848175048828e+00,3.721612691879272461e+00,3.720901012420654297e+00,3.720189571380615234e+00,3.717600345611572266e+00
3.083117246627807617e+00,3.082628965377807617e+00,3.082140684127807617e+00,3.081652402877807617e+00,3.081164121627807617e+00,3.080676317214965820e+00,3.080188751220703125e+00,3.079700946807861328e+00,3.079213380813598633e+00,3.078726053237915039e+00,3.078238964080810547e+00,3.077752113342285156e+00,3.077265262603759766e+00,3.076778411865234375e+00,3.076291799545288086e+00,3.075805425643920898e+00,3.075319528579711914e+00,3.074833393096923828e+00,3.074347257614135742e+00,3.073861837387084961e+00,3.073376178741455078e+00,3.072890520095825195e+00,3.072405576705932617e+00,3.071920394897460938e+00,3.071435213088989258e+00,3.070950508117675781e+00,3.070465803146362305e+00,3.069981336593627930e+00,3.069496870040893555e+00,3.069012880325317383e+00,3.068528652191162109e+00,3.068044662475585938e+00,3.067561149597167969e+00,3.067077398300170898e+00,3.066593885421752930e+00,3.066110849380493164e+00,3.065627813339233398e+00,3.065144538879394531e+00,3.064661979675292969e+00,3.064179182052612305e+00,3.063696622848510742e+00,3.063214540481567383e+00,3.062732219696044922e+00,3.062249898910522461e+00,3.061768054962158203e+00,3.061286449432373047e+00,3.060804605484008789e+00,3.060323238372802734e+00,3.059842109680175781e+00,3.059360742568969727e+00,3.058879613876342773e+00,3.058398962020874023e+00,3.057918310165405273e+00,3.057437658309936523e+00,3.056957244873046875e+00,3.056477069854736328e+00,3.055996894836425781e+00,3.055516958236694336e+00,3.055037021636962891e+00,3.054557323455810547e+00,3.054077863693237305e+00,3.053598642349243164e+00,3.053119421005249023e+00,3.052640199661254883e+00,3.052161455154418945e+00,3.051682710647583008e+00,3.051203966140747070e+00,3.050725698471069336e+00,3.050247430801391602e+00,3.049769163131713867e+00,3.049291372299194336e+00,3.048813343048095703e+00,3.048335552215576172e+00,3.047858238220214844e+00,3.047380685806274414e+00,3.046903371810913086e+00,3.046426296234130859e+00,3.045949459075927734e+00,3.045472621917724609e+00,3.044995784759521484e+00
2.604846477508544922e+00,2.604497671127319336e+00,2.604149341583251953e+00,2.603800773620605469e+00,2.603452205657958984e+00,2.603103876113891602e+00,2.602755546569824219e+00,2.602407455444335938e+00,2.602059364318847656e+00,2.601711273193359375e+00,2.601363420486450195e+00,2.601015567779541016e+00,2.600667953491210938e+00,2.600320339202880859e+00,2.599972724914550781e+00,2.599625349044799805e+00,2.599277973175048828e+00,2.598930835723876953e+00,2.598583698272705078e+00,2.598236560821533203e+00,2.597889423370361328e+00,2.597542524337768555e+00,2.597195863723754883e+00,2.596849203109741211e+00,2.596502542495727539e+00,2.596156358718872070e+00,2.595809698104858398e+00,2.595463514328002930e+00,2.595117092132568359e+00,2.594771146774291992e+00,2.594425201416015625e+00,2.594079017639160156e+00,2.593733310699462891e+00,2.593387603759765625e+00,2.593041896820068359e+00,2.592696428298950195e+00,2.592350959777832031e+00,2.592005491256713867e+00,2.591660261154174805e+00,2.591315031051635742e+00,2.590970039367675781e+00,2.590625047683715820e+00,2.590280055999755859e+00,2.589935302734375000e+00,2.589590549468994141e+00,2.589246034622192383e+00,2.588901281356811523e+00,2.588556766510009766e+00,2.588212490081787109e+00,2.587868213653564453e+00,2.587523937225341797e+00,2.587180137634277344e+00,2.586836099624633789e+00,2.586492061614990234e+00,2.586148262023925781e+00,2.585804700851440430e+00,2.585460901260375977e+00,2.585117578506469727e+00,2.584774017333984375e+00,2.584430694580078125e+00,2.584087371826171875e+00,2.583744287490844727e+00,2.583400964736938477e+00,2.583058118820190430e+00,2.582715272903442383e+00,2.582372426986694336e+00,2.582029581069946289e+00,2.581687211990356445e+00,2.581344604492187500e+00,2.581001996994018555e+00,2.580659866333007812e+00,2.580317497253417969e+00,2.579975128173828125e+00,2.579633235931396484e+00,2.579291105270385742e+00,2.578949213027954102e+00,2.578607320785522461e+00,2.578265666961669922e+00,2.577924013137817383e+00,2.577582359313964844e+00
2.255033016204833984e+00,2.254771471023559570e+00,2.254510164260864258e+00,2.254249095916748047e+00,2.253987789154052734e+00,2.253726720809936523e+00,2.253465652465820312e+00,2.253204584121704102e+00,2.252943754196166992e+00,2.252682924270629883e+00,2.252422094345092773e+00,2.252161264419555664e+00,2.251900434494018555e+00,2.251639842987060547e+00,2.251379489898681641e+00,2.251118898391723633e+00,2.250858306884765625e+00,2.250597953796386719e+00,2.250337600708007812e+00,2.250077486038208008e+00,2.249817132949829102e+00,2.249557018280029297e+00,2.249296903610229492e+00,2.249036788940429688e+00,2.248776912689208984e+00,2.248517036437988281e+00,2.248257160186767578e+00,2.247997283935546875e+00,2.247737646102905273e+00,2.247478008270263672e+00,2.247218370437622070e+00,2.246958732604980469e+00,2.246699333190917969e+00,2.246439933776855469e+00,2.246180534362792969e+00,2.245921373367309570e+00,2.245661973953247070e+00,2.245402812957763672e+00,2.245143651962280273e+00,2.244884729385375977e+00,2.244625568389892578e+00,2.244366884231567383e+00,2.244107961654663086e+00,2.243849039077758789e+00,2.243590116500854492e+00,2.243331670761108398e+00,2.243072986602783203e+00,2.242814302444458008e+00,2.242555856704711914e+00,2.242297410964965820e+00,2.242038965225219727e+00,2.241780757904052734e+00,2.241522312164306641e+00,2.241264104843139648e+00,2.241005897521972656e+00,2.240747928619384766e+00,2.240489721298217773e+00,2.240231752395629883e+00,2.239973783493041992e+00,2.239716053009033203e+00,2.239458084106445312e+00,2.239200353622436523e+00,2.238942623138427734e+00,2.238685131072998047e+00,2.238427639007568359e+00,2.238170146942138672e+00,2.237912416458129883e+00,2.237655162811279297e+00,2.237397909164428711e+00,2.237140655517578125e+00,2.236883401870727539e+00,2.236626148223876953e+00,2.236369132995605469e+00,2.236112117767333984e+00,2.235855102539062500e+00,2.235598087310791016e+00,2.235341310501098633e+00,2.235084533691406250e+00,2.234827756881713867e+00,2.234570980072021484e+00
1.988050937652587891e+00,1.987847685813903809e+00,1.987644672393798828e+00,1.987441420555114746e+00,1.987238526344299316e+00,1.987035632133483887e+00,1.986832618713378906e+00,1.986629843711853027e+00,1.986426830291748047e+00,1.986224055290222168e+00,1.986021399497985840e+00,1.985818624496459961e+00,1.985615968704223633e+00,1.985413193702697754e+00,1.985210657119750977e+00,1.985008239746093750e+00,1.984805583953857422e+00,1.984603166580200195e+00,1.984400629997253418e+00,1.984198331832885742e+00,1.983996033668518066e+00,1.983793616294860840e+00,1.983591437339782715e+00,1.983389019966125488e+00,1.983186960220336914e+00,1.982984900474548340e+00,1.982782602310180664e+00,1.982580661773681641e+00,1.982378482818603516e+00,1.982176661491394043e+00,1.981974601745605469e+00,1.981772780418395996e+00,1.981570959091186523e+00,1.981369018554687500e+00,1.981167316436767578e+00,1.980965614318847656e+00,1.980763792991638184e+00,1.980562329292297363e+00,1.980360746383666992e+00,1.980159044265747070e+00,1.979957580566406250e+00,1.979756236076354980e+00,1.979554653167724609e+00,1.979353308677673340e+00,1.979151725769042969e+00,1.978950500488281250e+00,1.978749394416809082e+00,1.978547930717468262e+00,1.978346824645996094e+00,1.978145718574523926e+00,1.977944493293762207e+00,1.977743506431579590e+00,1.977542519569396973e+00,1.977341413497924805e+00,1.977140545845031738e+00,1.976939678192138672e+00,1.976738691329956055e+00,1.976537942886352539e+00,1.976337313652038574e+00,1.976136326789855957e+00,1.975935697555541992e+00,1.975735187530517578e+00,1.975534319877624512e+00,1.975333929061889648e+00,1.975133419036865234e+00,1.974932789802551270e+00,1.974732398986816406e+00,1.974532008171081543e+00,1.974331498146057129e+00,1.974131226539611816e+00,1.973931074142456055e+00,1.973730683326721191e+00,1.973530530929565430e+00,1.973330378532409668e+00,1.973130106925964355e+00,1.972930073738098145e+00,1.972729921340942383e+00,1.972530007362365723e+00,1.972330093383789062e+00,1.972129940986633301e+00
1.777594447135925293e+00,1.777432203292846680e+00,1.777269840240478516e+00,1.777107357978820801e+00,1.776945114135742188e+00,1.776782751083374023e+00,1.776620626449584961e+00,1.776458382606506348e+00,1.776296138763427734e+00,1.776134014129638672e+00,1.775971770286560059e+00,1.775809764862060547e+00,1.775647759437561035e+00,1.775485515594482422e+00,1.775323629379272461e+00,1.775161504745483398e+00,1.774999618530273438e+00,1.774837732315063477e+00,1.774675726890563965e+00,1.774513959884643555e+00,1.774351954460144043e+00,1.774190187454223633e+00,1.774028539657592773e+00,1.773866653442382812e+00,1.773705005645751953e+00,1.773543119430541992e+00,1.773381590843200684e+00,1.773219943046569824e+00,1.773058295249938965e+00,1.772896766662597656e+00,1.772735118865966797e+00,1.772573590278625488e+00,1.772412180900573730e+00,1.772250652313232422e+00,1.772089242935180664e+00,1.771927714347839355e+00,1.771766424179077148e+00,1.771605014801025391e+00,1.771443724632263184e+00,1.771282553672790527e+00,1.771121144294738770e+00,1.770959973335266113e+00,1.770798802375793457e+00,1.770637512207031250e+00,1.770476460456848145e+00,1.770315408706665039e+00,1.770154237747192383e+00,1.769993305206298828e+00,1.769832372665405273e+00,1.769671201705932617e+00,1.769510269165039062e+00,1.769349455833435059e+00,1.769188404083251953e+00,1.769027590751647949e+00,1.768866896629333496e+00,1.768705964088439941e+00,1.768545150756835938e+00,1.768384456634521484e+00,1.768223643302917480e+00,1.768063068389892578e+00,1.767902255058288574e+00,1.767741680145263672e+00,1.767581105232238770e+00,1.767420411109924316e+00,1.767259955406188965e+00,1.767099499702453613e+00,1.766938924789428711e+00,1.766778469085693359e+00,1.766618132591247559e+00,1.766457557678222656e+00,1.766297340393066406e+00,1.766137003898620605e+00,1.765976548194885254e+00,1.765816330909729004e+00,1.765656232833862305e+00,1.765495896339416504e+00,1.765335798263549805e+00,1.765175700187683105e+00,1.765015363693237305e+00,1.764855384826660156e+00
1.607430934906005859e+00,1.607298135757446289e+00,1.607165455818176270e+00,1.607032656669616699e+00,1.606899976730346680e+00,1.606767058372497559e+00,1.606634497642517090e+00,1.606501817703247070e+00,1.606369137763977051e+00,1.606236577033996582e+00,1.606103897094726562e+00,1.605971336364746094e+00,1.605838775634765625e+00,1.605706214904785156e+00,1.605573773384094238e+00,1.605441093444824219e+00,1.605308771133422852e+00,1.605176329612731934e+00,1.605043768882751465e+00,1.604911446571350098e+00,1.604779005050659180e+00,1.604646682739257812e+00,1.604514241218566895e+00,1.604381918907165527e+00,1.604249715805053711e+00,1.604117393493652344e+00,1.603985190391540527e+00,1.603852868080139160e+00,1.603720664978027344e+00,1.603588581085205078e+00,1.603456258773803711e+00,1.603324174880981445e+00,1.603191971778869629e+00,1.603059887886047363e+00,1.602927923202514648e+00,1.602795720100402832e+00,1.602663755416870117e+00,1.602531671524047852e+00,1.602399706840515137e+00,1.602267742156982422e+00,1.602135777473449707e+00,1.602003931999206543e+00,1.601871848106384277e+00,1.601740002632141113e+00,1.601608037948608398e+00,1.601476311683654785e+00,1.601344585418701172e+00,1.601212620735168457e+00,1.601080894470214844e+00,1.600949287414550781e+00,1.600817441940307617e+00,1.600685715675354004e+00,1.600554108619689941e+00,1.600422382354736328e+00,1.600290775299072266e+00,1.600159168243408203e+00,1.600027561187744141e+00,1.599895954132080078e+00,1.599764466285705566e+00,1.599632859230041504e+00,1.599501371383666992e+00,1.599369883537292480e+00,1.599238395690917969e+00,1.599106907844543457e+00,1.598975539207458496e+00,1.598844051361083984e+00,1.598712801933288574e+00,1.598581433296203613e+00,1.598450064659118652e+00,1.598318696022033691e+00,1.598187446594238281e+00,1.598056077957153320e+00,1.597924947738647461e+00,1.597793698310852051e+00,1.597662448883056641e+00,1.597531318664550781e+00,1.597400069236755371e+00,1.597268939018249512e+00,1.597137928009033203e+00,1.597006678581237793e+00
1.466999650001525879e+00,1.466889023780822754e+00,1.466778397560119629e+00,1.466667890548706055e+00,1.466557264328002930e+00,1.466446638107299805e+00,1.466336250305175781e+00,1.466225624084472656e+00,1.466115117073059082e+00,1.466004729270935059e+00,1.465894222259521484e+00,1.465783834457397461e+00,1.465673327445983887e+00,1.465562939643859863e+00,1.465452551841735840e+00,1.465342164039611816e+00,1.465231776237487793e+00,1.465121388435363770e+00,1.465011119842529297e+00,1.464900851249694824e+00,1.464790463447570801e+00,1.464680194854736328e+00,1.464569807052612305e+00,1.464459657669067383e+00,1.464349508285522461e+00,1.464239239692687988e+00,1.464129090309143066e+00,1.464018821716308594e+00,1.463908672332763672e+00,1.463798522949218750e+00,1.463688373565673828e+00,1.463578224182128906e+00,1.463468074798583984e+00,1.463358044624328613e+00,1.463248014450073242e+00,1.463137865066528320e+00,1.463027954101562500e+00,1.462917804718017578e+00,1.462807893753051758e+00,1.462697982788085938e+00,1.462587952613830566e+00,1.462478041648864746e+00,1.462368011474609375e+00,1.462258100509643555e+00,1.462148189544677734e+00,1.462038397789001465e+00,1.461928486824035645e+00,1.461818575859069824e+00,1.461708784103393555e+00,1.461598873138427734e+00,1.461489200592041016e+00,1.461379408836364746e+00,1.461269617080688477e+00,1.461159944534301758e+00,1.461050271987915039e+00,1.460940361022949219e+00,1.460830807685852051e+00,1.460721135139465332e+00,1.460611343383789062e+00,1.460501790046691895e+00,1.460392117500305176e+00,1.460282444953918457e+00,1.460172891616821289e+00,1.460063219070434570e+00,1.459953784942626953e+00,1.459844231605529785e+00,1.459734678268432617e+00,1.459625124931335449e+00,1.459515690803527832e+00,1.459406137466430664e+00,1.459296703338623047e+00,1.459187269210815430e+00,1.459077835083007812e+00,1.458968400955200195e+00,1.458859086036682129e+00,1.458749651908874512e+00,1.458640336990356445e+00,1.458531022071838379e+00,1.458421587944030762e+00,1.458312273025512695e+00
1.349134087562561035e+00,1.349040508270263672e+00,1.348946928977966309e+00,1.348853468894958496e+00,1.348759889602661133e+00,1.348666429519653320e+00,1.348572969436645508e+00,1.348479390144348145e+00,1.348386049270629883e+00,1.348292469978332520e+00,1.348199129104614258e+00,1.348105669021606445e+00,1.348012208938598633e+00,1.347918868064880371e+00,1.347825407981872559e+00,1.347732067108154297e+00,1.347638726234436035e+00,1.347545385360717773e+00,1.347452044486999512e+00,1.347358703613281250e+00,1.347265481948852539e+00,1.347172141075134277e+00,1.347078800201416016e+00,1.346985578536987305e+00,1.346892356872558594e+00,1.346799135208129883e+00,1.346705913543701172e+00,1.346612691879272461e+00,1.346519470214843750e+00,1.346426248550415039e+00,1.346333026885986328e+00,1.346239924430847168e+00,1.346146702766418457e+00,1.346053600311279297e+00,1.345960497856140137e+00,1.345867395401000977e+00,1.345774292945861816e+00,1.345681190490722656e+00,1.345588088035583496e+00,1.345494985580444336e+00,1.345402002334594727e+00,1.345309019088745117e+00,1.345215916633605957e+00,1.345122933387756348e+00,1.345029830932617188e+00,1.344936966896057129e+00,1.344843983650207520e+00,1.344751000404357910e+00,1.344658017158508301e+00,1.344565033912658691e+00,1.344472169876098633e+00,1.344379305839538574e+00,1.344286322593688965e+00,1.344193339347839355e+00,1.344100594520568848e+00,1.344007730484008789e+00,1.343914866447448730e+00,1.343822002410888672e+00,1.343729257583618164e+00,1.343636393547058105e+00,1.343543648719787598e+00,1.343450903892517090e+00,1.343358039855957031e+00,1.343265295028686523e+00,1.343172669410705566e+00,1.343079805374145508e+00,1.342987179756164551e+00,1.342894554138183594e+00,1.342801809310913086e+00,1.342709064483642578e+00,1.342616438865661621e+00,1.342523813247680664e+00,1.342431187629699707e+00,1.342338562011718750e+00,1.342245936393737793e+00,1.342153310775756836e+00,1.342060685157775879e+00,1.341968178749084473e+00,1.341875672340393066e+00,1.341783046722412109e+00
1.248799681663513184e+00,1.248719573020935059e+00,1.248639464378356934e+00,1.248559355735778809e+00,1.248479127883911133e+00,1.248399019241333008e+00,1.248319029808044434e+00,1.248238801956176758e+00,1.248158812522888184e+00,1.248078703880310059e+00,1.247998595237731934e+00,1.247918605804443359e+00,1.247838497161865234e+00,1.247758507728576660e+00,1.247678399085998535e+00,1.247598409652709961e+00,1.247518420219421387e+00,1.247438430786132812e+00,1.247358441352844238e+00,1.247278451919555664e+00,1.247198581695556641e+00,1.247118592262268066e+00,1.247038602828979492e+00,1.246958732604980469e+00,1.246878743171691895e+00,1.246798872947692871e+00,1.246718883514404297e+00,1.246639013290405273e+00,1.246559262275695801e+00,1.246479272842407227e+00,1.246399402618408203e+00,1.246319532394409180e+00,1.246239781379699707e+00,1.246159911155700684e+00,1.246080040931701660e+00,1.246000289916992188e+00,1.245920419692993164e+00,1.245840668678283691e+00,1.245760917663574219e+00,1.245681166648864746e+00,1.245601415634155273e+00,1.245521664619445801e+00,1.245441913604736328e+00,1.245362162590026855e+00,1.245282411575317383e+00,1.245202779769897461e+00,1.245123028755187988e+00,1.245043396949768066e+00,1.244963765144348145e+00,1.244884014129638672e+00,1.244804382324218750e+00,1.244724750518798828e+00,1.244645118713378906e+00,1.244565486907958984e+00,1.244485855102539062e+00,1.244406223297119141e+00,1.244326591491699219e+00,1.244247078895568848e+00,1.244167447090148926e+00,1.244087934494018555e+00,1.244008302688598633e+00,1.243928790092468262e+00,1.243849277496337891e+00,1.243769764900207520e+00,1.243690252304077148e+00,1.243610739707946777e+00,1.243531227111816406e+00,1.243451833724975586e+00,1.243372321128845215e+00,1.243292808532714844e+00,1.243213415145874023e+00,1.243134021759033203e+00,1.243054509162902832e+00,1.242975115776062012e+00,1.242895722389221191e+00,1.242816329002380371e+00,1.242736935615539551e+00,1.242657661437988281e+00,1.242578148841857910e+00,1.242498874664306641e+00
1.162356019020080566e+00,1.162286520004272461e+00,1.162217140197753906e+00,1.162147760391235352e+00,1.162078261375427246e+00,1.162008881568908691e+00,1.161939382553100586e+00,1.161870002746582031e+00,1.161800742149353027e+00,1.161731243133544922e+00,1.161661863327026367e+00,1.161592483520507812e+00,1.161523222923278809e+00,1.161453843116760254e+00,1.161384463310241699e+00,1.161315202713012695e+00,1.161245822906494141e+00,1.161176562309265137e+00,1.161107301712036133e+00,1.161037921905517578e+00,1.160968661308288574e+00,1.160899400711059570e+00,1.160830140113830566e+00,1.160760879516601562e+00,1.160691618919372559e+00,1.160622358322143555e+00,1.160553097724914551e+00,1.160483837127685547e+00,1.160414695739746094e+00,1.160345435142517090e+00,1.160276293754577637e+00,1.160207033157348633e+00,1.160137891769409180e+00,1.160068631172180176e+00,1.159999489784240723e+00,1.159930348396301270e+00,1.159861087799072266e+00,1.159792065620422363e+00,1.159722924232482910e+00,1.159653663635253906e+00,1.159584641456604004e+00,1.159515500068664551e+00,1.159446358680725098e+00,1.159377336502075195e+00,1.159308195114135742e+00,1.159239172935485840e+00,1.159170031547546387e+00,1.159101009368896484e+00,1.159031867980957031e+00,1.158962845802307129e+00,1.158893823623657227e+00,1.158824801445007324e+00,1.158755779266357422e+00,1.158686757087707520e+00,1.158617734909057617e+00,1.158548712730407715e+00,1.158479690551757812e+00,1.158410787582397461e+00,1.158341765403747559e+00,1.158272862434387207e+00,1.158203959465026855e+00,1.158134937286376953e+00,1.158066034317016602e+00,1.157997012138366699e+00,1.157928109169006348e+00,1.157859206199645996e+00,1.157790303230285645e+00,1.157721400260925293e+00,1.157652497291564941e+00,1.157583594322204590e+00,1.157514810562133789e+00,1.157445907592773438e+00,1.157377004623413086e+00,1.157308220863342285e+00,1.157239317893981934e+00,1.157170534133911133e+00,1.157101631164550781e+00,1.157032847404479980e+00,1.156964063644409180e+00,1.156895279884338379e+00
1.087104916572570801e+00,1.087044239044189453e+00,1.086983442306518555e+00,1.086922764778137207e+00,1.086861968040466309e+00,1.086801290512084961e+00,1.086740612983703613e+00,1.086679935455322266e+00,1.086619257926940918e+00,1.086558461189270020e+00,1.086497783660888672e+00,1.086437106132507324e+00,1.086376428604125977e+00,1.086315751075744629e+00,1.086255192756652832e+00,1.086194515228271484e+00,1.086133837699890137e+00,1.086073279380798340e+00,1.086012601852416992e+00,1.085951924324035645e+00,1.085891366004943848e+00,1.085830688476562500e+00,1.085770130157470703e+00,1.085709571838378906e+00,1.085649013519287109e+00,1.085588455200195312e+00,1.085527777671813965e+00,1.085467219352722168e+00,1.085406661033630371e+00,1.085346102714538574e+00,1.085285544395446777e+00,1.085224986076354980e+00,1.085164546966552734e+00,1.085103988647460938e+00,1.085043430328369141e+00,1.084982991218566895e+00,1.084922432899475098e+00,1.084861993789672852e+00,1.084801435470581055e+00,1.084740877151489258e+00,1.084680438041687012e+00,1.084619998931884766e+00,1.084559559822082520e+00,1.084499001502990723e+00,1.084438562393188477e+00,1.084378242492675781e+00,1.084317684173583984e+00,1.084257245063781738e+00,1.084196805953979492e+00,1.084136486053466797e+00,1.084076046943664551e+00,1.084015607833862305e+00,1.083955287933349609e+00,1.083894848823547363e+00,1.083834409713745117e+00,1.083774089813232422e+00,1.083713650703430176e+00,1.083653330802917480e+00,1.083592891693115234e+00,1.083532571792602539e+00,1.083472251892089844e+00,1.083411931991577148e+00,1.083351612091064453e+00,1.083291292190551758e+00,1.083230972290039062e+00,1.083170652389526367e+00,1.083110332489013672e+00,1.083050012588500977e+00,1.082989692687988281e+00,1.082929372787475586e+00,1.082869172096252441e+00,1.082808852195739746e+00,1.082748532295227051e+00,1.082688331604003906e+00,1.082628130912780762e+00,1.082567811012268066e+00,1.082507610321044922e+00,1.082447409629821777e+00,1.082387208938598633e+00,1.082327008247375488e+00
1.021005034446716309e+00,1.020951390266418457e+00,1.020897865295410156e+00,1.020844221115112305e+00,1.020790696144104004e+00,1.020737171173095703e+00,1.020683646202087402e+00,1.020630121231079102e+00,1.020576477050781250e+00,1.020522952079772949e+00,1.020469427108764648e+00,1.020415902137756348e+00,1.020362377166748047e+00,1.020308852195739746e+00,1.020255327224731445e+00,1.020201921463012695e+00,1.020148396492004395e+00,1.020094871520996094e+00,1.020041346549987793e+00,1.019987940788269043e+00,1.019934415817260742e+00,1.019881010055541992e+00,1.019827485084533691e+00,1.019774079322814941e+00,1.019720554351806641e+00,1.019667148590087891e+00,1.019613742828369141e+00,1.019560337066650391e+00,1.019506812095642090e+00,1.019453406333923340e+00,1.019400000572204590e+00,1.019346594810485840e+00,1.019293189048767090e+00,1.019239783287048340e+00,1.019186377525329590e+00,1.019132971763610840e+00,1.019079566001892090e+00,1.019026279449462891e+00,1.018972873687744141e+00,1.018919467926025391e+00,1.018866062164306641e+00,1.018812775611877441e+00,1.018759369850158691e+00,1.018706083297729492e+00,1.018652677536010742e+00,1.018599390983581543e+00,1.018545985221862793e+00,1.018492698669433594e+00,1.018439412117004395e+00,1.018386125564575195e+00,1.018332719802856445e+00,1.018279433250427246e+00,1.018226146697998047e+00,1.018172860145568848e+00,1.018119573593139648e+00,1.018066287040710449e+00,1.018013000488281250e+00,1.017959833145141602e+00,1.017906546592712402e+00,1.017853260040283203e+00,1.017799973487854004e+00,1.017746806144714355e+00,1.017693519592285156e+00,1.017640233039855957e+00,1.017587065696716309e+00,1.017533779144287109e+00,1.017480611801147461e+00,1.017427444458007812e+00,1.017374157905578613e+00,1.017320990562438965e+00,1.017267823219299316e+00,1.017214655876159668e+00,1.017161488533020020e+00,1.017108201980590820e+00,1.017055034637451172e+00,1.017001867294311523e+00,1.016948699951171875e+00,1.016895532608032227e+00,1.016842365264892578e+00,1.016789197921752930e+00
9.624825716018676758e-01,9.624349474906921387e-01,9.623873829841613770e-01,9.623397588729858398e-01,9.622921943664550781e-01,9.622445106506347656e-01,9.621969461441040039e-01,9.621493816375732422e-01,9.621018171310424805e-01,9.620542526245117188e-01,9.620066285133361816e-01,9.619590640068054199e-01,9.619114995002746582e-01,9.618639945983886719e-01,9.618164300918579102e-01,9.617688059806823730e-01,9.617213010787963867e-01,9.616737365722656250e-01,9.616262316703796387e-01,9.615787267684936523e-01,9.615311026573181152e-01,9.614836573600769043e-01,9.614361524581909180e-01,9.613886475563049316e-01,9.613411426544189453e-01,9.612935781478881836e-01,9.612460732460021973e-01,9.611986279487609863e-01,9.611511826515197754e-01,9.611036777496337891e-01,9.610561132431030273e-01,9.610086679458618164e-01,9.609612226486206055e-01,9.609137773513793945e-01,9.608663320541381836e-01,9.608188271522521973e-01,9.607713818550109863e-01,9.607239365577697754e-01,9.606765508651733398e-01,9.606291055679321289e-01,9.605816006660461426e-01,9.605341553688049316e-01,9.604867696762084961e-01,9.604393839836120605e-01,9.603919982910156250e-01,9.603444933891296387e-01,9.602971076965332031e-01,9.602497220039367676e-01,9.602023363113403320e-01,9.601550102233886719e-01,9.601075053215026855e-01,9.600601792335510254e-01,9.600127935409545898e-01,9.599654674530029297e-01,9.599180817604064941e-01,9.598706364631652832e-01,9.598233103752136230e-01,9.597759842872619629e-01,9.597286581993103027e-01,9.596813321113586426e-01,9.596338868141174316e-01,9.595866203308105469e-01,9.595392942428588867e-01,9.594919681549072266e-01,9.594447016716003418e-01,9.593972563743591309e-01,9.593499898910522461e-01,9.593027234077453613e-01,9.592553973197937012e-01,9.592081308364868164e-01,9.591607451438903809e-01,9.591134786605834961e-01,9.590662717819213867e-01,9.590190052986145020e-01,9.589717388153076172e-01,9.589243531227111816e-01,9.588771462440490723e-01,9.588298797607421875e-01,9.587826728820800781e-01,9.587353467941284180e-01
9.103053212165832520e-01,9.102627038955688477e-01,9.102201461791992188e-01,9.101774692535400391e-01,9.101349115371704102e-01,9.100923538208007812e-01,9.100497961044311523e-01,9.100072383880615234e-01,9.099646210670471191e-01,9.099220633506774902e-01,9.098795056343078613e-01,9.098370075225830078e-01,9.097944498062133789e-01,9.097518324851989746e-01,9.097093343734741211e-01,9.096667766571044922e-01,9.096242785453796387e-01,9.095817804336547852e-01,9.095391631126403809e-01,9.094966650009155273e-01,9.094541668891906738e-01,9.094116687774658203e-01,9.093691110610961914e-01,9.093266129493713379e-01,9.092841148376464844e-01,9.092416763305664062e-01,9.091991782188415527e-01,9.091566205024719238e-01,9.091141223907470703e-01,9.090716838836669922e-01,9.090291857719421387e-01,9.089867472648620605e-01,9.089441895484924316e-01,9.089017510414123535e-01,9.088593125343322754e-01,9.088168740272521973e-01,9.087744355201721191e-01,9.087319374084472656e-01,9.086894989013671875e-01,9.086470603942871094e-01,9.086046814918518066e-01,9.085622429847717285e-01,9.085197448730468750e-01,9.084773063659667969e-01,9.084349274635314941e-01,9.083925485610961914e-01,9.083501100540161133e-01,9.083076715469360352e-01,9.082652330398559570e-01,9.082228541374206543e-01,9.081804752349853516e-01,9.081380963325500488e-01,9.080956578254699707e-01,9.080532789230346680e-01,9.080109000205993652e-01,9.079685807228088379e-01,9.079262018203735352e-01,9.078837633132934570e-01,9.078414440155029297e-01,9.077990651130676270e-01,9.077567458152770996e-01,9.077143669128417969e-01,9.076719880104064941e-01,9.076296091079711914e-01,9.075872898101806641e-01,9.075449705123901367e-01,9.075026512145996094e-01,9.074602723121643066e-01,9.074179530143737793e-01,9.073756337165832520e-01,9.073333740234375000e-01,9.072910547256469727e-01,9.072486758232116699e-01,9.072063565254211426e-01,9.071640968322753906e-01,9.071218371391296387e-01,9.070795178413391113e-01,9.070371985435485840e-01,9.069949388504028320e-01,9.069526195526123047e-01
8.634942173957824707e-01,8.634558916091918945e-01,8.634176254272460938e-01,8.633792996406555176e-01,8.633410334587097168e-01,8.633026480674743652e-01,8.632643222808837891e-01,8.632260560989379883e-01,8.631877303123474121e-01,8.631494641304016113e-01,8.631111383438110352e-01,8.630728125572204590e-01,8.630345463752746582e-01,8.629962801933288574e-01,8.629580140113830566e-01,8.629196882247924805e-01,8.628814220428466797e-01,8.628431558609008789e-01,8.628049492835998535e-01,8.627666831016540527e-01,8.627283573150634766e-01,8.626900911331176758e-01,8.626518845558166504e-01,8.626136183738708496e-01,8.625754117965698242e-01,8.625370860099792480e-01,8.624988794326782227e-01,8.624606728553771973e-01,8.624224066734313965e-01,8.623842000961303711e-01,8.623459339141845703e-01,8.623077273368835449e-01,8.622695207595825195e-01,8.622313141822814941e-01,8.621931076049804688e-01,8.621548414230346680e-01,8.621166348457336426e-01,8.620784878730773926e-01,8.620402812957763672e-01,8.620020747184753418e-01,8.619638681411743164e-01,8.619256615638732910e-01,8.618875145912170410e-01,8.618493080139160156e-01,8.618111014366149902e-01,8.617728948593139648e-01,8.617347478866577148e-01,8.616966009140014648e-01,8.616584539413452148e-01,8.616202473640441895e-01,8.615821003913879395e-01,8.615439534187316895e-01,8.615058064460754395e-01,8.614676594734191895e-01,8.614294528961181641e-01,8.613913655281066895e-01,8.613532185554504395e-01,8.613151311874389648e-01,8.612769842147827148e-01,8.612387776374816895e-01,8.612006902694702148e-01,8.611626029014587402e-01,8.611244559288024902e-01,8.610863685607910156e-01,8.610482215881347656e-01,8.610101342201232910e-01,8.609719872474670410e-01,8.609339594841003418e-01,8.608958721160888672e-01,8.608576655387878418e-01,8.608196377754211426e-01,8.607815504074096680e-01,8.607434630393981934e-01,8.607054352760314941e-01,8.606672883033752441e-01,8.606292009353637695e-01,8.605911731719970703e-01,8.605530858039855957e-01,8.605150580406188965e-01,8.604769110679626465e-01
8.212621212005615234e-01,8.212274909019470215e-01,8.211927413940429688e-01,8.211581110954284668e-01,8.211234807968139648e-01,8.210887908935546875e-01,8.210541605949401855e-01,8.210194706916809082e-01,8.209848403930664062e-01,8.209502100944519043e-01,8.209155797958374023e-01,8.208809494972229004e-01,8.208462595939636230e-01,8.208116292953491211e-01,8.207770586013793945e-01,8.207424283027648926e-01,8.207077980041503906e-01,8.206731081008911133e-01,8.206385374069213867e-01,8.206039071083068848e-01,8.205693364143371582e-01,8.205347657203674316e-01,8.205000758171081543e-01,8.204655051231384277e-01,8.204308748245239258e-01,8.203963041305541992e-01,8.203617334365844727e-01,8.203271031379699707e-01,8.202925324440002441e-01,8.202579617500305176e-01,8.202233910560607910e-01,8.201888203620910645e-01,8.201541900634765625e-01,8.201196193695068359e-01,8.200850486755371094e-01,8.200504779815673828e-01,8.200159668922424316e-01,8.199813365936279297e-01,8.199467658996582031e-01,8.199122548103332520e-01,8.198776841163635254e-01,8.198431730270385742e-01,8.198085427284240723e-01,8.197740316390991211e-01,8.197395205497741699e-01,8.197049498558044434e-01,8.196704387664794922e-01,8.196358680725097656e-01,8.196013569831848145e-01,8.195668458938598633e-01,8.195323348045349121e-01,8.194978237152099609e-01,8.194631934165954590e-01,8.194287419319152832e-01,8.193942308425903320e-01,8.193597197532653809e-01,8.193252086639404297e-01,8.192906379699707031e-01,8.192561864852905273e-01,8.192216753959655762e-01,8.191872239112854004e-01,8.191526532173156738e-01,8.191182017326354980e-01,8.190836906433105469e-01,8.190492391586303711e-01,8.190147876739501953e-01,8.189802169799804688e-01,8.189457654953002930e-01,8.189113140106201172e-01,8.188768625259399414e-01,8.188424110412597656e-01,8.188078999519348145e-01,8.187734484672546387e-01,8.187389969825744629e-01,8.187045454978942871e-01,8.186700940132141113e-01,8.186355829238891602e-01,8.186011910438537598e-01,8.185667395591735840e-01,8.185322880744934082e-01
7.829684019088745117e-01,7.829368710517883301e-01,7.829053997993469238e-01,7.828739285469055176e-01,7.828423380851745605e-01,7.828108668327331543e-01,7.827793955802917480e-01,7.827478647232055664e-01,7.827163934707641602e-01,7.826848626136779785e-01,7.826533913612365723e-01,7.826219201087951660e-01,7.825904488563537598e-01,7.825589776039123535e-01,7.825274467468261719e-01,7.824959754943847656e-01,7.824645042419433594e-01,7.824330925941467285e-01,7.824016213417053223e-01,7.823700904846191406e-01,7.823386192321777344e-01,7.823072075843811035e-01,7.822757363319396973e-01,7.822443246841430664e-01,7.822127938270568848e-01,7.821813821792602539e-01,7.821499109268188477e-01,7.821184992790222168e-01,7.820870876312255859e-01,7.820555567741394043e-01,7.820241451263427734e-01,7.819927334785461426e-01,7.819613218307495117e-01,7.819299101829528809e-01,7.818983793258666992e-01,7.818669676780700684e-01,7.818356156349182129e-01,7.818042039871215820e-01,7.817727923393249512e-01,7.817413210868835449e-01,7.817099094390869141e-01,7.816784977912902832e-01,7.816471457481384277e-01,7.816157341003417969e-01,7.815842628479003906e-01,7.815529108047485352e-01,7.815214991569519043e-01,7.814901471138000488e-01,7.814587354660034180e-01,7.814272642135620117e-01,7.813959121704101562e-01,7.813645601272583008e-01,7.813332080841064453e-01,7.813017964363098145e-01,7.812703847885131836e-01,7.812390327453613281e-01,7.812076807022094727e-01,7.811763286590576172e-01,7.811449766159057617e-01,7.811135053634643555e-01,7.810822129249572754e-01,7.810508608818054199e-01,7.810195088386535645e-01,7.809881567955017090e-01,7.809567451477050781e-01,7.809253931045532227e-01,7.808941006660461426e-01,7.808627486228942871e-01,7.808313965797424316e-01,7.808000445365905762e-01,7.807686924934387207e-01,7.807374000549316406e-01,7.807060480117797852e-01,7.806747555732727051e-01,7.806433439254760742e-01,7.806120514869689941e-01,7.805807590484619141e-01,7.805494666099548340e-01,7.805181741714477539e-01,7.804867625236511230e-01
7.480866909027099609e-01,7.480579018592834473e-01,7.480291128158569336e-01,7.480003833770751953e-01,7.479716539382934570e-01,7.479428648948669434e-01,7.479140758514404297e-01,7.478853464126586914e-01,7.478566169738769531e-01,7.478278875350952148e-01,7.477991580963134766e-01,7.477703690528869629e-01,7.477416396141052246e-01,7.477129101753234863e-01,7.476841807365417480e-01,7.476554512977600098e-01,7.476266622543334961e-01,7.475979328155517578e-01,7.475692033767700195e-01,7.475405335426330566e-01,7.475118041038513184e-01,7.474830150604248047e-01,7.474543452262878418e-01,7.474256157875061035e-01,7.473969459533691406e-01,7.473682165145874023e-01,7.473394274711608887e-01,7.473107576370239258e-01,7.472820878028869629e-01,7.472533583641052246e-01,7.472246885299682617e-01,7.471959590911865234e-01,7.471672296524047852e-01,7.471385598182678223e-01,7.471098899841308594e-01,7.470812201499938965e-01,7.470524907112121582e-01,7.470238208770751953e-01,7.469951510429382324e-01,7.469664812088012695e-01,7.469378113746643066e-01,7.469090819358825684e-01,7.468804121017456055e-01,7.468517422676086426e-01,7.468230724334716797e-01,7.467944025993347168e-01,7.467656731605529785e-01,7.467370629310607910e-01,7.467083930969238281e-01,7.466797232627868652e-01,7.466511130332946777e-01,7.466223835945129395e-01,7.465937733650207520e-01,7.465651035308837891e-01,7.465364933013916016e-01,7.465078234672546387e-01,7.464791536331176758e-01,7.464505434036254883e-01,7.464218735694885254e-01,7.463932633399963379e-01,7.463646531105041504e-01,7.463359832763671875e-01,7.463073730468750000e-01,7.462787032127380371e-01,7.462500929832458496e-01,7.462214827537536621e-01,7.461928129196166992e-01,7.461642026901245117e-01,7.461355924606323242e-01,7.461070418357849121e-01,7.460784316062927246e-01,7.460497617721557617e-01,7.460211515426635742e-01,7.459925413131713867e-01,7.459639906883239746e-01,7.459353804588317871e-01,7.459067106246948242e-01,7.458781599998474121e-01,7.458495497703552246e-01,7.458209395408630371e-01
7.161803841590881348e-01,7.161540389060974121e-01,7.161276936531066895e-01,7.161013484001159668e-01,7.160749435424804688e-01,7.160485982894897461e-01,7.160222530364990234e-01,7.159959077835083008e-01,7.159695625305175781e-01,7.159431576728820801e-01,7.159168124198913574e-01,7.158905267715454102e-01,7.158641815185546875e-01,7.158377766609191895e-01,7.158114314079284668e-01,7.157851457595825195e-01,7.157588005065917969e-01,7.157325148582458496e-01,7.157061100006103516e-01,7.156797647476196289e-01,7.156534790992736816e-01,7.156271338462829590e-01,7.156008481979370117e-01,7.155745029449462891e-01,7.155481576919555664e-01,7.155218720436096191e-01,7.154955863952636719e-01,7.154692411422729492e-01,7.154428958892822266e-01,7.154166102409362793e-01,7.153903245925903320e-01,7.153640389442443848e-01,7.153376936912536621e-01,7.153113484382629395e-01,7.152850627899169922e-01,7.152587771415710449e-01,7.152324914932250977e-01,7.152062058448791504e-01,7.151798605918884277e-01,7.151536345481872559e-01,7.151273488998413086e-01,7.151010632514953613e-01,7.150747776031494141e-01,7.150484323501586914e-01,7.150222063064575195e-01,7.149959206581115723e-01,7.149696350097656250e-01,7.149434089660644531e-01,7.149170637130737305e-01,7.148908376693725586e-01,7.148645520210266113e-01,7.148383259773254395e-01,7.148120403289794922e-01,7.147857546806335449e-01,7.147594690322875977e-01,7.147332429885864258e-01,7.147070169448852539e-01,7.146807312965393066e-01,7.146544456481933594e-01,7.146282196044921875e-01,7.146019935607910156e-01,7.145757079124450684e-01,7.145494818687438965e-01,7.145231962203979492e-01,7.144969701766967773e-01,7.144707441329956055e-01,7.144445180892944336e-01,7.144182920455932617e-01,7.143920063972473145e-01,7.143657803535461426e-01,7.143395543098449707e-01,7.143133282661437988e-01,7.142871618270874023e-01,7.142608761787414551e-01,7.142346501350402832e-01,7.142084240913391113e-01,7.141822576522827148e-01,7.141560316085815430e-01,7.141297459602355957e-01,7.141035795211791992e-01
6.868844628334045410e-01,6.868601441383361816e-01,6.868359446525573730e-01,6.868116855621337891e-01,6.867874264717102051e-01,6.867632269859313965e-01,6.867389082908630371e-01,6.867147088050842285e-01,6.866904497146606445e-01,6.866662502288818359e-01,6.866420507431030273e-01,6.866177320480346680e-01,6.865935325622558594e-01,6.865693330764770508e-01,6.865450739860534668e-01,6.865208745002746582e-01,6.864966154098510742e-01,6.864723563194274902e-01,6.864481568336486816e-01,6.864239573478698730e-01,6.863997578620910645e-01,6.863754987716674805e-01,6.863512992858886719e-01,6.863270998001098633e-01,6.863029003143310547e-01,6.862787008285522461e-01,6.862544417381286621e-01,6.862302422523498535e-01,6.862060427665710449e-01,6.861818432807922363e-01,6.861575841903686523e-01,6.861333847045898438e-01,6.861092448234558105e-01,6.860850453376770020e-01,6.860608458518981934e-01,6.860366463661193848e-01,6.860124468803405762e-01,6.859882473945617676e-01,6.859641075134277344e-01,6.859399080276489258e-01,6.859156489372253418e-01,6.858915090560913086e-01,6.858673095703125000e-01,6.858431696891784668e-01,6.858189702033996582e-01,6.857947707176208496e-01,6.857706308364868164e-01,6.857464313507080078e-01,6.857222914695739746e-01,6.856981515884399414e-01,6.856738924980163574e-01,6.856497526168823242e-01,6.856256127357482910e-01,6.856014728546142578e-01,6.855773329734802246e-01,6.855531334877014160e-01,6.855289340019226074e-01,6.855047941207885742e-01,6.854806542396545410e-01,6.854565143585205078e-01,6.854323148727416992e-01,6.854081749916076660e-01,6.853840351104736328e-01,6.853599548339843750e-01,6.853358149528503418e-01,6.853116154670715332e-01,6.852874755859375000e-01,6.852633357048034668e-01,6.852391958236694336e-01,6.852151155471801758e-01,6.851909160614013672e-01,6.851667761802673340e-01,6.851426959037780762e-01,6.851185560226440430e-01,6.850944161415100098e-01,6.850702762603759766e-01,6.850461363792419434e-01,6.850220561027526855e-01,6.849979162216186523e-01,6.849738359451293945e-01
