5.000000000000000000e+00,5.000000000000000000e+00,5.000000000000000000e+00,5.000000000000000000e+00,5.000000000000000000e+00,5.000000000000000000e+00,5.000000000000000000e+00,5.000000000000000000e+00,5.000000000000000000e+00,5.000000000000000000e+00,5.000000000000000000e+00,5.000000000000000000e+00,5.000000000000000000e+00,5.000000000000000000e+00,5.000000000000000000e+00,5.000000000000000000e+00,5.000000000000000000e+00,5.000000000000000000e+00,5.000000000000000000e+00,5.000000000000000000e+00,5.000000000000000000e+00,5.000000000000000000e+00,5.000000000000000000e+00,5.000000000000000000e+00,5.000000000000000000e+00,5.000000000000000000e+00,5.000000000000000000e+00,5.000000000000000000e+00,5.000000000000000000e+00,5.000000000000000000e+00,5.000000000000000000e+00,5.000000000000000000e+00,5.000000000000000000e+00,4.965868473052978516e+00,4.826644420623779297e+00,4.695014476776123047e+00,4.570373058319091797e+00,4.452178955078125000e+00,4.339942932128906250e+00,4.233227252960205078e+00,4.131633758544921875e+00,4.034801959991455078e+00,3.942405462265014648e+00,3.854145765304565430e+00,3.769751310348510742e+00,3.688978910446166992e+00,3.611600637435913086e+00,3.537401676177978516e+00,3.466190338134765625e+00,3.397789478302001953e+00,3.332036018371582031e+00,3.268779039382934570e+00,3.207879304885864258e+00,3.149206876754760742e+00,3.092642545700073242e+00,3.038073778152465820e+00,2.985397815704345703e+00,2.934517383575439453e+00,2.885341882705688477e+00,2.837787628173828125e+00,2.791775226593017578e+00,2.747231483459472656e+00,2.704086542129516602e+00,2.662276029586791992e+00,2.621738672256469727e+00,2.582417249679565430e+00,2.544257879257202148e+00,2.507210016250610352e+00,2.471225261688232422e+00,2.436259031295776367e+00,2.402268409729003906e+00,2.369213342666625977e+00,2.337055683135986328e+00,2.305758953094482422e+00,2.275289773941040039e+00,2.245615243911743164e+00,2.216704607009887695e+00,2.188529014587402344e+00,2.161060571670532227e+00,2.134273290634155273e+00
5.000000000000000000e+00,5.000000000000000000e+00,5.000000000000000000e+00,5.000000000000000000e+00,5.000000000000000000e+00,5.000000000000000000e+00,5.000000000000000000e+00,5.000000000000000000e+00,5.000000000000000000e+00,5.000000000000000000e+00,5.000000000000000000e+00,5.000000000000000000e+00,5.000000000000000000e+00,5.000000000000000000e+00,5.000000000000000000e+00,5.000000000000000000e+00,5.000000000000000000e+00,5.000000000000000000e+00,5.000000000000000000e+00,5.000000000000000000e+00,5.000000000000000000e+00,5.000000000000000000e+00,5.000000000000000000e+00,5.000000000000000000e+00,5.000000000000000000e+00,5.000000000000000000e+00,5.000000000000000000e+00,5.000000000000000000e+00,5.000000000000000000e+00,5.000000000000000000e+00,5.000000000000000000e+00,5.000000000000000000e+00,5.000000000000000000e+00,4.965868949890136719e+00,4.826644897460937500e+00,4.695014476776123047e+00,4.570373535156250000e+00,4.452178955078125000e+00,4.339943885803222656e+00,4.233227729797363281e+00,4.131634235382080078e+00,4.034812927246093750e+00,3.942428112030029297e+00,3.854179382324218750e+00,3.769794940948486328e+00,3.689026355743408203e+00,3.611646175384521484e+00,3.537445306777954102e+00,3.466232299804687500e+00,3.397829771041870117e+00,3.332074403762817383e+00,3.268815994262695312e+00,3.207914829254150391e+00,3.149241209030151367e+00,3.092675447463989258e+00,3.038105964660644531e+00,2.985428810119628906e+00,2.934547424316406250e+00,2.885370969772338867e+00,2.837815761566162109e+00,2.791802406311035156e+00,2.747257709503173828e+00,2.704112052917480469e+00,2.662300348281860352e+00,2.621762514114379883e+00,2.582440376281738281e+00,2.544280290603637695e+00,2.507231712341308594e+00,2.471246480941772461e+00,2.436279773712158203e+00,2.402288675308227539e+00,2.369232892990112305e+00,2.337074756622314453e+00,2.305777549743652344e+00,2.275307655334472656e+00,2.245632648468017578e+00,2.216721534729003906e+00,2.188545465469360352e+00,2.161076784133911133e+00,2.134289026260375977e+00
5.000000000000000000e+00,5.000000000000000000e+00,5.000000000000000000e+00,5.000000000000000000e+00,5.000000000000000000e+00,5.000000000000000000e+00,5.000000000000000000e+00,5.000000000000000000e+00,5.000000000000000000e+00,5.000000000000000000e+00,5.000000000000000000e+00,5.000000000000000000e+00,5.000000000000000000e+00,5.000000000000000000e+00,5.000000000000000000e+00,5.000000000000000000e+00,5.000000000000000000e+00,5.000000000000000000e+00,5.000000000000000000e+00,5.000000000000000000e+00,5.000000000000000000e+00,5.000000000000000000e+00,5.000000000000000000e+00,5.000000000000000000e+00,5.000000000000000000e+00,5.000000000000000000e+00,5.000000000000000000e+00,5.000000000000000000e+00,5.000000000000000000e+00,5.000000000000000000e+00,5.000000000000000000e+00,5.000000000000000000e+00,5.000000000000000000e+00,4.965869426727294922e+00,4.826645374298095703e+00,4.695014953613281250e+00,4.570375442504882812e+00,4.452197074890136719e+00,4.339975833892822266e+00,4.233272552490234375e+00,4.131690502166748047e+00,4.034869194030761719e+00,3.942482233047485352e+00,3.854231119155883789e+00,3.769844532012939453e+00,3.689073801040649414e+00,3.611691236495971680e+00,3.537488698959350586e+00,3.466273784637451172e+00,3.397869586944580078e+00,3.332113027572631836e+00,3.268853187561035156e+00,3.207950592041015625e+00,3.149275779724121094e+00,3.092708826065063477e+00,3.038138151168823242e+00,2.985459804534912109e+00,2.934577226638793945e+00,2.885399818420410156e+00,2.837843418121337891e+00,2.791829586029052734e+00,2.747283935546875000e+00,2.704137325286865234e+00,2.662325143814086914e+00,2.621786355972290039e+00,2.582463502883911133e+00,2.544302940368652344e+00,2.507253646850585938e+00,2.471267938613891602e+00,2.436300516128540039e+00,2.402308702468872070e+00,2.369252443313598633e+00,2.337093591690063477e+00,2.305795907974243164e+00,2.275325536727905273e+00,2.245650291442871094e+00,2.216738700866699219e+00,2.188562154769897461e+00,2.161092996597290039e+00,2.134305000305175781e+00
5.000000000000000000e+00,5.000000000000000000e+00,5.000000000000000000e+00,5.000000000000000000e+00,5.000000000000000000e+00,5.000000000000000000e+00,5.000000000000000000e+00,5.000000000000000000e+00,5.000000000000000000e+00,5.000000000000000000e+00,5.000000000000000000e+00,5.000000000000000000e+00,5.000000000000000000e+00,5.000000000000000000e+00,5.000000000000000000e+00,5.000000000000000000e+00,5.000000000000000000e+00,5.000000000000000000e+00,5.000000000000000000e+00,5.000000000000000000e+00,5.000000000000000000e+00,5.000000000000000000e+00,5.000000000000000000e+00,5.000000000000000000e+00,5.000000000000000000e+00,5.000000000000000000e+00,5.000000000000000000e+00,5.000000000000000000e+00,5.000000000000000000e+00,5.000000000000000000e+00,5.000000000000000000e+00,5.000000000000000000e+00,5.000000000000000000e+00,4.965898036956787109e+00,4.826691150665283203e+00,4.695075988769531250e+00,4.570448398590087891e+00,4.452265739440917969e+00,4.340041160583496094e+00,4.233335018157958984e+00,4.131750106811523438e+00,4.034925937652587891e+00,3.942536115646362305e+00,3.854282617568969727e+00,3.769893646240234375e+00,3.689120769500732422e+00,3.611736774444580078e+00,3.537532329559326172e+00,3.466315746307373047e+00,3.397909879684448242e+00,3.332151651382446289e+00,3.268890380859375000e+00,3.207986593246459961e+00,3.149310350418090820e+00,3.092741966247558594e+00,3.038170099258422852e+00,2.985490798950195312e+00,2.934607028961181641e+00,2.885428905487060547e+00,2.837871551513671875e+00,2.791856527328491211e+00,2.747310161590576172e+00,2.704162836074829102e+00,2.662349939346313477e+00,2.621810436248779297e+00,2.582486867904663086e+00,2.544325590133666992e+00,2.507275342941284180e+00,2.471288919448852539e+00,2.436321020126342773e+00,2.402328729629516602e+00,2.369271993637084961e+00,2.337112665176391602e+00,2.305814504623413086e+00,2.275343656539916992e+00,2.245667695999145508e+00,2.216755867004394531e+00,2.188579082489013672e+00,2.161109209060668945e+00,2.134320735931396484e+00
5.000000000000000000e+00,5.000000000000000000e+00,5.000000000000000000e+00,5.000000000000000000e+00,5.000000000000000000e+00,5.000000000000000000e+00,5.000000000000000000e+00,5.000000000000000000e+00,5.000000000000000000e+00,5.000000000000000000e+00,5.000000000000000000e+00,5.000000000000000000e+00,5.000000000000000000e+00,5.000000000000000000e+00,5.000000000000000000e+00,5.000000000000000000e+00,5.000000000000000000e+00,5.000000000000000000e+00,5.000000000000000000e+00,5.000000000000000000e+00,5.000000000000000000e+00,5.000000000000000000e+00,5.000000000000000000e+00,5.000000000000000000e+00,5.000000000000000000e+00,5.000000000000000000e+00,5.000000000000000000e+00,5.000000000000000000e+00,5.000000000000000000e+00,5.000000000000000000e+00,5.000000000000000000e+00,5.000000000000000000e+00,5.000000000000000000e+00,4.965983390808105469e+00,4.826771736145019531e+00,4.695152759552001953e+00,4.570520877838134766e+00,4.452334880828857422e+00,4.340106964111328125e+00,4.233397483825683594e+00,4.131809234619140625e+00,4.034982681274414062e+00,3.942590236663818359e+00,3.854334354400634766e+00,3.769942998886108398e+00,3.689168214797973633e+00,3.611782312393188477e+00,3.537575960159301758e+00,3.466357707977294922e+00,3.397949695587158203e+00,3.332190036773681641e+00,3.268927335739135742e+00,3.208022117614746094e+00,3.149344682693481445e+00,3.092775344848632812e+00,3.038202285766601562e+00,2.985521793365478516e+00,2.934637069702148438e+00,2.885457754135131836e+00,2.837899684906005859e+00,2.791883707046508789e+00,2.747336626052856445e+00,2.704188108444213867e+00,2.662374496459960938e+00,2.621834039688110352e+00,2.582509994506835938e+00,2.544347763061523438e+00,2.507297277450561523e+00,2.471310138702392578e+00,2.436341762542724609e+00,2.402348756790161133e+00,2.369291543960571289e+00,2.337131738662719727e+00,2.305833101272583008e+00,2.275361776351928711e+00,2.245685100555419922e+00,2.216772794723510742e+00,2.188595533370971680e+00,2.161125421524047852e+00,2.134336471557617188e+00
5.000000000000000000e+00,5.000000000000000000e+00,5.000000000000000000e+00,5.000000000000000000e+00,5.000000000000000000e+00,5.000000000000000000e+00,5.000000000000000000e+00,5.000000000000000000e+00,5.000000000000000000e+00,5.000000000000000000e+00,5.000000000000000000e+00,5.000000000000000000e+00,5.000000000000000000e+00,5.000000000000000000e+00,5.000000000000000000e+00,5.000000000000000000e+00,5.000000000000000000e+00,5.000000000000000000e+00,5.000000000000000000e+00,5.000000000000000000e+00,5.000000000000000000e+00,5.000000000000000000e+00,5.000000000000000000e+00,5.000000000000000000e+00,5.000000000000000000e+00,5.000000000000000000e+00,5.000000000000000000e+00,5.000000000000000000e+00,5.000000000000000000e+00,5.000000000000000000e+00,5.000000000000000000e+00,5.000000000000000000e+00,5.000000000000000000e+00,4.966069221496582031e+00,4.826852798461914062e+00,4.695229053497314453e+00,4.570593357086181641e+00,4.452404022216796875e+00,4.340172290802001953e+00,4.233459472656250000e+00,4.131868839263916016e+00,4.035038948059082031e+00,3.942644357681274414e+00,3.854386091232299805e+00,3.769992589950561523e+00,3.689215421676635742e+00,3.611827373504638672e+00,3.537619113922119141e+00,3.466399192810058594e+00,3.397989988327026367e+00,3.332228899002075195e+00,3.268964767456054688e+00,3.208058118820190430e+00,3.149379253387451172e+00,3.092808723449707031e+00,3.038234472274780273e+00,2.985552787780761719e+00,2.934666872024536133e+00,2.885486602783203125e+00,2.837927579879760742e+00,2.791910886764526367e+00,2.747362613677978516e+00,2.704213619232177734e+00,2.662399053573608398e+00,2.621858119964599609e+00,2.582533121109008789e+00,2.544370412826538086e+00,2.507319211959838867e+00,2.471331596374511719e+00,2.436362266540527344e+00,2.402368783950805664e+00,2.369310855865478516e+00,2.337150573730468750e+00,2.305851459503173828e+00,2.275379657745361328e+00,2.245702743530273438e+00,2.216789960861206055e+00,2.188612222671508789e+00,2.161141633987426758e+00,2.134352445602416992e+00
5.000000000000000000e+00,5.000000000000000000e+00,5.000000000000000000e+00,5.000000000000000000e+00,5.000000000000000000e+00,5.000000000000000000e+00,5.000000000000000000e+00,5.000000000000000000e+00,5.000000000000000000e+00,5.000000000000000000e+00,5.000000000000000000e+00,5.000000000000000000e+00,5.000000000000000000e+00,5.000000000000000000e+00,5.000000000000000000e+00,5.000000000000000000e+00,5.000000000000000000e+00,5.000000000000000000e+00,5.000000000000000000e+00,5.000000000000000000e+00,5.000000000000000000e+00,5.000000000000000000e+00,5.000000000000000000e+00,5.000000000000000000e+00,5.000000000000000000e+00,5.000000000000000000e+00,5.000000000000000000e+00,5.000000000000000000e+00,5.000000000000000000e+00,5.000000000000000000e+00,5.000000000000000000e+00,5.000000000000000000e+00,5.000000000000000000e+00,4.966154575347900391e+00,4.826933860778808594e+00,4.695305824279785156e+00,4.570666313171386719e+00,4.452472686767578125e+00,4.340237617492675781e+00,4.233521938323974609e+00,4.131927967071533203e+00,4.035095691680908203e+00,3.942698240280151367e+00,3.854437589645385742e+00,3.770041704177856445e+00,3.689262628555297852e+00,3.611872673034667969e+00,3.537662744522094727e+00,3.466441154479980469e+00,3.398030281066894531e+00,3.332267522811889648e+00,3.269001960754394531e+00,3.208093881607055664e+00,3.149413585662841797e+00,3.092841863632202148e+00,3.038266420364379883e+00,2.985583782196044922e+00,2.934696912765502930e+00,2.885515689849853516e+00,2.837955713272094727e+00,2.791938066482543945e+00,2.747388839721679688e+00,2.704239130020141602e+00,2.662423849105834961e+00,2.621881961822509766e+00,2.582556247711181641e+00,2.544392824172973633e+00,2.507340908050537109e+00,2.471352577209472656e+00,2.436382770538330078e+00,2.402388811111450195e+00,2.369330406188964844e+00,2.337169647216796875e+00,2.305870056152343750e+00,2.275397777557373047e+00,2.245720386505126953e+00,2.216807126998901367e+00,2.188628911972045898e+00,2.161157846450805664e+00,2.134368181228637695e+00
5.000000000000000000e+00,5.000000000000000000e+00,5.000000000000000000e+00,5.000000000000000000e+00,5.000000000000000000e+00,5.000000000000000000e+00,5.000000000000000000e+00,5.000000000000000000e+00,5.000000000000000000e+00,5.000000000000000000e+00,5.000000000000000000e+00,5.000000000000000000e+00,5.000000000000000000e+00,5.000000000000000000e+00,5.000000000000000000e+00,5.000000000000000000e+00,5.000000000000000000e+00,5.000000000000000000e+00,5.000000000000000000e+00,5.000000000000000000e+00,5.000000000000000000e+00,5.000000000000000000e+00,5.000000000000000000e+00,5.000000000000000000e+00,5.000000000000000000e+00,5.000000000000000000e+00,5.000000000000000000e+00,5.000000000000000000e+00,5.000000000000000000e+00,5.000000000000000000e+00,5.000000000000000000e+00,5.000000000000000000e+00,5.000000000000000000e+00,4.966240882873535156e+00,4.827014923095703125e+00,4.695382118225097656e+00,4.570738792419433594e+00,4.452541351318359375e+00,4.340303421020507812e+00,4.233584403991699219e+00,4.131987571716308594e+00,4.035152435302734375e+00,3.942752361297607422e+00,3.854489326477050781e+00,3.770091295242309570e+00,3.689310312271118164e+00,3.611918210983276367e+00,3.537706375122070312e+00,3.466482639312744141e+00,3.398070096969604492e+00,3.332305908203125000e+00,3.269038915634155273e+00,3.208129405975341797e+00,3.149448156356811523e+00,3.092875003814697266e+00,3.038298606872558594e+00,2.985614776611328125e+00,2.934726953506469727e+00,2.885544776916503906e+00,2.837983608245849609e+00,2.791965246200561523e+00,2.747415065765380859e+00,2.704264402389526367e+00,2.662448406219482422e+00,2.621905803680419922e+00,2.582579374313354492e+00,2.544415473937988281e+00,2.507362842559814453e+00,2.471374034881591797e+00,2.436403512954711914e+00,2.402409076690673828e+00,2.369349956512451172e+00,2.337188482284545898e+00,2.305888414382934570e+00,2.275415658950805664e+00,2.245737791061401367e+00,2.216824054718017578e+00,2.188645601272583008e+00,2.161174058914184570e+00,2.134384155273437500e+00
5.000000000000000000e+00,5.000000000000000000e+00,5.000000000000000000e+00,5.000000000000000000e+00,5.000000000000000000e+00,5.000000000000000000e+00,5.000000000000000000e+00,5.000000000000000000e+00,5.000000000000000000e+00,5.000000000000000000e+00,5.000000000000000000e+00,5.000000000000000000e+00,5.000000000000000000e+00,5.000000000000000000e+00,5.000000000000000000e+00,5.000000000000000000e+00,5.000000000000000000e+00,5.000000000000000000e+00,5.000000000000000000e+00,5.000000000000000000e+00,5.000000000000000000e+00,5.000000000000000000e+00,5.000000000000000000e+00,5.000000000000000000e+00,5.000000000000000000e+00,5.000000000000000000e+00,5.000000000000000000e+00,5.000000000000000000e+00,5.000000000000000000e+00,5.000000000000000000e+00,5.000000000000000000e+00,5.000000000000000000e+00,5.000000000000000000e+00,4.966349124908447266e+00,4.827115058898925781e+00,4.695474624633789062e+00,4.570823669433593750e+00,4.452620029449462891e+00,4.340375423431396484e+00,4.233651161193847656e+00,4.132049083709716797e+00,4.035209178924560547e+00,3.942806482315063477e+00,3.854540586471557617e+00,3.770140409469604492e+00,3.689357280731201172e+00,3.611963272094726562e+00,3.537749767303466797e+00,3.466524600982666016e+00,3.398110389709472656e+00,3.332344770431518555e+00,3.269076108932495117e+00,3.208165407180786133e+00,3.149482727050781250e+00,3.092908382415771484e+00,3.038330793380737305e+00,2.985645532608032227e+00,2.934756755828857422e+00,2.885573387145996094e+00,2.838011503219604492e+00,2.791992187500000000e+00,2.747441291809082031e+00,2.704289913177490234e+00,2.662472963333129883e+00,2.621929883956909180e+00,2.582602739334106445e+00,2.544437885284423828e+00,2.507384777069091797e+00,2.471395254135131836e+00,2.436424016952514648e+00,2.402428865432739258e+00,2.369369506835937500e+00,2.337207555770874023e+00,2.305907011032104492e+00,2.275433778762817383e+00,2.245755434036254883e+00,2.216841220855712891e+00,2.188662290573120117e+00,2.161190509796142578e+00,2.134399890899658203e+00
5.000000000000000000e+00,5.000000000000000000e+00,5.000000000000000000e+00,5.000000000000000000e+00,5.000000000000000000e+00,5.000000000000000000e+00,5.000000000000000000e+00,5.000000000000000000e+00,5.000000000000000000e+00,5.000000000000000000e+00,5.000000000000000000e+00,5.000000000000000000e+00,5.000000000000000000e+00,5.000000000000000000e+00,5.000000000000000000e+00,5.000000000000000000e+00,5.000000000000000000e+00,5.000000000000000000e+00,5.000000000000000000e+00,5.000000000000000000e+00,5.000000000000000000e+00,5.000000000000000000e+00,5.000000000000000000e+00,5.000000000000000000e+00,5.000000000000000000e+00,5.000000000000000000e+00,5.000000000000000000e+00,5.000000000000000000e+00,5.000000000000000000e+00,5.000000000000000000e+00,5.000000000000000000e+00,5.000000000000000000e+00,5.000000000000000000e+00,4.966461658477783203e+00,4.827220916748046875e+00,4.695574760437011719e+00,4.570919036865234375e+00,4.452710151672363281e+00,4.340461254119873047e+00,4.233732700347900391e+00,4.132126808166503906e+00,4.035283565521240234e+00,3.942875623703002930e+00,3.854605436325073242e+00,3.770200729370117188e+00,3.689413309097290039e+00,3.612015962600708008e+00,3.537798643112182617e+00,3.466569900512695312e+00,3.398152828216552734e+00,3.332384109497070312e+00,3.269113302230834961e+00,3.208200931549072266e+00,3.149517059326171875e+00,3.092941522598266602e+00,3.038362741470336914e+00,2.985676765441894531e+00,2.934786796569824219e+00,2.885602474212646484e+00,2.838039636611938477e+00,2.792019367218017578e+00,2.747467756271362305e+00,2.704315423965454102e+00,2.662497758865356445e+00,2.621953487396240234e+00,2.582625865936279297e+00,2.544460296630859375e+00,2.507406473159790039e+00,2.471416473388671875e+00,2.436444759368896484e+00,2.402449131011962891e+00,2.369389057159423828e+00,2.337226629257202148e+00,2.305925369262695312e+00,2.275451660156250000e+00,2.245773077011108398e+00,2.216858386993408203e+00,2.188678741455078125e+00,2.161206483840942383e+00,2.134415626525878906e+00
5.000000000000000000e+00,5.000000000000000000e+00,5.000000000000000000e+00,5.000000000000000000e+00,5.000000000000000000e+00,5.000000000000000000e+00,5.000000000000000000e+00,5.000000000000000000e+00,5.000000000000000000e+00,5.000000000000000000e+00,5.000000000000000000e+00,5.000000000000000000e+00,5.000000000000000000e+00,5.000000000000000000e+00,5.000000000000000000e+00,5.000000000000000000e+00,5.000000000000000000e+00,5.000000000000000000e+00,5.000000000000000000e+00,5.000000000000000000e+00,5.000000000000000000e+00,5.000000000000000000e+00,5.000000000000000000e+00,5.000000000000000000e+00,5.000000000000000000e+00,5.000000000000000000e+00,5.000000000000000000e+00,5.000000000000000000e+00,5.000000000000000000e+00,5.000000000000000000e+00,5.000000000000000000e+00,5.000000000000000000e+00,5.000000000000000000e+00,4.966574192047119141e+00,4.827327251434326172e+00,4.695675373077392578e+00,4.571013927459716797e+00,4.452800750732421875e+00,4.340547084808349609e+00,4.233814239501953125e+00,4.132204532623291016e+00,4.035357475280761719e+00,3.942946434020996094e+00,3.854673147201538086e+00,3.770265579223632812e+00,3.689475297927856445e+00,3.612074851989746094e+00,3.537855386734008789e+00,3.466624736785888672e+00,3.398205518722534180e+00,3.332434654235839844e+00,3.269161462783813477e+00,3.208246231079101562e+00,3.149559497833251953e+00,3.092981338500976562e+00,3.038400173187255859e+00,2.985711812973022461e+00,2.934819698333740234e+00,2.885633230209350586e+00,2.838068723678588867e+00,2.792046546936035156e+00,2.747493743896484375e+00,2.704340696334838867e+00,2.662522315979003906e+00,2.621977567672729492e+00,2.582648992538452148e+00,2.544482946395874023e+00,2.507428407669067383e+00,2.471437692642211914e+00,2.436465501785278320e+00,2.402469158172607422e+00,2.369408607482910156e+00,2.337245464324951172e+00,2.305943727493286133e+00,2.275469541549682617e+00,2.245790481567382812e+00,2.216875314712524414e+00,2.188695430755615234e+00,2.161222934722900391e+00,2.134431600570678711e+00
5.000000000000000000e+00,5.000000000000000000e+00,5.000000000000000000e+00,5.000000000000000000e+00,5.000000000000000000e+00,5.000000000000000000e+00,5.000000000000000000e+00,5.000000000000000000e+00,5.000000000000000000e+00,5.000000000000000000e+00,5.000000000000000000e+00,5.000000000000000000e+00,5.000000000000000000e+00,5.000000000000000000e+00,5.000000000000000000e+00,5.000000000000000000e+00,5.000000000000000000e+00,5.000000000000000000e+00,5.000000000000000000e+00,5.000000000000000000e+00,5.000000000000000000e+00,5.000000000000000000e+00,5.000000000000000000e+00,5.000000000000000000e+00,5.000000000000000000e+00,5.000000000000000000e+00,5.000000000000000000e+00,5.000000000000000000e+00,5.000000000000000000e+00,5.000000000000000000e+00,5.000000000000000000e+00,5.000000000000000000e+00,5.000000000000000000e+00,4.966686248779296875e+00,4.827433586120605469e+00,4.695775985717773438e+00,4.571109294891357422e+00,4.452890872955322266e+00,4.340632915496826172e+00,4.233895778656005859e+00,4.132282257080078125e+00,4.035431861877441406e+00,3.943017482757568359e+00,3.854740858078002930e+00,3.770330190658569336e+00,3.689537286758422852e+00,3.612134456634521484e+00,3.537912368774414062e+00,3.466679334640502930e+00,3.398257732391357422e+00,3.332485437393188477e+00,3.269210338592529297e+00,3.208293199539184570e+00,3.149604797363281250e+00,3.093024969100952148e+00,3.038442134857177734e+00,2.985752344131469727e+00,2.934858798980712891e+00,2.885671138763427734e+00,2.838105201721191406e+00,2.792082071304321289e+00,2.747527599334716797e+00,2.704372644424438477e+00,2.662552356719970703e+00,2.622005701065063477e+00,2.582675695419311523e+00,2.544507980346679688e+00,2.507452011108398438e+00,2.471459865570068359e+00,2.436486244201660156e+00,2.402489185333251953e+00,2.369427919387817383e+00,2.337264537811279297e+00,2.305962324142456055e+00,2.275487661361694336e+00,2.245808124542236328e+00,2.216892480850219727e+00,2.188712120056152344e+00,2.161239147186279297e+00,2.134447336196899414e+00
5.000000000000000000e+00,5.000000000000000000e+00,5.000000000000000000e+00,5.000000000000000000e+00,5.000000000000000000e+00,5.000000000000000000e+00,5.000000000000000000e+00,5.000000000000000000e+00,5.000000000000000000e+00,5.000000000000000000e+00,5.000000000000000000e+00,5.000000000000000000e+00,5.000000000000000000e+00,5.000000000000000000e+00,5.000000000000000000e+00,5.000000000000000000e+00,5.000000000000000000e+00,5.000000000000000000e+00,5.000000000000000000e+00,5.000000000000000000e+00,5.000000000000000000e+00,5.000000000000000000e+00,5.000000000000000000e+00,5.000000000000000000e+00,5.000000000000000000e+00,5.000000000000000000e+00,5.000000000000000000e+00,5.000000000000000000e+00,5.000000000000000000e+00,5.000000000000000000e+00,5.000000000000000000e+00,5.000000000000000000e+00,5.000000000000000000e+00,4.966798782348632812e+00,4.827539443969726562e+00,4.695876598358154297e+00,4.571204185485839844e+00,4.452980995178222656e+00,4.340718746185302734e+00,4.233977317810058594e+00,4.132359981536865234e+00,4.035505771636962891e+00,3.943088293075561523e+00,3.854808568954467773e+00,3.770395040512084961e+00,3.689599514007568359e+00,3.612193822860717773e+00,3.537969350814819336e+00,3.466733932495117188e+00,3.398310422897338867e+00,3.332535743713378906e+00,3.269258975982666016e+00,3.208340167999267578e+00,3.149650096893310547e+00,3.093068599700927734e+00,3.038484334945678711e+00,2.985793113708496094e+00,2.934898138046264648e+00,2.885709285736083984e+00,2.838141918182373047e+00,2.792117357254028320e+00,2.747561693191528320e+00,2.704406023025512695e+00,2.662584543228149414e+00,2.622037172317504883e+00,2.582706212997436523e+00,2.544537544250488281e+00,2.507480621337890625e+00,2.471487760543823242e+00,2.436513423919677734e+00,2.402515172958374023e+00,2.369452714920043945e+00,2.337287664413452148e+00,2.305984497070312500e+00,2.275508642196655273e+00,2.245827913284301758e+00,2.216911315917968750e+00,2.188729763031005859e+00,2.161255836486816406e+00,2.134463310241699219e+00
5.000000000000000000e+00,5.000000000000000000e+00,5.000000000000000000e+00,5.000000000000000000e+00,5.000000000000000000e+00,5.000000000000000000e+00,5.000000000000000000e+00,5.000000000000000000e+00,5.000000000000000000e+00,5.000000000000000000e+00,5.000000000000000000e+00,5.000000000000000000e+00,5.000000000000000000e+00,5.000000000000000000e+00,5.000000000000000000e+00,5.000000000000000000e+00,5.000000000000000000e+00,5.000000000000000000e+00,5.000000000000000000e+00,5.000000000000000000e+00,5.000000000000000000e+00,5.000000000000000000e+00,5.000000000000000000e+00,5.000000000000000000e+00,5.000000000000000000e+00,5.000000000000000000e+00,5.000000000000000000e+00,5.000000000000000000e+00,5.000000000000000000e+00,5.000000000000000000e+00,5.000000000000000000e+00,5.000000000000000000e+00,5.000000000000000000e+00,4.966911315917968750e+00,4.827645778656005859e+00,4.695976734161376953e+00,4.571299552917480469e+00,4.453071594238281250e+00,4.340804576873779297e+00,4.234059333801269531e+00,4.132437705993652344e+00,4.035580158233642578e+00,3.943159103393554688e+00,3.854876279830932617e+00,3.770459890365600586e+00,3.689661502838134766e+00,3.612253427505493164e+00,3.538026571273803711e+00,3.466788768768310547e+00,3.398363113403320312e+00,3.332586288452148438e+00,3.269307374954223633e+00,3.208386898040771484e+00,3.149695396423339844e+00,3.093112230300903320e+00,3.038526296615600586e+00,2.985833644866943359e+00,2.934937477111816406e+00,2.885747194290161133e+00,2.838178634643554688e+00,2.792152881622314453e+00,2.747596025466918945e+00,2.704439163208007812e+00,2.662616729736328125e+00,2.622068405151367188e+00,2.582736492156982422e+00,2.544567108154296875e+00,2.507509469985961914e+00,2.471515655517578125e+00,2.436540603637695312e+00,2.402541399002075195e+00,2.369478225708007812e+00,2.337312698364257812e+00,2.306008577346801758e+00,2.275532245635986328e+00,2.245850801467895508e+00,2.216933727264404297e+00,2.188751697540283203e+00,2.161277055740356445e+00,2.134484052658081055e+00
5.000000000000000000e+00,5.000000000000000000e+00,5.000000000000000000e+00,5.000000000000000000e+00,5.000000000000000000e+00,5.000000000000000000e+00,5.000000000000000000e+00,5.000000000000000000e+00,5.000000000000000000e+00,5.000000000000000000e+00,5.000000000000000000e+00,5.000000000000000000e+00,5.000000000000000000e+00,5.000000000000000000e+00,5.000000000000000000e+00,5.000000000000000000e+00,5.000000000000000000e+00,5.000000000000000000e+00,5.000000000000000000e+00,5.000000000000000000e+00,5.000000000000000000e+00,5.000000000000000000e+00,5.000000000000000000e+00,5.000000000000000000e+00,5.000000000000000000e+00,5.000000000000000000e+00,5.000000000000000000e+00,5.000000000000000000e+00,5.000000000000000000e+00,5.000000000000000000e+00,5.000000000000000000e+00,5.000000000000000000e+00,5.000000000000000000e+00,4.967023372650146484e+00,4.827751636505126953e+00,4.696077346801757812e+00,4.571394443511962891e+00,4.453161716461181641e+00,4.340890407562255859e+00,4.234140872955322266e+00,4.132515430450439453e+00,4.035654067993164062e+00,3.943229675292968750e+00,3.854943752288818359e+00,3.770524740219116211e+00,3.689723491668701172e+00,3.612313032150268555e+00,3.538083553314208984e+00,3.466843605041503906e+00,3.398415803909301758e+00,3.332636833190917969e+00,3.269356250762939453e+00,3.208433866500854492e+00,3.149740219116210938e+00,3.093155622482299805e+00,3.038568496704101562e+00,2.985874414443969727e+00,2.934976816177368164e+00,2.885785102844238281e+00,2.838215351104736328e+00,2.792188405990600586e+00,2.747630596160888672e+00,2.704472303390502930e+00,2.662649154663085938e+00,2.622099637985229492e+00,2.582766771316528320e+00,2.544596672058105469e+00,2.507538080215454102e+00,2.471543312072753906e+00,2.436567544937133789e+00,2.402567863464355469e+00,2.369503736495971680e+00,2.337337493896484375e+00,2.306032896041870117e+00,2.275555610656738281e+00,2.245873689651489258e+00,2.216956138610839844e+00,2.188773632049560547e+00,2.161298513412475586e+00,2.134504795074462891e+00
5.000000000000000000e+00,5.000000000000000000e+00,5.000000000000000000e+00,5.000000000000000000e+00,5.000000000000000000e+00,5.000000000000000000e+00,5.000000000000000000e+00,5.000000000000000000e+00,5.000000000000000000e+00,5.000000000000000000e+00,5.000000000000000000e+00,5.000000000000000000e+00,5.000000000000000000e+00,5.000000000000000000e+00,5.000000000000000000e+00,5.000000000000000000e+00,5.000000000000000000e+00,5.000000000000000000e+00,5.000000000000000000e+00,5.000000000000000000e+00,5.000000000000000000e+00,5.000000000000000000e+00,5.000000000000000000e+00,5.000000000000000000e+00,5.000000000000000000e+00,5.000000000000000000e+00,5.000000000000000000e+00,5.000000000000000000e+00,5.000000000000000000e+00,5.000000000000000000e+00,5.000000000000000000e+00,5.000000000000000000e+00,5.000000000000000000e+00,4.967135906219482422e+00,4.827857971191406250e+00,4.696177959442138672e+00,4.571489810943603516e+00,4.453252315521240234e+00,4.340976238250732422e+00,4.234222412109375000e+00,4.132593154907226562e+00,4.035728454589843750e+00,3.943300485610961914e+00,3.855011463165283203e+00,3.770589113235473633e+00,3.689785242080688477e+00,3.612372398376464844e+00,3.538140773773193359e+00,3.466898441314697266e+00,3.398468494415283203e+00,3.332687616348266602e+00,3.269404888153076172e+00,3.208480596542358398e+00,3.149785518646240234e+00,3.093199253082275391e+00,3.038610219955444336e+00,2.985914707183837891e+00,2.935015916824340820e+00,2.885823249816894531e+00,2.838252067565917969e+00,2.792223930358886719e+00,2.747664928436279297e+00,2.704505681991577148e+00,2.662681341171264648e+00,2.622131109237670898e+00,2.582797050476074219e+00,2.544625997543334961e+00,2.507566690444946289e+00,2.471571207046508789e+00,2.436594724655151367e+00,2.402594089508056641e+00,2.369529485702514648e+00,2.337362527847290039e+00,2.306057214736938477e+00,2.275579214096069336e+00,2.245896577835083008e+00,2.216978311538696289e+00,2.188795328140258789e+00,2.161319732666015625e+00,2.134525537490844727e+00
5.000000000000000000e+00,5.000000000000000000e+00,5.000000000000000000e+00,5.000000000000000000e+00,5.000000000000000000e+00,5.000000000000000000e+00,5.000000000000000000e+00,5.000000000000000000e+00,5.000000000000000000e+00,5.000000000000000000e+00,5.000000000000000000e+00,5.000000000000000000e+00,5.000000000000000000e+00,5.000000000000000000e+00,5.000000000000000000e+00,5.000000000000000000e+00,5.000000000000000000e+00,5.000000000000000000e+00,5.000000000000000000e+00,5.000000000000000000e+00,5.000000000000000000e+00,5.000000000000000000e+00,5.000000000000000000e+00,5.000000000000000000e+00,5.000000000000000000e+00,5.000000000000000000e+00,5.000000000000000000e+00,5.000000000000000000e+00,5.000000000000000000e+00,5.000000000000000000e+00,5.000000000000000000e+00,5.000000000000000000e+00,5.000000000000000000e+00,4.967248439788818359e+00,4.827963829040527344e+00,4.696278095245361328e+00,4.571584701538085938e+00,4.453342437744140625e+00,4.341062068939208984e+00,4.234303951263427734e+00,4.132670879364013672e+00,4.035802364349365234e+00,3.943371534347534180e+00,3.855079174041748047e+00,3.770653963088989258e+00,3.689847469329833984e+00,3.612431526184082031e+00,3.538197517395019531e+00,3.466953277587890625e+00,3.398521184921264648e+00,3.332738161087036133e+00,3.269453525543212891e+00,3.208527565002441406e+00,3.149830818176269531e+00,3.093242883682250977e+00,3.038652420043945312e+00,2.985955476760864258e+00,2.935055017471313477e+00,2.885861158370971680e+00,2.838288784027099609e+00,2.792259454727172852e+00,2.747699499130249023e+00,2.704539060592651367e+00,2.662713766098022461e+00,2.622162342071533203e+00,2.582827568054199219e+00,2.544655323028564453e+00,2.507595300674438477e+00,2.471598863601684570e+00,2.436621665954589844e+00,2.402620315551757812e+00,2.369554996490478516e+00,2.337387323379516602e+00,2.306081295013427734e+00,2.275602817535400391e+00,2.245919704437255859e+00,2.217000722885131836e+00,2.188817024230957031e+00,2.161340951919555664e+00,2.134546279907226562e+00
5.000000000000000000e+00,5.000000000000000000e+00,5.000000000000000000e+00,5.000000000000000000e+00,5.000000000000000000e+00,5.000000000000000000e+00,5.000000000000000000e+00,5.000000000000000000e+00,5.000000000000000000e+00,5.000000000000000000e+00,5.000000000000000000e+00,5.000000000000000000e+00,5.000000000000000000e+00,5.000000000000000000e+00,5.000000000000000000e+00,5.000000000000000000e+00,5.000000000000000000e+00,5.000000000000000000e+00,5.000000000000000000e+00,5.000000000000000000e+00,5.000000000000000000e+00,5.000000000000000000e+00,5.000000000000000000e+00,5.000000000000000000e+00,5.000000000000000000e+00,5.000000000000000000e+00,5.000000000000000000e+00,5.000000000000000000e+00,5.000000000000000000e+00,5.000000000000000000e+00,5.000000000000000000e+00,5.000000000000000000e+00,5.000000000000000000e+00,4.967360973358154297e+00,4.828070163726806641e+00,4.696378707885742188e+00,4.571680068969726562e+00,4.453432559967041016e+00,4.341147899627685547e+00,4.234385967254638672e+00,4.132749080657958984e+00,4.035876750946044922e+00,3.943442344665527344e+00,3.855146884918212891e+00,3.770718812942504883e+00,3.689909458160400391e+00,3.612491130828857422e+00,3.538254499435424805e+00,3.467007637023925781e+00,3.398573637008666992e+00,3.332788944244384766e+00,3.269502401351928711e+00,3.208574533462524414e+00,3.149875879287719727e+00,3.093286514282226562e+00,3.038694620132446289e+00,2.985996007919311523e+00,2.935094356536865234e+00,2.885898828506469727e+00,2.838325262069702148e+00,2.792294979095458984e+00,2.747733831405639648e+00,2.704572439193725586e+00,2.662745952606201172e+00,2.622193813323974609e+00,2.582858085632324219e+00,2.544684886932373047e+00,2.507623910903930664e+00,2.471626758575439453e+00,2.436648607254028320e+00,2.402646541595458984e+00,2.369580745697021484e+00,2.337412357330322266e+00,2.306105613708496094e+00,2.275626420974731445e+00,2.245942592620849609e+00,2.217023134231567383e+00,2.188838958740234375e+00,2.161362171173095703e+00,2.134567022323608398e+00
5.000000000000000000e+00,5.000000000000000000e+00,5.000000000000000000e+00,5.000000000000000000e+00,5.000000000000000000e+00,5.000000000000000000e+00,5.000000000000000000e+00,5.000000000000000000e+00,5.000000000000000000e+00,5.000000000000000000e+00,5.000000000000000000e+00,5.000000000000000000e+00,5.000000000000000000e+00,5.000000000000000000e+00,5.000000000000000000e+00,5.000000000000000000e+00,5.000000000000000000e+00,5.000000000000000000e+00,5.000000000000000000e+00,5.000000000000000000e+00,5.000000000000000000e+00,5.000000000000000000e+00,5.000000000000000000e+00,5.000000000000000000e+00,5.000000000000000000e+00,5.000000000000000000e+00,5.000000000000000000e+00,5.000000000000000000e+00,5.000000000000000000e+00,5.000000000000000000e+00,5.000000000000000000e+00,5.000000000000000000e+00,5.000000000000000000e+00,4.967473030090332031e+00,4.828176498413085938e+00,4.696479320526123047e+00,4.571775436401367188e+00,4.453523159027099609e+00,4.341233730316162109e+00,4.234467506408691406e+00,4.132826805114746094e+00,4.035951137542724609e+00,3.943513154983520508e+00,3.855214834213256836e+00,3.770783662796020508e+00,3.689971446990966797e+00,3.612550497055053711e+00,3.538311481475830078e+00,3.467062473297119141e+00,3.398626089096069336e+00,3.332839250564575195e+00,3.269551038742065430e+00,3.208621501922607422e+00,3.149921178817749023e+00,3.093330144882202148e+00,3.038736581802368164e+00,2.986036777496337891e+00,2.935133695602416992e+00,2.885936737060546875e+00,2.838361978530883789e+00,2.792330265045166016e+00,2.747767925262451172e+00,2.704605817794799805e+00,2.662778377532958984e+00,2.622225046157836914e+00,2.582888364791870117e+00,2.544714450836181641e+00,2.507652521133422852e+00,2.471654653549194336e+00,2.436675786972045898e+00,2.402672767639160156e+00,2.369606018066406250e+00,2.337437152862548828e+00,2.306129932403564453e+00,2.275650024414062500e+00,2.245965719223022461e+00,2.217045545578002930e+00,2.188860893249511719e+00,2.161383628845214844e+00,2.134587764739990234e+00
5.000000000000000000e+00,5.000000000000000000e+00,5.000000000000000000e+00,5.000000000000000000e+00,5.000000000000000000e+00,5.000000000000000000e+00,5.000000000000000000e+00,5.000000000000000000e+00,5.000000000000000000e+00,5.000000000000000000e+00,5.000000000000000000e+00,5.000000000000000000e+00,5.000000000000000000e+00,5.000000000000000000e+00,5.000000000000000000e+00,5.000000000000000000e+00,5.000000000000000000e+00,5.000000000000000000e+00,5.000000000000000000e+00,5.000000000000000000e+00,5.000000000000000000e+00,5.000000000000000000e+00,5.000000000000000000e+00,5.000000000000000000e+00,5.000000000000000000e+00,5.000000000000000000e+00,5.000000000000000000e+00,5.000000000000000000e+00,5.000000000000000000e+00,5.000000000000000000e+00,5.000000000000000000e+00,5.000000000000000000e+00,5.000000000000000000e+00,4.967585563659667969e+00,4.828282356262207031e+00,4.696579456329345703e+00,4.571870326995849609e+00,4.453613758087158203e+00,4.341319561004638672e+00,4.234549045562744141e+00,4.132904529571533203e+00,4.036025047302246094e+00,3.943584203720092773e+00,3.855282545089721680e+00,3.770848512649536133e+00,3.690033674240112305e+00,3.612610101699829102e+00,3.538368701934814453e+00,3.467117309570312500e+00,3.398678779602050781e+00,3.332889795303344727e+00,3.269599437713623047e+00,3.208668231964111328e+00,3.149966478347778320e+00,3.093373775482177734e+00,3.038778781890869141e+00,2.986077308654785156e+00,2.935172796249389648e+00,2.885974884033203125e+00,2.838398694992065430e+00,2.792366027832031250e+00,2.747802495956420898e+00,2.704638957977294922e+00,2.662810802459716797e+00,2.622256517410278320e+00,2.582918882369995117e+00,2.544744014739990234e+00,2.507681131362915039e+00,2.471682548522949219e+00,2.436702728271484375e+00,2.402699232101440430e+00,2.369631767272949219e+00,2.337461948394775391e+00,2.306154012680053711e+00,2.275673627853393555e+00,2.245988607406616211e+00,2.217067956924438477e+00,2.188882589340209961e+00,2.161404848098754883e+00,2.134608507156372070e+00
5.000000000000000000e+00,5.000000000000000000e+00,5.000000000000000000e+00,5.000000000000000000e+00,5.000000000000000000e+00,5.000000000000000000e+00,5.000000000000000000e+00,5.000000000000000000e+00,5.000000000000000000e+00,5.000000000000000000e+00,5.000000000000000000e+00,5.000000000000000000e+00,5.000000000000000000e+00,5.000000000000000000e+00,5.000000000000000000e+00,5.000000000000000000e+00,5.000000000000000000e+00,5.000000000000000000e+00,5.000000000000000000e+00,5.000000000000000000e+00,5.000000000000000000e+00,5.000000000000000000e+00,5.000000000000000000e+00,5.000000000000000000e+00,5.000000000000000000e+00,5.000000000000000000e+00,5.000000000000000000e+00,5.000000000000000000e+00,5.000000000000000000e+00,5.000000000000000000e+00,5.000000000000000000e+00,5.000000000000000000e+00,5.000000000000000000e+00,4.967698097229003906e+00,4.828388690948486328e+00,4.696680068969726562e+00,4.571965694427490234e+00,4.453703880310058594e+00,4.341405391693115234e+00,4.234631061553955078e+00,4.132982254028320312e+00,4.036099433898925781e+00,3.943654537200927734e+00,3.855349779129028320e+00,3.770913362503051758e+00,3.690095663070678711e+00,3.612669706344604492e+00,3.538425683975219727e+00,3.467172145843505859e+00,3.398731470108032227e+00,3.332940578460693359e+00,3.269648313522338867e+00,3.208715200424194336e+00,3.150011301040649414e+00,3.093417406082153320e+00,3.038820743560791016e+00,2.986118078231811523e+00,2.935212135314941406e+00,2.886012792587280273e+00,2.838435411453247070e+00,2.792401552200317383e+00,2.747836828231811523e+00,2.704672336578369141e+00,2.662842750549316406e+00,2.622287511825561523e+00,2.582949161529541016e+00,2.544773578643798828e+00,2.507709980010986328e+00,2.471710443496704102e+00,2.436729907989501953e+00,2.402725458145141602e+00,2.369657278060913086e+00,2.337486982345581055e+00,2.306178331375122070e+00,2.275697231292724609e+00,2.246011495590209961e+00,2.217090368270874023e+00,2.188904523849487305e+00,2.161426067352294922e+00,2.134629249572753906e+00
5.000000000000000000e+00,5.000000000000000000e+00,5.000000000000000000e+00,5.000000000000000000e+00,5.000000000000000000e+00,5.000000000000000000e+00,5.000000000000000000e+00,5.000000000000000000e+00,5.000000000000000000e+00,5.000000000000000000e+00,5.000000000000000000e+00,5.000000000000000000e+00,5.000000000000000000e+00,5.000000000000000000e+00,5.000000000000000000e+00,5.000000000000000000e+00,5.000000000000000000e+00,5.000000000000000000e+00,5.000000000000000000e+00,5.000000000000000000e+00,5.000000000000000000e+00,5.000000000000000000e+00,5.000000000000000000e+00,5.000000000000000000e+00,5.000000000000000000e+00,5.000000000000000000e+00,5.000000000000000000e+00,5.000000000000000000e+00,5.000000000000000000e+00,5.000000000000000000e+00,5.000000000000000000e+00,5.000000000000000000e+00,5.000000000000000000e+00,4.967810153961181641e+00,4.828495025634765625e+00,4.696780681610107422e+00,4.572061061859130859e+00,4.453794002532958984e+00,4.341491222381591797e+00,4.234712600708007812e+00,4.133060455322265625e+00,4.036173820495605469e+00,3.943725585937500000e+00,3.855417490005493164e+00,3.770977735519409180e+00,3.690157890319824219e+00,3.612729072570800781e+00,3.538482904434204102e+00,3.467226982116699219e+00,3.398784160614013672e+00,3.332991123199462891e+00,3.269696950912475586e+00,3.208762168884277344e+00,3.150056600570678711e+00,3.093460798263549805e+00,3.038862705230712891e+00,2.986158609390258789e+00,2.935251474380493164e+00,2.886050701141357422e+00,2.838472366333007812e+00,2.792437076568603516e+00,2.747871398925781250e+00,2.704705715179443359e+00,2.662875175476074219e+00,2.622318983078002930e+00,2.582979440689086914e+00,2.544802904129028320e+00,2.507738590240478516e+00,2.471738338470458984e+00,2.436756849288940430e+00,2.402751922607421875e+00,2.369682788848876953e+00,2.337511777877807617e+00,2.306202411651611328e+00,2.275720834732055664e+00,2.246034622192382812e+00,2.217112779617309570e+00,2.188926219940185547e+00,2.161447525024414062e+00,2.134649991989135742e+00
4.873367786407470703e+00,4.872148513793945312e+00,4.870929241180419922e+00,4.869711399078369141e+00,4.868494033813476562e+00,4.867277145385742188e+00,4.866061210632324219e+00,4.864845275878906250e+00,4.863630294799804688e+00,4.862416267395019531e+00,4.861201763153076172e+00,4.859988689422607422e+00,4.858776092529296875e+00,4.857564449310302734e+00,4.856352806091308594e+00,4.855142116546630859e+00,4.853932380676269531e+00,4.852722644805908203e+00,4.851513385772705078e+00,4.850305080413818359e+00,4.849097251892089844e+00,4.847890377044677734e+00,4.846683979034423828e+00,4.845478057861328125e+00,4.844272613525390625e+00,4.843068122863769531e+00,4.841863632202148438e+00,4.840660095214843750e+00,4.839457035064697266e+00,4.838254451751708984e+00,4.837052822113037109e+00,4.835851669311523438e+00,4.834651470184326172e+00,4.833452224731445312e+00,4.828601360321044922e+00,4.696880817413330078e+00,4.572155952453613281e+00,4.453884601593017578e+00,4.341577053070068359e+00,4.234794139862060547e+00,4.133137702941894531e+00,4.036247730255126953e+00,3.943796396255493164e+00,3.855485439300537109e+00,3.771042585372924805e+00,3.690219402313232422e+00,3.612788200378417969e+00,3.538539886474609375e+00,3.467281818389892578e+00,3.398836851119995117e+00,3.333041906356811523e+00,3.269745826721191406e+00,3.208809137344360352e+00,3.150101900100708008e+00,3.093504428863525391e+00,3.038904905319213867e+00,2.986199140548706055e+00,2.935290575027465820e+00,2.886088848114013672e+00,2.838509082794189453e+00,2.792472600936889648e+00,2.747905731201171875e+00,2.704739093780517578e+00,2.662907361984252930e+00,2.622350215911865234e+00,2.583009958267211914e+00,2.544832468032836914e+00,2.507766962051391602e+00,2.471765995025634766e+00,2.436784029006958008e+00,2.402778148651123047e+00,2.369708538055419922e+00,2.337536811828613281e+00,2.306226730346679688e+00,2.275744438171386719e+00,2.246057510375976562e+00,2.217135190963745117e+00,2.188947916030883789e+00,2.161468505859375000e+00,2.134670734405517578e+00
3.777162551879882812e+00,3.776430130004882812e+00,3.775697946548461914e+00,3.774966001510620117e+00,3.774234533309936523e+00,3.773503065109252930e+00,3.772771596908569336e+00,3.772040843963623047e+00,3.771310329437255859e+00,3.770580291748046875e+00,3.769850254058837891e+00,3.769120693206787109e+00,3.768391370773315430e+00,3.767662286758422852e+00,3.766933679580688477e+00,3.766205072402954102e+00,3.765476942062377930e+00,3.764749050140380859e+00,3.764021158218383789e+00,3.763293981552124023e+00,3.762566804885864258e+00,3.761840105056762695e+00,3.761113166809082031e+00,3.760386705398559570e+00,3.759660959243774414e+00,3.758935213088989258e+00,3.758209705352783203e+00,3.757484674453735352e+00,3.756759881973266602e+00,3.756035327911376953e+00,3.755311012268066406e+00,3.754586935043334961e+00,3.753863096237182617e+00,3.753139734268188477e+00,3.752416610717773438e+00,3.751693725585937500e+00,3.750971078872680664e+00,3.750248670578002930e+00,3.749526739120483398e+00,3.748804330825805664e+00,3.748082876205444336e+00,3.747361660003662109e+00,3.746640682220458984e+00,3.745920181274414062e+00,3.745199680328369141e+00,3.690281629562377930e+00,3.612847805023193359e+00,3.538596630096435547e+00,3.467336177825927734e+00,3.398889303207397461e+00,3.333092451095581055e+00,3.269794464111328125e+00,3.208855867385864258e+00,3.150147199630737305e+00,3.093548059463500977e+00,3.038946866989135742e+00,2.986239671707153320e+00,2.935329675674438477e+00,2.886126518249511719e+00,2.838545560836791992e+00,2.792508125305175781e+00,2.747940063476562500e+00,2.704772472381591797e+00,2.662939786911010742e+00,2.622381687164306641e+00,2.583040237426757812e+00,2.544862031936645508e+00,2.507795810699462891e+00,2.471793651580810547e+00,2.436810970306396484e+00,2.402804374694824219e+00,2.369734048843383789e+00,2.337561607360839844e+00,2.306251049041748047e+00,2.275768041610717773e+00,2.246080636978149414e+00,2.217157602310180664e+00,2.188969850540161133e+00,2.161489963531494141e+00,2.134691476821899414e+00
3.083554506301879883e+00,3.083066463470458984e+00,3.082578182220458984e+00,3.082090139389038086e+00,3.081602573394775391e+00,3.081115007400512695e+00,3.080627441406250000e+00,3.080140352249145508e+00,3.079653263092041016e+00,3.079166173934936523e+00,3.078679561614990234e+00,3.078192949295043945e+00,3.077706336975097656e+00,3.077220201492309570e+00,3.076733827590942383e+00,3.076247930526733398e+00,3.075762033462524414e+00,3.075276374816894531e+00,3.074790477752685547e+00,3.074305057525634766e+00,3.073819875717163086e+00,3.073334693908691406e+00,3.072849750518798828e+00,3.072365045547485352e+00,3.071880340576171875e+00,3.071395874023437500e+00,3.070911645889282227e+00,3.070427417755126953e+00,3.069943428039550781e+00,3.069459438323974609e+00,3.068975687026977539e+00,3.068492174148559570e+00,3.068008899688720703e+00,3.067525625228881836e+00,3.067042350769042969e+00,3.066559314727783203e+00,3.066076517105102539e+00,3.065593719482421875e+00,3.065111398696899414e+00,3.064629077911376953e+00,3.064146757125854492e+00,3.063664674758911133e+00,3.063182830810546875e+00,3.062701225280761719e+00,3.062219619750976562e+00,3.061738014221191406e+00,3.061256885528564453e+00,3.060775756835937500e+00,3.060294628143310547e+00,3.059813737869262695e+00,3.059333086013793945e+00,3.058852672576904297e+00,3.058372020721435547e+00,3.057891845703125000e+00,3.057411670684814453e+00,3.038989067077636719e+00,2.986280441284179688e+00,2.935369014739990234e+00,2.886164426803588867e+00,2.838582277297973633e+00,2.792543411254882812e+00,2.747974634170532227e+00,2.704805850982666016e+00,2.662972211837768555e+00,2.622412919998168945e+00,2.583070755004882812e+00,2.544891357421875000e+00,2.507824420928955078e+00,2.471821546554565430e+00,2.436837911605834961e+00,2.402830600738525391e+00,2.369759559631347656e+00,2.337586641311645508e+00,2.306275129318237305e+00,2.275791645050048828e+00,2.246103525161743164e+00,2.217180013656616211e+00,2.188991785049438477e+00,2.161511182785034180e+00,2.134712219238281250e+00
2.605162858963012695e+00,2.604814291000366211e+00,2.604465961456298828e+00,2.604117631912231445e+00,2.603769540786743164e+00,2.603421449661254883e+00,2.603073596954345703e+00,2.602725505828857422e+00,2.602377891540527344e+00,2.602030038833618164e+00,2.601682424545288086e+00,2.601335048675537109e+00,2.600987434387207031e+00,2.600640058517456055e+00,2.600292682647705078e+00,2.599945545196533203e+00,2.599598407745361328e+00,2.599251508712768555e+00,2.598904609680175781e+00,2.598557949066162109e+00,2.598211050033569336e+00,2.597864627838134766e+00,2.597517967224121094e+00,2.597171545028686523e+00,2.596825361251831055e+00,2.596479177474975586e+00,2.596132993698120117e+00,2.595786809921264648e+00,2.595440864562988281e+00,2.595095157623291016e+00,2.594749212265014648e+00,2.594403505325317383e+00,2.594057798385620117e+00,2.593712329864501953e+00,2.593366861343383789e+00,2.593021631240844727e+00,2.592676401138305664e+00,2.592331409454345703e+00,2.591986179351806641e+00,2.591641426086425781e+00,2.591296434402465820e+00,2.590951681137084961e+00,2.590607166290283203e+00,2.590262413024902344e+00,2.589918136596679688e+00,2.589573621749877930e+00,2.589229345321655273e+00,2.588885068893432617e+00,2.588540792465209961e+00,2.588196754455566406e+00,2.587852954864501953e+00,2.587509155273437500e+00,2.587165355682373047e+00,2.586821556091308594e+00,2.586477994918823242e+00,2.586134672164916992e+00,2.585791349411010742e+00,2.585448026657104492e+00,2.585104703903198242e+00,2.584761619567871094e+00,2.584418535232543945e+00,2.584075689315795898e+00,2.583732843399047852e+00,2.583390235900878906e+00,2.583047389984130859e+00,2.582704782485961914e+00,2.544920921325683594e+00,2.507853031158447266e+00,2.471849441528320312e+00,2.436865091323852539e+00,2.402857065200805664e+00,2.369785070419311523e+00,2.337611198425292969e+00,2.306299448013305664e+00,2.275815248489379883e+00,2.246126651763916016e+00,2.217202425003051758e+00,2.189013481140136719e+00,2.161532640457153320e+00,2.134732961654663086e+00
2.255273342132568359e+00,2.255012035369873047e+00,2.254750967025756836e+00,2.254490137100219727e+00,2.254229068756103516e+00,2.253968238830566406e+00,2.253707408905029297e+00,2.253446578979492188e+00,2.253185749053955078e+00,2.252925157546997070e+00,2.252664327621459961e+00,2.252403974533081055e+00,2.252143383026123047e+00,2.251883029937744141e+00,2.251622676849365234e+00,2.251362323760986328e+00,2.251102209091186523e+00,2.250841856002807617e+00,2.250581741333007812e+00,2.250321865081787109e+00,2.250061750411987305e+00,2.249801874160766602e+00,2.249541997909545898e+00,2.249282121658325195e+00,2.249022245407104492e+00,2.248762607574462891e+00,2.248502969741821289e+00,2.248243331909179688e+00,2.247983694076538086e+00,2.247724294662475586e+00,2.247464895248413086e+00,2.247205495834350586e+00,2.246946334838867188e+00,2.246687173843383789e+00,2.246428012847900391e+00,2.246168851852416992e+00,2.245909690856933594e+00,2.245650768280029297e+00,2.245391845703125000e+00,2.245132923126220703e+00,2.244874238967895508e+00,2.244615316390991211e+00,2.244356632232666016e+00,2.244098186492919922e+00,2.243839502334594727e+00,2.243580818176269531e+00,2.243322372436523438e+00,2.243064165115356445e+00,2.242805719375610352e+00,2.242547512054443359e+00,2.242289304733276367e+00,2.242031097412109375e+00,2.241773128509521484e+00,2.241514921188354492e+00,2.241256952285766602e+00,2.240999221801757812e+00,2.240741252899169922e+00,2.240483522415161133e+00,2.240225791931152344e+00,2.239968061447143555e+00,2.239710330963134766e+00,2.239452838897705078e+00,2.239195346832275391e+00,2.238937854766845703e+00,2.238680362701416016e+00,2.238423109054565430e+00,2.238165855407714844e+00,2.237908601760864258e+00,2.237651586532592773e+00,2.237394332885742188e+00,2.237137317657470703e+00,2.236880540847778320e+00,2.236623525619506836e+00,2.236366748809814453e+00,2.236109972000122070e+00,2.235853195190429688e+00,2.217224836349487305e+00,2.189035415649414062e+00,2.161553859710693359e+00,2.134753704071044922e+00
1.988240361213684082e+00,1.988037347793579102e+00,1.987834453582763672e+00,1.987631440162658691e+00,1.987428784370422363e+00,1.987225890159606934e+00,1.987022995948791504e+00,1.986820340156555176e+00,1.986617565155029297e+00,1.986415028572082520e+00,1.986212372779846191e+00,1.986009955406188965e+00,1.985807299613952637e+00,1.985604882240295410e+00,1.985402345657348633e+00,1.985200166702270508e+00,1.984997630119323730e+00,1.984795451164245605e+00,1.984593152999877930e+00,1.984390974044799805e+00,1.984188675880432129e+00,1.983986616134643555e+00,1.983784437179565430e+00,1.983582258224487305e+00,1.983380317687988281e+00,1.983178257942199707e+00,1.982976436614990234e+00,1.982774496078491211e+00,1.982572674751281738e+00,1.982370734214782715e+00,1.982169151306152344e+00,1.981967329978942871e+00,1.981765747070312500e+00,1.981563925743103027e+00,1.981362462043762207e+00,1.981160759925842285e+00,1.980959415435791016e+00,1.980757713317871094e+00,1.980556488037109375e+00,1.980354905128479004e+00,1.980153441429138184e+00,1.979952216148376465e+00,1.979750871658325195e+00,1.979549765586853027e+00,1.979348421096801758e+00,1.979147315025329590e+00,1.978946089744567871e+00,1.978745102882385254e+00,1.978543996810913086e+00,1.978343129158020020e+00,1.978142023086547852e+00,1.977941274642944336e+00,1.977740287780761719e+00,1.977539539337158203e+00,1.977338671684265137e+00,1.977138042449951172e+00,1.976937174797058105e+00,1.976736426353454590e+00,1.976535916328430176e+00,1.976335167884826660e+00,1.976134777069091797e+00,1.975934147834777832e+00,1.975733757019042969e+00,1.975533246994018555e+00,1.975332975387573242e+00,1.975132465362548828e+00,1.974932312965393066e+00,1.974731922149658203e+00,1.974531769752502441e+00,1.974331498146057129e+00,1.974131464958190918e+00,1.973931312561035156e+00,1.973731040954589844e+00,1.973531126976013184e+00,1.973331093788146973e+00,1.973131299018859863e+00,1.972931265830993652e+00,1.972731471061706543e+00,1.972531557083129883e+00,1.972331881523132324e+00
1.777748227119445801e+00,1.777585864067077637e+00,1.777423501014709473e+00,1.777261376380920410e+00,1.777099132537841797e+00,1.776937007904052734e+00,1.776774883270263672e+00,1.776612877845764160e+00,1.776450753211975098e+00,1.776288747787475586e+00,1.776126623153686523e+00,1.775964736938476562e+00,1.775802731513977051e+00,1.775640964508056641e+00,1.775478959083557129e+00,1.775317192077636719e+00,1.775155305862426758e+00,1.774993538856506348e+00,1.774831771850585938e+00,1.774669885635375977e+00,1.774508237838745117e+00,1.774346470832824707e+00,1.774184942245483398e+00,1.774023294448852539e+00,1.773861765861511230e+00,1.773700118064880371e+00,1.773538589477539062e+00,1.773377060890197754e+00,1.773215651512145996e+00,1.773054122924804688e+00,1.772892832756042480e+00,1.772731304168701172e+00,1.772570013999938965e+00,1.772408604621887207e+00,1.772247433662414551e+00,1.772086024284362793e+00,1.771924734115600586e+00,1.771763682365417480e+00,1.771602392196655273e+00,1.771441340446472168e+00,1.771280050277709961e+00,1.771119117736816406e+00,1.770957946777343750e+00,1.770797014236450195e+00,1.770635843276977539e+00,1.770475029945373535e+00,1.770313978195190430e+00,1.770153164863586426e+00,1.769992113113403320e+00,1.769831418991088867e+00,1.769670486450195312e+00,1.769509792327880859e+00,1.769348859786987305e+00,1.769188046455383301e+00,1.769027471542358398e+00,1.768866658210754395e+00,1.768706083297729492e+00,1.768545389175415039e+00,1.768384933471679688e+00,1.768224239349365234e+00,1.768063783645629883e+00,1.767903208732604980e+00,1.767742753028869629e+00,1.767582297325134277e+00,1.767421960830688477e+00,1.767261385917663574e+00,1.767101168632507324e+00,1.766940712928771973e+00,1.766780376434326172e+00,1.766620159149169922e+00,1.766459822654724121e+00,1.766299724578857422e+00,1.766139388084411621e+00,1.765979409217834473e+00,1.765819191932678223e+00,1.765659213066101074e+00,1.765498995780944824e+00,1.765339136123657227e+00,1.765179038047790527e+00,1.765019059181213379e+00
1.607558131217956543e+00,1.607425570487976074e+00,1.607292771339416504e+00,1.607160210609436035e+00,1.607027530670166016e+00,1.606894969940185547e+00,1.606762290000915527e+00,1.606629848480224609e+00,1.606497287750244141e+00,1.606364846229553223e+00,1.606232285499572754e+00,1.606099843978881836e+00,1.605967283248901367e+00,1.605834960937500000e+00,1.605702519416809082e+00,1.605570077896118164e+00,1.605437755584716797e+00,1.605305314064025879e+00,1.605173110961914062e+00,1.605040669441223145e+00,1.604908585548400879e+00,1.604776263236999512e+00,1.604644060134887695e+00,1.604511737823486328e+00,1.604379653930664062e+00,1.604247450828552246e+00,1.604115366935729980e+00,1.603983163833618164e+00,1.603851079940795898e+00,1.603718996047973633e+00,1.603587031364440918e+00,1.603454828262329102e+00,1.603322744369506836e+00,1.603190898895263672e+00,1.603058815002441406e+00,1.602926969528198242e+00,1.602795004844665527e+00,1.602663159370422363e+00,1.602531194686889648e+00,1.602399349212646484e+00,1.602267503738403320e+00,1.602135777473449707e+00,1.602003931999206543e+00,1.601872205734252930e+00,1.601740360260009766e+00,1.601608753204345703e+00,1.601476907730102539e+00,1.601345300674438477e+00,1.601213574409484863e+00,1.601081848144531250e+00,1.600950360298156738e+00,1.600818634033203125e+00,1.600687146186828613e+00,1.600555539131164551e+00,1.600424051284790039e+00,1.600292444229125977e+00,1.600161075592041016e+00,1.600029468536376953e+00,1.599898099899291992e+00,1.599766612052917480e+00,1.599635243415832520e+00,1.599503755569458008e+00,1.599372506141662598e+00,1.599241137504577637e+00,1.599109649658203125e+00,1.598978519439697266e+00,1.598847150802612305e+00,1.598715901374816895e+00,1.598584651947021484e+00,1.598453521728515625e+00,1.598322272300720215e+00,1.598191142082214355e+00,1.598059892654418945e+00,1.597928881645202637e+00,1.597797751426696777e+00,1.597666740417480469e+00,1.597535610198974609e+00,1.597404599189758301e+00,1.597273468971252441e+00,1.597142577171325684e+00
1.467106938362121582e+00,1.466996550559997559e+00,1.466885924339294434e+00,1.466775536537170410e+00,1.466665029525756836e+00,1.466554641723632812e+00,1.466444134712219238e+00,1.466333746910095215e+00,1.466223359107971191e+00,1.466112971305847168e+00,1.466002583503723145e+00,1.465892195701599121e+00,1.465781927108764648e+00,1.465671539306640625e+00,1.465561270713806152e+00,1.465450882911682129e+00,1.465340733528137207e+00,1.465230345726013184e+00,1.465120196342468262e+00,1.465009927749633789e+00,1.464899778366088867e+00,1.464789509773254395e+00,1.464679479598999023e+00,1.464569211006164551e+00,1.464459180831909180e+00,1.464348912239074707e+00,1.464238882064819336e+00,1.464128732681274414e+00,1.464018702507019043e+00,1.463908672332763672e+00,1.463798522949218750e+00,1.463688611984252930e+00,1.463578581809997559e+00,1.463468670845031738e+00,1.463358521461486816e+00,1.463248729705810547e+00,1.463138699531555176e+00,1.463028788566589355e+00,1.462918877601623535e+00,1.462809085845947266e+00,1.462699174880981445e+00,1.462589383125305176e+00,1.462479472160339355e+00,1.462369680404663086e+00,1.462259769439697266e+00,1.462149977684020996e+00,1.462040305137634277e+00,1.461930394172668457e+00,1.461820721626281738e+00,1.461710929870605469e+00,1.461601376533508301e+00,1.461491584777832031e+00,1.461382031440734863e+00,1.461272239685058594e+00,1.461162686347961426e+00,1.461053013801574707e+00,1.460943460464477539e+00,1.460833787918090820e+00,1.460724353790283203e+00,1.460614681243896484e+00,1.460505127906799316e+00,1.460395574569702148e+00,1.460286021232604980e+00,1.460176587104797363e+00,1.460067033767700195e+00,1.459957718849182129e+00,1.459848165512084961e+00,1.459738850593566895e+00,1.459629416465759277e+00,1.459519982337951660e+00,1.459410548210144043e+00,1.459301352500915527e+00,1.459191918373107910e+00,1.459082603454589844e+00,1.458973288536071777e+00,1.458863973617553711e+00,1.458754658699035645e+00,1.458645343780517578e+00,1.458536148071289062e+00,1.458426833152770996e+00
1.349226117134094238e+00,1.349132657051086426e+00,1.349039077758789062e+00,1.348945736885070801e+00,1.348852276802062988e+00,1.348758935928344727e+00,1.348665475845336914e+00,1.348572015762329102e+00,1.348478674888610840e+00,1.348385214805603027e+00,1.348291993141174316e+00,1.348198533058166504e+00,1.348105311393737793e+00,1.348011851310729980e+00,1.347918629646301270e+00,1.347825288772583008e+00,1.347732067108154297e+00,1.347638726234436035e+00,1.347545623779296875e+00,1.347452282905578613e+00,1.347359180450439453e+00,1.347265839576721191e+00,1.347172617912292480e+00,1.347079515457153320e+00,1.346986293792724609e+00,1.346893191337585449e+00,1.346799969673156738e+00,1.346706867218017578e+00,1.346613764762878418e+00,1.346520662307739258e+00,1.346427559852600098e+00,1.346334457397460938e+00,1.346241354942321777e+00,1.346148371696472168e+00,1.346055269241333008e+00,1.345962285995483398e+00,1.345869183540344238e+00,1.345776200294494629e+00,1.345683217048645020e+00,1.345590233802795410e+00,1.345497250556945801e+00,1.345404267311096191e+00,1.345311403274536133e+00,1.345218420028686523e+00,1.345125555992126465e+00,1.345032572746276855e+00,1.344939708709716797e+00,1.344846844673156738e+00,1.344753980636596680e+00,1.344661116600036621e+00,1.344568252563476562e+00,1.344475388526916504e+00,1.344382643699645996e+00,1.344289779663085938e+00,1.344197034835815430e+00,1.344104170799255371e+00,1.344011425971984863e+00,1.343918681144714355e+00,1.343825936317443848e+00,1.343733191490173340e+00,1.343640446662902832e+00,1.343547821044921875e+00,1.343455076217651367e+00,1.343362450599670410e+00,1.343269705772399902e+00,1.343177199363708496e+00,1.343084454536437988e+00,1.342991948127746582e+00,1.342899203300476074e+00,1.342806696891784668e+00,1.342714071273803711e+00,1.342621564865112305e+00,1.342528939247131348e+00,1.342436313629150391e+00,1.342343807220458984e+00,1.342251300811767578e+00,1.342158794403076172e+00,1.342066287994384766e+00,1.341973781585693359e+00,1.341881275177001953e+00
1.248874902725219727e+00,1.248795270919799805e+00,1.248715519905090332e+00,1.248635888099670410e+00,1.248556137084960938e+00,1.248476505279541016e+00,1.248396873474121094e+00,1.248317241668701172e+00,1.248237490653991699e+00,1.248157978057861328e+00,1.248078227043151855e+00,1.247998714447021484e+00,1.247919082641601562e+00,1.247839212417602539e+00,1.247759342193603516e+00,1.247679352760314941e+00,1.247599482536315918e+00,1.247519493103027344e+00,1.247439503669738770e+00,1.247359633445739746e+00,1.247279763221740723e+00,1.247199892997741699e+00,1.247120022773742676e+00,1.247040152549743652e+00,1.246960282325744629e+00,1.246880531311035156e+00,1.246800661087036133e+00,1.246720910072326660e+00,1.246641039848327637e+00,1.246561288833618164e+00,1.246481418609619141e+00,1.246401667594909668e+00,1.246321916580200195e+00,1.246242165565490723e+00,1.246162414550781250e+00,1.246082544326782227e+00,1.246002912521362305e+00,1.245923161506652832e+00,1.245843529701232910e+00,1.245763778686523438e+00,1.245684146881103516e+00,1.245604395866394043e+00,1.245524764060974121e+00,1.245445013046264648e+00,1.245365500450134277e+00,1.245285749435424805e+00,1.245206236839294434e+00,1.245126485824584961e+00,1.245046973228454590e+00,1.244967341423034668e+00,1.244887828826904297e+00,1.244808197021484375e+00,1.244728565216064453e+00,1.244649052619934082e+00,1.244569420814514160e+00,1.244490027427673340e+00,1.244410395622253418e+00,1.244331002235412598e+00,1.244251370429992676e+00,1.244171977043151855e+00,1.244092464447021484e+00,1.244012951850891113e+00,1.243933558464050293e+00,1.243854045867919922e+00,1.243774652481079102e+00,1.243695259094238281e+00,1.243615746498107910e+00,1.243536353111267090e+00,1.243456959724426270e+00,1.243377566337585449e+00,1.243298172950744629e+00,1.243218779563903809e+00,1.243139505386352539e+00,1.243060111999511719e+00,1.242980718612670898e+00,1.242901444435119629e+00,1.242822170257568359e+00,1.242742776870727539e+00,1.242663502693176270e+00,1.242584228515625000e+00
1.162414073944091797e+00,1.162344932556152344e+00,1.162275910377502441e+00,1.162206888198852539e+00,1.162137866020202637e+00,1.162068843841552734e+00,1.161999821662902832e+00,1.161930799484252930e+00,1.161861896514892578e+00,1.161792755126953125e+00,1.161723852157592773e+00,1.161654829978942871e+00,1.161585927009582520e+00,1.161516904830932617e+00,1.161448001861572266e+00,1.161378979682922363e+00,1.161310076713562012e+00,1.161241173744201660e+00,1.161172270774841309e+00,1.161103367805480957e+00,1.161034464836120605e+00,1.160965561866760254e+00,1.160896658897399902e+00,1.160827755928039551e+00,1.160758972167968750e+00,1.160690069198608398e+00,1.160621285438537598e+00,1.160552382469177246e+00,1.160483598709106445e+00,1.160414695739746094e+00,1.160345911979675293e+00,1.160277128219604492e+00,1.160208225250244141e+00,1.160139560699462891e+00,1.160070657730102539e+00,1.160001993179321289e+00,1.159933090209960938e+00,1.159864425659179688e+00,1.159795284271240234e+00,1.159726142883300781e+00,1.159657120704650879e+00,1.159588098526000977e+00,1.159519076347351074e+00,1.159449934959411621e+00,1.159381031990051270e+00,1.159311890602111816e+00,1.159242987632751465e+00,1.159173965454101562e+00,1.159104943275451660e+00,1.159035921096801758e+00,1.158966898918151855e+00,1.158897995948791504e+00,1.158828973770141602e+00,1.158760070800781250e+00,1.158691048622131348e+00,1.158622145652770996e+00,1.158553242683410645e+00,1.158484339714050293e+00,1.158415436744689941e+00,1.158346533775329590e+00,1.158277630805969238e+00,1.158208727836608887e+00,1.158139824867248535e+00,1.158071041107177734e+00,1.158002138137817383e+00,1.157933235168457031e+00,1.157864451408386230e+00,1.157795548439025879e+00,1.157726764678955078e+00,1.157657861709594727e+00,1.157589197158813477e+00,1.157520294189453125e+00,1.157451510429382324e+00,1.157382726669311523e+00,1.157313942909240723e+00,1.157245159149169922e+00,1.157176494598388672e+00,1.157107591629028320e+00,1.157038927078247070e+00,1.156970143318176270e+00
1.087149500846862793e+00,1.087089180946350098e+00,1.087028741836547852e+00,1.086968302726745605e+00,1.086907863616943359e+00,1.086847543716430664e+00,1.086787223815917969e+00,1.086726784706115723e+00,1.086666464805603027e+00,1.086606144905090332e+00,1.086545705795288086e+00,1.086485505104064941e+00,1.086425065994262695e+00,1.086364746093750000e+00,1.086304426193237305e+00,1.086244225502014160e+00,1.086183786392211914e+00,1.086123585700988770e+00,1.086063265800476074e+00,1.086002945899963379e+00,1.085942745208740234e+00,1.085882425308227539e+00,1.085822105407714844e+00,1.085761904716491699e+00,1.085701704025268555e+00,1.085641384124755859e+00,1.085581183433532715e+00,1.085520982742309570e+00,1.085460662841796875e+00,1.085400581359863281e+00,1.085340261459350586e+00,1.085280179977416992e+00,1.085219860076904297e+00,1.085159778594970703e+00,1.085099577903747559e+00,1.085039377212524414e+00,1.084979176521301270e+00,1.084919095039367676e+00,1.084858894348144531e+00,1.084798693656921387e+00,1.084738492965698242e+00,1.084678411483764648e+00,1.084618330001831055e+00,1.084558248519897461e+00,1.084498047828674316e+00,1.084437966346740723e+00,1.084377884864807129e+00,1.084317803382873535e+00,1.084257721900939941e+00,1.084197640419006348e+00,1.084137558937072754e+00,1.084077477455139160e+00,1.084017395973205566e+00,1.083957314491271973e+00,1.083897352218627930e+00,1.083837270736694336e+00,1.083777189254760742e+00,1.083717226982116699e+00,1.083657145500183105e+00,1.083597183227539062e+00,1.083537220954895020e+00,1.083477139472961426e+00,1.083417057991027832e+00,1.083356738090515137e+00,1.083296537399291992e+00,1.083236217498779297e+00,1.083176016807556152e+00,1.083115696907043457e+00,1.083055496215820312e+00,1.082995295524597168e+00,1.082935094833374023e+00,1.082874774932861328e+00,1.082814574241638184e+00,1.082754373550415039e+00,1.082694172859191895e+00,1.082633972167968750e+00,1.082573771476745605e+00,1.082513689994812012e+00,1.082453370094299316e+00,1.082393288612365723e+00
1.021038770675659180e+00,1.020985484123229980e+00,1.020932197570800781e+00,1.020879030227661133e+00,1.020825624465942383e+00,1.020772457122802734e+00,1.020719170570373535e+00,1.020666003227233887e+00,1.020612716674804688e+00,1.020559430122375488e+00,1.020506262779235840e+00,1.020452976226806641e+00,1.020399808883666992e+00,1.020346641540527344e+00,1.020293354988098145e+00,1.020240187644958496e+00,1.020187020301818848e+00,1.020133733749389648e+00,1.020080566406250000e+00,1.020027399063110352e+00,1.019974231719970703e+00,1.019921064376831055e+00,1.019867897033691406e+00,1.019814729690551758e+00,1.019761681556701660e+00,1.019708395004272461e+00,1.019655346870422363e+00,1.019602179527282715e+00,1.019549012184143066e+00,1.019495964050292969e+00,1.019442796707153320e+00,1.019389629364013672e+00,1.019336581230163574e+00,1.019283413887023926e+00,1.019230365753173828e+00,1.019177317619323730e+00,1.019124269485473633e+00,1.019071102142333984e+00,1.019018054008483887e+00,1.018965005874633789e+00,1.018911957740783691e+00,1.018858790397644043e+00,1.018805861473083496e+00,1.018752694129943848e+00,1.018699765205383301e+00,1.018646597862243652e+00,1.018593668937683105e+00,1.018540620803833008e+00,1.018487572669982910e+00,1.018434524536132812e+00,1.018381595611572266e+00,1.018328547477722168e+00,1.018275618553161621e+00,1.018222570419311523e+00,1.018169641494750977e+00,1.018116593360900879e+00,1.018063664436340332e+00,1.018010735511779785e+00,1.017957687377929688e+00,1.017904758453369141e+00,1.017851829528808594e+00,1.017798900604248047e+00,1.017745852470397949e+00,1.017693042755126953e+00,1.017639994621276855e+00,1.017587065696716309e+00,1.017534136772155762e+00,1.017481327056884766e+00,1.017428398132324219e+00,1.017375469207763672e+00,1.017322540283203125e+00,1.017269730567932129e+00,1.017216801643371582e+00,1.017163872718811035e+00,1.017110943794250488e+00,1.017058134078979492e+00,1.017005205154418945e+00,1.016952395439147949e+00,1.016899585723876953e+00,1.016846776008605957e+00
9.625077247619628906e-01,9.624603390693664551e-01,9.624131321907043457e-01,9.623656868934631348e-01,9.623183608055114746e-01,9.622709751129150391e-01,9.622237682342529297e-01,9.621764421463012695e-01,9.621290564537048340e-01,9.620817303657531738e-01,9.620345234870910645e-01,9.619871973991394043e-01,9.619398713111877441e-01,9.618925452232360840e-01,9.618453383445739746e-01,9.617980122566223145e-01,9.617507457733154297e-01,9.617034196853637695e-01,9.616562128067016602e-01,9.616089463233947754e-01,9.615616798400878906e-01,9.615144729614257812e-01,9.614672064781188965e-01,9.614199399948120117e-01,9.613726735115051270e-01,9.613255262374877930e-01,9.612782597541809082e-01,9.612309932708740234e-01,9.611837267875671387e-01,9.611366391181945801e-01,9.610893726348876953e-01,9.610421657562255859e-01,9.609948992729187012e-01,9.609478116035461426e-01,9.609005451202392578e-01,9.608533382415771484e-01,9.608061313629150391e-01,9.607590436935424805e-01,9.607118368148803711e-01,9.606646299362182617e-01,9.606174230575561523e-01,9.605703949928283691e-01,9.605231881141662598e-01,9.604759812355041504e-01,9.604288339614868164e-01,9.603817462921142578e-01,9.603345990180969238e-01,9.602874517440795898e-01,9.602403044700622559e-01,9.601932168006896973e-01,9.601460695266723633e-01,9.600989222526550293e-01,9.600518345832824707e-01,9.600048065185546875e-01,9.599576592445373535e-01,9.599105119705200195e-01,9.598634243011474609e-01,9.598163962364196777e-01,9.597693085670471191e-01,9.597221612930297852e-01,9.596750736236572266e-01,9.596281051635742188e-01,9.595810174942016602e-01,9.595339298248291016e-01,9.594868421554565430e-01,9.594398736953735352e-01,9.593927860260009766e-01,9.593456983566284180e-01,9.592986702919006348e-01,9.592517018318176270e-01,9.592046141624450684e-01,9.591575860977172852e-01,9.591106772422790527e-01,9.590635895729064941e-01,9.590165615081787109e-01,9.589695334434509277e-01,9.589226245880126953e-01,9.588755965232849121e-01,9.588285684585571289e-01,9.587815403938293457e-01
9.103233814239501953e-01,9.102810621261596680e-01,9.102387428283691406e-01,9.101963639259338379e-01,9.101539850234985352e-01,9.101117253303527832e-01,9.100693464279174805e-01,9.100270271301269531e-01,9.099846482276916504e-01,9.099423885345458984e-01,9.099000692367553711e-01,9.098577499389648438e-01,9.098153710365295410e-01,9.097731709480285645e-01,9.097308516502380371e-01,9.096885323524475098e-01,9.096462130546569824e-01,9.096039533615112305e-01,9.095616340637207031e-01,9.095193743705749512e-01,9.094770550727844238e-01,9.094348549842834473e-01,9.093925356864929199e-01,9.093502759933471680e-01,9.093079566955566406e-01,9.092658162117004395e-01,9.092234969139099121e-01,9.091812372207641602e-01,9.091389775276184082e-01,9.090967774391174316e-01,9.090545177459716797e-01,9.090122580528259277e-01,9.089701175689697266e-01,9.089278578758239746e-01,9.088855981826782227e-01,9.088433980941772461e-01,9.088012576103210449e-01,9.087589979171752930e-01,9.087167382240295410e-01,9.086745381355285645e-01,9.086323976516723633e-01,9.085901975631713867e-01,9.085479974746704102e-01,9.085057377815246582e-01,9.084636569023132324e-01,9.084214568138122559e-01,9.083792567253112793e-01,9.083370566368103027e-01,9.082949757575988770e-01,9.082527756690979004e-01,9.082105755805969238e-01,9.081684350967407227e-01,9.081263542175292969e-01,9.080841541290283203e-01,9.080420136451721191e-01,9.079998135566711426e-01,9.079577326774597168e-01,9.079155921936035156e-01,9.078734517097473145e-01,9.078313112258911133e-01,9.077892303466796875e-01,9.077470898628234863e-01,9.077049493789672852e-01,9.076628088951110840e-01,9.076207876205444336e-01,9.075786471366882324e-01,9.075365662574768066e-01,9.074944257736206055e-01,9.074524044990539551e-01,9.074103236198425293e-01,9.073681831359863281e-01,9.073261022567749023e-01,9.072840809822082520e-01,9.072420001029968262e-01,9.071999192237854004e-01,9.071578383445739746e-01,9.071158170700073242e-01,9.070737361907958984e-01,9.070316553115844727e-01,9.069896340370178223e-01
8.635066747665405273e-01,8.634685277938842773e-01,8.634303808212280273e-01,8.633922934532165527e-01,8.633542656898498535e-01,8.633161187171936035e-01,8.632780313491821289e-01,8.632398843765258789e-01,8.632018566131591797e-01,8.631637692451477051e-01,8.631256818771362305e-01,8.630875945091247559e-01,8.630495667457580566e-01,8.630114793777465820e-01,8.629733920097351074e-01,8.629353046417236328e-01,8.628973364830017090e-01,8.628592491149902344e-01,8.628211617469787598e-01,8.627830743789672852e-01,8.627451062202453613e-01,8.627070784568786621e-01,8.626689910888671875e-01,8.626309633255004883e-01,8.625929951667785645e-01,8.625549077987670898e-01,8.625168800354003906e-01,8.624788522720336914e-01,8.624408841133117676e-01,8.624028563499450684e-01,8.623648285865783691e-01,8.623268008232116699e-01,8.622888326644897461e-01,8.622508049011230469e-01,8.622127771377563477e-01,8.621747493743896484e-01,8.621368408203125000e-01,8.620988726615905762e-01,8.620608448982238770e-01,8.620228171348571777e-01,8.619849085807800293e-01,8.619469404220581055e-01,8.619089126586914062e-01,8.618709444999694824e-01,8.618330359458923340e-01,8.617950677871704102e-01,8.617570996284484863e-01,8.617191910743713379e-01,8.616812229156494141e-01,8.616432547569274902e-01,8.616052865982055664e-01,8.615673780441284180e-01,8.615294694900512695e-01,8.614915013313293457e-01,8.614535331726074219e-01,8.614156842231750488e-01,8.613777160644531250e-01,8.613398075103759766e-01,8.613018393516540527e-01,8.612639904022216797e-01,8.612260818481445312e-01,8.611881136894226074e-01,8.611502051353454590e-01,8.611123561859130859e-01,8.610744476318359375e-01,8.610365390777587891e-01,8.609986305236816406e-01,8.609607815742492676e-01,8.609228730201721191e-01,8.608849644660949707e-01,8.608471155166625977e-01,8.608092665672302246e-01,8.607713580131530762e-01,8.607335090637207031e-01,8.606956005096435547e-01,8.606578111648559570e-01,8.606199622154235840e-01,8.605820536613464355e-01,8.605442047119140625e-01,8.605064153671264648e-01
8.212729096412658691e-01,8.212382793426513672e-01,8.212035894393920898e-01,8.211690187454223633e-01,8.211343884468078613e-01,8.210997581481933594e-01,8.210651874542236328e-01,8.210305571556091309e-01,8.209959268569946289e-01,8.209612965583801270e-01,8.209267258644104004e-01,8.208921551704406738e-01,8.208575248718261719e-01,8.208228945732116699e-01,8.207883834838867188e-01,8.207537531852722168e-01,8.207191228866577148e-01,8.206846117973327637e-01,8.206499814987182617e-01,8.206154108047485352e-01,8.205808997154235840e-01,8.205464482307434082e-01,8.205120563507080078e-01,8.204776644706726074e-01,8.204432725906372070e-01,8.204088211059570312e-01,8.203744292259216309e-01,8.203400969505310059e-01,8.203056454658508301e-01,8.202712535858154297e-01,8.202368617057800293e-01,8.202025294303894043e-01,8.201681375503540039e-01,8.201337456703186035e-01,8.200992941856384277e-01,8.200650215148925781e-01,8.200306296348571777e-01,8.199962377548217773e-01,8.199618458747863770e-01,8.199275732040405273e-01,8.198931813240051270e-01,8.198587894439697266e-01,8.198243975639343262e-01,8.197901248931884766e-01,8.197557330131530762e-01,8.197214007377624512e-01,8.196870088577270508e-01,8.196527361869812012e-01,8.196184039115905762e-01,8.195840120315551758e-01,8.195496797561645508e-01,8.195154070854187012e-01,8.194810748100280762e-01,8.194467425346374512e-01,8.194124102592468262e-01,8.193781375885009766e-01,8.193438053131103516e-01,8.193094730377197266e-01,8.192752003669738770e-01,8.192409276962280273e-01,8.192065954208374023e-01,8.191722631454467773e-01,8.191379904747009277e-01,8.191037178039550781e-01,8.190693855285644531e-01,8.190351128578186035e-01,8.190008401870727539e-01,8.189665675163269043e-01,8.189322352409362793e-01,8.188979625701904297e-01,8.188637495040893555e-01,8.188294768333435059e-01,8.187951445579528809e-01,8.187608718872070312e-01,8.187266588211059570e-01,8.186923861503601074e-01,8.186581134796142578e-01,8.186238408088684082e-01,8.185896873474121094e-01,8.185554146766662598e-01
7.829787135124206543e-01,7.829471826553344727e-01,7.829157710075378418e-01,7.828842997550964355e-01,7.828527688980102539e-01,7.828213572502136230e-01,7.827898859977722168e-01,7.827584147453308105e-01,7.827269434928894043e-01,7.826955318450927734e-01,7.826640605926513672e-01,7.826325893402099609e-01,7.826011180877685547e-01,7.825697064399719238e-01,7.825382351875305176e-01,7.825067639350891113e-01,7.824754118919372559e-01,7.824439406394958496e-01,7.824124693870544434e-01,7.823810577392578125e-01,7.823496460914611816e-01,7.823182344436645508e-01,7.822867631912231445e-01,7.822553515434265137e-01,7.822239398956298828e-01,7.821925282478332520e-01,7.821610569953918457e-01,7.821297049522399902e-01,7.820982933044433594e-01,7.820668816566467285e-01,7.820354700088500977e-01,7.820041179656982422e-01,7.819727063179016113e-01,7.819412350654602051e-01,7.819099426269531250e-01,7.818785309791564941e-01,7.818471193313598633e-01,7.818157076835632324e-01,7.817843556404113770e-01,7.817529439926147461e-01,7.817215323448181152e-01,7.816901803016662598e-01,7.816588282585144043e-01,7.816274762153625488e-01,7.815960645675659180e-01,7.815647721290588379e-01,7.815334200859069824e-01,7.815021872520446777e-01,7.814709544181823730e-01,7.814397215843200684e-01,7.814086079597473145e-01,7.813773751258850098e-01,7.813461422920227051e-01,7.813149094581604004e-01,7.812837958335876465e-01,7.812525629997253418e-01,7.812213301658630371e-01,7.811901569366455078e-01,7.811589837074279785e-01,7.811278104782104492e-01,7.810965776443481445e-01,7.810654044151306152e-01,7.810342907905578613e-01,7.810030579566955566e-01,7.809718847274780273e-01,7.809406518936157227e-01,7.809095382690429688e-01,7.808783650398254395e-01,7.808471918106079102e-01,7.808160781860351562e-01,7.807849049568176270e-01,7.807537317276000977e-01,7.807225584983825684e-01,7.806914448738098145e-01,7.806602716445922852e-01,7.806291580200195312e-01,7.805979847908020020e-01,7.805668711662292480e-01,7.805356979370117188e-01,7.805045843124389648e-01
7.480965256690979004e-01,7.480677962303161621e-01,7.480390667915344238e-01,7.480103373527526855e-01,7.479816675186157227e-01,7.479528784751892090e-01,7.479241490364074707e-01,7.478954195976257324e-01,7.478667497634887695e-01,7.478380203247070312e-01,7.478092908859252930e-01,7.477805614471435547e-01,7.477518916130065918e-01,7.477231621742248535e-01,7.476944327354431152e-01,7.476657629013061523e-01,7.476370334625244141e-01,7.476083636283874512e-01,7.475796341896057129e-01,7.475509643554687500e-01,7.475222349166870117e-01,7.474935650825500488e-01,7.474648356437683105e-01,7.474362254142761230e-01,7.474074959754943848e-01,7.473788261413574219e-01,7.473501563072204590e-01,7.473214864730834961e-01,7.472927570343017578e-01,7.472640872001647949e-01,7.472354769706726074e-01,7.472068071365356445e-01,7.471780776977539062e-01,7.471494674682617188e-01,7.471207976341247559e-01,7.470921277999877930e-01,7.470634579658508301e-01,7.470348477363586426e-01,7.470061779022216797e-01,7.469775080680847168e-01,7.469488382339477539e-01,7.469202280044555664e-01,7.468915581703186035e-01,7.468628883361816406e-01,7.468343377113342285e-01,7.468056678771972656e-01,7.467769980430603027e-01,7.467483282089233398e-01,7.467197775840759277e-01,7.466911077499389648e-01,7.466624975204467773e-01,7.466338276863098145e-01,7.466052770614624023e-01,7.465766072273254395e-01,7.465479969978332520e-01,7.465193867683410645e-01,7.464907765388488770e-01,7.464621663093566895e-01,7.464334964752197266e-01,7.464049458503723145e-01,7.463763356208801270e-01,7.463477253913879395e-01,7.463191151618957520e-01,7.462905645370483398e-01,7.462619543075561523e-01,7.462333440780639648e-01,7.462047934532165527e-01,7.461761832237243652e-01,7.461475729942321777e-01,7.461189627647399902e-01,7.460904121398925781e-01,7.460618019104003906e-01,7.460333108901977539e-01,7.460048794746398926e-01,7.459764480590820312e-01,7.459479570388793945e-01,7.459195256233215332e-01,7.458911538124084473e-01,7.458626627922058105e-01,7.458342313766479492e-01
7.161898612976074219e-01,7.161635160446166992e-01,7.161371707916259766e-01,7.161108851432800293e-01,7.160845398902893066e-01,7.160581946372985840e-01,7.160318493843078613e-01,7.160055637359619141e-01,7.159792184829711914e-01,7.159528732299804688e-01,7.159265279769897461e-01,7.159003019332885742e-01,7.158739566802978516e-01,7.158476114273071289e-01,7.158213257789611816e-01,7.157950401306152344e-01,7.157686948776245117e-01,7.157424092292785645e-01,7.157161235809326172e-01,7.156897783279418945e-01,7.156634926795959473e-01,7.156372070312500000e-01,7.156109213829040527e-01,7.155846357345581055e-01,7.155582904815673828e-01,7.155320644378662109e-01,7.155057787895202637e-01,7.154794335365295410e-01,7.154531478881835938e-01,7.154269218444824219e-01,7.154006361961364746e-01,7.153743505477905273e-01,7.153480648994445801e-01,7.153217792510986328e-01,7.152954936027526855e-01,7.152692079544067383e-01,7.152429819107055664e-01,7.152166962623596191e-01,7.151904106140136719e-01,7.151641845703125000e-01,7.151379585266113281e-01,7.151116728782653809e-01,7.150853872299194336e-01,7.150591611862182617e-01,7.150329351425170898e-01,7.150066494941711426e-01,7.149803638458251953e-01,7.149541974067687988e-01,7.149279117584228516e-01,7.149016857147216797e-01,7.148754000663757324e-01,7.148492336273193359e-01,7.148229479789733887e-01,7.147967219352722168e-01,7.147704958915710449e-01,7.147442698478698730e-01,7.147180438041687012e-01,7.146917581558227539e-01,7.146655917167663574e-01,7.146393656730651855e-01,7.146130800247192383e-01,7.145868539810180664e-01,7.145606875419616699e-01,7.145344614982604980e-01,7.145082354545593262e-01,7.144820690155029297e-01,7.144558429718017578e-01,7.144296169281005859e-01,7.144033908843994141e-01,7.143772244453430176e-01,7.143509984016418457e-01,7.143247723579406738e-01,7.142986059188842773e-01,7.142724394798278809e-01,7.142462134361267090e-01,7.142199873924255371e-01,7.141938805580139160e-01,7.141676545143127441e-01,7.141414284706115723e-01,7.141152620315551758e-01
6.868935227394104004e-01,6.868692636489868164e-01,6.868451237678527832e-01,6.868208646774291992e-01,6.867966055870056152e-01,6.867724061012268066e-01,6.867482066154479980e-01,6.867240071296691895e-01,6.866997480392456055e-01,6.866755485534667969e-01,6.866513490676879883e-01,6.866271495819091797e-01,6.866028904914855957e-01,6.865787506103515625e-01,6.865545511245727539e-01,6.865302920341491699e-01,6.865060925483703613e-01,6.864819526672363281e-01,6.864577531814575195e-01,6.864334940910339355e-01,6.864093542098999023e-01,6.863851547241210938e-01,6.863609552383422852e-01,6.863367557525634766e-01,6.863126158714294434e-01,6.862884163856506348e-01,6.862642168998718262e-01,6.862400174140930176e-01,6.862158775329589844e-01,6.861916780471801758e-01,6.861674785614013672e-01,6.861433386802673340e-01,6.861191391944885254e-01,6.860949993133544922e-01,6.860707998275756836e-01,6.860466599464416504e-01,6.860224604606628418e-01,6.859983205795288086e-01,6.859741210937500000e-01,6.859499812126159668e-01,6.859258413314819336e-01,6.859016418457031250e-01,6.858775615692138672e-01,6.858533620834350586e-01,6.858292222023010254e-01,6.858050227165222168e-01,6.857809424400329590e-01,6.857567429542541504e-01,6.857326030731201172e-01,6.857084631919860840e-01,6.856843233108520508e-01,6.856601834297180176e-01,6.856360435485839844e-01,6.856119632720947266e-01,6.855877637863159180e-01,6.855636239051818848e-01,6.855394840240478516e-01,6.855154037475585938e-01,6.854912638664245605e-01,6.854671239852905273e-01,6.854429841041564941e-01,6.854189038276672363e-01,6.853947639465332031e-01,6.853706240653991699e-01,6.853465437889099121e-01,6.853224039077758789e-01,6.852982640266418457e-01,6.852741241455078125e-01,6.852501034736633301e-01,6.852259635925292969e-01,6.852018237113952637e-01,6.851777434349060059e-01,6.851536631584167480e-01,6.851295232772827148e-01,6.851053833961486816e-01,6.850813627243041992e-01,6.850572228431701660e-01,6.850331425666809082e-01,6.850090026855468750e-01,6.849849820137023926e-01
6.598997712135314941e-01,6.598774194717407227e-01,6.598550677299499512e-01,6.598327159881591797e-01,6.598103046417236328e-01,6.597880125045776367e-01,6.597656607627868652e-01,6.597433090209960938e-01,6.597208976745605469e-01,6.596986055374145508e-01,6.596762537956237793e-01,6.596539020538330078e-01,6.596316099166870117e-01,6.596092581748962402e-01,6.595869064331054688e-01,6.595645546913146973e-01,6.595422625541687012e-01,6.595199108123779297e-01,6.594975590705871582e-01,6.594752669334411621e-01,6.594529151916503906e-01,6.594305634498596191e-01,6.594082117080688477e-01,6.593859195709228516e-01,6.593635678291320801e-01,6.593412756919860840e-01,6.593189239501953125e-01,6.592966318130493164e-01,6.592742800712585449e-01,6.592519879341125488e-01,6.592296957969665527e-01,6.592073440551757812e-01,6.591850519180297852e-01,6.591627001762390137e-01,6.591404676437377930e-01,6.591181159019470215e-01,6.590958237648010254e-01,6.590734720230102539e-01,6.590512394905090332e-01,6.590288877487182617e-01,6.590065956115722656e-01,6.589843034744262695e-01,6.589620113372802734e-01,6.589397192001342773e-01,6.589174270629882812e-01,6.588951349258422852e-01,6.588728427886962891e-01,6.588505506515502930e-01,6.588282585144042969e-01,6.588059663772583008e-01,6.587836742401123047e-01,6.587613821029663086e-01,6.587391495704650879e-01,6.587168574333190918e-01,6.586945652961730957e-01,6.586722731590270996e-01,6.586500406265258789e-01,6.586277484893798828e-01,6.586054563522338867e-01,6.585831642150878906e-01,6.585609316825866699e-01,6.585386395454406738e-01,6.585163474082946777e-01,6.584941148757934570e-01,6.584718823432922363e-01,6.584495902061462402e-01,6.584272980690002441e-01,6.584050655364990234e-01,6.583828330039978027e-01,6.583605408668518066e-01,6.583383083343505859e-01,6.583160758018493652e-01,6.582937836647033691e-01,6.582715511322021484e-01,6.582493185997009277e-01,6.582270860671997070e-01,6.582047939300537109e-01,6.581825613975524902e-01,6.581603288650512695e-01,6.581380963325500488e-01
6.349474191665649414e-01,6.349267363548278809e-01,6.349059939384460449e-01,6.348853111267089844e-01,6.348646283149719238e-01,6.348439455032348633e-01,6.348232030868530273e-01,6.348025798797607422e-01,6.347818374633789062e-01,6.347611546516418457e-01,6.347404718399047852e-01,6.347197890281677246e-01,6.346991062164306641e-01,6.346784234046936035e-01,6.346576809883117676e-01,6.346370577812194824e-01,6.346163749694824219e-01,6.345956921577453613e-01,6.345750093460083008e-01,6.345543265342712402e-01,6.345336437225341797e-01,6.345129609107971191e-01,6.344923377037048340e-01,6.344716548919677734e-01,6.344509720802307129e-01,6.344302892684936523e-01,6.344096660614013672e-01,6.343889832496643066e-01,6.343683004379272461e-01,6.343476772308349609e-01,6.343269944190979004e-01,6.343063116073608398e-01,6.342856884002685547e-01,6.342650651931762695e-01,6.342443823814392090e-01,6.342236995697021484e-01,6.342030167579650879e-01,6.341823935508728027e-01,6.341617703437805176e-01,6.341410875320434570e-01,6.341204643249511719e-01,6.340998411178588867e-01,6.340791583061218262e-01,6.340585350990295410e-01,6.340379118919372559e-01,6.340172290802001953e-01,6.339966058731079102e-01,6.339759230613708496e-01,6.339553594589233398e-01,6.339346766471862793e-01,6.339140534400939941e-01,6.338934302330017090e-01,6.338728070259094238e-01,6.338521838188171387e-01,6.338315010070800781e-01,6.338109374046325684e-01,6.337903141975402832e-01,6.337696313858032227e-01,6.337490081787109375e-01,6.337284445762634277e-01,6.337078213691711426e-01,6.336871385574340820e-01,6.336665749549865723e-01,6.336459517478942871e-01,6.336253285408020020e-01,6.336047053337097168e-01,6.335840821266174316e-01,6.335634589195251465e-01,6.335428357124328613e-01,6.335222721099853516e-01,6.335016489028930664e-01,6.334810256958007812e-01,6.334604024887084961e-01,6.334398388862609863e-01,6.334192156791687012e-01,6.333986520767211914e-01,6.333780288696289062e-01,6.333574652671813965e-01,6.333368420600891113e-01,6.333162188529968262e-01
6.118133664131164551e-01,6.117941141128540039e-01,6.117748618125915527e-01,6.117556691169738770e-01,6.117364764213562012e-01,6.117172241210937500e-01,6.116980910301208496e-01,6.116788387298583984e-01,6.116595864295959473e-01,6.116403937339782715e-01,6.116212010383605957e-01,6.116020083427429199e-01,6.115827560424804688e-01,6.115635633468627930e-01,6.115443706512451172e-01,6.115251779556274414e-01,6.115059852600097656e-01,6.114867925643920898e-01,6.114675998687744141e-01,6.114483475685119629e-01,6.114291548728942871e-01,6.114100217819213867e-01,6.113907694816589355e-01,6.113715767860412598e-01,6.113523840904235840e-01,6.113332509994506836e-01,6.113139986991882324e-01,6.112948060035705566e-01,6.112756729125976562e-01,6.112564802169799805e-01,6.112372875213623047e-01,6.112180948257446289e-01,6.111989617347717285e-01,6.111797690391540527e-01,6.111605763435363770e-01,6.111413836479187012e-01,6.111221909523010254e-01,6.111029982566833496e-01,6.110838651657104492e-01,6.110646724700927734e-01,6.110455393791198730e-01,6.110263466835021973e-01,6.110071539878845215e-01,6.109880208969116211e-01,6.109688282012939453e-01,6.109496355056762695e-01,6.109305024147033691e-01,6.109113693237304688e-01,6.108921766281127930e-01,6.108729839324951172e-01,6.108538508415222168e-01,6.108347177505493164e-01,6.108155250549316406e-01,6.107963323593139648e-01,6.107772588729858398e-01,6.107580661773681641e-01,6.107388734817504883e-01,6.107197999954223633e-01,6.107006072998046875e-01,6.106814742088317871e-01,6.106622815132141113e-01,6.106432080268859863e-01,6.106240153312683105e-01,6.106048822402954102e-01,6.105856895446777344e-01,6.105666160583496094e-01,6.105474233627319336e-01,6.105282902717590332e-01,6.105092167854309082e-01,6.104900240898132324e-01,6.104708909988403320e-01,6.104517579078674316e-01,6.104326248168945312e-01,6.104134917259216309e-01,6.103943586349487305e-01,6.103752255439758301e-01,6.103560924530029297e-01,6.103369593620300293e-01,6.103178262710571289e-01,6.102987527847290039e-01
