3.783549308776855469e+00,3.743093013763427734e+00,3.703493356704711914e+00,3.664721965789794922e+00,3.626754283905029297e+00,3.589565515518188477e+00,3.553131341934204102e+00,3.517429351806640625e+00,3.482437610626220703e+00,3.448135852813720703e+00,3.414502620697021484e+00,3.381519317626953125e+00,3.349167346954345703e+00,3.317428350448608398e+00,3.286284923553466797e+00,3.255721569061279297e+00,3.225720882415771484e+00,3.196268081665039062e+00,3.167348623275756836e+00,3.138947486877441406e+00,3.111051082611083984e+00,3.083646535873413086e+00,3.056720495223999023e+00,6.572611927986145020e-01,6.290214657783508301e-01,6.268059611320495605e-01,6.246060132980346680e-01,6.224214434623718262e-01,6.198083758354187012e-01,6.182721257209777832e-01,6.162940263748168945e-01,6.143285036087036133e-01,6.154459714889526367e-01,6.225385665893554688e-01,6.297965049743652344e-01,6.390147209167480469e-01,8.243324160575866699e-01,2.702720880508422852e+00,2.682013988494873047e+00,2.661621809005737305e+00,2.641537427902221680e+00,2.621753931045532227e+00,2.602264642715454102e+00,2.583062648773193359e+00,2.564142465591430664e+00,2.545496940612792969e+00,2.527120828628540039e+00,2.509008407592773438e+00,2.491153478622436523e+00,2.473550796508789062e+00,2.456195354461669922e+00,2.439081668853759766e+00,2.422204732894897461e+00,2.405560016632080078e+00,2.389142036437988281e+00,2.372946977615356445e+00,2.356969833374023438e+00,2.341206550598144531e+00,2.325652837753295898e+00,2.310303926467895508e+00,2.295156717300415039e+00,2.280206680297851562e+00,2.265450239181518555e+00,2.250883579254150391e+00,2.236502885818481445e+00,2.222304821014404297e+00,2.208286046981811523e+00,2.194442987442016602e+00,2.180772304534912109e+00,2.167271137237548828e+00,2.153935670852661133e+00,2.140763521194458008e+00,2.127751588821411133e+00,2.114896774291992188e+00,2.102196455001831055e+00,2.089647531509399414e+00,2.077247858047485352e+00,2.064994335174560547e+00,2.052884340286254883e+00,2.040915966033935547e+00
3.783550262451171875e+00,3.743094205856323242e+00,3.703494071960449219e+00,3.664722919464111328e+00,3.626755475997924805e+00,3.589566230773925781e+00,3.553132057189941406e+00,3.517430543899536133e+00,3.482438802719116211e+00,3.448136329650878906e+00,3.414503335952758789e+00,3.381520271301269531e+00,3.349167823791503906e+00,3.317428827285766602e+00,3.286285877227783203e+00,3.255722284317016602e+00,3.225721597671508789e+00,3.196269035339355469e+00,3.167349338531494141e+00,3.138948202133178711e+00,3.111052036285400391e+00,3.083647251129150391e+00,3.056720972061157227e+00,3.030261039733886719e+00,6.303771138191223145e-01,6.281520724296569824e-01,6.259427070617675781e-01,6.237487792968750000e-01,6.215702295303344727e-01,6.195244193077087402e-01,6.175382733345031738e-01,6.156283020973205566e-01,6.152608990669250488e-01,6.217049360275268555e-01,6.286925077438354492e-01,6.360955238342285156e-01,8.196831345558166504e-01,2.702721357345581055e+00,2.682014226913452148e+00,2.661622285842895508e+00,2.641537904739379883e+00,2.621754407882690430e+00,2.602264881134033203e+00,2.583063364028930664e+00,2.564142704010009766e+00,2.545497417449951172e+00,2.527121543884277344e+00,2.509008646011352539e+00,2.491153717041015625e+00,2.473551273345947266e+00,2.456195831298828125e+00,2.439081907272338867e+00,2.422205209732055664e+00,2.405560255050659180e+00,2.389142513275146484e+00,2.372947454452514648e+00,2.356970548629760742e+00,2.341207027435302734e+00,2.325653076171875000e+00,2.310304403305053711e+00,2.295157194137573242e+00,2.280207157135009766e+00,2.265450954437255859e+00,2.250884056091308594e+00,2.236503362655639648e+00,2.222305536270141602e+00,2.208286523818969727e+00,2.194443464279174805e+00,2.180772781372070312e+00,2.167271614074707031e+00,2.153936386108398438e+00,2.140764236450195312e+00,2.127752304077148438e+00,2.114897489547729492e+00,2.102197170257568359e+00,2.089648246765136719e+00,2.077248573303222656e+00,2.064995050430297852e+00,2.052885293960571289e+00,2.040916442871093750e+00
3.783551454544067383e+00,3.743095159530639648e+00,3.703494787216186523e+00,3.664724111557006836e+00,3.626756429672241211e+00,3.589567184448242188e+00,3.553133249282836914e+00,3.517431259155273438e+00,3.482439517974853516e+00,3.448137521743774414e+00,3.414504289627075195e+00,3.381520986557006836e+00,3.349169015884399414e+00,3.317429780960083008e+00,3.286286592483520508e+00,3.255722761154174805e+00,3.225722551345825195e+00,3.196269750595092773e+00,3.167349815368652344e+00,3.138949155807495117e+00,3.111052513122558594e+00,3.083647727966308594e+00,3.056721687316894531e+00,3.030261516571044922e+00,6.553249955177307129e-01,6.297743916511535645e-01,6.274098157882690430e-01,6.251962184906005859e-01,6.229982376098632812e-01,6.209513545036315918e-01,6.190374493598937988e-01,6.170305609703063965e-01,6.171572804450988770e-01,6.226534843444824219e-01,6.292978525161743164e-01,6.360856890678405762e-01,8.094810247421264648e-01,8.435438871383666992e-01,2.682014942169189453e+00,2.661623001098632812e+00,2.641538619995117188e+00,2.621755123138427734e+00,2.602265834808349609e+00,2.583064079284667969e+00,2.564143657684326172e+00,2.545498371124267578e+00,2.527122259140014648e+00,2.509009599685668945e+00,2.491154670715332031e+00,2.473551988601684570e+00,2.456196546554565430e+00,2.439082860946655273e+00,2.422206163406372070e+00,2.405561208724975586e+00,2.389143466949462891e+00,2.372948408126831055e+00,2.356971502304077148e+00,2.341207981109619141e+00,2.325654268264770508e+00,2.310305356979370117e+00,2.295158147811889648e+00,2.280208110809326172e+00,2.265451669692993164e+00,2.250885009765625000e+00,2.236504316329956055e+00,2.222306489944458008e+00,2.208287477493286133e+00,2.194444417953491211e+00,2.180773735046386719e+00,2.167272329330444336e+00,2.153937101364135742e+00,2.140765190124511719e+00,2.127753019332885742e+00,2.114898204803466797e+00,2.102197885513305664e+00,2.089649200439453125e+00,2.077249288558959961e+00,2.064995765686035156e+00,2.052886009216308594e+00,2.040917158126831055e+00
3.783552408218383789e+00,3.743095874786376953e+00,3.703496217727661133e+00,3.664724826812744141e+00,3.626757144927978516e+00,3.589568138122558594e+00,3.553133964538574219e+00,3.517431974411010742e+00,3.482440471649169922e+00,3.448138236999511719e+00,3.414505004882812500e+00,3.381521940231323242e+00,3.349169492721557617e+00,3.317430496215820312e+00,3.286287546157836914e+00,3.255723714828491211e+00,3.225723266601562500e+00,3.196270704269409180e+00,3.167351007461547852e+00,3.138949871063232422e+00,3.111053705215454102e+00,3.083648920059204102e+00,3.056722879409790039e+00,3.030262708663940430e+00,6.388236880302429199e-01,6.322231292724609375e-01,6.299165487289428711e-01,6.267512440681457520e-01,6.245423555374145508e-01,6.224845647811889648e-01,6.204747557640075684e-01,6.183701753616333008e-01,6.190654039382934570e-01,6.236048936843872070e-01,6.302697658538818359e-01,6.370785832405090332e-01,7.983397245407104492e-01,8.386759757995605469e-01,2.682016134262084961e+00,2.661624193191528320e+00,2.641539812088012695e+00,2.621756553649902344e+00,2.602267026901245117e+00,2.583065271377563477e+00,2.564144611358642578e+00,2.545499563217163086e+00,2.527123451232910156e+00,2.509010553359985352e+00,2.491155862808227539e+00,2.473553180694580078e+00,2.456197738647460938e+00,2.439083814620971680e+00,2.422207117080688477e+00,2.405562162399291992e+00,2.389144420623779297e+00,2.372949361801147461e+00,2.356972455978393555e+00,2.341208934783935547e+00,2.325655221939086914e+00,2.310306310653686523e+00,2.295159101486206055e+00,2.280209064483642578e+00,2.265452623367309570e+00,2.250885963439941406e+00,2.236505270004272461e+00,2.222307205200195312e+00,2.208288192749023438e+00,2.194445133209228516e+00,2.180774688720703125e+00,2.167273283004760742e+00,2.153938055038452148e+00,2.140765905380249023e+00,2.127753734588623047e+00,2.114899158477783203e+00,2.102198600769042969e+00,2.089649915695190430e+00,2.077250003814697266e+00,2.064996480941772461e+00,2.052886724472045898e+00,2.040917873382568359e+00
3.783554077148437500e+00,3.743098020553588867e+00,3.703497648239135742e+00,3.664726734161376953e+00,3.626759052276611328e+00,3.589570045471191406e+00,3.553135871887207031e+00,3.517434120178222656e+00,3.482442378997802734e+00,3.448140382766723633e+00,3.414507150650024414e+00,3.381524085998535156e+00,3.349171638488769531e+00,3.317432403564453125e+00,3.286289453506469727e+00,3.255725622177124023e+00,3.225725173950195312e+00,3.196272373199462891e+00,3.167352914810180664e+00,3.138951778411865234e+00,3.111055612564086914e+00,6.597369313240051270e-01,6.356380581855773926e-01,6.323300600051879883e-01,6.311235427856445312e-01,6.299217343330383301e-01,6.286723017692565918e-01,6.275156140327453613e-01,6.263450384140014648e-01,6.239575147628784180e-01,6.218293905258178711e-01,6.197156906127929688e-01,6.209853887557983398e-01,6.255248188972473145e-01,6.312445998191833496e-01,6.524550914764404297e-01,7.875879406929016113e-01,8.314605355262756348e-01,2.682017564773559570e+00,2.661625385284423828e+00,2.641541004180908203e+00,2.621757745742797852e+00,2.602268218994140625e+00,2.583066463470458984e+00,2.564145803451538086e+00,2.545500516891479492e+00,2.527124404907226562e+00,2.509011745452880859e+00,2.491156816482543945e+00,2.473554134368896484e+00,2.456198692321777344e+00,2.439085006713867188e+00,2.422208309173583984e+00,2.405563116073608398e+00,2.389145612716674805e+00,2.372950315475463867e+00,2.356973409652709961e+00,2.341209888458251953e+00,2.325656175613403320e+00,2.310307264328002930e+00,2.295160055160522461e+00,2.280210018157958984e+00,2.265453577041625977e+00,2.250886917114257812e+00,2.236506223678588867e+00,2.222308158874511719e+00,2.208289146423339844e+00,2.194446086883544922e+00,2.180775403976440430e+00,2.167273998260498047e+00,2.153938770294189453e+00,2.140766620635986328e+00,2.127754688262939453e+00,2.114899873733520508e+00,2.102199316024780273e+00,2.089650630950927734e+00,2.077250719070434570e+00,2.064997196197509766e+00,2.052887439727783203e+00,2.040918588638305664e+00
3.783556699752807617e+00,3.743100404739379883e+00,3.703500270843505859e+00,3.664729356765747070e+00,3.626761436462402344e+00,3.589572429656982422e+00,3.553138256072998047e+00,3.517436504364013672e+00,3.482444524765014648e+00,3.448142528533935547e+00,3.414509296417236328e+00,3.381525993347167969e+00,3.349173545837402344e+00,3.317434549331665039e+00,3.286291360855102539e+00,3.255727529525756836e+00,3.225727081298828125e+00,3.196274280548095703e+00,6.460678577423095703e-01,6.418825387954711914e-01,6.377511024475097656e-01,6.336724758148193359e-01,6.311483979225158691e-01,6.299464106559753418e-01,6.287490725517272949e-01,6.275562644004821777e-01,6.263679265975952148e-01,6.251776218414306641e-01,6.240070462226867676e-01,6.227826476097106934e-01,6.215631365776062012e-01,6.204289197921752930e-01,6.229172348976135254e-01,6.274850964546203613e-01,6.322225332260131836e-01,6.698592305183410645e-01,7.868694067001342773e-01,8.219602108001708984e-01,2.682018756866455078e+00,2.661626815795898438e+00,2.641542434692382812e+00,2.621758937835693359e+00,2.602269411087036133e+00,2.583067655563354492e+00,2.564146995544433594e+00,2.545501708984375000e+00,2.527125597000122070e+00,2.509012937545776367e+00,2.491158008575439453e+00,2.473555326461791992e+00,2.456199884414672852e+00,2.439085960388183594e+00,2.422209262847900391e+00,2.405564308166503906e+00,2.389146566390991211e+00,2.372951269149780273e+00,2.356974363327026367e+00,2.341210842132568359e+00,2.325657129287719727e+00,2.310308218002319336e+00,2.295161008834838867e+00,2.280210971832275391e+00,2.265454530715942383e+00,2.250887632369995117e+00,2.236506938934326172e+00,2.222309112548828125e+00,2.208290100097656250e+00,2.194447040557861328e+00,2.180776357650756836e+00,2.167274951934814453e+00,2.153939485549926758e+00,2.140767574310302734e+00,2.127755403518676758e+00,2.114900588989257812e+00,2.102200269699096680e+00,2.089651346206665039e+00,2.077251672744750977e+00,2.064997911453247070e+00,2.052888154983520508e+00,2.040919542312622070e+00
3.783559083938598633e+00,3.743103027343750000e+00,3.703502655029296875e+00,3.664731740951538086e+00,3.626763820648193359e+00,3.589574813842773438e+00,3.553140401840209961e+00,3.517438650131225586e+00,3.482446670532226562e+00,3.448144674301147461e+00,3.414511203765869141e+00,3.381528139114379883e+00,3.349175691604614258e+00,3.317436456680297852e+00,3.286293268203735352e+00,3.255729436874389648e+00,6.503137946128845215e-01,6.440372467041015625e-01,6.398781538009643555e-01,6.357724070549011230e-01,6.317189931869506836e-01,6.299711465835571289e-01,6.287737488746643066e-01,6.275808215141296387e-01,6.263923645019531250e-01,6.252084374427795410e-01,6.240930557250976562e-01,6.239167451858520508e-01,6.235767602920532227e-01,6.230948567390441895e-01,6.226136684417724609e-01,6.230643987655639648e-01,6.261286735534667969e-01,6.301429271697998047e-01,6.342090964317321777e-01,6.802145838737487793e-01,7.864603400230407715e-01,8.191994428634643555e-01,2.682020187377929688e+00,2.661628007888793945e+00,2.641543626785278320e+00,2.621760129928588867e+00,2.602270603179931641e+00,2.583068847656250000e+00,2.564148187637329102e+00,2.545502901077270508e+00,2.527126789093017578e+00,2.509014129638671875e+00,2.491159200668334961e+00,2.473556518554687500e+00,2.456200838088989258e+00,2.439087152481079102e+00,2.422210454940795898e+00,2.405565261840820312e+00,2.389147520065307617e+00,2.372952461242675781e+00,2.356975317001342773e+00,2.341211795806884766e+00,2.325658082962036133e+00,2.310309171676635742e+00,2.295161962509155273e+00,2.280211925506591797e+00,2.265455245971679688e+00,2.250888586044311523e+00,2.236507892608642578e+00,2.222309827804565430e+00,2.208290815353393555e+00,2.194447755813598633e+00,2.180777072906494141e+00,2.167275905609130859e+00,2.153940439224243164e+00,2.140768289566040039e+00,2.127756118774414062e+00,2.114901542663574219e+00,2.102200984954833984e+00,2.089652299880981445e+00,2.077252388000488281e+00,2.064998626708984375e+00,2.052888870239257812e+00,2.040920257568359375e+00
3.783561706542968750e+00,3.743105649948120117e+00,3.703505039215087891e+00,3.664734125137329102e+00,3.626766204833984375e+00,3.589576959609985352e+00,3.553142786026000977e+00,3.517440795898437500e+00,3.482448816299438477e+00,3.448146820068359375e+00,3.414513349533081055e+00,3.381529808044433594e+00,3.349177598953247070e+00,3.317438364028930664e+00,3.286295413970947266e+00,6.531164050102233887e-01,6.450214385986328125e-01,6.378862857818603516e-01,6.338059306144714355e-01,6.299959421157836914e-01,6.287983059883117676e-01,6.276053786277770996e-01,6.264168024063110352e-01,6.258581280708312988e-01,6.256808042526245117e-01,6.255036592483520508e-01,6.253265142440795898e-01,6.251494884490966797e-01,6.249725818634033203e-01,6.247957944869995117e-01,6.243301033973693848e-01,6.267874836921691895e-01,6.295863389968872070e-01,6.336452960968017578e-01,6.384164690971374512e-01,6.908950805664062500e-01,7.872045040130615234e-01,8.132572770118713379e-01,2.682021379470825195e+00,2.661629199981689453e+00,2.641544818878173828e+00,2.621761322021484375e+00,2.602271795272827148e+00,2.583069801330566406e+00,2.564149379730224609e+00,2.545504093170166016e+00,2.527127981185913086e+00,2.509015083312988281e+00,2.491160154342651367e+00,2.473557472229003906e+00,2.456202030181884766e+00,2.439088106155395508e+00,2.422211408615112305e+00,2.405566215515136719e+00,2.389148712158203125e+00,2.372953414916992188e+00,2.356976509094238281e+00,2.341212749481201172e+00,2.325659036636352539e+00,2.310310125350952148e+00,2.295162677764892578e+00,2.280212879180908203e+00,2.265456199645996094e+00,2.250889539718627930e+00,2.236508846282958984e+00,2.222310781478881836e+00,2.208291769027709961e+00,2.194448709487915039e+00,2.180778026580810547e+00,2.167276620864868164e+00,2.153941154479980469e+00,2.140769243240356445e+00,2.127757072448730469e+00,2.114902257919311523e+00,2.102201700210571289e+00,2.089653015136718750e+00,2.077253103256225586e+00,2.064999580383300781e+00,2.052889823913574219e+00,2.040920972824096680e+00
3.783564329147338867e+00,3.743108034133911133e+00,3.703507661819458008e+00,3.664736509323120117e+00,3.626768589019775391e+00,3.589579343795776367e+00,3.553144931793212891e+00,3.517443180084228516e+00,3.482450962066650391e+00,3.448148727416992188e+00,3.414515495300292969e+00,3.381531953811645508e+00,3.349179506301879883e+00,3.317440271377563477e+00,6.559158563613891602e-01,6.484871506690979004e-01,6.398144364356994629e-01,6.318516731262207031e-01,6.288229823112487793e-01,6.278116106986999512e-01,6.276332139968872070e-01,6.274548768997192383e-01,6.272766590118408203e-01,6.270985603332519531e-01,6.271181106567382812e-01,6.271484494209289551e-01,6.271787285804748535e-01,6.272090673446655273e-01,6.272394061088562012e-01,6.282571554183959961e-01,6.290466189384460449e-01,6.305553317070007324e-01,6.331707835197448730e-01,6.371867656707763672e-01,6.675783395767211914e-01,7.837573885917663574e-01,7.934544682502746582e-01,8.214636445045471191e-01,2.682022571563720703e+00,2.661630630493164062e+00,2.641546010971069336e+00,2.621762514114379883e+00,2.602272987365722656e+00,2.583070993423461914e+00,2.564150571823120117e+00,2.545505046844482422e+00,2.527129173278808594e+00,2.509016275405883789e+00,2.491161346435546875e+00,2.473558664321899414e+00,2.456202983856201172e+00,2.439089298248291016e+00,2.422212362289428711e+00,2.405567407608032227e+00,2.389149665832519531e+00,2.372954368591308594e+00,2.356977462768554688e+00,2.341213941574096680e+00,2.325659751892089844e+00,2.310311079025268555e+00,2.295163631439208984e+00,2.280213832855224609e+00,2.265457153320312500e+00,2.250890493392944336e+00,2.236509799957275391e+00,2.222311735153198242e+00,2.208292722702026367e+00,2.194449424743652344e+00,2.180778741836547852e+00,2.167277574539184570e+00,2.153942108154296875e+00,2.140769958496093750e+00,2.127757787704467773e+00,2.114902973175048828e+00,2.102202653884887695e+00,2.089653730392456055e+00,2.077253818511962891e+00,2.065000295639038086e+00,2.052890539169311523e+00,2.040921688079833984e+00
3.783566951751708984e+00,3.743110656738281250e+00,3.703510046005249023e+00,3.664738893508911133e+00,3.626770734786987305e+00,3.589581727981567383e+00,3.553147315979003906e+00,3.517445325851440430e+00,3.482453107833862305e+00,3.448150873184204102e+00,3.414517641067504883e+00,3.381533861160278320e+00,3.349181652069091797e+00,6.587394475936889648e-01,6.519902944564819336e-01,6.432243585586547852e-01,6.346909403800964355e-01,6.306586861610412598e-01,6.306634545326232910e-01,6.306940913200378418e-01,6.307247877120971680e-01,6.307554244995117188e-01,6.307861208915710449e-01,6.308167576789855957e-01,6.308474540710449219e-01,6.308781504631042480e-01,6.309087872505187988e-01,6.318233013153076172e-01,6.346499919891357422e-01,6.357728838920593262e-01,6.359009742736816406e-01,6.360291838645935059e-01,6.370160579681396484e-01,6.502974033355712891e-01,7.826091051101684570e-01,7.863294482231140137e-01,8.035578131675720215e-01,8.305377960205078125e-01,2.682024002075195312e+00,2.661631822586059570e+00,2.641547203063964844e+00,2.621763944625854492e+00,2.602274179458618164e+00,2.583072185516357422e+00,2.564151763916015625e+00,2.545506238937377930e+00,2.527130126953125000e+00,2.509017467498779297e+00,2.491162538528442383e+00,2.473559617996215820e+00,2.456204175949096680e+00,2.439090251922607422e+00,2.422213554382324219e+00,2.405568361282348633e+00,2.389150619506835938e+00,2.372955322265625000e+00,2.356978416442871094e+00,2.341214895248413086e+00,2.325660705566406250e+00,2.310312032699584961e+00,2.295164585113525391e+00,2.280214786529541016e+00,2.265458106994628906e+00,2.250891447067260742e+00,2.236510515213012695e+00,2.222312688827514648e+00,2.208293437957763672e+00,2.194450378417968750e+00,2.180779695510864258e+00,2.167278289794921875e+00,2.153942823410034180e+00,2.140770912170410156e+00,2.127758741378784180e+00,2.114903926849365234e+00,2.102203369140625000e+00,2.089654445648193359e+00,2.077254772186279297e+00,2.065001010894775391e+00,2.052891254425048828e+00,2.040922403335571289e+00
3.783569335937500000e+00,3.743113040924072266e+00,3.703512430191040039e+00,3.664741277694702148e+00,3.626773118972778320e+00,3.589583873748779297e+00,3.553149461746215820e+00,3.517447471618652344e+00,3.482455492019653320e+00,3.448152780532836914e+00,3.414519548416137695e+00,3.381536006927490234e+00,6.615874171257019043e-01,6.551325321197509766e-01,6.466707587242126465e-01,6.380462646484375000e-01,6.345047354698181152e-01,6.344841718673706055e-01,6.344635486602783203e-01,6.344662308692932129e-01,6.344972848892211914e-01,6.345282793045043945e-01,6.345593333244323730e-01,6.345903277397155762e-01,6.346213817596435547e-01,6.354301571846008301e-01,6.382893323898315430e-01,6.411742568016052246e-01,6.426445245742797852e-01,6.427754163742065430e-01,6.429063677787780762e-01,6.430373787879943848e-01,6.537076234817504883e-01,6.887627840042114258e-01,7.851311564445495605e-01,7.936798334121704102e-01,8.160782456398010254e-01,8.415058255195617676e-01,2.682025194168090820e+00,2.661633014678955078e+00,2.641548633575439453e+00,2.621764898300170898e+00,2.602275371551513672e+00,2.583073377609252930e+00,2.564152956008911133e+00,2.545507431030273438e+00,2.527131319046020508e+00,2.509018421173095703e+00,2.491163492202758789e+00,2.473560810089111328e+00,2.456205368041992188e+00,2.439091444015502930e+00,2.422214508056640625e+00,2.405569314956665039e+00,2.389151573181152344e+00,2.372956275939941406e+00,2.356979370117187500e+00,2.341215848922729492e+00,2.325661659240722656e+00,2.310312986373901367e+00,2.295165538787841797e+00,2.280215740203857422e+00,2.265459060668945312e+00,2.250892162322998047e+00,2.236511468887329102e+00,2.222313404083251953e+00,2.208294391632080078e+00,2.194451332092285156e+00,2.180780649185180664e+00,2.167279243469238281e+00,2.153943777084350586e+00,2.140771627426147461e+00,2.127759456634521484e+00,2.114904642105102539e+00,2.102204084396362305e+00,2.089655160903930664e+00,2.077255487442016602e+00,2.065001726150512695e+00,2.052891969680786133e+00,2.040923118591308594e+00
3.783571958541870117e+00,3.743115663528442383e+00,3.703514814376831055e+00,3.664743661880493164e+00,3.626775503158569336e+00,3.589586257934570312e+00,3.553151845932006836e+00,3.517449617385864258e+00,3.482457637786865234e+00,3.448154926300048828e+00,3.414521694183349609e+00,6.644600629806518555e-01,6.579493284225463867e-01,6.501542925834655762e-01,6.414372324943542480e-01,6.383980512619018555e-01,6.383771896362304688e-01,6.383562684059143066e-01,6.383354663848876953e-01,6.383145451545715332e-01,6.383151412010192871e-01,6.383465528488159180e-01,6.383779644966125488e-01,6.390784978866577148e-01,6.419705748558044434e-01,6.448889970779418945e-01,6.478340625762939453e-01,6.496663093566894531e-01,6.498001217842102051e-01,6.499339342117309570e-01,6.551056504249572754e-01,6.903149485588073730e-01,7.814313173294067383e-01,7.839365601539611816e-01,7.906911969184875488e-01,8.043068051338195801e-01,8.289950489997863770e-01,2.702733755111694336e+00,2.682026624679565430e+00,2.661634445190429688e+00,2.641549825668334961e+00,2.621766090393066406e+00,2.602276563644409180e+00,2.583074569702148438e+00,2.564154148101806641e+00,2.545508623123168945e+00,2.527132511138916016e+00,2.509019613265991211e+00,2.491164684295654297e+00,2.473561763763427734e+00,2.456206321716308594e+00,2.439092397689819336e+00,2.422215700149536133e+00,2.405570507049560547e+00,2.389152765274047852e+00,2.372957468032836914e+00,2.356980323791503906e+00,2.341216802597045898e+00,2.325662612915039062e+00,2.310314178466796875e+00,2.295166492462158203e+00,2.280216455459594727e+00,2.265460014343261719e+00,2.250893115997314453e+00,2.236512422561645508e+00,2.222314357757568359e+00,2.208295345306396484e+00,2.194452047348022461e+00,2.180781364440917969e+00,2.167279958724975586e+00,2.153944492340087891e+00,2.140772581100463867e+00,2.127760171890258789e+00,2.114905357360839844e+00,2.102205038070678711e+00,2.089656114578247070e+00,2.077256202697753906e+00,2.065002441406250000e+00,2.052892684936523438e+00,2.040923833847045898e+00
3.783574581146240234e+00,3.743118047714233398e+00,3.703517436981201172e+00,3.664746046066284180e+00,3.626777887344360352e+00,3.589588642120361328e+00,3.553153991699218750e+00,3.517452001571655273e+00,3.482459783554077148e+00,3.448157072067260742e+00,6.673579216003417969e-01,6.607904434204101562e-01,6.536755561828613281e-01,6.448644995689392090e-01,6.423393487930297852e-01,6.423182487487792969e-01,6.422971487045288086e-01,6.422759890556335449e-01,6.422548294067382812e-01,6.422337293624877930e-01,6.422125697135925293e-01,6.427689790725708008e-01,6.456946134567260742e-01,6.486470699310302734e-01,6.516266465187072754e-01,6.546337008476257324e-01,6.568433046340942383e-01,6.569800376892089844e-01,6.571168303489685059e-01,7.731260061264038086e-01,7.771409749984741211e-01,7.802479863166809082e-01,7.827455997467041016e-01,7.877250909805297852e-01,7.993069887161254883e-01,8.168506622314453125e-01,2.723764419555664062e+00,2.702735185623168945e+00,2.682027816772460938e+00,2.661635637283325195e+00,2.641551017761230469e+00,2.621767282485961914e+00,2.602277755737304688e+00,2.583075761795043945e+00,2.564155340194702148e+00,2.545509815216064453e+00,2.527133703231811523e+00,2.509020805358886719e+00,2.491165876388549805e+00,2.473562955856323242e+00,2.456207513809204102e+00,2.439093589782714844e+00,2.422216653823852539e+00,2.405571460723876953e+00,2.389153718948364258e+00,2.372958421707153320e+00,2.356981277465820312e+00,2.341217756271362305e+00,2.325663566589355469e+00,2.310315132141113281e+00,2.295167446136474609e+00,2.280217409133911133e+00,2.265460968017578125e+00,2.250894069671630859e+00,2.236513376235961914e+00,2.222315311431884766e+00,2.208296060562133789e+00,2.194453001022338867e+00,2.180782318115234375e+00,2.167280912399291992e+00,2.153945446014404297e+00,2.140773296356201172e+00,2.127761125564575195e+00,2.114906072616577148e+00,2.102205753326416016e+00,2.089656829833984375e+00,2.077256917953491211e+00,2.065003395080566406e+00,2.052893400192260742e+00,2.040924549102783203e+00
3.783577203750610352e+00,3.743120670318603516e+00,3.703519821166992188e+00,3.664748430252075195e+00,3.626780271530151367e+00,3.589590787887573242e+00,3.553156137466430664e+00,3.517453670501708984e+00,3.482461929321289062e+00,6.702809929847717285e-01,6.636562347412109375e-01,6.571611166000366211e-01,6.483285427093505859e-01,6.463296413421630859e-01,6.463083028793334961e-01,6.462869048118591309e-01,6.462654471397399902e-01,6.462441086769104004e-01,6.462227106094360352e-01,6.462706327438354492e-01,6.469502449035644531e-01,6.511906385421752930e-01,6.554639339447021484e-01,6.585065722465515137e-01,6.615776419639587402e-01,6.641805171966552734e-01,6.643203496932983398e-01,7.753589153289794922e-01,7.726664543151855469e-01,7.765939831733703613e-01,7.790681719779968262e-01,7.815582156181335449e-01,7.847810983657836914e-01,7.962759733200073242e-01,8.081125617027282715e-01,8.297920823097229004e-01,2.723765611648559570e+00,2.702736377716064453e+00,2.682029008865356445e+00,2.661636590957641602e+00,2.641552209854125977e+00,2.621768474578857422e+00,2.602278947830200195e+00,2.583076953887939453e+00,2.564156532287597656e+00,2.545511007308959961e+00,2.527134895324707031e+00,2.509021997451782227e+00,2.491166830062866211e+00,2.473564147949218750e+00,2.456208467483520508e+00,2.439094543457031250e+00,2.422217607498168945e+00,2.405572414398193359e+00,2.389154672622680664e+00,2.372959375381469727e+00,2.356982231140136719e+00,2.341218709945678711e+00,2.325664758682250977e+00,2.310316085815429688e+00,2.295168399810791016e+00,2.280218362808227539e+00,2.265461683273315430e+00,2.250895023345947266e+00,2.236514091491699219e+00,2.222316026687622070e+00,2.208297014236450195e+00,2.194453716278076172e+00,2.180783033370971680e+00,2.167281627655029297e+00,2.153946161270141602e+00,2.140774011611938477e+00,2.127761840820312500e+00,2.114907026290893555e+00,2.102206468582153320e+00,2.089657545089721680e+00,2.077257871627807617e+00,2.065004110336303711e+00,2.052894115447998047e+00,2.040925502777099609e+00
3.783579587936401367e+00,3.743123054504394531e+00,3.703522205352783203e+00,3.664750814437866211e+00,3.626782655715942383e+00,3.589593172073364258e+00,3.553158521652221680e+00,3.517456054687500000e+00,6.736118197441101074e-01,6.665470004081726074e-01,6.599954366683959961e-01,6.518300175666809082e-01,6.503698825836181641e-01,6.503481864929199219e-01,6.503265500068664551e-01,6.503049135208129883e-01,6.503378748893737793e-01,6.503909826278686523e-01,6.504441499710083008e-01,6.511164903640747070e-01,6.546666622161865234e-01,6.592475175857543945e-01,6.638928651809692383e-01,6.686042547225952148e-01,6.716836094856262207e-01,7.866362333297729492e-01,7.792436480522155762e-01,7.722073197364807129e-01,7.754251360893249512e-01,7.778918743133544922e-01,7.803744077682495117e-01,7.828727960586547852e-01,7.932678461074829102e-01,8.050145506858825684e-01,8.176245689392089844e-01,2.745126485824584961e+00,2.723767042160034180e+00,2.702737808227539062e+00,2.682030439376831055e+00,2.661638021469116211e+00,2.641553640365600586e+00,2.621769666671752930e+00,2.602280378341674805e+00,2.583078145980834961e+00,2.564157724380493164e+00,2.545512199401855469e+00,2.527135848999023438e+00,2.509022951126098633e+00,2.491168022155761719e+00,2.473565101623535156e+00,2.456209659576416016e+00,2.439095497131347656e+00,2.422218799591064453e+00,2.405573606491088867e+00,2.389155626296997070e+00,2.372960329055786133e+00,2.356983184814453125e+00,2.341219663619995117e+00,2.325665712356567383e+00,2.310317039489746094e+00,2.295169353485107422e+00,2.280219316482543945e+00,2.265462636947631836e+00,2.250895977020263672e+00,2.236515045166015625e+00,2.222316980361938477e+00,2.208297967910766602e+00,2.194454669952392578e+00,2.180783987045288086e+00,2.167282581329345703e+00,2.153947114944458008e+00,2.140774726867675781e+00,2.127762794494628906e+00,2.114907741546630859e+00,2.102207422256469727e+00,2.089658260345458984e+00,2.077258586883544922e+00,2.065004825592041016e+00,2.052895069122314453e+00,2.040926218032836914e+00
3.783582210540771484e+00,3.743125677108764648e+00,3.703524827957153320e+00,3.664753198623657227e+00,3.626785039901733398e+00,3.589595079421997070e+00,3.553160667419433594e+00,6.784358620643615723e-01,6.700966954231262207e-01,6.628543138504028320e-01,6.553695797920227051e-01,6.544609069824218750e-01,6.544389724731445312e-01,6.544566154479980469e-01,6.545104384422302246e-01,6.545643210411071777e-01,6.546181440353393555e-01,6.546719670295715332e-01,6.553367376327514648e-01,6.581799983978271484e-01,6.628103256225585938e-01,6.675062179565429688e-01,6.722691655158996582e-01,3.030282497406005859e+00,7.915035486221313477e-01,7.838143706321716309e-01,7.762730717658996582e-01,7.737520933151245117e-01,7.763090133666992188e-01,7.788828015327453613e-01,7.814737558364868164e-01,7.902823686599731445e-01,8.019402027130126953e-01,8.139470815658569336e-01,8.305906653404235840e-01,2.745127677917480469e+00,2.723768472671508789e+00,2.702738761901855469e+00,2.682031631469726562e+00,2.661639213562011719e+00,2.641554832458496094e+00,2.621771097183227539e+00,2.602281570434570312e+00,2.583079576492309570e+00,2.564158916473388672e+00,2.545513153076171875e+00,2.527137041091918945e+00,2.509024143218994141e+00,2.491169214248657227e+00,2.473566293716430664e+00,2.456210613250732422e+00,2.439096689224243164e+00,2.422219753265380859e+00,2.405574560165405273e+00,2.389156579971313477e+00,2.372961521148681641e+00,2.356984138488769531e+00,2.341220617294311523e+00,2.325666666030883789e+00,2.310317993164062500e+00,2.295170307159423828e+00,2.280220270156860352e+00,2.265463590621948242e+00,2.250896692276000977e+00,2.236515998840332031e+00,2.222317934036254883e+00,2.208298683166503906e+00,2.194455623626708984e+00,2.180784702301025391e+00,2.167283296585083008e+00,2.153947830200195312e+00,2.140775680541992188e+00,2.127763509750366211e+00,2.114908456802368164e+00,2.102208137512207031e+00,2.089659214019775391e+00,2.077259302139282227e+00,2.065005540847778320e+00,2.052895784378051758e+00,2.040926933288574219e+00
3.783584833145141602e+00,3.743128061294555664e+00,3.703527212142944336e+00,3.664755582809448242e+00,3.626787185668945312e+00,6.981843709945678711e-01,6.829646229743957520e-01,6.748703122138977051e-01,6.666180491447448730e-01,6.589477062225341797e-01,6.586278676986694336e-01,6.586824059486389160e-01,6.587368845939636230e-01,6.587914228439331055e-01,6.588460206985473633e-01,6.589005589485168457e-01,6.589551568031311035e-01,6.596119999885559082e-01,6.623506546020507812e-01,6.664118170738220215e-01,6.711590886116027832e-01,6.759744882583618164e-01,3.056744337081909180e+00,3.030283927917480469e+00,7.903977036476135254e-01,7.827256917953491211e-01,7.752053141593933105e-01,7.733883857727050781e-01,7.759427428245544434e-01,7.785142064094543457e-01,7.812153697013854980e-01,7.938332557678222656e-01,8.093588948249816895e-01,8.230800032615661621e-01,2.766825914382934570e+00,2.745129108428955078e+00,2.723769664764404297e+00,2.702740192413330078e+00,2.682033061981201172e+00,2.661640405654907227e+00,2.641556024551391602e+00,2.621772289276123047e+00,2.602282762527465820e+00,2.583080768585205078e+00,2.564160108566284180e+00,2.545514345169067383e+00,2.527138233184814453e+00,2.509025335311889648e+00,2.491170167922973633e+00,2.473567247390747070e+00,2.456211805343627930e+00,2.439097642898559570e+00,2.422220945358276367e+00,2.405575513839721680e+00,2.389157533645629883e+00,2.372962474822998047e+00,2.356985092163085938e+00,2.341221570968627930e+00,2.325667619705200195e+00,2.310318946838378906e+00,2.295171260833740234e+00,2.280221223831176758e+00,2.265464544296264648e+00,2.250897645950317383e+00,2.236516952514648438e+00,2.222318887710571289e+00,2.208299636840820312e+00,2.194456338882446289e+00,2.180785655975341797e+00,2.167284011840820312e+00,2.153948783874511719e+00,2.140776395797729492e+00,2.127764225006103516e+00,2.114909410476684570e+00,2.102208852767944336e+00,2.089659929275512695e+00,2.077260017395019531e+00,2.065006256103515625e+00,2.052896499633789062e+00,2.040927648544311523e+00
3.783587217330932617e+00,3.743130683898925781e+00,3.703529596328735352e+00,3.664757966995239258e+00,7.046732306480407715e-01,6.872473359107971191e-01,6.797125339508056641e-01,6.713421344757080078e-01,6.632643938064575195e-01,6.630841493606567383e-01,6.630183458328247070e-01,6.630735397338867188e-01,6.631287932395935059e-01,6.631841063499450684e-01,6.632394194602966309e-01,6.632946729660034180e-01,6.639434099197387695e-01,6.667182445526123047e-01,6.700526475906372070e-01,6.748520731925964355e-01,6.797208189964294434e-01,3.083672761917114258e+00,3.056746006011962891e+00,3.030285596847534180e+00,7.893027663230895996e-01,7.816400527954101562e-01,7.741403579711914062e-01,7.730249166488647461e-01,7.755770087242126465e-01,7.781459689140319824e-01,7.811998724937438965e-01,7.958700656890869141e-01,8.114761710166931152e-01,8.277066349983215332e-01,2.766827344894409180e+00,2.745130538940429688e+00,2.723771095275878906e+00,2.702741384506225586e+00,2.682034254074096680e+00,2.661641836166381836e+00,2.641557216644287109e+00,2.621773481369018555e+00,2.602283954620361328e+00,2.583081722259521484e+00,2.564161300659179688e+00,2.545515537261962891e+00,2.527139425277709961e+00,2.509026288986206055e+00,2.491171360015869141e+00,2.473568439483642578e+00,2.456212759017944336e+00,2.439098834991455078e+00,2.422221660614013672e+00,2.405576705932617188e+00,2.389158725738525391e+00,2.372963428497314453e+00,2.356986045837402344e+00,2.341222763061523438e+00,2.325668573379516602e+00,2.310319900512695312e+00,2.295172214508056641e+00,2.280222177505493164e+00,2.265465497970581055e+00,2.250898599624633789e+00,2.236517667770385742e+00,2.222319602966308594e+00,2.208300590515136719e+00,2.194457292556762695e+00,2.180786609649658203e+00,2.167284965515136719e+00,2.153949499130249023e+00,2.140777349472045898e+00,2.127765178680419922e+00,2.114910125732421875e+00,2.102209806442260742e+00,2.089660644531250000e+00,2.077260732650756836e+00,2.065007209777832031e+00,2.052897214889526367e+00,2.040928363800048828e+00
3.783589839935302734e+00,3.743133068084716797e+00,3.703531980514526367e+00,7.112838625907897949e-01,6.915840506553649902e-01,6.846246719360351562e-01,6.761336326599121094e-01,6.682353615760803223e-01,6.680525541305541992e-01,6.678696870803833008e-01,6.676869392395019531e-01,6.675236821174621582e-01,6.675797104835510254e-01,6.676357388496398926e-01,6.676917672157287598e-01,6.683321595191955566e-01,6.711437702178955078e-01,6.739792823791503906e-01,6.785860657691955566e-01,6.835089921951293945e-01,3.111079454421997070e+00,3.083674430847167969e+00,3.056747674942016602e+00,3.030287265777587891e+00,7.882109284400939941e-01,7.805573940277099609e-01,7.730783820152282715e-01,7.726618051528930664e-01,7.752115130424499512e-01,7.778937816619873047e-01,7.813271880149841309e-01,7.979173064231872559e-01,8.136047124862670898e-01,8.299213051795959473e-01,2.766828775405883789e+00,2.745131492614746094e+00,2.723772287368774414e+00,2.702742815017700195e+00,2.682035446166992188e+00,2.661643028259277344e+00,2.641558647155761719e+00,2.621774673461914062e+00,2.602285146713256836e+00,2.583082914352416992e+00,2.564162254333496094e+00,2.545516729354858398e+00,2.527140378952026367e+00,2.509027481079101562e+00,2.491172552108764648e+00,2.473569631576538086e+00,2.456213951110839844e+00,2.439099788665771484e+00,2.422222852706909180e+00,2.405577659606933594e+00,2.389159679412841797e+00,2.372964382171630859e+00,2.356987237930297852e+00,2.341223716735839844e+00,2.325669527053833008e+00,2.310320854187011719e+00,2.295173168182373047e+00,2.280223131179809570e+00,2.265466451644897461e+00,2.250899553298950195e+00,2.236518621444702148e+00,2.222320556640625000e+00,2.208301305770874023e+00,2.194458007812500000e+00,2.180787324905395508e+00,2.167285680770874023e+00,2.153950452804565430e+00,2.140778064727783203e+00,2.127765893936157227e+00,2.114910840988159180e+00,2.102210521697998047e+00,2.089661598205566406e+00,2.077261686325073242e+00,2.065007925033569336e+00,2.052897930145263672e+00,2.040929079055786133e+00
3.783592462539672852e+00,3.743135690689086914e+00,7.180196642875671387e-01,6.959757804870605469e-01,6.890390515327453613e-01,6.809939742088317871e-01,6.732814908027648926e-01,6.730958223342895508e-01,6.729102134704589844e-01,6.727247238159179688e-01,6.725392937660217285e-01,6.723539829254150391e-01,6.721687912940979004e-01,6.721475124359130859e-01,6.727792024612426758e-01,6.756285429000854492e-01,6.785020828247070312e-01,6.823615431785583496e-01,3.167379617691040039e+00,3.138978242874145508e+00,3.111081123352050781e+00,3.083676099777221680e+00,3.056749343872070312e+00,3.030288934707641602e+00,7.871220707893371582e-01,7.794777750968933105e-01,7.720192670822143555e-01,7.722991108894348145e-01,7.748463153839111328e-01,7.778784036636352539e-01,7.830462455749511719e-01,7.999751567840576172e-01,8.157443404197692871e-01,2.788872718811035156e+00,2.766829967498779297e+00,2.745132923126220703e+00,2.723773717880249023e+00,2.702744007110595703e+00,2.682036876678466797e+00,2.661644220352172852e+00,2.641559839248657227e+00,2.621775865554809570e+00,2.602286338806152344e+00,2.583084344863891602e+00,2.564163446426391602e+00,2.545517921447753906e+00,2.527141571044921875e+00,2.509028673171997070e+00,2.491173505783081055e+00,2.473570585250854492e+00,2.456214904785156250e+00,2.439100980758666992e+00,2.422223806381225586e+00,2.405578613281250000e+00,2.389160633087158203e+00,2.372965335845947266e+00,2.356988191604614258e+00,2.341224670410156250e+00,2.325670480728149414e+00,2.310321807861328125e+00,2.295174121856689453e+00,2.280224084854125977e+00,2.265467166900634766e+00,2.250900506973266602e+00,2.236519575119018555e+00,2.222321510314941406e+00,2.208302259445190430e+00,2.194458961486816406e+00,2.180788278579711914e+00,2.167286634445190430e+00,2.153951168060302734e+00,2.140778779983520508e+00,2.127766847610473633e+00,2.114911794662475586e+00,2.102211236953735352e+00,2.089662313461303711e+00,2.077262401580810547e+00,2.065008640289306641e+00,2.052898645401000977e+00,2.040929794311523438e+00
3.783595085144042969e+00,3.743138074874877930e+00,7.004237174987792969e-01,6.933984756469726562e-01,6.859247684478759766e-01,6.784043908119201660e-01,6.782158017158508301e-01,6.780273318290710449e-01,6.778390407562255859e-01,6.776508092880249023e-01,6.774626970291137695e-01,6.772746443748474121e-01,6.770954132080078125e-01,6.782846450805664062e-01,6.801735758781433105e-01,6.830859780311584473e-01,6.861792802810668945e-01,3.196301698684692383e+00,3.167381286621093750e+00,3.138979911804199219e+00,3.111082792282104492e+00,3.083677768707275391e+00,3.056751012802124023e+00,8.359251022338867188e-01,7.860361933708190918e-01,7.784010767936706543e-01,7.709630727767944336e-01,7.719366550445556641e-01,7.746002078056335449e-01,7.778630256652832031e-01,7.847726941108703613e-01,8.018308877944946289e-01,8.178952336311340332e-01,2.788874149322509766e+00,2.766831398010253906e+00,2.745134353637695312e+00,2.723774909973144531e+00,2.702745437622070312e+00,2.682038068771362305e+00,2.661645650863647461e+00,2.641561031341552734e+00,2.621777057647705078e+00,2.602287530899047852e+00,2.583085536956787109e+00,2.564164638519287109e+00,2.545519113540649414e+00,2.527142763137817383e+00,2.509029865264892578e+00,2.491174697875976562e+00,2.473571777343750000e+00,2.456215858459472656e+00,2.439101934432983398e+00,2.422224998474121094e+00,2.405579805374145508e+00,2.389161825180053711e+00,2.372966527938842773e+00,2.356989145278930664e+00,2.341225624084472656e+00,2.325671434402465820e+00,2.310322761535644531e+00,2.295175075531005859e+00,2.280225038528442383e+00,2.265468120574951172e+00,2.250901222229003906e+00,2.236520528793334961e+00,2.222322225570678711e+00,2.208303213119506836e+00,2.194459676742553711e+00,2.180788993835449219e+00,2.167287349700927734e+00,2.153952121734619141e+00,2.140779733657836914e+00,2.127767562866210938e+00,2.114912509918212891e+00,2.102211952209472656e+00,2.089663028717041016e+00,2.077263116836547852e+00,2.065009355545043945e+00,2.052899599075317383e+00,2.040930509567260742e+00
3.783597469329833984e+00,3.743140220642089844e+00,6.978134512901306152e-01,6.908402442932128906e-01,6.836057901382446289e-01,6.834142804145812988e-01,6.832230091094970703e-01,6.830317378044128418e-01,6.828405857086181641e-01,6.826851963996887207e-01,6.825611591339111328e-01,6.824371218681335449e-01,6.853711009025573730e-01,6.877575516700744629e-01,6.892572045326232910e-01,6.907634139060974121e-01,3.225756883621215820e+00,3.196303606033325195e+00,3.167382955551147461e+00,3.138981580734252930e+00,3.111084699630737305e+00,3.083679437637329102e+00,3.056752681732177734e+00,8.210979104042053223e-01,7.849533557891845703e-01,7.773390412330627441e-01,7.699098587036132812e-01,7.715746164321899414e-01,7.745849490165710449e-01,7.778476476669311523e-01,7.865068316459655762e-01,8.036413192749023438e-01,8.200575709342956543e-01,2.788875341415405273e+00,2.766832828521728516e+00,2.745135545730590820e+00,2.723776340484619141e+00,2.702746629714965820e+00,2.682039499282836914e+00,2.661646842956542969e+00,2.641562223434448242e+00,2.621778488159179688e+00,2.602288722991943359e+00,2.583086729049682617e+00,2.564165830612182617e+00,2.545520305633544922e+00,2.527143955230712891e+00,2.509030818939208984e+00,2.491175889968872070e+00,2.473572731018066406e+00,2.456217050552368164e+00,2.439103126525878906e+00,2.422225952148437500e+00,2.405580759048461914e+00,2.389162778854370117e+00,2.372967481613159180e+00,2.356990098953247070e+00,2.341226577758789062e+00,2.325672388076782227e+00,2.310323715209960938e+00,2.295175552368164062e+00,2.280225515365600586e+00,2.265468835830688477e+00,2.250901699066162109e+00,2.236520767211914062e+00,2.222322702407836914e+00,2.208303451538085938e+00,2.194460153579711914e+00,2.180789232254028320e+00,2.167287826538085938e+00,2.153952121734619141e+00,2.140779972076416016e+00,2.127767801284790039e+00,2.114912748336791992e+00,2.102212190628051758e+00,2.089663028717041016e+00,2.077263116836547852e+00,2.065009355545043945e+00,2.052899360656738281e+00,2.040930747985839844e+00
3.783600091934204102e+00,7.468515634536743164e-01,6.952225565910339355e-01,6.888875365257263184e-01,6.886931061744689941e-01,6.884988546371459961e-01,6.883680820465087891e-01,6.882420182228088379e-01,6.881158947944641113e-01,6.879898309707641602e-01,6.878638267517089844e-01,6.917493343353271484e-01,6.959630846977233887e-01,6.974987387657165527e-01,6.990412473678588867e-01,3.255759716033935547e+00,3.225758790969848633e+00,3.196305274963378906e+00,3.167384862899780273e+00,3.138983488082885742e+00,3.111086368560791016e+00,3.083681344985961914e+00,3.056754350662231445e+00,7.916169166564941406e-01,7.838734984397888184e-01,7.762799859046936035e-01,7.688593864440917969e-01,7.713344693183898926e-01,7.745698094367980957e-01,7.778323292732238770e-01,7.882486581802368164e-01,8.054599165916442871e-01,8.222313523292541504e-01,2.788876771926879883e+00,2.766834259033203125e+00,2.745136976242065430e+00,2.723777770996093750e+00,2.702747821807861328e+00,2.682040691375732422e+00,2.661647796630859375e+00,2.641563177108764648e+00,2.621779203414916992e+00,2.602289199829101562e+00,2.583087444305419922e+00,2.564166545867919922e+00,2.545520782470703125e+00,2.527144432067871094e+00,2.509031534194946289e+00,2.491176128387451172e+00,2.473573207855224609e+00,2.456217527389526367e+00,2.439103364944458008e+00,2.422226190567016602e+00,2.405580997467041016e+00,2.389163017272949219e+00,2.372967481613159180e+00,2.356990337371826172e+00,2.341226577758789062e+00,2.325672388076782227e+00,2.310323476791381836e+00,2.295176029205322266e+00,2.280225753784179688e+00,2.265469074249267578e+00,2.250901937484741211e+00,2.236521244049072266e+00,2.222322940826416016e+00,2.208303689956665039e+00,2.194460391998291016e+00,2.180789709091186523e+00,2.167288064956665039e+00,2.153952598571777344e+00,2.140780210494995117e+00,2.127768039703369141e+00,2.114912986755371094e+00,2.102212429046630859e+00,2.089663505554199219e+00,2.077263355255126953e+00,2.065009593963623047e+00,2.052899837493896484e+00,2.040930986404418945e+00
7.373271584510803223e-01,7.299167513847351074e-01,6.942747831344604492e-01,6.941463947296142578e-01,6.940181851387023926e-01,6.938899159431457520e-01,6.937617063522338867e-01,6.936336159706115723e-01,6.935055255889892578e-01,6.933774948120117188e-01,6.982473134994506836e-01,7.043667435646057129e-01,7.059398293495178223e-01,3.317469835281372070e+00,3.286326169967651367e+00,3.255761623382568359e+00,3.225760221481323242e+00,3.196307182312011719e+00,3.167386531829833984e+00,3.138984680175781250e+00,3.111087799072265625e+00,3.083682298660278320e+00,3.056755542755126953e+00,7.905185818672180176e-01,7.827965617179870605e-01,7.752238512039184570e-01,7.683304548263549805e-01,7.713193893432617188e-01,7.745545506477355957e-01,7.778170108795166016e-01,7.899982333183288574e-01,8.072868585586547852e-01,8.244166374206542969e-01,2.788877248764038086e+00,2.766834497451782227e+00,2.745137453079223633e+00,2.723777770996093750e+00,2.702748060226440430e+00,2.682040929794311523e+00,2.661648273468017578e+00,2.641563415527343750e+00,2.621779680252075195e+00,2.602289915084838867e+00,2.583087682723999023e+00,2.564166784286499023e+00,2.545521259307861328e+00,2.527144908905029297e+00,2.509031772613525391e+00,2.491176366806030273e+00,2.473573684692382812e+00,2.456217765808105469e+00,2.439103603363037109e+00,2.422226667404174805e+00,2.405581474304199219e+00,2.389163255691528320e+00,2.372967958450317383e+00,2.356990814208984375e+00,2.341227054595947266e+00,2.325672864913940430e+00,2.310323953628540039e+00,2.295176267623901367e+00,2.280225992202758789e+00,2.265469312667846680e+00,2.250902414321899414e+00,2.236521482467651367e+00,2.222323179244995117e+00,2.208304166793823242e+00,2.194460868835449219e+00,2.180789947509765625e+00,2.167288303375244141e+00,2.153952836990356445e+00,2.140780448913574219e+00,2.127768278121948242e+00,2.114913225173950195e+00,2.102212667465209961e+00,2.089663743972778320e+00,2.077263593673706055e+00,2.065010070800781250e+00,2.052900075912475586e+00,2.040931224822998047e+00
7.256663441658020020e-01,7.181595563888549805e-01,7.111558318138122559e-01,7.085041403770446777e-01,6.995010375976562500e-01,6.993707418441772461e-01,6.992405652999877930e-01,6.991103887557983398e-01,6.989802122116088867e-01,7.048686146736145020e-01,7.129759192466735840e-01,7.145877480506896973e-01,3.349210500717163086e+00,3.317470550537109375e+00,3.286326646804809570e+00,3.255762100219726562e+00,3.225760936737060547e+00,3.196307659149169922e+00,3.167387008666992188e+00,3.138985633850097656e+00,3.111088514328002930e+00,3.083683013916015625e+00,3.056756019592285156e+00,7.894234061241149902e-01,7.817226052284240723e-01,7.741807699203491211e-01,7.681947946548461914e-01,7.713042497634887695e-01,7.745393514633178711e-01,7.778016328811645508e-01,7.917555570602416992e-01,8.091220259666442871e-01,8.266136050224304199e-01,2.788877725601196289e+00,2.766834974288940430e+00,2.745137929916381836e+00,2.723778247833251953e+00,2.702748775482177734e+00,2.682041406631469727e+00,2.661648750305175781e+00,2.641563892364501953e+00,2.621780157089233398e+00,2.602290391921997070e+00,2.583088159561157227e+00,2.564167499542236328e+00,2.545521736145019531e+00,2.527145147323608398e+00,2.509032249450683594e+00,2.491177082061767578e+00,2.473574161529541016e+00,2.456218242645263672e+00,2.439104318618774414e+00,2.422227144241333008e+00,2.405581712722778320e+00,2.389163732528686523e+00,2.372968435287475586e+00,2.356991052627563477e+00,2.341227293014526367e+00,2.325673341751098633e+00,2.310324430465698242e+00,2.295176744461059570e+00,2.280226469039916992e+00,2.265469789505004883e+00,2.250902652740478516e+00,2.236521959304809570e+00,2.222323656082153320e+00,2.208304405212402344e+00,2.194461107254028320e+00,2.180790185928344727e+00,2.167288780212402344e+00,2.153953075408935547e+00,2.140780925750732422e+00,2.127768516540527344e+00,2.114913702011108398e+00,2.102212905883789062e+00,2.089663982391357422e+00,2.077264070510864258e+00,2.065010309219360352e+00,2.052900314331054688e+00,2.040931463241577148e+00
7.203289866447448730e-01,7.145588994026184082e-01,7.129614949226379395e-01,7.114457488059997559e-01,7.147745490074157715e-01,7.049388289451599121e-01,7.048065662384033203e-01,7.046743035316467285e-01,7.116166353225708008e-01,7.213721871376037598e-01,7.234500050544738770e-01,3.381564378738403320e+00,3.349211215972900391e+00,3.317471265792846680e+00,3.286327362060546875e+00,3.255763053894042969e+00,3.225761651992797852e+00,3.196308135986328125e+00,3.167387962341308594e+00,3.138986110687255859e+00,3.111088991165161133e+00,3.083683490753173828e+00,3.056756973266601562e+00,7.885441780090332031e-01,7.808877825736999512e-01,7.733786702156066895e-01,7.690483927726745605e-01,7.720864415168762207e-01,7.751485705375671387e-01,7.782160639762878418e-01,7.935993075370788574e-01,8.109655380249023438e-01,2.811275005340576172e+00,2.788878440856933594e+00,2.766835451126098633e+00,2.745138406753540039e+00,2.723778963088989258e+00,2.702749252319335938e+00,2.682041645050048828e+00,2.661649227142333984e+00,2.641564607620239258e+00,2.621780633926391602e+00,2.602290630340576172e+00,2.583088874816894531e+00,2.564167737960815430e+00,2.545522212982177734e+00,2.527145624160766602e+00,2.509032726287841797e+00,2.491177320480346680e+00,2.473574399948120117e+00,2.456218719482421875e+00,2.439104557037353516e+00,2.422227382659912109e+00,2.405582189559936523e+00,2.389164209365844727e+00,2.372968673706054688e+00,2.356991291046142578e+00,2.341227769851684570e+00,2.325673580169677734e+00,2.310324668884277344e+00,2.295176982879638672e+00,2.280226945877075195e+00,2.265470027923583984e+00,2.250903129577636719e+00,2.236522197723388672e+00,2.222323894500732422e+00,2.208304882049560547e+00,2.194461345672607422e+00,2.180790662765502930e+00,2.167289018630981445e+00,2.153953552246093750e+00,2.140781164169311523e+00,2.127768993377685547e+00,2.114913940429687500e+00,2.102213382720947266e+00,2.089664459228515625e+00,2.077264308929443359e+00,2.065010547637939453e+00,2.052900552749633789e+00,2.040931701660156250e+00
7.164165377616882324e-01,7.155579328536987305e-01,7.140706181526184082e-01,7.168599963188171387e-01,7.201803326606750488e-01,7.240831851959228516e-01,7.104619145393371582e-01,7.184951305389404297e-01,7.284415364265441895e-01,3.448183059692382812e+00,3.414549350738525391e+00,3.381565093994140625e+00,3.349211692810058594e+00,3.317471981048583984e+00,3.286328315734863281e+00,3.255763769149780273e+00,3.225762128829956055e+00,3.196309089660644531e+00,3.167388439178466797e+00,3.138986587524414062e+00,3.111089706420898438e+00,3.083684444427490234e+00,8.236576318740844727e-01,7.877120375633239746e-01,7.800717353820800781e-01,7.725781202316284180e-01,7.699038386344909668e-01,7.729486823081970215e-01,7.760176658630371094e-01,7.798077464103698730e-01,7.959520816802978516e-01,8.132665753364562988e-01,2.811275720596313477e+00,2.788878917694091797e+00,2.766835927963256836e+00,2.745138883590698242e+00,2.723779439926147461e+00,2.702749729156494141e+00,2.682042121887207031e+00,2.661649703979492188e+00,2.641565084457397461e+00,2.621781110763549805e+00,2.602291345596313477e+00,2.583089113235473633e+00,2.564168214797973633e+00,2.545522451400756836e+00,2.527146100997924805e+00,2.509033203125000000e+00,2.491177797317504883e+00,2.473574876785278320e+00,2.456218957901000977e+00,2.439105033874511719e+00,2.422227859497070312e+00,2.405582666397094727e+00,2.389164447784423828e+00,2.372969150543212891e+00,2.356992006301879883e+00,2.341228008270263672e+00,2.325673818588256836e+00,2.310324907302856445e+00,2.295177459716796875e+00,2.280227184295654297e+00,2.265470504760742188e+00,2.250903367996215820e+00,2.236522674560546875e+00,2.222324371337890625e+00,2.208305120468139648e+00,2.194461822509765625e+00,2.180790901184082031e+00,2.167289257049560547e+00,2.153953790664672852e+00,2.140781402587890625e+00,2.127769231796264648e+00,2.114914178848266602e+00,2.102213621139526367e+00,2.089664697647094727e+00,2.077264547348022461e+00,2.065010786056518555e+00,2.052900791168212891e+00,2.040931940078735352e+00
7.144483923912048340e-01,7.161349058151245117e-01,7.176411747932434082e-01,7.220584154129028320e-01,7.257755398750305176e-01,7.299734950065612793e-01,7.393589019775390625e-01,3.517479658126831055e+00,3.482486963272094727e+00,3.448184013366699219e+00,3.414550065994262695e+00,3.381565570831298828e+00,3.349212408065795898e+00,3.317472934722900391e+00,3.286328792572021484e+00,3.255764245986938477e+00,3.225763082504272461e+00,3.196309566497802734e+00,3.167389154434204102e+00,3.138987302780151367e+00,3.111090421676635742e+00,3.083684921264648438e+00,8.128989934921264648e-01,7.871422171592712402e-01,7.792573571205139160e-01,7.717793583869934082e-01,7.707611918449401855e-01,7.738128304481506348e-01,7.768808603286743164e-01,7.819509506225585938e-01,7.983188033103942871e-01,8.157376050949096680e-01,2.811276197433471680e+00,2.788879156112670898e+00,2.766836643218994141e+00,2.745139360427856445e+00,2.723779916763305664e+00,2.702750205993652344e+00,2.682042837142944336e+00,2.661650180816650391e+00,2.641565322875976562e+00,2.621781587600708008e+00,2.602291822433471680e+00,2.583089590072631836e+00,2.564168691635131836e+00,2.545523166656494141e+00,2.527146577835083008e+00,2.509033441543579102e+00,2.491178274154663086e+00,2.473575353622436523e+00,2.456219434738159180e+00,2.439105272293090820e+00,2.422228336334228516e+00,2.405582904815673828e+00,2.389164924621582031e+00,2.372969388961791992e+00,2.356992244720458984e+00,2.341228485107421875e+00,2.325674295425415039e+00,2.310325384140014648e+00,2.295177698135375977e+00,2.280227422714233398e+00,2.265470743179321289e+00,2.250903844833374023e+00,2.236522912979125977e+00,2.222324609756469727e+00,2.208305597305297852e+00,2.194462060928344727e+00,2.180791139602661133e+00,2.167289495468139648e+00,2.153954267501831055e+00,2.140781879425048828e+00,2.127769470214843750e+00,2.114914655685424805e+00,2.102213859558105469e+00,2.089664936065673828e+00,2.077264785766601562e+00,2.065011262893676758e+00,2.052901268005371094e+00,2.040932178497314453e+00
7.133579254150390625e-01,7.154808044433593750e-01,7.182553410530090332e-01,7.231379151344299316e-01,7.288545370101928711e-01,7.384421825408935547e-01,3.553183555603027344e+00,3.517480373382568359e+00,3.482487916946411133e+00,3.448184728622436523e+00,3.414550542831420898e+00,3.381566286087036133e+00,3.349213361740112305e+00,3.317473649978637695e+00,3.286329507827758789e+00,3.255765199661254883e+00,3.225763797760009766e+00,3.196310281753540039e+00,3.167389631271362305e+00,3.138988256454467773e+00,3.111091136932373047e+00,3.083685636520385742e+00,8.024178147315979004e-01,7.865881323814392090e-01,7.784446477890014648e-01,7.709822058677673340e-01,7.716204524040222168e-01,7.746789455413818359e-01,7.776523828506469727e-01,7.841060161590576172e-01,8.006997108459472656e-01,8.182236552238464355e-01,2.811276674270629883e+00,2.788879871368408203e+00,2.766837120056152344e+00,2.745139837265014648e+00,2.723780393600463867e+00,2.702750682830810547e+00,2.682043313980102539e+00,2.661650657653808594e+00,2.641566038131713867e+00,2.621782064437866211e+00,2.602292060852050781e+00,2.583090066909790039e+00,2.564169168472290039e+00,2.545523405075073242e+00,2.527146816253662109e+00,2.509034156799316406e+00,2.491178750991821289e+00,2.473575592041015625e+00,2.456219673156738281e+00,2.439105749130249023e+00,2.422228574752807617e+00,2.405583381652832031e+00,2.389165163040161133e+00,2.372969865798950195e+00,2.356992483139038086e+00,2.341228723526000977e+00,2.325674772262573242e+00,2.310325860977172852e+00,2.295178174972534180e+00,2.280227899551391602e+00,2.265471220016479492e+00,2.250904083251953125e+00,2.236523151397705078e+00,2.222325086593627930e+00,2.208305835723876953e+00,2.194462299346923828e+00,2.180791616439819336e+00,2.167289972305297852e+00,2.153954505920410156e+00,2.140782117843627930e+00,2.127769947052001953e+00,2.114914894104003906e+00,2.102214097976684570e+00,2.089665174484252930e+00,2.077265262603759766e+00,2.065011501312255859e+00,2.052901506423950195e+00,2.040932655334472656e+00
7.125629186630249023e-01,7.150560021400451660e-01,7.179762721061706543e-01,7.232227325439453125e-01,7.292363047599792480e-01,7.408528327941894531e-01,3.080823183059692383e+00,3.080338478088378906e+00,3.079854011535644531e+00,3.079369783401489258e+00,3.078885555267333984e+00,3.078401327133178711e+00,3.077917337417602539e+00,3.077433347702026367e+00,3.076949834823608398e+00,3.076466321945190430e+00,3.075983047485351562e+00,3.075499773025512695e+00,3.075016736984252930e+00,3.074533939361572266e+00,3.074051141738891602e+00,3.073568344116210938e+00,7.961344122886657715e-01,7.860348224639892578e-01,7.776336669921875000e-01,7.701866626739501953e-01,7.724816799163818359e-01,7.755470275878906250e-01,7.784254550933837891e-01,7.862728834152221680e-01,8.030948042869567871e-01,2.834036827087402344e+00,2.811277389526367188e+00,2.788880348205566406e+00,2.766837596893310547e+00,2.745140314102172852e+00,2.723780870437622070e+00,2.702751159667968750e+00,2.682043552398681641e+00,2.661651134490966797e+00,2.641566514968872070e+00,2.621782541275024414e+00,2.602292537689208984e+00,2.583090543746948242e+00,2.564169645309448242e+00,2.545523881912231445e+00,2.527147531509399414e+00,2.509034395217895508e+00,2.491178989410400391e+00,2.473576068878173828e+00,2.456220388412475586e+00,2.439106225967407227e+00,2.422229051589965820e+00,2.405583620071411133e+00,2.389165639877319336e+00,2.372970342636108398e+00,2.356992959976196289e+00,2.341229200363159180e+00,2.325675010681152344e+00,2.310326099395751953e+00,2.295178413391113281e+00,2.280228137969970703e+00,2.265471458435058594e+00,2.250904321670532227e+00,2.236523628234863281e+00,2.222325325012207031e+00,2.208306074142456055e+00,2.194462537765502930e+00,2.180791854858398438e+00,2.167290210723876953e+00,2.153954744338989258e+00,2.140782356262207031e+00,2.127770185470581055e+00,2.114915132522583008e+00,2.102214574813842773e+00,2.089665651321411133e+00,2.077265501022338867e+00,2.065011739730834961e+00,2.052901744842529297e+00,2.040932893753051758e+00
7.107891440391540527e-01,7.140446901321411133e-01,7.179681062698364258e-01,7.230968475341796875e-01,7.311556339263916016e-01,7.430845499038696289e-01,2.603208780288696289e+00,2.602862596511840820e+00,2.602516651153564453e+00,2.602170705795288086e+00,2.601824998855590820e+00,2.601479291915893555e+00,2.601133584976196289e+00,2.600788116455078125e+00,2.600442647933959961e+00,2.600097179412841797e+00,2.599751949310302734e+00,2.599406719207763672e+00,2.599061727523803711e+00,2.598716735839843750e+00,2.598371982574462891e+00,2.598026990890502930e+00,7.955675721168518066e-01,7.854823470115661621e-01,7.768243551254272461e-01,7.702969312667846680e-01,7.733448147773742676e-01,7.763191461563110352e-01,7.792000770568847656e-01,7.885152697563171387e-01,8.055043220520019531e-01,2.594583988189697266e+00,2.594240188598632812e+00,2.593896389007568359e+00,2.593552827835083008e+00,2.593209505081176758e+00,2.592865943908691406e+00,2.592522621154785156e+00,2.592179298400878906e+00,2.591836214065551758e+00,2.591493129730224609e+00,2.591150045394897461e+00,2.590807199478149414e+00,2.583091020584106445e+00,2.564169883728027344e+00,2.545524358749389648e+00,2.527147769927978516e+00,2.509034872055053711e+00,2.491179466247558594e+00,2.473576545715332031e+00,2.456220626831054688e+00,2.439106464385986328e+00,2.422229290008544922e+00,2.405584096908569336e+00,2.389166116714477539e+00,2.372970581054687500e+00,2.356993436813354492e+00,2.341229677200317383e+00,2.325675487518310547e+00,2.310326337814331055e+00,2.295178890228271484e+00,2.280228614807128906e+00,2.265471696853637695e+00,2.250904798507690430e+00,2.236523866653442383e+00,2.222325563430786133e+00,2.208306312561035156e+00,2.194463014602661133e+00,2.180792093276977539e+00,2.167290449142456055e+00,2.153955221176147461e+00,2.140782833099365234e+00,2.127770423889160156e+00,2.114915370941162109e+00,2.102214813232421875e+00,2.089665889739990234e+00,2.077265739440917969e+00,2.065011978149414062e+00,2.052901983261108398e+00,2.040933132171630859e+00
7.089197635650634766e-01,7.133203744888305664e-01,7.182523608207702637e-01,7.238652110099792480e-01,7.324180603027343750e-01,7.446915507316589355e-01,2.253805398941040039e+00,2.253545999526977539e+00,2.253286600112915039e+00,2.253027200698852539e+00,2.252768039703369141e+00,2.252508878707885742e+00,2.252249717712402344e+00,2.251990556716918945e+00,2.251731634140014648e+00,2.251472711563110352e+00,2.251213788986206055e+00,2.250955104827880859e+00,2.250696182250976562e+00,2.250437498092651367e+00,2.250178813934326172e+00,2.249920129776000977e+00,7.950016260147094727e-01,7.849305868148803711e-01,7.760167121887207031e-01,7.711551785469055176e-01,7.742099165916442871e-01,7.770895361900329590e-01,7.799762487411499023e-01,7.908379435539245605e-01,8.079283237457275391e-01,2.247337818145751953e+00,2.247079849243164062e+00,2.246821880340576172e+00,2.246563911437988281e+00,2.246306180953979492e+00,2.246048450469970703e+00,2.245790958404541016e+00,2.245533466339111328e+00,2.245275735855102539e+00,2.245018243789672852e+00,2.244760990142822266e+00,2.244503498077392578e+00,2.244246244430541992e+00,2.243988990783691406e+00,2.243731975555419922e+00,2.243474721908569336e+00,2.243217706680297852e+00,2.242960691452026367e+00,2.242703676223754883e+00,2.242446899414062500e+00,2.242190122604370117e+00,2.241933345794677734e+00,2.241676807403564453e+00,2.241420030593872070e+00,2.241163492202758789e+00,2.240906953811645508e+00,2.240650415420532227e+00,2.240394115447998047e+00,2.240137577056884766e+00,2.239881277084350586e+00,2.239625215530395508e+00,2.239369153976440430e+00,2.239112854003906250e+00,2.236524343490600586e+00,2.222325801849365234e+00,2.208306789398193359e+00,2.194463253021240234e+00,2.180792570114135742e+00,2.167290925979614258e+00,2.153955459594726562e+00,2.140783071517944336e+00,2.127770662307739258e+00,2.114915847778320312e+00,2.102215051651000977e+00,2.089666128158569336e+00,2.077266216278076172e+00,2.065012454986572266e+00,2.052902221679687500e+00,2.040933370590209961e+00
7.070620656013488770e-01,7.122980356216430664e-01,7.185406088829040527e-01,7.254639267921447754e-01,7.341511845588684082e-01,7.474452257156372070e-01,1.987096667289733887e+00,1.986894965171813965e+00,1.986693263053894043e+00,1.986491918563842773e+00,1.986290454864501953e+00,1.986088871955871582e+00,1.985887408256530762e+00,1.985686063766479492e+00,1.985484600067138672e+00,1.985283255577087402e+00,1.985082030296325684e+00,1.984880685806274414e+00,1.984679460525512695e+00,1.984478235244750977e+00,1.984277129173278809e+00,1.984076023101806641e+00,7.944363951683044434e-01,7.843796014785766602e-01,7.752107977867126465e-01,7.720153331756591797e-01,7.749904990196228027e-01,7.778615951538085938e-01,7.810274958610534668e-01,7.931743264198303223e-01,1.982268214225769043e+00,1.982067465782165527e+00,1.981866836547851562e+00,1.981666207313537598e+00,1.981465697288513184e+00,1.981265068054199219e+00,1.981064677238464355e+00,1.980864167213439941e+00,1.980663776397705078e+00,1.980463385581970215e+00,1.980262994766235352e+00,1.980062961578369141e+00,1.979862689971923828e+00,1.979662537574768066e+00,1.979462385177612305e+00,1.979262232780456543e+00,1.979062080383300781e+00,1.978862047195434570e+00,1.978662014007568359e+00,1.978462100028991699e+00,1.978262186050415039e+00,1.978062272071838379e+00,1.977862477302551270e+00,1.977662563323974609e+00,1.977462887763977051e+00,1.977263092994689941e+00,1.977063655853271484e+00,1.976863980293273926e+00,1.976664423942565918e+00,1.976464867591857910e+00,1.976265311241149902e+00,1.976065874099731445e+00,1.975866436958312988e+00,1.975666999816894531e+00,1.975467562675476074e+00,1.975268244743347168e+00,1.975069046020507812e+00,1.974869728088378906e+00,1.974670529365539551e+00,1.974471330642700195e+00,1.974272251129150391e+00,1.974073171615600586e+00,1.973874330520629883e+00,1.973675370216369629e+00,1.973476409912109375e+00,1.973277449607849121e+00,1.973078608512878418e+00,1.972879767417907715e+00,1.972680926322937012e+00,1.972482204437255859e+00
7.042306661605834961e-01,7.114001512527465820e-01,7.186419963836669922e-01,7.257450819015502930e-01,7.351285219192504883e-01,7.481389045715332031e-01,1.776831626892089844e+00,1.776670455932617188e+00,1.776509165763854980e+00,1.776347994804382324e+00,1.776186823844909668e+00,1.776025652885437012e+00,1.775864601135253906e+00,1.775703668594360352e+00,1.775542616844177246e+00,1.775381684303283691e+00,1.775220632553100586e+00,1.775059700012207031e+00,1.774898767471313477e+00,1.774737834930419922e+00,1.774577021598815918e+00,1.774416089057922363e+00,7.938719987869262695e-01,7.838293910026550293e-01,7.744064927101135254e-01,7.728773951530456543e-01,7.757582664489746094e-01,7.786350846290588379e-01,7.831774353981018066e-01,7.955245971679687500e-01,1.772969961166381836e+00,1.772809386253356934e+00,1.772648930549621582e+00,1.772488355636596680e+00,1.772327899932861328e+00,1.772167444229125977e+00,1.772007107734680176e+00,1.771846652030944824e+00,1.771686315536499023e+00,1.771525979042053223e+00,1.771365761756896973e+00,1.771205425262451172e+00,1.771045207977294922e+00,1.770885229110717773e+00,1.770725011825561523e+00,1.770564913749694824e+00,1.770404696464538574e+00,1.770244598388671875e+00,1.770084619522094727e+00,1.769924521446228027e+00,1.769764542579650879e+00,1.769604563713073730e+00,1.769444584846496582e+00,1.769284725189208984e+00,1.769124865531921387e+00,1.768965005874633789e+00,1.768805146217346191e+00,1.768645286560058594e+00,1.768485546112060547e+00,1.768326044082641602e+00,1.768166303634643555e+00,1.768006563186645508e+00,1.767846941947937012e+00,1.767687320709228516e+00,1.767527699470520020e+00,1.767368078231811523e+00,1.767208576202392578e+00,1.767049074172973633e+00,1.766889572143554688e+00,1.766730189323425293e+00,1.766570687294006348e+00,1.766411304473876953e+00,1.766251921653747559e+00,1.766092538833618164e+00,1.765933275222778320e+00,1.765774130821228027e+00,1.765614986419677734e+00,1.765455722808837891e+00,1.765296578407287598e+00,1.765137434005737305e+00
7.020281553268432617e-01,7.100653648376464844e-01,7.180436849594116211e-01,7.256134152412414551e-01,7.358520030975341797e-01,7.484568953514099121e-01,1.606807112693786621e+00,1.606675267219543457e+00,1.606543421745300293e+00,1.606411576271057129e+00,1.606279730796813965e+00,1.606148004531860352e+00,1.606016159057617188e+00,1.605884432792663574e+00,1.605752706527709961e+00,1.605621218681335449e+00,1.605489492416381836e+00,1.605357885360717773e+00,1.605226278305053711e+00,1.605094671249389648e+00,1.604963064193725586e+00,1.604831457138061523e+00,7.933083772659301758e-01,7.832799553871154785e-01,7.736039161682128906e-01,7.736663222312927246e-01,7.765275835990905762e-01,7.794101238250732422e-01,7.853392362594604492e-01,7.978888154029846191e-01,1.603648304939270020e+00,1.603517055511474609e+00,1.603385806083679199e+00,1.603254437446594238e+00,1.603123188018798828e+00,1.602991938591003418e+00,1.602860689163208008e+00,1.602729439735412598e+00,1.602598190307617188e+00,1.602467060089111328e+00,1.602335929870605469e+00,1.602204799652099609e+00,1.602073669433593750e+00,1.601942539215087891e+00,1.601811408996582031e+00,1.601680397987365723e+00,1.601549386978149414e+00,1.601418495178222656e+00,1.601287484169006348e+00,1.601156592369079590e+00,1.601025581359863281e+00,1.600894689559936523e+00,1.600763797760009766e+00,1.600632905960083008e+00,1.600502014160156250e+00,1.600371241569519043e+00,1.600240468978881836e+00,1.600109577178955078e+00,1.599978804588317871e+00,1.599848031997680664e+00,1.599717259407043457e+00,1.599586606025695801e+00,1.599456071853637695e+00,1.599325418472290039e+00,1.599194765090942383e+00,1.599064111709594727e+00,1.598933577537536621e+00,1.598802924156188965e+00,1.598672389984130859e+00,1.598541855812072754e+00,1.598411321640014648e+00,1.598280668258666992e+00,1.598150253295898438e+00,1.598019599914550781e+00,1.597889065742492676e+00,1.597758412361145020e+00,1.597627878189086914e+00,1.597497582435607910e+00,1.597367048263549805e+00,1.597236514091491699e+00
6.986223459243774414e-01,7.085208296775817871e-01,7.170148491859436035e-01,7.260658740997314453e-01,7.370486259460449219e-01,7.489778399467468262e-01,1.466480016708374023e+00,1.466370224952697754e+00,1.466260313987731934e+00,1.466150522232055664e+00,1.466040730476379395e+00,1.465930938720703125e+00,1.465821146965026855e+00,1.465711474418640137e+00,1.465601682662963867e+00,1.465492010116577148e+00,1.465382337570190430e+00,1.465272665023803711e+00,1.465163111686706543e+00,1.465053439140319824e+00,1.464943766593933105e+00,1.464834213256835938e+00,8.082516789436340332e-01,7.954881191253662109e-01,7.729668617248535156e-01,7.744315266609191895e-01,7.772984504699707031e-01,7.954656481742858887e-01,7.875129580497741699e-01,1.463957786560058594e+00,1.463848352432250977e+00,1.463738918304443359e+00,1.463629484176635742e+00,1.463520050048828125e+00,1.463410735130310059e+00,1.463301420211791992e+00,1.463191986083984375e+00,1.463082671165466309e+00,1.462973356246948242e+00,1.462864041328430176e+00,1.462754726409912109e+00,1.462645411491394043e+00,1.462536215782165527e+00,1.462426900863647461e+00,1.462317705154418945e+00,1.462208509445190430e+00,1.462099194526672363e+00,1.461990118026733398e+00,1.461880922317504883e+00,1.461771845817565918e+00,1.461662769317626953e+00,1.461553573608398438e+00,1.461444497108459473e+00,1.461335420608520508e+00,1.461226344108581543e+00,1.461117267608642578e+00,1.461008191108703613e+00,1.460899233818054199e+00,1.460790157318115234e+00,1.460681319236755371e+00,1.460572242736816406e+00,1.460463166236877441e+00,1.460354089736938477e+00,1.460245013236999512e+00,1.460136055946350098e+00,1.460027098655700684e+00,1.459918022155761719e+00,1.459809064865112305e+00,1.459700107574462891e+00,1.459591269493103027e+00,1.459482312202453613e+00,1.459373354911804199e+00,1.459264516830444336e+00,1.459155559539794922e+00,1.459046721458435059e+00,1.458938002586364746e+00,1.458829164505004883e+00,1.458720326423645020e+00,1.458611488342285156e+00,1.458502650260925293e+00
6.947974562644958496e-01,7.051452398300170898e-01,7.129771709442138672e-01,7.234627604484558105e-01,7.350243330001831055e-01,7.480254769325256348e-01,7.600160837173461914e-01,1.348601698875427246e+00,1.348508834838867188e+00,1.348415851593017578e+00,1.348322987556457520e+00,1.348230123519897461e+00,1.348137378692626953e+00,1.348044514656066895e+00,1.347951650619506836e+00,1.347858905792236328e+00,1.347766041755676270e+00,1.347673296928405762e+00,1.347580552101135254e+00,1.347487807273864746e+00,1.347395062446594238e+00,1.347302436828613281e+00,8.034823536872863770e-01,7.881464362144470215e-01,7.825988531112670898e-01,7.823786139488220215e-01,7.859514951705932617e-01,7.926707863807678223e-01,1.346653699874877930e+00,1.346561074256896973e+00,1.346468448638916016e+00,1.346375823020935059e+00,1.346283316612243652e+00,1.346190690994262695e+00,1.346098184585571289e+00,1.346005558967590332e+00,1.345913052558898926e+00,1.345820665359497070e+00,1.345728158950805664e+00,1.345635652542114258e+00,1.345543146133422852e+00,1.345450639724731445e+00,1.345358133316040039e+00,1.345265746116638184e+00,1.345173239707946777e+00,1.345080852508544922e+00,1.344988465309143066e+00,1.344896078109741211e+00,1.344803690910339355e+00,1.344711303710937500e+00,1.344618797302246094e+00,1.344526529312133789e+00,1.344434022903442383e+00,1.344341635704040527e+00,1.344249129295349121e+00,1.344156742095947266e+00,1.344064354896545410e+00,1.343972086906433105e+00,1.343879699707031250e+00,1.343787431716918945e+00,1.343695044517517090e+00,1.343602657318115234e+00,1.343510508537292480e+00,1.343418240547180176e+00,1.343325853347778320e+00,1.343233585357666016e+00,1.343141317367553711e+00,1.343049168586730957e+00,1.342957019805908203e+00,1.342864751815795898e+00,1.342772483825683594e+00,1.342680335044860840e+00,1.342588186264038086e+00,1.342496037483215332e+00,1.342403888702392578e+00,1.342311739921569824e+00,1.342219591140747070e+00,1.342127561569213867e+00,1.342035412788391113e+00,1.341943383216857910e+00
6.926934123039245605e-01,7.052735090255737305e-01,7.084016799926757812e-01,7.188450098037719727e-01,7.329229116439819336e-01,7.496781349182128906e-01,7.560868263244628906e-01,1.248343467712402344e+00,1.248263955116271973e+00,1.248184442520141602e+00,1.248104810714721680e+00,1.248025298118591309e+00,1.247945666313171387e+00,1.247866153717041016e+00,1.247786641120910645e+00,1.247707128524780273e+00,1.247627615928649902e+00,1.247548103332519531e+00,1.247468590736389160e+00,1.247389078140258789e+00,1.247309565544128418e+00,1.247230172157287598e+00,7.959032654762268066e-01,7.851850390434265137e-01,7.794807553291320801e-01,7.805815339088439941e-01,7.843964695930480957e-01,7.884278893470764160e-01,1.246674299240112305e+00,1.246594905853271484e+00,1.246515512466430664e+00,1.246436119079589844e+00,1.246356725692749023e+00,1.246277451515197754e+00,1.246198058128356934e+00,1.246118783950805664e+00,1.246039509773254395e+00,1.245960116386413574e+00,1.245880961418151855e+00,1.245801568031311035e+00,1.245722174644470215e+00,1.245642900466918945e+00,1.245563507080078125e+00,1.245484113693237305e+00,1.245404958724975586e+00,1.245325565338134766e+00,1.245246291160583496e+00,1.245167016983032227e+00,1.245087742805480957e+00,1.245008587837219238e+00,1.244929313659667969e+00,1.244850039482116699e+00,1.244770765304565430e+00,1.244691491127014160e+00,1.244612455368041992e+00,1.244533181190490723e+00,1.244454026222229004e+00,1.244374752044677734e+00,1.244295597076416016e+00,1.244216561317443848e+00,1.244137406349182129e+00,1.244058251380920410e+00,1.243979096412658691e+00,1.243899941444396973e+00,1.243820905685424805e+00,1.243741750717163086e+00,1.243662714958190918e+00,1.243583559989929199e+00,1.243504524230957031e+00,1.243425488471984863e+00,1.243346452713012695e+00,1.243267416954040527e+00,1.243188381195068359e+00,1.243109345436096191e+00,1.243030309677124023e+00,1.242951393127441406e+00,1.242872357368469238e+00,1.242793440818786621e+00,1.242714405059814453e+00,1.242635488510131836e+00
6.951718330383300781e-01,7.036052346229553223e-01,7.093625068664550781e-01,7.173069715499877930e-01,7.304576039314270020e-01,7.477355003356933594e-01,7.565305829048156738e-01,1.161960721015930176e+00,1.161891818046569824e+00,1.161822795867919922e+00,1.161753892898559570e+00,1.161684989929199219e+00,1.161616086959838867e+00,1.161547183990478516e+00,1.161478281021118164e+00,1.161409378051757812e+00,1.161340475082397461e+00,1.161271572113037109e+00,1.161202669143676758e+00,1.161133766174316406e+00,1.161064982414245605e+00,8.059687614440917969e-01,7.932189106941223145e-01,7.856469750404357910e-01,7.777441740036010742e-01,7.767909169197082520e-01,7.800651788711547852e-01,7.828570008277893066e-01,7.909619808197021484e-01,1.160445451736450195e+00,1.160376548767089844e+00,1.160307765007019043e+00,1.160238981246948242e+00,1.160170078277587891e+00,1.160101294517517090e+00,1.160032391548156738e+00,1.159963726997375488e+00,1.159894943237304688e+00,1.159826040267944336e+00,1.159757256507873535e+00,1.159688472747802734e+00,1.159619808197021484e+00,1.159551024436950684e+00,1.159482240676879883e+00,1.159413576126098633e+00,1.159344792366027832e+00,1.159276127815246582e+00,1.159207463264465332e+00,1.159138679504394531e+00,1.159070014953613281e+00,1.159001231193542480e+00,1.158932685852050781e+00,1.158864021301269531e+00,1.158795356750488281e+00,1.158726572990417480e+00,1.158658027648925781e+00,1.158589363098144531e+00,1.158520698547363281e+00,1.158452153205871582e+00,1.158383488655090332e+00,1.158314943313598633e+00,1.158246278762817383e+00,1.158177733421325684e+00,1.158109188079833984e+00,1.158040642738342285e+00,1.157971978187561035e+00,1.157903432846069336e+00,1.157835006713867188e+00,1.157766342163085938e+00,1.157697916030883789e+00,1.157629370689392090e+00,1.157560825347900391e+00,1.157492399215698242e+00,1.157423853874206543e+00,1.157355308532714844e+00,1.157286882400512695e+00,1.157218337059020996e+00,1.157149910926818848e+00,1.157081484794616699e+00,1.157013058662414551e+00
1.087181687355041504e+00,7.070798873901367188e-01,7.152899503707885742e-01,7.198297977447509766e-01,7.311440706253051758e-01,7.477801442146301270e-01,7.617857456207275391e-01,1.086759209632873535e+00,1.086698889732360840e+00,1.086638569831848145e+00,1.086578249931335449e+00,1.086517930030822754e+00,1.086457610130310059e+00,1.086397409439086914e+00,1.086337089538574219e+00,1.086276888847351074e+00,1.086216568946838379e+00,1.086156249046325684e+00,1.086096048355102539e+00,1.086035728454589844e+00,1.085975408554077148e+00,7.972755432128906250e-01,7.896332144737243652e-01,7.833195328712463379e-01,7.764804959297180176e-01,7.723670005798339844e-01,7.756922245025634766e-01,7.741966843605041504e-01,7.772198915481567383e-01,7.828713059425354004e-01,1.085372686386108398e+00,1.085312485694885254e+00,1.085252285003662109e+00,1.085192084312438965e+00,1.085131883621215820e+00,1.085071682929992676e+00,1.085011482238769531e+00,1.084951281547546387e+00,1.084891080856323242e+00,1.084830999374389648e+00,1.084770798683166504e+00,1.084710597991943359e+00,1.084650397300720215e+00,1.084590196609497070e+00,1.084530115127563477e+00,1.084470033645629883e+00,1.084409832954406738e+00,1.084349751472473145e+00,1.084289550781250000e+00,1.084229588508605957e+00,1.084169387817382812e+00,1.084109306335449219e+00,1.084049224853515625e+00,1.083989143371582031e+00,1.083929061889648438e+00,1.083868980407714844e+00,1.083809018135070801e+00,1.083748936653137207e+00,1.083688855171203613e+00,1.083628892898559570e+00,1.083568811416625977e+00,1.083508729934692383e+00,1.083448767662048340e+00,1.083388686180114746e+00,1.083328723907470703e+00,1.083268761634826660e+00,1.083208680152893066e+00,1.083148717880249023e+00,1.083088755607604980e+00,1.083028793334960938e+00,1.082968831062316895e+00,1.082908868789672852e+00,1.082848906517028809e+00,1.082788944244384766e+00,1.082728981971740723e+00,1.082669019699096680e+00,1.082609176635742188e+00,1.082549214363098145e+00,1.082489252090454102e+00,1.082429289817810059e+00
1.021072626113891602e+00,1.021019339561462402e+00,7.178671956062316895e-01,7.282518744468688965e-01,7.467789649963378906e-01,7.464566230773925781e-01,7.582824230194091797e-01,1.020699977874755859e+00,1.020646691322326660e+00,1.020593404769897461e+00,1.020540237426757812e+00,1.020486950874328613e+00,1.020433664321899414e+00,1.020380496978759766e+00,1.020327210426330566e+00,1.020274043083190918e+00,1.020220756530761719e+00,1.020167589187622070e+00,1.020114421844482422e+00,1.020061135292053223e+00,8.013824820518493652e-01,7.915650606155395508e-01,7.864360213279724121e-01,7.802171707153320312e-01,7.765570282936096191e-01,7.704253792762756348e-01,7.688449621200561523e-01,7.688110470771789551e-01,7.665733098983764648e-01,7.688838243484497070e-01,7.771226167678833008e-01,1.019423127174377441e+00,1.019370079040527344e+00,1.019316911697387695e+00,1.019263744354248047e+00,1.019210696220397949e+00,1.019157528877258301e+00,1.019104480743408203e+00,1.019051313400268555e+00,1.018998265266418457e+00,1.018945097923278809e+00,1.018892168998718262e+00,1.018839001655578613e+00,1.018785953521728516e+00,1.018732905387878418e+00,1.018679857254028320e+00,1.018626809120178223e+00,1.018573760986328125e+00,1.018520712852478027e+00,1.018467664718627930e+00,1.018414616584777832e+00,1.018361568450927734e+00,1.018308520317077637e+00,1.018255591392517090e+00,1.018202543258666992e+00,1.018149495124816895e+00,1.018096446990966797e+00,1.018043518066406250e+00,1.017990589141845703e+00,1.017937541007995605e+00,1.017884612083435059e+00,1.017831563949584961e+00,1.017778635025024414e+00,1.017725706100463867e+00,1.017672777175903320e+00,1.017619729042053223e+00,1.017566800117492676e+00,1.017513871192932129e+00,1.017460942268371582e+00,1.017408013343811035e+00,1.017355084419250488e+00,1.017302155494689941e+00,1.017249345779418945e+00,1.017196416854858398e+00,1.017143487930297852e+00,1.017090559005737305e+00,1.017037630081176758e+00,1.016984820365905762e+00,1.016932010650634766e+00,1.016879081726074219e+00
9.625425338745117188e-01,9.624951481819152832e-01,9.624477624893188477e-01,9.624003767967224121e-01,9.623529911041259766e-01,9.623056650161743164e-01,9.622582793235778809e-01,9.622110724449157715e-01,9.621637463569641113e-01,9.621163606643676758e-01,9.620690345764160156e-01,9.620217084884643555e-01,9.619743824005126953e-01,9.619270563125610352e-01,9.618797302246093750e-01,9.618324041366577148e-01,9.617851376533508301e-01,9.617378115653991699e-01,9.616906046867370605e-01,9.616433382034301758e-01,8.039257526397705078e-01,7.892031073570251465e-01,7.836544513702392578e-01,7.799786329269409180e-01,7.770208716392517090e-01,7.729020118713378906e-01,7.683354020118713379e-01,7.638118863105773926e-01,7.603682279586791992e-01,7.594570517539978027e-01,7.601934671401977539e-01,7.655115723609924316e-01,9.610290527343750000e-01,9.609817862510681152e-01,9.609345793724060059e-01,9.608873724937438965e-01,9.608401656150817871e-01,9.607929587364196777e-01,9.607458114624023438e-01,9.606986641883850098e-01,9.606514573097229004e-01,9.606042504310607910e-01,9.605570435523986816e-01,9.605098962783813477e-01,9.604626893997192383e-01,9.604155421257019043e-01,9.603683352470397949e-01,9.603211879730224609e-01,9.602740406990051270e-01,9.602269530296325684e-01,9.601798057556152344e-01,9.601326584815979004e-01,9.600855112075805664e-01,9.600384235382080078e-01,9.599912762641906738e-01,9.599441289901733398e-01,9.598970413208007812e-01,9.598498940467834473e-01,9.598028063774108887e-01,9.597557783126831055e-01,9.597086906433105469e-01,9.596616029739379883e-01,9.596144556999206543e-01,9.595673680305480957e-01,9.595202803611755371e-01,9.594731926918029785e-01,9.594261646270751953e-01,9.593790769577026367e-01,9.593319892883300781e-01,9.592850208282470703e-01,9.592379927635192871e-01,9.591909050941467285e-01,9.591438770294189453e-01,9.590968489646911621e-01,9.590498208999633789e-01,9.590027332305908203e-01,9.589557051658630371e-01,9.589086771011352539e-01,9.588616490364074707e-01,9.588146805763244629e-01
9.103584289550781250e-01,9.103160500526428223e-01,9.102736711502075195e-01,9.102312922477722168e-01,9.101889133453369141e-01,9.101465940475463867e-01,9.101042151451110840e-01,9.100618362426757812e-01,9.100195169448852539e-01,9.099771380424499512e-01,9.099348783493041992e-01,9.098925590515136719e-01,9.098502397537231445e-01,9.098079204559326172e-01,9.097655415534973145e-01,9.097232222557067871e-01,9.096809029579162598e-01,9.096385836601257324e-01,9.095962643623352051e-01,9.095539450645446777e-01,9.095117449760437012e-01,7.880369424819946289e-01,7.824611663818359375e-01,7.797558903694152832e-01,7.782675623893737793e-01,7.750278115272521973e-01,7.712078690528869629e-01,7.665745019912719727e-01,7.581678032875061035e-01,7.517898678779602051e-01,7.509279847145080566e-01,7.504036426544189453e-01,7.535783052444458008e-01,7.812479138374328613e-01,9.089199900627136230e-01,9.088777303695678711e-01,9.088354706764221191e-01,9.087932705879211426e-01,9.087510108947753906e-01,9.087088108062744141e-01,9.086665511131286621e-01,9.086244106292724609e-01,9.085822105407714844e-01,9.085400104522705078e-01,9.084978103637695312e-01,9.084556102752685547e-01,9.084133505821228027e-01,9.083712100982666016e-01,9.083290100097656250e-01,9.082868099212646484e-01,9.082446098327636719e-01,9.082025289535522461e-01,9.081603288650512695e-01,9.081181883811950684e-01,9.080759882926940918e-01,9.080338478088378906e-01,9.079916477203369141e-01,9.079495072364807129e-01,9.079073667526245117e-01,9.078651666641235352e-01,9.078230261802673340e-01,9.077808856964111328e-01,9.077388644218444824e-01,9.076967239379882812e-01,9.076545834541320801e-01,9.076124429702758789e-01,9.075703024864196777e-01,9.075282216072082520e-01,9.074860811233520508e-01,9.074440002441406250e-01,9.074018597602844238e-01,9.073597788810729980e-01,9.073177576065063477e-01,9.072756767272949219e-01,9.072335362434387207e-01,9.071914553642272949e-01,9.071493744850158691e-01,9.071072936058044434e-01,9.070652127265930176e-01,9.070231318473815918e-01
8.635416030883789062e-01,8.635034561157226562e-01,8.634654283523559570e-01,8.634272813796997070e-01,8.633891940116882324e-01,8.633510470390319824e-01,8.633129596710205078e-01,8.632748126983642578e-01,8.632367253303527832e-01,8.631985783576965332e-01,8.631604909896850586e-01,8.631224036216735840e-01,8.630843162536621094e-01,8.630462884902954102e-01,8.630082011222839355e-01,8.629701137542724609e-01,8.629320263862609863e-01,8.628939390182495117e-01,8.628558516502380371e-01,8.628178238868713379e-01,8.627797365188598633e-01,8.627416491508483887e-01,8.627036213874816895e-01,8.626656532287597656e-01,8.626275658607482910e-01,8.625895380973815918e-01,8.625514507293701172e-01,8.625134229660034180e-01,7.653958201408386230e-01,7.485736012458801270e-01,7.432098984718322754e-01,7.420784831047058105e-01,7.424260973930358887e-01,7.423024773597717285e-01,7.439091801643371582e-01,7.642862200736999512e-01,8.621712327003479004e-01,8.621332049369812012e-01,8.620952367782592773e-01,8.620572090148925781e-01,8.620191812515258789e-01,8.619812130928039551e-01,8.619431853294372559e-01,8.619052171707153320e-01,8.618673086166381836e-01,8.618293404579162598e-01,8.617913126945495605e-01,8.617533445358276367e-01,8.617153763771057129e-01,8.616774082183837891e-01,8.616394400596618652e-01,8.616014719009399414e-01,8.615635037422180176e-01,8.615255355834960938e-01,8.614876866340637207e-01,8.614497184753417969e-01,8.614117503166198730e-01,8.613738417625427246e-01,8.613358736038208008e-01,8.612979650497436523e-01,8.612599968910217285e-01,8.612220883369445801e-01,8.611841201782226562e-01,8.611462116241455078e-01,8.611083626747131348e-01,8.610704541206359863e-01,8.610325455665588379e-01,8.609946370124816895e-01,8.609567284584045410e-01,8.609188199043273926e-01,8.608809113502502441e-01,8.608430027961730957e-01,8.608051538467407227e-01,8.607672452926635742e-01,8.607293367385864258e-01,8.606915473937988281e-01,8.606536388397216797e-01,8.606157898902893066e-01,8.605778813362121582e-01,8.605400323867797852e-01
8.213045597076416016e-01,8.212701082229614258e-01,8.212355971336364746e-01,8.212010860443115234e-01,8.211666345596313477e-01,8.211322426795959473e-01,8.210977315902709961e-01,8.210632801055908203e-01,8.210287690162658691e-01,8.209943175315856934e-01,8.209598660469055176e-01,8.209253549575805664e-01,8.208909034729003906e-01,8.208564519882202148e-01,8.208220005035400391e-01,8.207876086235046387e-01,8.207531571388244629e-01,8.207187056541442871e-01,8.206843137741088867e-01,8.206498622894287109e-01,8.206154108047485352e-01,8.205809593200683594e-01,8.205465674400329590e-01,8.205121159553527832e-01,8.204776644706726074e-01,8.204433321952819824e-01,8.204089403152465820e-01,8.203744888305664062e-01,8.203400969505310059e-01,8.203056454658508301e-01,7.405595183372497559e-01,7.372543811798095703e-01,7.365128993988037109e-01,7.350468039512634277e-01,7.328310012817382812e-01,7.351677417755126953e-01,7.378746867179870605e-01,8.200305104255676270e-01,8.199961781501770020e-01,8.199617862701416016e-01,8.199273943901062012e-01,8.198930025100708008e-01,8.198586106300354004e-01,8.198242783546447754e-01,8.197898864746093750e-01,8.197554945945739746e-01,8.197212219238281250e-01,8.196868896484375000e-01,8.196524977684020996e-01,8.196181654930114746e-01,8.195837736129760742e-01,8.195494413375854492e-01,8.195151090621948242e-01,8.194807767868041992e-01,8.194463849067687988e-01,8.194120526313781738e-01,8.193777203559875488e-01,8.193435072898864746e-01,8.193091750144958496e-01,8.192748427391052246e-01,8.192405104637145996e-01,8.192061781883239746e-01,8.191718459129333496e-01,8.191375136375427246e-01,8.191032409667968750e-01,8.190689086914062500e-01,8.190346360206604004e-01,8.190003633499145508e-01,8.189660906791687012e-01,8.189317584037780762e-01,8.188974857330322266e-01,8.188632130622863770e-01,8.188288807868957520e-01,8.187946081161499023e-01,8.187603354454040527e-01,8.187260627746582031e-01,8.186917901039123535e-01,8.186575770378112793e-01,8.186233043670654297e-01,8.185890316963195801e-01
7.830066680908203125e-01,7.829753160476684570e-01,7.829439640045166016e-01,7.829126119613647461e-01,7.828812599182128906e-01,7.828499078750610352e-01,7.828186154365539551e-01,7.827873229980468750e-01,7.827559709548950195e-01,7.827246785163879395e-01,7.826933264732360840e-01,7.826619744300842285e-01,7.826306819915771484e-01,7.825993299484252930e-01,7.825680375099182129e-01,7.825366854667663574e-01,7.825053930282592773e-01,7.824741005897521973e-01,7.824428677558898926e-01,7.824115157127380371e-01,7.823802232742309570e-01,7.823489308357238770e-01,7.823176383972167969e-01,7.822863459587097168e-01,7.822550535202026367e-01,7.822237610816955566e-01,7.821924686431884766e-01,7.821611762046813965e-01,7.821299433708190918e-01,7.820986509323120117e-01,7.820673584938049316e-01,7.372324466705322266e-01,7.393406033515930176e-01,7.356860041618347168e-01,7.294349670410156250e-01,7.281218767166137695e-01,7.299342155456542969e-01,7.818484902381896973e-01,7.818173170089721680e-01,7.817860245704650879e-01,7.817547917366027832e-01,7.817235589027404785e-01,7.816922664642333984e-01,7.816610336303710938e-01,7.816298007965087891e-01,7.815985679626464844e-01,7.815672755241394043e-01,7.815360426902770996e-01,7.815048098564147949e-01,7.814736366271972656e-01,7.814424633979797363e-01,7.814112305641174316e-01,7.813799977302551270e-01,7.813487648963928223e-01,7.813175320625305176e-01,7.812862992286682129e-01,7.812551259994506836e-01,7.812238931655883789e-01,7.811926603317260742e-01,7.811615467071533203e-01,7.811303138732910156e-01,7.810991406440734863e-01,7.810679078102111816e-01,7.810367345809936523e-01,7.810055613517761230e-01,7.809743285179138184e-01,7.809431552886962891e-01,7.809119820594787598e-01,7.808807492256164551e-01,7.808496952056884766e-01,7.808184623718261719e-01,7.807872891426086426e-01,7.807561159133911133e-01,7.807249426841735840e-01,7.806937694549560547e-01,7.806625962257385254e-01,7.806314826011657715e-01,7.806003093719482422e-01,7.805691361427307129e-01,7.805379629135131836e-01
7.481213212013244629e-01,7.480927109718322754e-01,7.480641007423400879e-01,7.480354905128479004e-01,7.480068802833557129e-01,7.479782700538635254e-01,7.479496598243713379e-01,7.479210495948791504e-01,7.478924393653869629e-01,7.478638291358947754e-01,7.478352785110473633e-01,7.478066682815551758e-01,7.477780580520629883e-01,7.477495074272155762e-01,7.477208971977233887e-01,7.476922869682312012e-01,7.476637363433837891e-01,7.476351261138916016e-01,7.476065158843994141e-01,7.475779652595520020e-01,7.475494146347045898e-01,7.475208640098571777e-01,7.474923133850097656e-01,7.474637031555175781e-01,7.474351525306701660e-01,7.474066019058227539e-01,7.473779916763305664e-01,7.473494410514831543e-01,7.473208904266357422e-01,7.472923398017883301e-01,7.472637295722961426e-01,7.472352981567382812e-01,7.472066879272460938e-01,7.471781373023986816e-01,7.471495866775512695e-01,7.471210360527038574e-01,7.470925450325012207e-01,7.470639944076538086e-01,7.470354437828063965e-01,7.470068931579589844e-01,7.469783425331115723e-01,7.469499111175537109e-01,7.469213604927062988e-01,7.468928098678588867e-01,7.468643188476562500e-01,7.468357682228088379e-01,7.468072772026062012e-01,7.467787265777587891e-01,7.467502355575561523e-01,7.467216849327087402e-01,7.466931939125061035e-01,7.466647028923034668e-01,7.466362118721008301e-01,7.466077208518981934e-01,7.465792298316955566e-01,7.465506792068481445e-01,7.465221881866455078e-01,7.464936971664428711e-01,7.464652061462402344e-01,7.464367151260375977e-01,7.464082241058349609e-01,7.463797330856323242e-01,7.463513016700744629e-01,7.463228106498718262e-01,7.462943196296691895e-01,7.462658286094665527e-01,7.462373971939086914e-01,7.462089061737060547e-01,7.461804151535034180e-01,7.461519241333007812e-01,7.461234927177429199e-01,7.460950016975402832e-01,7.460665702819824219e-01,7.460381388664245605e-01,7.460096478462219238e-01,7.459812164306640625e-01,7.459527254104614258e-01,7.459242939949035645e-01,7.458958625793457031e-01,7.458673715591430664e-01
