2.345257282257080078e+00,2.348020076751708984e+00,2.350789308547973633e+00,2.353565216064453125e+00,2.356347560882568359e+00,2.359136581420898438e+00,2.361932039260864258e+00,2.364734172821044922e+00,2.367543220520019531e+00,2.370358705520629883e+00,2.373181104660034180e+00,2.376009941101074219e+00,2.378845691680908203e+00,2.381688117980957031e+00,2.384537458419799805e+00,2.387393474578857422e+00,2.390256643295288086e+00,2.393126487731933594e+00,2.396003246307373047e+00,2.398886919021606445e+00,2.401777505874633789e+00,2.404675245285034180e+00,2.407579898834228516e+00,2.410491466522216797e+00,2.413410186767578125e+00,2.416335821151733398e+00,2.419268846511840820e+00,2.422208786010742188e+00,2.425155878067016602e+00,2.428110361099243164e+00,2.431071758270263672e+00,2.434040546417236328e+00,2.437016725540161133e+00,2.439999818801879883e+00,2.442990541458129883e+00,2.445988655090332031e+00,2.448993921279907227e+00,2.452006578445434570e+00,2.455026865005493164e+00,2.458054542541503906e+00,2.461089372634887695e+00,2.464132308959960938e+00,2.467182159423828125e+00,2.470239877700805664e+00,2.473304986953735352e+00,2.476377964019775391e+00,2.479458570480346680e+00,2.482546806335449219e+00,2.485642671585083008e+00,2.488746166229248047e+00,2.491857767105102539e+00,2.494976758956909180e+00,2.498103857040405273e+00,2.501238584518432617e+00,2.504381418228149414e+00,2.507532119750976562e+00,2.510690689086914062e+00,2.513857126235961914e+00,2.517031669616699219e+00,2.520214080810546875e+00,2.523404836654663086e+00,2.526603698730468750e+00,2.529810428619384766e+00,2.533025503158569336e+00,2.536248683929443359e+00,2.539479970932006836e+00,2.542719602584838867e+00,2.545967578887939453e+00,2.549223661422729492e+00,2.552488327026367188e+00,2.555761337280273438e+00,2.559042692184448242e+00,2.562332391738891602e+00,2.565630435943603516e+00,2.568937301635742188e+00,2.572252511978149414e+00,2.575576305389404297e+00,2.578908681869506836e+00,2.582249879837036133e+00,2.585599660873413086e+00
2.345240592956542969e+00,2.348003149032592773e+00,2.350772380828857422e+00,2.353548288345336914e+00,2.356330633163452148e+00,2.359119415283203125e+00,2.361914873123168945e+00,2.364717245101928711e+00,2.367526054382324219e+00,2.370341539382934570e+00,2.373163700103759766e+00,2.375992774963378906e+00,2.378828287124633789e+00,2.381670951843261719e+00,2.384520053863525391e+00,2.387376308441162109e+00,2.390239238739013672e+00,2.393109083175659180e+00,2.395985841751098633e+00,2.398869276046752930e+00,2.401760101318359375e+00,2.404657602310180664e+00,2.407562255859375000e+00,2.410473585128784180e+00,2.413392305374145508e+00,2.416317939758300781e+00,2.419250965118408203e+00,2.422191143035888672e+00,2.425137996673583984e+00,2.428092241287231445e+00,2.431053638458251953e+00,2.434022665023803711e+00,2.436998367309570312e+00,2.439981698989868164e+00,2.442972421646118164e+00,2.445970296859741211e+00,2.448975563049316406e+00,2.451988220214843750e+00,2.455008506774902344e+00,2.458035945892333984e+00,2.461071014404296875e+00,2.464113473892211914e+00,2.467163801193237305e+00,2.470221281051635742e+00,2.473286390304565430e+00,2.476359128952026367e+00,2.479439735412597656e+00,2.482527971267700195e+00,2.485623836517333984e+00,2.488727331161499023e+00,2.491838693618774414e+00,2.494957923889160156e+00,2.498084783554077148e+00,2.501219749450683594e+00,2.504362344741821289e+00,2.507513046264648438e+00,2.510671377182006836e+00,2.513837814331054688e+00,2.517012357711791992e+00,2.520194768905639648e+00,2.523385524749755859e+00,2.526584148406982422e+00,2.529791116714477539e+00,2.533005952835083008e+00,2.536229133605957031e+00,2.539460182189941406e+00,2.542699813842773438e+00,2.545947790145874023e+00,2.549203872680664062e+00,2.552468538284301758e+00,2.555741310119628906e+00,2.559022665023803711e+00,2.562312126159667969e+00,2.565610408782958984e+00,2.568917036056518555e+00,2.572232484817504883e+00,2.575556039810180664e+00,2.578888654708862305e+00,2.582229614257812500e+00,2.585579156875610352e+00
2.345223903656005859e+00,2.347986459732055664e+00,2.350755691528320312e+00,2.353531599044799805e+00,2.356313943862915039e+00,2.359102725982666016e+00,2.361898183822631836e+00,2.364700317382812500e+00,2.367508888244628906e+00,2.370324611663818359e+00,2.373146533966064453e+00,2.375975608825683594e+00,2.378811120986938477e+00,2.381653547286987305e+00,2.384502887725830078e+00,2.387358903884887695e+00,2.390221834182739258e+00,2.393091678619384766e+00,2.395968198776245117e+00,2.398851871490478516e+00,2.401742219924926758e+00,2.404639959335327148e+00,2.407544374465942383e+00,2.410455942153930664e+00,2.413374662399291992e+00,2.416300296783447266e+00,2.419233083724975586e+00,2.422173023223876953e+00,2.425120115280151367e+00,2.428074359893798828e+00,2.431035757064819336e+00,2.434004306793212891e+00,2.436980485916137695e+00,2.439963579177856445e+00,2.442954063415527344e+00,2.445952177047729492e+00,2.448957204818725586e+00,2.451970100402832031e+00,2.454989910125732422e+00,2.458017587661743164e+00,2.461052417755126953e+00,2.464095115661621094e+00,2.467144966125488281e+00,2.470202684402465820e+00,2.473267793655395508e+00,2.476340532302856445e+00,2.479421138763427734e+00,2.482509136199951172e+00,2.485605001449584961e+00,2.488708496093750000e+00,2.491819858551025391e+00,2.494938850402832031e+00,2.498065710067749023e+00,2.501200437545776367e+00,2.504343271255493164e+00,2.507493734359741211e+00,2.510652303695678711e+00,2.513818740844726562e+00,2.516993045806884766e+00,2.520175457000732422e+00,2.523365974426269531e+00,2.526564836502075195e+00,2.529771327972412109e+00,2.532986402511596680e+00,2.536209344863891602e+00,2.539440631866455078e+00,2.542680263519287109e+00,2.545928001403808594e+00,2.549184083938598633e+00,2.552448511123657227e+00,2.555721521377563477e+00,2.559002637863159180e+00,2.562292337417602539e+00,2.565590381622314453e+00,2.568897008895874023e+00,2.572212219238281250e+00,2.575536012649536133e+00,2.578868389129638672e+00,2.582209110260009766e+00,2.585558891296386719e+00
2.345207452774047852e+00,2.347970008850097656e+00,2.350739240646362305e+00,2.353514909744262695e+00,2.356297016143798828e+00,2.359086036682128906e+00,2.361881256103515625e+00,2.364683389663696289e+00,2.367492198944091797e+00,2.370307445526123047e+00,2.373129606246948242e+00,2.375958442687988281e+00,2.378794193267822266e+00,2.381636381149291992e+00,2.384485483169555664e+00,2.387341499328613281e+00,2.390204429626464844e+00,2.393074274063110352e+00,2.395950794219970703e+00,2.398834228515625000e+00,2.401724815368652344e+00,2.404622316360473633e+00,2.407526731491088867e+00,2.410438299179077148e+00,2.413356781005859375e+00,2.416282415390014648e+00,2.419215202331542969e+00,2.422155141830444336e+00,2.425101995468139648e+00,2.428056240081787109e+00,2.431017637252807617e+00,2.433986425399780273e+00,2.436962366104125977e+00,2.439945459365844727e+00,2.442935943603515625e+00,2.445933818817138672e+00,2.448939085006713867e+00,2.451951503753662109e+00,2.454971551895141602e+00,2.457998991012573242e+00,2.461034059524536133e+00,2.464076757431030273e+00,2.467126607894897461e+00,2.470184087753295898e+00,2.473249197006225586e+00,2.476321935653686523e+00,2.479402303695678711e+00,2.482490539550781250e+00,2.485586166381835938e+00,2.488689661026000977e+00,2.491800785064697266e+00,2.494919776916503906e+00,2.498046875000000000e+00,2.501181364059448242e+00,2.504324197769165039e+00,2.507474660873413086e+00,2.510632991790771484e+00,2.513799190521240234e+00,2.516973733901977539e+00,2.520156145095825195e+00,2.523346662521362305e+00,2.526545047760009766e+00,2.529752016067504883e+00,2.532966852188110352e+00,2.536189794540405273e+00,2.539421081542968750e+00,2.542660474777221680e+00,2.545908212661743164e+00,2.549164295196533203e+00,2.552428722381591797e+00,2.555701494216918945e+00,2.558982610702514648e+00,2.562272310256958008e+00,2.565570354461669922e+00,2.568876981735229492e+00,2.572191953659057617e+00,2.575515747070312500e+00,2.578847885131835938e+00,2.582188844680786133e+00,2.585538387298583984e+00
2.345190763473510742e+00,2.347953319549560547e+00,2.350722312927246094e+00,2.353498220443725586e+00,2.356280326843261719e+00,2.359069108963012695e+00,2.361864328384399414e+00,2.364666461944580078e+00,2.367475271224975586e+00,2.370290517807006836e+00,2.373112678527832031e+00,2.375941514968872070e+00,2.378777027130126953e+00,2.381619453430175781e+00,2.384468317031860352e+00,2.387324333190917969e+00,2.390187263488769531e+00,2.393056869506835938e+00,2.395933389663696289e+00,2.398816823959350586e+00,2.401707410812377930e+00,2.404604673385620117e+00,2.407509088516235352e+00,2.410420656204223633e+00,2.413339138031005859e+00,2.416264772415161133e+00,2.419197320938110352e+00,2.422137260437011719e+00,2.425084114074707031e+00,2.428038358688354492e+00,2.430999755859375000e+00,2.433968305587768555e+00,2.436944246292114258e+00,2.439927339553833008e+00,2.442917823791503906e+00,2.445915699005126953e+00,2.448920726776123047e+00,2.451933383941650391e+00,2.454953193664550781e+00,2.457980632781982422e+00,2.461015701293945312e+00,2.464057922363281250e+00,2.467108011245727539e+00,2.470165491104125977e+00,2.473230600357055664e+00,2.476303100585937500e+00,2.479383468627929688e+00,2.482471466064453125e+00,2.485567331314086914e+00,2.488670825958251953e+00,2.491781949996948242e+00,2.494900941848754883e+00,2.498027563095092773e+00,2.501162290573120117e+00,2.504304885864257812e+00,2.507455348968505859e+00,2.510613679885864258e+00,2.513780117034912109e+00,2.516954183578491211e+00,2.520136833190917969e+00,2.523327350616455078e+00,2.526525735855102539e+00,2.529732465744018555e+00,2.532947063446044922e+00,2.536170244216918945e+00,2.539401292800903320e+00,2.542640686035156250e+00,2.545888423919677734e+00,2.549144506454467773e+00,2.552408933639526367e+00,2.555681467056274414e+00,2.558962821960449219e+00,2.562252044677734375e+00,2.565550327301025391e+00,2.568856716156005859e+00,2.572171926498413086e+00,2.575495481491088867e+00,2.578827619552612305e+00,2.582168579101562500e+00,2.585518121719360352e+00
2.345174074172973633e+00,2.347936630249023438e+00,2.350705623626708984e+00,2.353481292724609375e+00,2.356263637542724609e+00,2.359052181243896484e+00,2.361847639083862305e+00,2.364649534225463867e+00,2.367458105087280273e+00,2.370273590087890625e+00,2.373095512390136719e+00,2.375924348831176758e+00,2.378759860992431641e+00,2.381602048873901367e+00,2.384451150894165039e+00,2.387307167053222656e+00,2.390169858932495117e+00,2.393039703369140625e+00,2.395915985107421875e+00,2.398799419403076172e+00,2.401689767837524414e+00,2.404587268829345703e+00,2.407491683959960938e+00,2.410403013229370117e+00,2.413321495056152344e+00,2.416247129440307617e+00,2.419179916381835938e+00,2.422119617462158203e+00,2.425066471099853516e+00,2.428020477294921875e+00,2.430981636047363281e+00,2.433950424194335938e+00,2.436926126480102539e+00,2.439909219741821289e+00,2.442899465560913086e+00,2.445897340774536133e+00,2.448902368545532227e+00,2.451915025711059570e+00,2.454934835433959961e+00,2.457962274551391602e+00,2.460997104644775391e+00,2.464039564132690430e+00,2.467089414596557617e+00,2.470146894454956055e+00,2.473211765289306641e+00,2.476284503936767578e+00,2.479364871978759766e+00,2.482452869415283203e+00,2.485548496246337891e+00,2.488651752471923828e+00,2.491763114929199219e+00,2.494881868362426758e+00,2.498008728027343750e+00,2.501143217086791992e+00,2.504285812377929688e+00,2.507436037063598633e+00,2.510594606399536133e+00,2.513760805130004883e+00,2.516935110092163086e+00,2.520117521286010742e+00,2.523307800292968750e+00,2.526506423950195312e+00,2.529712915420532227e+00,2.532927751541137695e+00,2.536150455474853516e+00,2.539381742477416992e+00,2.542620897293090820e+00,2.545868635177612305e+00,2.549124717712402344e+00,2.552388906478881836e+00,2.555661678314208984e+00,2.558942556381225586e+00,2.562232255935668945e+00,2.565530061721801758e+00,2.568836688995361328e+00,2.572151660919189453e+00,2.575475215911865234e+00,2.578807592391967773e+00,2.582148313522338867e+00,2.585497856140136719e+00
2.345157623291015625e+00,2.347919940948486328e+00,2.350689172744750977e+00,2.353464603424072266e+00,2.356246709823608398e+00,2.359035491943359375e+00,2.361830711364746094e+00,2.364632844924926758e+00,2.367441415786743164e+00,2.370256423950195312e+00,2.373078584671020508e+00,2.375907182693481445e+00,2.378742933273315430e+00,2.381585121154785156e+00,2.384433984756469727e+00,2.387290000915527344e+00,2.390152692794799805e+00,2.393022298812866211e+00,2.395898818969726562e+00,2.398782253265380859e+00,2.401672601699829102e+00,2.404569864273071289e+00,2.407474279403686523e+00,2.410385608673095703e+00,2.413304090499877930e+00,2.416229486465454102e+00,2.419162034988403320e+00,2.422101974487304688e+00,2.425048589706420898e+00,2.428002834320068359e+00,2.430963993072509766e+00,2.433932304382324219e+00,2.436908245086669922e+00,2.439891099929809570e+00,2.442881584167480469e+00,2.445879220962524414e+00,2.448884248733520508e+00,2.451896667480468750e+00,2.454916477203369141e+00,2.457943916320800781e+00,2.460978507995605469e+00,2.464021205902099609e+00,2.467070817947387695e+00,2.470128059387207031e+00,2.473193168640136719e+00,2.476265907287597656e+00,2.479346036911010742e+00,2.482434034347534180e+00,2.485529422760009766e+00,2.488632917404174805e+00,2.491744041442871094e+00,2.494863033294677734e+00,2.497989416122436523e+00,2.501124143600463867e+00,2.504266738891601562e+00,2.507416963577270508e+00,2.510575294494628906e+00,2.513741493225097656e+00,2.516915798187255859e+00,2.520097970962524414e+00,2.523288488388061523e+00,2.526486635208129883e+00,2.529693365097045898e+00,2.532907962799072266e+00,2.536130905151367188e+00,2.539361953735351562e+00,2.542601346969604492e+00,2.545849084854125977e+00,2.549104690551757812e+00,2.552369117736816406e+00,2.555641651153564453e+00,2.558922767639160156e+00,2.562211990356445312e+00,2.565510034561157227e+00,2.568816661834716797e+00,2.572131395339965820e+00,2.575454950332641602e+00,2.578787088394165039e+00,2.582128047943115234e+00,2.585477352142333984e+00
2.345140933990478516e+00,2.347903490066528320e+00,2.350672245025634766e+00,2.353447914123535156e+00,2.356230020523071289e+00,2.359018564224243164e+00,2.361814022064208984e+00,2.364615678787231445e+00,2.367424488067626953e+00,2.370239734649658203e+00,2.373061656951904297e+00,2.375890254974365234e+00,2.378725767135620117e+00,2.381567955017089844e+00,2.384416818618774414e+00,2.387272834777832031e+00,2.390135288238525391e+00,2.393004894256591797e+00,2.395881414413452148e+00,2.398764610290527344e+00,2.401655197143554688e+00,2.404552459716796875e+00,2.407456636428833008e+00,2.410367965698242188e+00,2.413286447525024414e+00,2.416211843490600586e+00,2.419144392013549805e+00,2.422084093093872070e+00,2.425030946731567383e+00,2.427984714508056641e+00,2.430946111679077148e+00,2.433914422988891602e+00,2.436890363693237305e+00,2.439873218536376953e+00,2.442863464355468750e+00,2.445861339569091797e+00,2.448866128921508789e+00,2.451878547668457031e+00,2.454898357391357422e+00,2.457925558090209961e+00,2.460960388183593750e+00,2.464002609252929688e+00,2.467052459716796875e+00,2.470109701156616211e+00,2.473174571990966797e+00,2.476247310638427734e+00,2.479327440261840820e+00,2.482415437698364258e+00,2.485510826110839844e+00,2.488613843917846680e+00,2.491724967956542969e+00,2.494843959808349609e+00,2.497970581054687500e+00,2.501105070114135742e+00,2.504247426986694336e+00,2.507397890090942383e+00,2.510555982589721680e+00,2.513722181320190430e+00,2.516896247863769531e+00,2.520078659057617188e+00,2.523268938064575195e+00,2.526467323303222656e+00,2.529673814773559570e+00,2.532888412475585938e+00,2.536111354827880859e+00,2.539342164993286133e+00,2.542581558227539062e+00,2.545829057693481445e+00,2.549085140228271484e+00,2.552349090576171875e+00,2.555621862411499023e+00,2.558902740478515625e+00,2.562192201614379883e+00,2.565490007400512695e+00,2.568796396255493164e+00,2.572111368179321289e+00,2.575434684753417969e+00,2.578766822814941406e+00,2.582107543945312500e+00,2.585456848144531250e+00
2.345124244689941406e+00,2.347886800765991211e+00,2.350655555725097656e+00,2.353431224822998047e+00,2.356213331222534180e+00,2.359001874923706055e+00,2.361797094345092773e+00,2.364598989486694336e+00,2.367407321929931641e+00,2.370222806930541992e+00,2.373044490814208984e+00,2.375873327255249023e+00,2.378708600997924805e+00,2.381550788879394531e+00,2.384399652481079102e+00,2.387255430221557617e+00,2.390118122100830078e+00,2.392987728118896484e+00,2.395864009857177734e+00,2.398747444152832031e+00,2.401637554168701172e+00,2.404535055160522461e+00,2.407439231872558594e+00,2.410350561141967773e+00,2.413268804550170898e+00,2.416194200515747070e+00,2.419126749038696289e+00,2.422066450119018555e+00,2.425013303756713867e+00,2.427967071533203125e+00,2.430928230285644531e+00,2.433896780014038086e+00,2.436872243881225586e+00,2.439855337142944336e+00,2.442845582962036133e+00,2.445842981338500977e+00,2.448848009109497070e+00,2.451860427856445312e+00,2.454880237579345703e+00,2.457907438278198242e+00,2.460942029953002930e+00,2.463984251022338867e+00,2.467034101486206055e+00,2.470091342926025391e+00,2.473156213760375977e+00,2.476228475570678711e+00,2.479308843612670898e+00,2.482396602630615234e+00,2.485492229461669922e+00,2.488595247268676758e+00,2.491706371307373047e+00,2.494825124740600586e+00,2.497951507568359375e+00,2.501086235046386719e+00,2.504228353500366211e+00,2.507378816604614258e+00,2.510536909103393555e+00,2.513702869415283203e+00,2.516877174377441406e+00,2.520059347152709961e+00,2.523249387741088867e+00,2.526448011398315430e+00,2.529654264450073242e+00,2.532868862152099609e+00,2.536091566085815430e+00,2.539322614669799805e+00,2.542561769485473633e+00,2.545809268951416016e+00,2.549065113067626953e+00,2.552329301834106445e+00,2.555601835250854492e+00,2.558882713317871094e+00,2.562172174453735352e+00,2.565469741821289062e+00,2.568776369094848633e+00,2.572091102600097656e+00,2.575414419174194336e+00,2.578746557235717773e+00,2.582087278366088867e+00,2.585436582565307617e+00
2.345107793807983398e+00,2.347870111465454102e+00,2.350639104843139648e+00,2.353414535522460938e+00,2.356196403503417969e+00,2.358985185623168945e+00,2.361780166625976562e+00,2.364582061767578125e+00,2.367390632629394531e+00,2.370205640792846680e+00,2.373027563095092773e+00,2.375856161117553711e+00,2.378691673278808594e+00,2.381533622741699219e+00,2.384382724761962891e+00,2.387238264083862305e+00,2.390100955963134766e+00,2.392970561981201172e+00,2.395846605300903320e+00,2.398730039596557617e+00,2.401620149612426758e+00,2.404517412185668945e+00,2.407421827316284180e+00,2.410332918167114258e+00,2.413251399993896484e+00,2.416176557540893555e+00,2.419109106063842773e+00,2.422048807144165039e+00,2.424995422363281250e+00,2.427949428558349609e+00,2.430910348892211914e+00,2.433878660202026367e+00,2.436854362487792969e+00,2.439837217330932617e+00,2.442827463150024414e+00,2.445825099945068359e+00,2.448829889297485352e+00,2.451842308044433594e+00,2.454861879348754883e+00,2.457889080047607422e+00,2.460923671722412109e+00,2.463966131210327148e+00,2.467015743255615234e+00,2.470072746276855469e+00,2.473137617111206055e+00,2.476210117340087891e+00,2.479290246963500977e+00,2.482378005981445312e+00,2.485473394393920898e+00,2.488576650619506836e+00,2.491687536239624023e+00,2.494806289672851562e+00,2.497932672500610352e+00,2.501067161560058594e+00,2.504209518432617188e+00,2.507359743118286133e+00,2.510517835617065430e+00,2.513683795928955078e+00,2.516857862472534180e+00,2.520040035247802734e+00,2.523230075836181641e+00,2.526428461074829102e+00,2.529634714126586914e+00,2.532849550247192383e+00,2.536072015762329102e+00,2.539302825927734375e+00,2.542542219161987305e+00,2.545789718627929688e+00,2.549045324325561523e+00,2.552309513092041016e+00,2.555581808090209961e+00,2.558862924575805664e+00,2.562151908874511719e+00,2.565449953079223633e+00,2.568756103515625000e+00,2.572070837020874023e+00,2.575394153594970703e+00,2.578726291656494141e+00,2.582067012786865234e+00,2.585416078567504883e+00
2.345091104507446289e+00,2.347853422164916992e+00,2.350622177124023438e+00,2.353397846221923828e+00,2.356179714202880859e+00,2.358968257904052734e+00,2.361763477325439453e+00,2.364565134048461914e+00,2.367373704910278320e+00,2.370188713073730469e+00,2.373010635375976562e+00,2.375839233398437500e+00,2.378674507141113281e+00,2.381516695022583008e+00,2.384365320205688477e+00,2.387221097946166992e+00,2.390083551406860352e+00,2.392953157424926758e+00,2.395829439163208008e+00,2.398712635040283203e+00,2.401602983474731445e+00,2.404500007629394531e+00,2.407404184341430664e+00,2.410315513610839844e+00,2.413233518600463867e+00,2.416158914566040039e+00,2.419091463088989258e+00,2.422030925750732422e+00,2.424977779388427734e+00,2.427931308746337891e+00,2.430892467498779297e+00,2.433860778808593750e+00,2.436836481094360352e+00,2.439819335937500000e+00,2.442809343338012695e+00,2.445806980133056641e+00,2.448811769485473633e+00,2.451824188232421875e+00,2.454843759536743164e+00,2.457870721817016602e+00,2.460905551910400391e+00,2.463947534561157227e+00,2.466997385025024414e+00,2.470054388046264648e+00,2.473119020462036133e+00,2.476191759109497070e+00,2.479271650314331055e+00,2.482359409332275391e+00,2.485454797744750977e+00,2.488557815551757812e+00,2.491668701171875000e+00,2.494787454605102539e+00,2.497914075851440430e+00,2.501048326492309570e+00,2.504190683364868164e+00,2.507340669631958008e+00,2.510498762130737305e+00,2.513664722442626953e+00,2.516838788986206055e+00,2.520020961761474609e+00,2.523211002349853516e+00,2.526409149169921875e+00,2.529615640640258789e+00,2.532829999923706055e+00,2.536052703857421875e+00,2.539283514022827148e+00,2.542522430419921875e+00,2.545769929885864258e+00,2.549025535583496094e+00,2.552289724349975586e+00,2.555562019348144531e+00,2.558842658996582031e+00,2.562132120132446289e+00,2.565429687500000000e+00,2.568736076354980469e+00,2.572050809860229492e+00,2.575373888015747070e+00,2.578706026077270508e+00,2.582046508789062500e+00,2.585395812988281250e+00
2.345074415206909180e+00,2.347836732864379883e+00,2.350605726242065430e+00,2.353380918502807617e+00,2.356163024902343750e+00,2.358951330184936523e+00,2.361746549606323242e+00,2.364548206329345703e+00,2.367356538772583008e+00,2.370171785354614258e+00,2.372993469238281250e+00,2.375822067260742188e+00,2.378657341003417969e+00,2.381499290466308594e+00,2.384348154067993164e+00,2.387203931808471680e+00,2.390066385269165039e+00,2.392935752868652344e+00,2.395812034606933594e+00,2.398695230484008789e+00,2.401585340499877930e+00,2.404482603073120117e+00,2.407386779785156250e+00,2.410297870635986328e+00,2.413216114044189453e+00,2.416141271591186523e+00,2.419073820114135742e+00,2.422013282775878906e+00,2.424959897994995117e+00,2.427913665771484375e+00,2.430874586105346680e+00,2.433842897415161133e+00,2.436818599700927734e+00,2.439801454544067383e+00,2.442791461944580078e+00,2.445788860321044922e+00,2.448793888092041016e+00,2.451805830001831055e+00,2.454825639724731445e+00,2.457852602005004883e+00,2.460887193679809570e+00,2.463929414749145508e+00,2.466978788375854492e+00,2.470036029815673828e+00,2.473100662231445312e+00,2.476173162460327148e+00,2.479253053665161133e+00,2.482340812683105469e+00,2.485436201095581055e+00,2.488539218902587891e+00,2.491650104522705078e+00,2.494768619537353516e+00,2.497895002365112305e+00,2.501029491424560547e+00,2.504171609878540039e+00,2.507321834564208984e+00,2.510479688644409180e+00,2.513645648956298828e+00,2.516819715499877930e+00,2.520001649856567383e+00,2.523191690444946289e+00,2.526389837265014648e+00,2.529596090316772461e+00,2.532810688018798828e+00,2.536033153533935547e+00,2.539263963699340820e+00,2.542503118515014648e+00,2.545750379562377930e+00,2.549005985260009766e+00,2.552269935607910156e+00,2.555542469024658203e+00,2.558823108673095703e+00,2.562112331390380859e+00,2.565409898757934570e+00,2.568715810775756836e+00,2.572030782699584961e+00,2.575353860855102539e+00,2.578685760498046875e+00,2.582026243209838867e+00,2.585375308990478516e+00
2.345057964324951172e+00,2.347820043563842773e+00,2.350589036941528320e+00,2.353364229202270508e+00,2.356146097183227539e+00,2.358934640884399414e+00,2.361729621887207031e+00,2.364531517028808594e+00,2.367339849472045898e+00,2.370154857635498047e+00,2.372976541519165039e+00,2.375804901123046875e+00,2.378640413284301758e+00,2.381482362747192383e+00,2.384331226348876953e+00,2.387186765670776367e+00,2.390048980712890625e+00,2.392918586730957031e+00,2.395794630050659180e+00,2.398677825927734375e+00,2.401567935943603516e+00,2.404464960098266602e+00,2.407369136810302734e+00,2.410280227661132812e+00,2.413198471069335938e+00,2.416123628616333008e+00,2.419055938720703125e+00,2.421995639801025391e+00,2.424942016601562500e+00,2.427896022796630859e+00,2.430856943130493164e+00,2.433825016021728516e+00,2.436800718307495117e+00,2.439783334732055664e+00,2.442773580551147461e+00,2.445770740509033203e+00,2.448775768280029297e+00,2.451787710189819336e+00,2.454807281494140625e+00,2.457834482192993164e+00,2.460868835449218750e+00,2.463911056518554688e+00,2.466960430145263672e+00,2.470017433166503906e+00,2.473082304000854492e+00,2.476154565811157227e+00,2.479234695434570312e+00,2.482322216033935547e+00,2.485417366027832031e+00,2.488520622253417969e+00,2.491631269454956055e+00,2.494750022888183594e+00,2.497876167297363281e+00,2.501010417938232422e+00,2.504152774810791016e+00,2.507302761077880859e+00,2.510460853576660156e+00,2.513626575469970703e+00,2.516800403594970703e+00,2.519982576370239258e+00,2.523172378540039062e+00,2.526370763778686523e+00,2.529576778411865234e+00,2.532791376113891602e+00,2.536013841629028320e+00,2.539244413375854492e+00,2.542483568191528320e+00,2.545730829238891602e+00,2.548986434936523438e+00,2.552250385284423828e+00,2.555522441864013672e+00,2.558803319931030273e+00,2.562092304229736328e+00,2.565390110015869141e+00,2.568696022033691406e+00,2.572010517120361328e+00,2.575333833694458008e+00,2.578665494918823242e+00,2.582006216049194336e+00,2.585355043411254883e+00
2.345041275024414062e+00,2.347803592681884766e+00,2.350572109222412109e+00,2.353347539901733398e+00,2.356129407882690430e+00,2.358917951583862305e+00,2.361712932586669922e+00,2.364514350891113281e+00,2.367322921752929688e+00,2.370137929916381836e+00,2.372959613800048828e+00,2.375787973403930664e+00,2.378623247146606445e+00,2.381465196609497070e+00,2.384313821792602539e+00,2.387169599533081055e+00,2.390031814575195312e+00,2.392901182174682617e+00,2.395777463912963867e+00,2.398660421371459961e+00,2.401550531387329102e+00,2.404447555541992188e+00,2.407351493835449219e+00,2.410262823104858398e+00,2.413180828094482422e+00,2.416105985641479492e+00,2.419038295745849609e+00,2.421977996826171875e+00,2.424924373626708984e+00,2.427877902984619141e+00,2.430839061737060547e+00,2.433807134628295898e+00,2.436782836914062500e+00,2.439765453338623047e+00,2.442755460739135742e+00,2.445752859115600586e+00,2.448757410049438477e+00,2.451769590377807617e+00,2.454789161682128906e+00,2.457816123962402344e+00,2.460850715637207031e+00,2.463892698287963867e+00,2.466942310333251953e+00,2.469999074935913086e+00,2.473063707351684570e+00,2.476136207580566406e+00,2.479215860366821289e+00,2.482303619384765625e+00,2.485398769378662109e+00,2.488501787185668945e+00,2.491612672805786133e+00,2.494730949401855469e+00,2.497857570648193359e+00,2.500991582870483398e+00,2.504133939743041992e+00,2.507283687591552734e+00,2.510441780090332031e+00,2.513607501983642578e+00,2.516781330108642578e+00,2.519963502883911133e+00,2.523153305053710938e+00,2.526351213455200195e+00,2.529557704925537109e+00,2.532771825790405273e+00,2.535994529724121094e+00,2.539225101470947266e+00,2.542464017868041992e+00,2.545711278915405273e+00,2.548966646194458008e+00,2.552230596542358398e+00,2.555502891540527344e+00,2.558783531188964844e+00,2.562072515487670898e+00,2.565370082855224609e+00,2.568676233291625977e+00,2.571990728378295898e+00,2.575313806533813477e+00,2.578645467758178711e+00,2.581985950469970703e+00,2.585335016250610352e+00
2.345024585723876953e+00,2.347786903381347656e+00,2.350555658340454102e+00,2.353330850601196289e+00,2.356112718582153320e+00,2.358901023864746094e+00,2.361696004867553711e+00,2.364497661590576172e+00,2.367305755615234375e+00,2.370121002197265625e+00,2.372942447662353516e+00,2.375771045684814453e+00,2.378606081008911133e+00,2.381448030471801758e+00,2.384296655654907227e+00,2.387152194976806641e+00,2.390014648437500000e+00,2.392884016036987305e+00,2.395760059356689453e+00,2.398643016815185547e+00,2.401533126831054688e+00,2.404430150985717773e+00,2.407334089279174805e+00,2.410245418548583984e+00,2.413163185119628906e+00,2.416088342666625977e+00,2.419020652770996094e+00,2.421960115432739258e+00,2.424906730651855469e+00,2.427860260009765625e+00,2.430821180343627930e+00,2.433789253234863281e+00,2.436764717102050781e+00,2.439747333526611328e+00,2.442737340927124023e+00,2.445734739303588867e+00,2.448739528656005859e+00,2.451751470565795898e+00,2.454771041870117188e+00,2.457798004150390625e+00,2.460832357406616211e+00,2.463874340057373047e+00,2.466923713684082031e+00,2.469980716705322266e+00,2.473045349121093750e+00,2.476117610931396484e+00,2.479197502136230469e+00,2.482285022735595703e+00,2.485380172729492188e+00,2.488482952117919922e+00,2.491593837738037109e+00,2.494712352752685547e+00,2.497838497161865234e+00,2.500972747802734375e+00,2.504114866256713867e+00,2.507264852523803711e+00,2.510422706604003906e+00,2.513588428497314453e+00,2.516762256622314453e+00,2.519944190979003906e+00,2.523134231567382812e+00,2.526332139968872070e+00,2.529538154602050781e+00,2.532752513885498047e+00,2.535974979400634766e+00,2.539205551147460938e+00,2.542444467544555664e+00,2.545691728591918945e+00,2.548947095870971680e+00,2.552210807800292969e+00,2.555483341217041016e+00,2.558763742446899414e+00,2.562052726745605469e+00,2.565350294113159180e+00,2.568656206130981445e+00,2.571970701217651367e+00,2.575293779373168945e+00,2.578625679016113281e+00,2.581965923309326172e+00,2.585314750671386719e+00
2.345008134841918945e+00,2.347770214080810547e+00,2.350538969039916992e+00,2.353314161300659180e+00,2.356095790863037109e+00,2.358884334564208984e+00,2.361679077148437500e+00,2.364480733871459961e+00,2.367289066314697266e+00,2.370103836059570312e+00,2.372925519943237305e+00,2.375753879547119141e+00,2.378589153289794922e+00,2.381430864334106445e+00,2.384279727935791016e+00,2.387135028839111328e+00,2.389997243881225586e+00,2.392866849899291992e+00,2.395742654800415039e+00,2.398625850677490234e+00,2.401515722274780273e+00,2.404412746429443359e+00,2.407316684722900391e+00,2.410227537155151367e+00,2.413145780563354492e+00,2.416070699691772461e+00,2.419003009796142578e+00,2.421942472457885742e+00,2.424888849258422852e+00,2.427842617034912109e+00,2.430803298950195312e+00,2.433771371841430664e+00,2.436746835708618164e+00,2.439729213714599609e+00,2.442719459533691406e+00,2.445716619491577148e+00,2.448721408843994141e+00,2.451733350753784180e+00,2.454752683639526367e+00,2.457779645919799805e+00,2.460813999176025391e+00,2.463855981826782227e+00,2.466905355453491211e+00,2.469962358474731445e+00,2.473026990890502930e+00,2.476099014282226562e+00,2.479178905487060547e+00,2.482266426086425781e+00,2.485361337661743164e+00,2.488464355468750000e+00,2.491575002670288086e+00,2.494693517684936523e+00,2.497819662094116211e+00,2.500953674316406250e+00,2.504096031188964844e+00,2.507245779037475586e+00,2.510403633117675781e+00,2.513569355010986328e+00,2.516743183135986328e+00,2.519924879074096680e+00,2.523114681243896484e+00,2.526312828063964844e+00,2.529518842697143555e+00,2.532733201980590820e+00,2.535955429077148438e+00,2.539186000823974609e+00,2.542424917221069336e+00,2.545672178268432617e+00,2.548927545547485352e+00,2.552191257476806641e+00,2.555463314056396484e+00,2.558743953704833984e+00,2.562032938003540039e+00,2.565330505371093750e+00,2.568636178970336914e+00,2.571950674057006836e+00,2.575273752212524414e+00,2.578605413436889648e+00,2.581945657730102539e+00,2.585294485092163086e+00
2.344991445541381836e+00,2.347753524780273438e+00,2.350522041320800781e+00,2.353297472000122070e+00,2.356079101562500000e+00,2.358867645263671875e+00,2.361662387847900391e+00,2.364463806152343750e+00,2.367272138595581055e+00,2.370086908340454102e+00,2.372908592224121094e+00,2.375736951828002930e+00,2.378571987152099609e+00,2.381413936614990234e+00,2.384262323379516602e+00,2.387117862701416016e+00,2.389980077743530273e+00,2.392849445343017578e+00,2.395725488662719727e+00,2.398608207702636719e+00,2.401498317718505859e+00,2.404395341873168945e+00,2.407299041748046875e+00,2.410210132598876953e+00,2.413128137588500977e+00,2.416053295135498047e+00,2.418985366821289062e+00,2.421924829483032227e+00,2.424871206283569336e+00,2.427824497222900391e+00,2.430785417556762695e+00,2.433753490447998047e+00,2.436728954315185547e+00,2.439711332321166992e+00,2.442701339721679688e+00,2.445698738098144531e+00,2.448703289031982422e+00,2.451715230941772461e+00,2.454734563827514648e+00,2.457761287689208984e+00,2.460795879364013672e+00,2.463837623596191406e+00,2.466886997222900391e+00,2.469944000244140625e+00,2.473008394241333008e+00,2.476080656051635742e+00,2.479160308837890625e+00,2.482247829437255859e+00,2.485342741012573242e+00,2.488445520401000977e+00,2.491556406021118164e+00,2.494674682617187500e+00,2.497801065444946289e+00,2.500934839248657227e+00,2.504076957702636719e+00,2.507226943969726562e+00,2.510384559631347656e+00,2.513550281524658203e+00,2.516723871231079102e+00,2.519905805587768555e+00,2.523095607757568359e+00,2.526293516159057617e+00,2.529499530792236328e+00,2.532713651657104492e+00,2.535936117172241211e+00,2.539166688919067383e+00,2.542405366897583008e+00,2.545652627944946289e+00,2.548907756805419922e+00,2.552171707153320312e+00,2.555443763732910156e+00,2.558724164962768555e+00,2.562013149261474609e+00,2.565310478210449219e+00,2.568616390228271484e+00,2.571930885314941406e+00,2.575253725051879883e+00,2.578585386276245117e+00,2.581925392150878906e+00,2.585274457931518555e+00
2.344974756240844727e+00,2.347737073898315430e+00,2.350505590438842773e+00,2.353280544281005859e+00,2.356062412261962891e+00,2.358850717544555664e+00,2.361645460128784180e+00,2.364446878433227539e+00,2.367254972457885742e+00,2.370069980621337891e+00,2.372891426086425781e+00,2.375719785690307617e+00,2.378554821014404297e+00,2.381396532058715820e+00,2.384245157241821289e+00,2.387100696563720703e+00,2.389962911605834961e+00,2.392832040786743164e+00,2.395708084106445312e+00,2.398591041564941406e+00,2.401480913162231445e+00,2.404377937316894531e+00,2.407281637191772461e+00,2.410192728042602539e+00,2.413110494613647461e+00,2.416035413742065430e+00,2.418967723846435547e+00,2.421906948089599609e+00,2.424853324890136719e+00,2.427806854248046875e+00,2.430767536163330078e+00,2.433735609054565430e+00,2.436710834503173828e+00,2.439693450927734375e+00,2.442683219909667969e+00,2.445680379867553711e+00,2.448685169219970703e+00,2.451696872711181641e+00,2.454716444015502930e+00,2.457743167877197266e+00,2.460777282714843750e+00,2.463819265365600586e+00,2.466868638992309570e+00,2.469925642013549805e+00,2.472989797592163086e+00,2.476062059402465820e+00,2.479141712188720703e+00,2.482228994369506836e+00,2.485324382781982422e+00,2.488426923751831055e+00,2.491537570953369141e+00,2.494655847549438477e+00,2.497781991958618164e+00,2.500916242599487305e+00,2.504057884216308594e+00,2.507207870483398438e+00,2.510365724563598633e+00,2.513531208038330078e+00,2.516705036163330078e+00,2.519886493682861328e+00,2.523076534271240234e+00,2.526274204254150391e+00,2.529480218887329102e+00,2.532694339752197266e+00,2.535916566848754883e+00,2.539147138595581055e+00,2.542385816574096680e+00,2.545633077621459961e+00,2.548888206481933594e+00,2.552151918411254883e+00,2.555423974990844727e+00,2.558704376220703125e+00,2.561993360519409180e+00,2.565290689468383789e+00,2.568596363067626953e+00,2.571910858154296875e+00,2.575233697891235352e+00,2.578565359115600586e+00,2.581905364990234375e+00,2.585254192352294922e+00
2.344958305358886719e+00,2.347720146179199219e+00,2.350488901138305664e+00,2.353263854980468750e+00,2.356045484542846680e+00,2.358833789825439453e+00,2.361628532409667969e+00,2.364430189132690430e+00,2.367238283157348633e+00,2.370053052902221680e+00,2.372874498367309570e+00,2.375702857971191406e+00,2.378537893295288086e+00,2.381379365921020508e+00,2.384228229522705078e+00,2.387083530426025391e+00,2.389945507049560547e+00,2.392814874649047852e+00,2.395690679550170898e+00,2.398573637008666992e+00,2.401463508605957031e+00,2.404360294342041016e+00,2.407264232635498047e+00,2.410175085067749023e+00,2.413093090057373047e+00,2.416018009185791016e+00,2.418949842453002930e+00,2.421889305114746094e+00,2.424835443496704102e+00,2.427789211273193359e+00,2.430749654769897461e+00,2.433717727661132812e+00,2.436692953109741211e+00,2.439675331115722656e+00,2.442665338516235352e+00,2.445662498474121094e+00,2.448667049407958984e+00,2.451678991317749023e+00,2.454698085784912109e+00,2.457725048065185547e+00,2.460759162902832031e+00,2.463801145553588867e+00,2.466850280761718750e+00,2.469907045364379883e+00,2.472971439361572266e+00,2.476043462753295898e+00,2.479123353958129883e+00,2.482210636138916016e+00,2.485305547714233398e+00,2.488408327102661133e+00,2.491518735885620117e+00,2.494637250900268555e+00,2.497763156890869141e+00,2.500897169113159180e+00,2.504039049148559570e+00,2.507188796997070312e+00,2.510346651077270508e+00,2.513512134552001953e+00,2.516685962677001953e+00,2.519867420196533203e+00,2.523056983947753906e+00,2.526255130767822266e+00,2.529460906982421875e+00,2.532675027847290039e+00,2.535897254943847656e+00,2.539127588272094727e+00,2.542366504669189453e+00,2.545613288879394531e+00,2.548868656158447266e+00,2.552132368087768555e+00,2.555404186248779297e+00,2.558684587478637695e+00,2.561973333358764648e+00,2.565270662307739258e+00,2.568576574325561523e+00,2.571890830993652344e+00,2.575213670730590820e+00,2.578545093536376953e+00,2.581885337829589844e+00,2.585233926773071289e+00
2.344941616058349609e+00,2.347703695297241211e+00,2.350471973419189453e+00,2.353247165679931641e+00,2.356028795242309570e+00,2.358817100524902344e+00,2.361611843109130859e+00,2.364413022994995117e+00,2.367221355438232422e+00,2.370036125183105469e+00,2.372857570648193359e+00,2.375685691833496094e+00,2.378520727157592773e+00,2.381362438201904297e+00,2.384210824966430664e+00,2.387066364288330078e+00,2.389928340911865234e+00,2.392797470092773438e+00,2.395673513412475586e+00,2.398556232452392578e+00,2.401446104049682617e+00,2.404342889785766602e+00,2.407246589660644531e+00,2.410157442092895508e+00,2.413075208663940430e+00,2.416000366210937500e+00,2.418932437896728516e+00,2.421871662139892578e+00,2.424817800521850586e+00,2.427771091461181641e+00,2.430732011795043945e+00,2.433699846267700195e+00,2.436675071716308594e+00,2.439657449722290039e+00,2.442647218704223633e+00,2.445644378662109375e+00,2.448648929595947266e+00,2.451660871505737305e+00,2.454679965972900391e+00,2.457706689834594727e+00,2.460741043090820312e+00,2.463782548904418945e+00,2.466831922531127930e+00,2.469888687133789062e+00,2.472952842712402344e+00,2.476025104522705078e+00,2.479104518890380859e+00,2.482192039489746094e+00,2.485286951065063477e+00,2.488389730453491211e+00,2.491500139236450195e+00,2.494618177413940430e+00,2.497744321823120117e+00,2.500878334045410156e+00,2.504020214080810547e+00,2.507169961929321289e+00,2.510327577590942383e+00,2.513493061065673828e+00,2.516666650772094727e+00,2.519848346710205078e+00,2.523037910461425781e+00,2.526235580444335938e+00,2.529441595077514648e+00,2.532655477523803711e+00,2.535877943038940430e+00,2.539108276367187500e+00,2.542346715927124023e+00,2.545593738555908203e+00,2.548848867416381836e+00,2.552112579345703125e+00,2.555384635925292969e+00,2.558664798736572266e+00,2.561953544616699219e+00,2.565250873565673828e+00,2.568556547164916992e+00,2.571870803833007812e+00,2.575193643569946289e+00,2.578525066375732422e+00,2.581865072250366211e+00,2.585213899612426758e+00
2.344924926757812500e+00,2.347687005996704102e+00,2.350455522537231445e+00,2.353230476379394531e+00,2.356012105941772461e+00,2.358800172805786133e+00,2.361594915390014648e+00,2.364396333694458008e+00,2.367204189300537109e+00,2.370019197463989258e+00,2.372840404510498047e+00,2.375668764114379883e+00,2.378503561019897461e+00,2.381345272064208984e+00,2.384193658828735352e+00,2.387048959732055664e+00,2.389911174774169922e+00,2.392780303955078125e+00,2.395656108856201172e+00,2.398538827896118164e+00,2.401428699493408203e+00,2.404325485229492188e+00,2.407229185104370117e+00,2.410140037536621094e+00,2.413057804107666016e+00,2.415982484817504883e+00,2.418914794921875000e+00,2.421853780746459961e+00,2.424800157546997070e+00,2.427753448486328125e+00,2.430714130401611328e+00,2.433681964874267578e+00,2.436657190322875977e+00,2.439639568328857422e+00,2.442629337310791016e+00,2.445626258850097656e+00,2.448630809783935547e+00,2.451642513275146484e+00,2.454661846160888672e+00,2.457688331604003906e+00,2.460722684860229492e+00,2.463764429092407227e+00,2.466813564300537109e+00,2.469870328903198242e+00,2.472934484481811523e+00,2.476006507873535156e+00,2.479086160659790039e+00,2.482173204421997070e+00,2.485268354415893555e+00,2.488370895385742188e+00,2.491481304168701172e+00,2.494599580764770508e+00,2.497725486755371094e+00,2.500859498977661133e+00,2.504001140594482422e+00,2.507150888442993164e+00,2.510308504104614258e+00,2.513473987579345703e+00,2.516647577285766602e+00,2.519829034805297852e+00,2.523018836975097656e+00,2.526216506958007812e+00,2.529422283172607422e+00,2.532636165618896484e+00,2.535858392715454102e+00,2.539088726043701172e+00,2.542327404022216797e+00,2.545574426651000977e+00,2.548829555511474609e+00,2.552092790603637695e+00,2.555364847183227539e+00,2.558645009994506836e+00,2.561933755874633789e+00,2.565231084823608398e+00,2.568536520004272461e+00,2.571851015090942383e+00,2.575173616409301758e+00,2.578505039215087891e+00,2.581845045089721680e+00,2.585193634033203125e+00
2.344908475875854492e+00,2.347670316696166992e+00,2.350438833236694336e+00,2.353213787078857422e+00,2.355995178222656250e+00,2.358783483505249023e+00,2.361577987670898438e+00,2.364379405975341797e+00,2.367187500000000000e+00,2.370002269744873047e+00,2.372823476791381836e+00,2.375651597976684570e+00,2.378486633300781250e+00,2.381328105926513672e+00,2.384176731109619141e+00,2.387031793594360352e+00,2.389893770217895508e+00,2.392762899398803711e+00,2.395638704299926758e+00,2.398521661758422852e+00,2.401411294937133789e+00,2.404307842254638672e+00,2.407211780548095703e+00,2.410122394561767578e+00,2.413040161132812500e+00,2.415965080261230469e+00,2.418896913528442383e+00,2.421836137771606445e+00,2.424782276153564453e+00,2.427735805511474609e+00,2.430696249008178711e+00,2.433664083480834961e+00,2.436639308929443359e+00,2.439621448516845703e+00,2.442611217498779297e+00,2.445608377456665039e+00,2.448612689971923828e+00,2.451624393463134766e+00,2.454643487930297852e+00,2.457670211791992188e+00,2.460704326629638672e+00,2.463746070861816406e+00,2.466795206069946289e+00,2.469851732254028320e+00,2.472916126251220703e+00,2.475987911224365234e+00,2.479067564010620117e+00,2.482154846191406250e+00,2.485249519348144531e+00,2.488352298736572266e+00,2.491462469100952148e+00,2.494580745697021484e+00,2.497706651687622070e+00,2.500840425491333008e+00,2.503982305526733398e+00,2.507131814956665039e+00,2.510289669036865234e+00,2.513454914093017578e+00,2.516628503799438477e+00,2.519809961318969727e+00,2.522999525070190430e+00,2.526197195053100586e+00,2.529402971267700195e+00,2.532616853713989258e+00,2.535839080810546875e+00,2.539069175720214844e+00,2.542307853698730469e+00,2.545554637908935547e+00,2.548809766769409180e+00,2.552073240280151367e+00,2.555345058441162109e+00,2.558625459671020508e+00,2.561913967132568359e+00,2.565211057662963867e+00,2.568516731262207031e+00,2.571830749511718750e+00,2.575153589248657227e+00,2.578484773635864258e+00,2.581825017929077148e+00,2.585173368453979492e+00
2.344892024993896484e+00,2.347653627395629883e+00,2.350421905517578125e+00,2.353197097778320312e+00,2.355978488922119141e+00,2.358766794204711914e+00,2.361561298370361328e+00,2.364362478256225586e+00,2.367170572280883789e+00,2.369985103607177734e+00,2.372806549072265625e+00,2.375634670257568359e+00,2.378469467163085938e+00,2.381310939788818359e+00,2.384159326553344727e+00,2.387014627456665039e+00,2.389876604080200195e+00,2.392745494842529297e+00,2.395621538162231445e+00,2.398504018783569336e+00,2.401393890380859375e+00,2.404290437698364258e+00,2.407194375991821289e+00,2.410104990005493164e+00,2.413022518157958984e+00,2.415947437286376953e+00,2.418879270553588867e+00,2.421818494796752930e+00,2.424764633178710938e+00,2.427717924118041992e+00,2.430678367614746094e+00,2.433646202087402344e+00,2.436621427536010742e+00,2.439603567123413086e+00,2.442593097686767578e+00,2.445590257644653320e+00,2.448594570159912109e+00,2.451606273651123047e+00,2.454625368118286133e+00,2.457651853561401367e+00,2.460685968399047852e+00,2.463727712631225586e+00,2.466776847839355469e+00,2.469833374023437500e+00,2.472897529602050781e+00,2.475969552993774414e+00,2.479048967361450195e+00,2.482136249542236328e+00,2.485230922698974609e+00,2.488333702087402344e+00,2.491443872451782227e+00,2.494561910629272461e+00,2.497687816619873047e+00,2.500821590423583984e+00,2.503963470458984375e+00,2.507112979888916016e+00,2.510270357131958008e+00,2.513435840606689453e+00,2.516609191894531250e+00,2.519790887832641602e+00,2.522980213165283203e+00,2.526177883148193359e+00,2.529383659362792969e+00,2.532597541809082031e+00,2.535819530487060547e+00,2.539049863815307617e+00,2.542288303375244141e+00,2.545535087585449219e+00,2.548790216445922852e+00,2.552053689956665039e+00,2.555325508117675781e+00,2.558605670928955078e+00,2.561894178390502930e+00,2.565191268920898438e+00,2.568496942520141602e+00,2.571810960769653320e+00,2.575133562088012695e+00,2.578464984893798828e+00,2.581804752349853516e+00,2.585153341293334961e+00
2.344875097274780273e+00,2.347637176513671875e+00,2.350405454635620117e+00,2.353180170059204102e+00,2.355961799621582031e+00,2.358749866485595703e+00,2.361544370651245117e+00,2.364345550537109375e+00,2.367153644561767578e+00,2.369968175888061523e+00,2.372789382934570312e+00,2.375617742538452148e+00,2.378452301025390625e+00,2.381294012069702148e+00,2.384142160415649414e+00,2.386997222900390625e+00,2.389859437942504883e+00,2.392728328704833984e+00,2.395604133605957031e+00,2.398486852645874023e+00,2.401376247406005859e+00,2.404273033142089844e+00,2.407176733016967773e+00,2.410087347030639648e+00,2.413005113601684570e+00,2.415929794311523438e+00,2.418861627578735352e+00,2.421800613403320312e+00,2.424746990203857422e+00,2.427700042724609375e+00,2.430660486221313477e+00,2.433628320693969727e+00,2.436603307723999023e+00,2.439585685729980469e+00,2.442575216293334961e+00,2.445572137832641602e+00,2.448576450347900391e+00,2.451588153839111328e+00,2.454607248306274414e+00,2.457633733749389648e+00,2.460667848587036133e+00,2.463709354400634766e+00,2.466758251190185547e+00,2.469815015792846680e+00,2.472879171371459961e+00,2.475950956344604492e+00,2.479030370712280273e+00,2.482117414474487305e+00,2.485212326049804688e+00,2.488314867019653320e+00,2.491425275802612305e+00,2.494543075561523438e+00,2.497668981552124023e+00,2.500802755355834961e+00,2.503944396972656250e+00,2.507094144821166992e+00,2.510251522064208984e+00,2.513416767120361328e+00,2.516590118408203125e+00,2.519771575927734375e+00,2.522961139678955078e+00,2.526158571243286133e+00,2.529364347457885742e+00,2.532578229904174805e+00,2.535799980163574219e+00,2.539030313491821289e+00,2.542268753051757812e+00,2.545515537261962891e+00,2.548770666122436523e+00,2.552033901214599609e+00,2.555305719375610352e+00,2.558585882186889648e+00,2.561874389648437500e+00,2.565171241760253906e+00,2.568476915359497070e+00,2.571790933609008789e+00,2.575113534927368164e+00,2.578444957733154297e+00,2.581784725189208984e+00,2.585133075714111328e+00
2.344858646392822266e+00,2.347620248794555664e+00,2.350388765335083008e+00,2.353163480758666992e+00,2.355945110321044922e+00,2.358733177185058594e+00,2.361527442932128906e+00,2.364328861236572266e+00,2.367136716842651367e+00,2.369951248168945312e+00,2.372772455215454102e+00,2.375600576400756836e+00,2.378435373306274414e+00,2.381276607513427734e+00,2.384125232696533203e+00,2.386980295181274414e+00,2.389842033386230469e+00,2.392711162567138672e+00,2.395586729049682617e+00,2.398469448089599609e+00,2.401359081268310547e+00,2.404255628585815430e+00,2.407159328460693359e+00,2.410069704055786133e+00,2.412987470626831055e+00,2.415912151336669922e+00,2.418843984603881836e+00,2.421782970428466797e+00,2.424729108810424805e+00,2.427682399749755859e+00,2.430642604827880859e+00,2.433610439300537109e+00,2.436585426330566406e+00,2.439567565917968750e+00,2.442557334899902344e+00,2.445554018020629883e+00,2.448558330535888672e+00,2.451570034027099609e+00,2.454588890075683594e+00,2.457615613937377930e+00,2.460649490356445312e+00,2.463690996170043945e+00,2.466739892959594727e+00,2.469796419143676758e+00,2.472860574722290039e+00,2.475932359695434570e+00,2.479012012481689453e+00,2.482098817825317383e+00,2.485193490982055664e+00,2.488296031951904297e+00,2.491406202316284180e+00,2.494524478912353516e+00,2.497650146484375000e+00,2.500783920288085938e+00,2.503925561904907227e+00,2.507074832916259766e+00,2.510232448577880859e+00,2.513397693634033203e+00,2.516571044921875000e+00,2.519752502441406250e+00,2.522941827774047852e+00,2.526139497756958008e+00,2.529345035552978516e+00,2.532558917999267578e+00,2.535780668258666992e+00,2.539010763168334961e+00,2.542249441146850586e+00,2.545495986938476562e+00,2.548751115798950195e+00,2.552014350891113281e+00,2.555285930633544922e+00,2.558566093444824219e+00,2.561854362487792969e+00,2.565151453018188477e+00,2.568456888198852539e+00,2.571770906448364258e+00,2.575093507766723633e+00,2.578424692153930664e+00,2.581764459609985352e+00,2.585112810134887695e+00
2.344842195510864258e+00,2.347603797912597656e+00,2.350372076034545898e+00,2.353147029876708984e+00,2.355928182601928711e+00,2.358716249465942383e+00,2.361510753631591797e+00,2.364311933517456055e+00,2.367119789123535156e+00,2.369934320449829102e+00,2.372755527496337891e+00,2.375583410263061523e+00,2.378418207168579102e+00,2.381259679794311523e+00,2.384107828140258789e+00,2.386963129043579102e+00,2.389824867248535156e+00,2.392693758010864258e+00,2.395569324493408203e+00,2.398452043533325195e+00,2.401341676712036133e+00,2.404238224029541016e+00,2.407141685485839844e+00,2.410052299499511719e+00,2.412969827651977539e+00,2.415894508361816406e+00,2.418826341629028320e+00,2.421765327453613281e+00,2.424711227416992188e+00,2.427664518356323242e+00,2.430624961853027344e+00,2.433592557907104492e+00,2.436567544937133789e+00,2.439549684524536133e+00,2.442539215087890625e+00,2.445536136627197266e+00,2.448540210723876953e+00,2.451551914215087891e+00,2.454570770263671875e+00,2.457597255706787109e+00,2.460631132125854492e+00,2.463672637939453125e+00,2.466721773147583008e+00,2.469778060913085938e+00,2.472842216491699219e+00,2.475914001464843750e+00,2.478993177413940430e+00,2.482080459594726562e+00,2.485174894332885742e+00,2.488277435302734375e+00,2.491387605667114258e+00,2.494505643844604492e+00,2.497631311416625977e+00,2.500765085220336914e+00,2.503906726837158203e+00,2.507055997848510742e+00,2.510213375091552734e+00,2.513378620147705078e+00,2.516551733016967773e+00,2.519733190536499023e+00,2.522922515869140625e+00,2.526119947433471680e+00,2.529325723648071289e+00,2.532539367675781250e+00,2.535761356353759766e+00,2.538991451263427734e+00,2.542229652404785156e+00,2.545476436614990234e+00,2.548731327056884766e+00,2.551994562149047852e+00,2.555266141891479492e+00,2.558546304702758789e+00,2.561834812164306641e+00,2.565131425857543945e+00,2.568437099456787109e+00,2.571751117706298828e+00,2.575073480606079102e+00,2.578404664993286133e+00,2.581744432449340820e+00,2.585092782974243164e+00
2.344825267791748047e+00,2.347587108612060547e+00,2.350355386734008789e+00,2.353130102157592773e+00,2.355911493301391602e+00,2.358699321746826172e+00,2.361493825912475586e+00,2.364295005798339844e+00,2.367102861404418945e+00,2.369917392730712891e+00,2.372738599777221680e+00,2.375566482543945312e+00,2.378401041030883789e+00,2.381242513656616211e+00,2.384090662002563477e+00,2.386945724487304688e+00,2.389807701110839844e+00,2.392676591873168945e+00,2.395552158355712891e+00,2.398434638977050781e+00,2.401324033737182617e+00,2.404220819473266602e+00,2.407124042510986328e+00,2.410034894943237305e+00,2.412952184677124023e+00,2.415876865386962891e+00,2.418808698654174805e+00,2.421747446060180664e+00,2.424693584442138672e+00,2.427646636962890625e+00,2.430607080459594727e+00,2.433574676513671875e+00,2.436549425125122070e+00,2.439531803131103516e+00,2.442521095275878906e+00,2.445518016815185547e+00,2.448522090911865234e+00,2.451533555984497070e+00,2.454552650451660156e+00,2.457578897476196289e+00,2.460613012313842773e+00,2.463654279708862305e+00,2.466703176498413086e+00,2.469759702682495117e+00,2.472823619842529297e+00,2.475895404815673828e+00,2.478974819183349609e+00,2.482061624526977539e+00,2.485156297683715820e+00,2.488258600234985352e+00,2.491369009017944336e+00,2.494486808776855469e+00,2.497612476348876953e+00,2.500746250152587891e+00,2.503887653350830078e+00,2.507037162780761719e+00,2.510194301605224609e+00,2.513359546661376953e+00,2.516532897949218750e+00,2.519713878631591797e+00,2.522903442382812500e+00,2.526100873947143555e+00,2.529306411743164062e+00,2.532520055770874023e+00,2.535741806030273438e+00,2.538971900939941406e+00,2.542210340499877930e+00,2.545456886291503906e+00,2.548711776733398438e+00,2.551974773406982422e+00,2.555246591567993164e+00,2.558526515960693359e+00,2.561815023422241211e+00,2.565111637115478516e+00,2.568417072296142578e+00,2.571731090545654297e+00,2.575053453445434570e+00,2.578384637832641602e+00,2.581724166870117188e+00,2.585072517395019531e+00
2.344808816909790039e+00,2.347570419311523438e+00,2.350338697433471680e+00,2.353113412857055664e+00,2.355894804000854492e+00,2.358682632446289062e+00,2.361476898193359375e+00,2.364278078079223633e+00,2.367085933685302734e+00,2.369900465011596680e+00,2.372721433639526367e+00,2.375549316406250000e+00,2.378384113311767578e+00,2.381225347518920898e+00,2.384073734283447266e+00,2.386928558349609375e+00,2.389790296554565430e+00,2.392659187316894531e+00,2.395534753799438477e+00,2.398417234420776367e+00,2.401306629180908203e+00,2.404203176498413086e+00,2.407106637954711914e+00,2.410017251968383789e+00,2.412934780120849609e+00,2.415859222412109375e+00,2.418791055679321289e+00,2.421729803085327148e+00,2.424675703048706055e+00,2.427628993988037109e+00,2.430589199066162109e+00,2.433556795120239258e+00,2.436531543731689453e+00,2.439513683319091797e+00,2.442503213882446289e+00,2.445499897003173828e+00,2.448504209518432617e+00,2.451515436172485352e+00,2.454534292221069336e+00,2.457560777664184570e+00,2.460594654083251953e+00,2.463636159896850586e+00,2.466684818267822266e+00,2.469741106033325195e+00,2.472805261611938477e+00,2.475876808166503906e+00,2.478956222534179688e+00,2.482043027877807617e+00,2.485137701034545898e+00,2.488240003585815430e+00,2.491350173950195312e+00,2.494467973709106445e+00,2.497593641281127930e+00,2.500727415084838867e+00,2.503868579864501953e+00,2.507018089294433594e+00,2.510175466537475586e+00,2.513340473175048828e+00,2.516513824462890625e+00,2.519694805145263672e+00,2.522884130477905273e+00,2.526081562042236328e+00,2.529287099838256836e+00,2.532500743865966797e+00,2.535722494125366211e+00,2.538952350616455078e+00,2.542190790176391602e+00,2.545437335968017578e+00,2.548692226409912109e+00,2.551955223083496094e+00,2.555226802825927734e+00,2.558506727218627930e+00,2.561794996261596680e+00,2.565091848373413086e+00,2.568397283554077148e+00,2.571711301803588867e+00,2.575033426284790039e+00,2.578364372253417969e+00,2.581704139709472656e+00,2.585052490234375000e+00
2.344792366027832031e+00,2.347553730010986328e+00,2.350322008132934570e+00,2.353096723556518555e+00,2.355877876281738281e+00,2.358665943145751953e+00,2.361460208892822266e+00,2.364261150360107422e+00,2.367069005966186523e+00,2.369883298873901367e+00,2.372704505920410156e+00,2.375532388687133789e+00,2.378366947174072266e+00,2.381208181381225586e+00,2.384056329727172852e+00,2.386911392211914062e+00,2.389773130416870117e+00,2.392642021179199219e+00,2.395517349243164062e+00,2.398399829864501953e+00,2.401289463043212891e+00,2.404185771942138672e+00,2.407089233398437500e+00,2.409999608993530273e+00,2.412917137145996094e+00,2.415841579437255859e+00,2.418773412704467773e+00,2.421712160110473633e+00,2.424658060073852539e+00,2.427611112594604492e+00,2.430571317672729492e+00,2.433538913726806641e+00,2.436513662338256836e+00,2.439495801925659180e+00,2.442485094070434570e+00,2.445482015609741211e+00,2.448485851287841797e+00,2.451497316360473633e+00,2.454516172409057617e+00,2.457542419433593750e+00,2.460576295852661133e+00,2.463617563247680664e+00,2.466666460037231445e+00,2.469722747802734375e+00,2.472786903381347656e+00,2.475858449935913086e+00,2.478937625885009766e+00,2.482024669647216797e+00,2.485119104385375977e+00,2.488221406936645508e+00,2.491331338882446289e+00,2.494449138641357422e+00,2.497574806213378906e+00,2.500708341598510742e+00,2.503849744796752930e+00,2.506999015808105469e+00,2.510156154632568359e+00,2.513321399688720703e+00,2.516494512557983398e+00,2.519675731658935547e+00,2.522864818572998047e+00,2.526062250137329102e+00,2.529267787933349609e+00,2.532481193542480469e+00,2.535703182220458984e+00,2.538933038711547852e+00,2.542171239852905273e+00,2.545417785644531250e+00,2.548672437667846680e+00,2.551935672760009766e+00,2.555207014083862305e+00,2.558487176895141602e+00,2.561775207519531250e+00,2.565071821212768555e+00,2.568377256393432617e+00,2.571691036224365234e+00,2.575013399124145508e+00,2.578344345092773438e+00,2.581683874130249023e+00,2.585032224655151367e+00
2.344775676727294922e+00,2.347537279129028320e+00,2.350305318832397461e+00,2.353080034255981445e+00,2.355861186981201172e+00,2.358649015426635742e+00,2.361443519592285156e+00,2.364244461059570312e+00,2.367052078247070312e+00,2.369866371154785156e+00,2.372687578201293945e+00,2.375515460968017578e+00,2.378349781036376953e+00,2.381191253662109375e+00,2.384039163589477539e+00,2.386893987655639648e+00,2.389755964279174805e+00,2.392624616622924805e+00,2.395500183105468750e+00,2.398382425308227539e+00,2.401271820068359375e+00,2.404168367385864258e+00,2.407071590423583984e+00,2.409982204437255859e+00,2.412899494171142578e+00,2.415823936462402344e+00,2.418755769729614258e+00,2.421694278717041016e+00,2.424640417098999023e+00,2.427593231201171875e+00,2.430553436279296875e+00,2.433521032333374023e+00,2.436495780944824219e+00,2.439477920532226562e+00,2.442467212677001953e+00,2.445463895797729492e+00,2.448467969894409180e+00,2.451479196548461914e+00,2.454498052597045898e+00,2.457524299621582031e+00,2.460558176040649414e+00,2.463599443435668945e+00,2.466648101806640625e+00,2.469704389572143555e+00,2.472768306732177734e+00,2.475839853286743164e+00,2.478919029235839844e+00,2.482005834579467773e+00,2.485100507736206055e+00,2.488202571868896484e+00,2.491312742233276367e+00,2.494430541992187500e+00,2.497555971145629883e+00,2.500689506530761719e+00,2.503830671310424805e+00,2.506980180740356445e+00,2.510137319564819336e+00,2.513302326202392578e+00,2.516475439071655273e+00,2.519656419754028320e+00,2.522845745086669922e+00,2.526042938232421875e+00,2.529248476028442383e+00,2.532461881637573242e+00,2.535683631896972656e+00,2.538913488388061523e+00,2.542151689529418945e+00,2.545398235321044922e+00,2.548652887344360352e+00,2.551915884017944336e+00,2.555187463760375977e+00,2.558467149734497070e+00,2.561755418777465820e+00,2.565052032470703125e+00,2.568357229232788086e+00,2.571671247482299805e+00,2.574993371963500977e+00,2.578324317932128906e+00,2.581663846969604492e+00,2.585011959075927734e+00
2.344758987426757812e+00,2.347520589828491211e+00,2.350288629531860352e+00,2.353063344955444336e+00,2.355844497680664062e+00,2.358632326126098633e+00,2.361426353454589844e+00,2.364227533340454102e+00,2.367035150527954102e+00,2.369849681854248047e+00,2.372670650482177734e+00,2.375498294830322266e+00,2.378332853317260742e+00,2.381174087524414062e+00,2.384022235870361328e+00,2.386877059936523438e+00,2.389738559722900391e+00,2.392607450485229492e+00,2.395482778549194336e+00,2.398365259170532227e+00,2.401254415512084961e+00,2.404150724411010742e+00,2.407054185867309570e+00,2.409964561462402344e+00,2.412882089614868164e+00,2.415806293487548828e+00,2.418738126754760742e+00,2.421676635742187500e+00,2.424622535705566406e+00,2.427575588226318359e+00,2.430535554885864258e+00,2.433503150939941406e+00,2.436477899551391602e+00,2.439459800720214844e+00,2.442449092864990234e+00,2.445445775985717773e+00,2.448449850082397461e+00,2.451461076736450195e+00,2.454479694366455078e+00,2.457506179809570312e+00,2.460539817810058594e+00,2.463581085205078125e+00,2.466629743576049805e+00,2.469686031341552734e+00,2.472749948501586914e+00,2.475821256637573242e+00,2.478900671005249023e+00,2.481987237930297852e+00,2.485081911087036133e+00,2.488183975219726562e+00,2.491293907165527344e+00,2.494411706924438477e+00,2.497537136077880859e+00,2.500670671463012695e+00,2.503811836242675781e+00,2.506961107254028320e+00,2.510118246078491211e+00,2.513283252716064453e+00,2.516456365585327148e+00,2.519637346267700195e+00,2.522826433181762695e+00,2.526023864746093750e+00,2.529229164123535156e+00,2.532442569732666016e+00,2.535664319992065430e+00,2.538893938064575195e+00,2.542132139205932617e+00,2.545378446578979492e+00,2.548633337020874023e+00,2.551896333694458008e+00,2.555167675018310547e+00,2.558447360992431641e+00,2.561735630035400391e+00,2.565032243728637695e+00,2.568337440490722656e+00,2.571651220321655273e+00,2.574973344802856445e+00,2.578304290771484375e+00,2.581643819808959961e+00,2.584991931915283203e+00
2.344742536544799805e+00,2.347503900527954102e+00,2.350271940231323242e+00,2.353046655654907227e+00,2.355827808380126953e+00,2.358615398406982422e+00,2.361409664154052734e+00,2.364210605621337891e+00,2.367018222808837891e+00,2.369832515716552734e+00,2.372653484344482422e+00,2.375481128692626953e+00,2.378315687179565430e+00,2.381156921386718750e+00,2.384004831314086914e+00,2.386859893798828125e+00,2.389721393585205078e+00,2.392590284347534180e+00,2.395465373992919922e+00,2.398347616195678711e+00,2.401237249374389648e+00,2.404133319854736328e+00,2.407036781311035156e+00,2.409947156906127930e+00,2.412864208221435547e+00,2.415788888931274414e+00,2.418720245361328125e+00,2.421658992767333984e+00,2.424604892730712891e+00,2.427557706832885742e+00,2.430517911911010742e+00,2.433485269546508789e+00,2.436460018157958984e+00,2.439441919326782227e+00,2.442430973052978516e+00,2.445427656173706055e+00,2.448431491851806641e+00,2.451442956924438477e+00,2.454461574554443359e+00,2.457487821578979492e+00,2.460521459579467773e+00,2.463562726974487305e+00,2.466611385345458984e+00,2.469667673110961914e+00,2.472731351852416992e+00,2.475802898406982422e+00,2.478881835937500000e+00,2.481968641281127930e+00,2.485063076019287109e+00,2.488165378570556641e+00,2.491275072097778320e+00,2.494392871856689453e+00,2.497518539428710938e+00,2.500651597976684570e+00,2.503793001174926758e+00,2.506942033767700195e+00,2.510099172592163086e+00,2.513264179229736328e+00,2.516437053680419922e+00,2.519618272781372070e+00,2.522807359695434570e+00,2.526004314422607422e+00,2.529209852218627930e+00,2.532423257827758789e+00,2.535644769668579102e+00,2.538874626159667969e+00,2.542112827301025391e+00,2.545359134674072266e+00,2.548613548278808594e+00,2.551876783370971680e+00,2.555147886276245117e+00,2.558427810668945312e+00,2.561715841293334961e+00,2.565012216567993164e+00,2.568317651748657227e+00,2.571631193161010742e+00,2.574953317642211914e+00,2.578284263610839844e+00,2.581623554229736328e+00,2.584971666336059570e+00
2.344725847244262695e+00,2.347487211227416992e+00,2.350255250930786133e+00,2.353029727935791016e+00,2.355810880661010742e+00,2.358598709106445312e+00,2.361392974853515625e+00,2.364193677902221680e+00,2.367001533508300781e+00,2.369815587997436523e+00,2.372636556625366211e+00,2.375464200973510742e+00,2.378298521041870117e+00,2.381139755249023438e+00,2.383987665176391602e+00,2.386842489242553711e+00,2.389704227447509766e+00,2.392572879791259766e+00,2.395448207855224609e+00,2.398330450057983398e+00,2.401219606399536133e+00,2.404115915298461914e+00,2.407019138336181641e+00,2.409929513931274414e+00,2.412846803665161133e+00,2.415771007537841797e+00,2.418702602386474609e+00,2.421641349792480469e+00,2.424587011337280273e+00,2.427539825439453125e+00,2.430500030517578125e+00,2.433467388153076172e+00,2.436441898345947266e+00,2.439423799514770508e+00,2.442413091659545898e+00,2.445409774780273438e+00,2.448413610458374023e+00,2.451424598693847656e+00,2.454443454742431641e+00,2.457469463348388672e+00,2.460503339767456055e+00,2.463544368743896484e+00,2.466593027114868164e+00,2.469649314880371094e+00,2.472712993621826172e+00,2.475784301757812500e+00,2.478863477706909180e+00,2.481950044631958008e+00,2.485044479370117188e+00,2.488146543502807617e+00,2.491256475448608398e+00,2.494374036788940430e+00,2.497499465942382812e+00,2.500632762908935547e+00,2.503773927688598633e+00,2.506923198699951172e+00,2.510080099105834961e+00,2.513245105743408203e+00,2.516417980194091797e+00,2.519598960876464844e+00,2.522788047790527344e+00,2.525985240936279297e+00,2.529190540313720703e+00,2.532403945922851562e+00,2.535625219345092773e+00,2.538855075836181641e+00,2.542093038558959961e+00,2.545339584350585938e+00,2.548593997955322266e+00,2.551856756210327148e+00,2.555128335952758789e+00,2.558407783508300781e+00,2.561696052551269531e+00,2.564992427825927734e+00,2.568297624588012695e+00,2.571611166000366211e+00,2.574933290481567383e+00,2.578264236450195312e+00,2.578045606613159180e+00,2.577707767486572266e+00
2.254983901977539062e+00,2.254723787307739258e+00,2.254463911056518555e+00,2.254204034805297852e+00,2.253944158554077148e+00,2.253684282302856445e+00,2.253424406051635742e+00,2.253164768218994141e+00,2.252905130386352539e+00,2.252645730972290039e+00,2.252386331558227539e+00,2.252126693725585938e+00,2.251867294311523438e+00,2.251607894897460938e+00,2.251348733901977539e+00,2.251089572906494141e+00,2.250830411911010742e+00,2.250571250915527344e+00,2.250312328338623047e+00,2.250053405761718750e+00,2.249794483184814453e+00,2.249535560607910156e+00,2.249276876449584961e+00,2.249017953872680664e+00,2.248759269714355469e+00,2.248500823974609375e+00,2.248242139816284180e+00,2.247983694076538086e+00,2.247725248336791992e+00,2.247466802597045898e+00,2.247208595275878906e+00,2.246950387954711914e+00,2.246692180633544922e+00,2.246433973312377930e+00,2.246176004409790039e+00,2.245917797088623047e+00,2.245660066604614258e+00,2.245402097702026367e+00,2.245144128799438477e+00,2.244886398315429688e+00,2.244628667831420898e+00,2.244370937347412109e+00,2.244113445281982422e+00,2.243855953216552734e+00,2.243598461151123047e+00,2.243340969085693359e+00,2.243083715438842773e+00,2.242826223373413086e+00,2.242569446563720703e+00,2.242313861846923828e+00,2.242058277130126953e+00,2.241802692413330078e+00,2.241547107696533203e+00,2.241291522979736328e+00,2.241036176681518555e+00,2.240780830383300781e+00,2.240525722503662109e+00,2.240270376205444336e+00,2.240015268325805664e+00,2.239760160446166992e+00,2.239505052566528320e+00,2.239250183105468750e+00,2.238995075225830078e+00,2.238740205764770508e+00,2.238485336303710938e+00,2.238230705261230469e+00,2.237976074218750000e+00,2.237721443176269531e+00,2.237466812133789062e+00,2.237212181091308594e+00,2.236957788467407227e+00,2.236703395843505859e+00,2.236449003219604492e+00,2.236194610595703125e+00,2.235940456390380859e+00,2.235686063766479492e+00,2.235432147979736328e+00,2.235177993774414062e+00,2.234924077987670898e+00,2.234670162200927734e+00
1.988009929656982422e+00,1.987807869911193848e+00,1.987605810165405273e+00,1.987403750419616699e+00,1.987201809883117676e+00,1.986999869346618652e+00,1.986798048019409180e+00,1.986596107482910156e+00,1.986394166946411133e+00,1.986192345619201660e+00,1.985990643501281738e+00,1.985788941383361816e+00,1.985587358474731445e+00,1.985385775566101074e+00,1.985184192657470703e+00,1.984982609748840332e+00,1.984781146049499512e+00,1.984579682350158691e+00,1.984378337860107422e+00,1.984176993370056152e+00,1.983975410461425781e+00,1.983774065971374512e+00,1.983572840690612793e+00,1.983371734619140625e+00,1.983170509338378906e+00,1.982969403266906738e+00,1.982768297195434570e+00,1.982567310333251953e+00,1.982366323471069336e+00,1.982165336608886719e+00,1.981964468955993652e+00,1.981763601303100586e+00,1.981562495231628418e+00,1.981361746788024902e+00,1.981160998344421387e+00,1.980960249900817871e+00,1.980759620666503906e+00,1.980558991432189941e+00,1.980358481407165527e+00,1.980157852172851562e+00,1.979957342147827148e+00,1.979756951332092285e+00,1.979556441307067871e+00,1.979357004165649414e+00,1.979157567024230957e+00,1.978958487510681152e+00,1.978759407997131348e+00,1.978560328483581543e+00,1.978361368179321289e+00,1.978162288665771484e+00,1.977963447570800781e+00,1.977764487266540527e+00,1.977565646171569824e+00,1.977366805076599121e+00,1.977168083190917969e+00,1.976969122886657715e+00,1.976770401000976562e+00,1.976571679115295410e+00,1.976373076438903809e+00,1.976174473762512207e+00,1.975975990295410156e+00,1.975777506828308105e+00,1.975579023361206055e+00,1.975380659103393555e+00,1.975182294845581055e+00,1.974983930587768555e+00,1.974785327911376953e+00,1.974587082862854004e+00,1.974388957023620605e+00,1.974190711975097656e+00,1.973992586135864258e+00,1.973794460296630859e+00,1.973596453666687012e+00,1.973398447036743164e+00,1.973200440406799316e+00,1.973002552986145020e+00,1.972804546356201172e+00,1.972606539726257324e+00,1.972408652305603027e+00,1.972210884094238281e+00
1.777559638023376465e+00,1.777398109436035156e+00,1.777236580848693848e+00,1.777075052261352539e+00,1.776913523674011230e+00,1.776752114295959473e+00,1.776590704917907715e+00,1.776429295539855957e+00,1.776267886161804199e+00,1.776106595993041992e+00,1.775945305824279785e+00,1.775783777236938477e+00,1.775622487068176270e+00,1.775461316108703613e+00,1.775300145149230957e+00,1.775138974189758301e+00,1.774977803230285645e+00,1.774816751480102539e+00,1.774655580520629883e+00,1.774494528770446777e+00,1.774333596229553223e+00,1.774172544479370117e+00,1.774011611938476562e+00,1.773850440979003906e+00,1.773689627647399902e+00,1.773528695106506348e+00,1.773367881774902344e+00,1.773207068443298340e+00,1.773046255111694336e+00,1.772885441780090332e+00,1.772724747657775879e+00,1.772564053535461426e+00,1.772403359413146973e+00,1.772242784500122070e+00,1.772082090377807617e+00,1.771921396255493164e+00,1.771760821342468262e+00,1.771600723266601562e+00,1.771441102027893066e+00,1.771281599998474121e+00,1.771122097969055176e+00,1.770962595939636230e+00,1.770802974700927734e+00,1.770643591880798340e+00,1.770484089851379395e+00,1.770324826240539551e+00,1.770165443420410156e+00,1.770006179809570312e+00,1.769846916198730469e+00,1.769687652587890625e+00,1.769528388977050781e+00,1.769369244575500488e+00,1.769209861755371094e+00,1.769050717353820801e+00,1.768891692161560059e+00,1.768732547760009766e+00,1.768573522567749023e+00,1.768414497375488281e+00,1.768255591392517090e+00,1.768096566200256348e+00,1.767937660217285156e+00,1.767778754234313965e+00,1.767619848251342773e+00,1.767461061477661133e+00,1.767302036285400391e+00,1.767143249511718750e+00,1.766984462738037109e+00,1.766825795173645020e+00,1.766667008399963379e+00,1.766508340835571289e+00,1.766349792480468750e+00,1.766191124916076660e+00,1.766032576560974121e+00,1.765874028205871582e+00,1.765715479850769043e+00,1.765556812286376953e+00,1.765398383140563965e+00,1.765239953994750977e+00,1.765081524848937988e+00,1.764923095703125000e+00
1.607400774955749512e+00,1.607268571853637695e+00,1.607136368751525879e+00,1.607004284858703613e+00,1.606872200965881348e+00,1.606740236282348633e+00,1.606608152389526367e+00,1.606476187705993652e+00,1.606344223022460938e+00,1.606212258338928223e+00,1.606080293655395508e+00,1.605948448181152344e+00,1.605816483497619629e+00,1.605684638023376465e+00,1.605552673339843750e+00,1.605420827865600586e+00,1.605289101600646973e+00,1.605157256126403809e+00,1.605025529861450195e+00,1.604893803596496582e+00,1.604762077331542969e+00,1.604630351066589355e+00,1.604498744010925293e+00,1.604367017745971680e+00,1.604235410690307617e+00,1.604103803634643555e+00,1.603972077369689941e+00,1.603840589523315430e+00,1.603708982467651367e+00,1.603577494621276855e+00,1.603446006774902344e+00,1.603314518928527832e+00,1.603183627128601074e+00,1.603052973747253418e+00,1.602922320365905762e+00,1.602791786193847656e+00,1.602661132812500000e+00,1.602530598640441895e+00,1.602400064468383789e+00,1.602269291877746582e+00,1.602138757705688477e+00,1.602008342742919922e+00,1.601877808570861816e+00,1.601747393608093262e+00,1.601616978645324707e+00,1.601486563682556152e+00,1.601356148719787598e+00,1.601225852966308594e+00,1.601095438003540039e+00,1.600965142250061035e+00,1.600834727287292480e+00,1.600704431533813477e+00,1.600574135780334473e+00,1.600443840026855469e+00,1.600313663482666016e+00,1.600183486938476562e+00,1.600053310394287109e+00,1.599923133850097656e+00,1.599792957305908203e+00,1.599662899971008301e+00,1.599532723426818848e+00,1.599402546882629395e+00,1.599272489547729492e+00,1.599142432212829590e+00,1.599012494087219238e+00,1.598882436752319336e+00,1.598752498626708984e+00,1.598622560501098633e+00,1.598492622375488281e+00,1.598362803459167480e+00,1.598232865333557129e+00,1.598103046417236328e+00,1.597972989082336426e+00,1.597843170166015625e+00,1.597713351249694824e+00,1.597583651542663574e+00,1.597453832626342773e+00,1.597324132919311523e+00,1.597194433212280273e+00,1.597064733505249023e+00
1.466972947120666504e+00,1.466862916946411133e+00,1.466752886772155762e+00,1.466642856597900391e+00,1.466532826423645020e+00,1.466422677040100098e+00,1.466312766075134277e+00,1.466202855110168457e+00,1.466092824935913086e+00,1.465982913970947266e+00,1.465873003005981445e+00,1.465763211250305176e+00,1.465653300285339355e+00,1.465543508529663086e+00,1.465433597564697266e+00,1.465323805809020996e+00,1.465214014053344727e+00,1.465104103088378906e+00,1.464994311332702637e+00,1.464884519577026367e+00,1.464774847030639648e+00,1.464665174484252930e+00,1.464555382728576660e+00,1.464445710182189941e+00,1.464336037635803223e+00,1.464226365089416504e+00,1.464116930961608887e+00,1.464007973670959473e+00,1.463898897171020508e+00,1.463789939880371094e+00,1.463681101799011230e+00,1.463572144508361816e+00,1.463463306427001953e+00,1.463354349136352539e+00,1.463245511054992676e+00,1.463136672973632812e+00,1.463027715682983398e+00,1.462918877601623535e+00,1.462810039520263672e+00,1.462701320648193359e+00,1.462592482566833496e+00,1.462483763694763184e+00,1.462375044822692871e+00,1.462266325950622559e+00,1.462157607078552246e+00,1.462048888206481934e+00,1.461940288543701172e+00,1.461831450462341309e+00,1.461722850799560547e+00,1.461614251136779785e+00,1.461505651473999023e+00,1.461397051811218262e+00,1.461288452148437500e+00,1.461179852485656738e+00,1.461071372032165527e+00,1.460962772369384766e+00,1.460854291915893555e+00,1.460745811462402344e+00,1.460637211799621582e+00,1.460528731346130371e+00,1.460420250892639160e+00,1.460311889648437500e+00,1.460203409194946289e+00,1.460095047950744629e+00,1.459986686706542969e+00,1.459878325462341309e+00,1.459769964218139648e+00,1.459661602973937988e+00,1.459553241729736328e+00,1.459444880485534668e+00,1.459336638450622559e+00,1.459228277206420898e+00,1.459120035171508789e+00,1.459011793136596680e+00,1.458903551101684570e+00,1.458795428276062012e+00,1.458687186241149902e+00,1.458579063415527344e+00,1.458470821380615234e+00,1.458362698554992676e+00
1.349110245704650879e+00,1.349017143249511719e+00,1.348924040794372559e+00,1.348831057548522949e+00,1.348737955093383789e+00,1.348644971847534180e+00,1.348551988601684570e+00,1.348458886146545410e+00,1.348365783691406250e+00,1.348272919654846191e+00,1.348179936408996582e+00,1.348086953163146973e+00,1.347993969917297363e+00,1.347901105880737305e+00,1.347808241844177246e+00,1.347715258598327637e+00,1.347622394561767578e+00,1.347529530525207520e+00,1.347436666488647461e+00,1.347343921661376953e+00,1.347250938415527344e+00,1.347158670425415039e+00,1.347066283226013184e+00,1.346974015235900879e+00,1.346881866455078125e+00,1.346789598464965820e+00,1.346697330474853516e+00,1.346605181694030762e+00,1.346513032913208008e+00,1.346420764923095703e+00,1.346328616142272949e+00,1.346236467361450195e+00,1.346144318580627441e+00,1.346052169799804688e+00,1.345960021018981934e+00,1.345867872238159180e+00,1.345775842666625977e+00,1.345683693885803223e+00,1.345591664314270020e+00,1.345499634742736816e+00,1.345407605171203613e+00,1.345315575599670410e+00,1.345223546028137207e+00,1.345131516456604004e+00,1.345039486885070801e+00,1.344947457313537598e+00,1.344855546951293945e+00,1.344763517379760742e+00,1.344671607017517090e+00,1.344579696655273438e+00,1.344487786293029785e+00,1.344395875930786133e+00,1.344303965568542480e+00,1.344212174415588379e+00,1.344120264053344727e+00,1.344028353691101074e+00,1.343936443328857422e+00,1.343844652175903320e+00,1.343752861022949219e+00,1.343661069869995117e+00,1.343569278717041016e+00,1.343477487564086914e+00,1.343385696411132812e+00,1.343293905258178711e+00,1.343202233314514160e+00,1.343110442161560059e+00,1.343018651008605957e+00,1.342926979064941406e+00,1.342835307121276855e+00,1.342743635177612305e+00,1.342651963233947754e+00,1.342560291290283203e+00,1.342468619346618652e+00,1.342377066612243652e+00,1.342285394668579102e+00,1.342193841934204102e+00,1.342102289199829102e+00,1.342010498046875000e+00,1.341918945312500000e+00,1.341827392578125000e+00
1.248778223991394043e+00,1.248698472976684570e+00,1.248618721961975098e+00,1.248538970947265625e+00,1.248459219932556152e+00,1.248379588127136230e+00,1.248299837112426758e+00,1.248220205307006836e+00,1.248140454292297363e+00,1.248060822486877441e+00,1.247981190681457520e+00,1.247901439666748047e+00,1.247821807861328125e+00,1.247742176055908203e+00,1.247662544250488281e+00,1.247583150863647461e+00,1.247503995895385742e+00,1.247424840927124023e+00,1.247345805168151855e+00,1.247266530990600586e+00,1.247187495231628418e+00,1.247108459472656250e+00,1.247029304504394531e+00,1.246950268745422363e+00,1.246871232986450195e+00,1.246792197227478027e+00,1.246713161468505859e+00,1.246634125709533691e+00,1.246555089950561523e+00,1.246476173400878906e+00,1.246397018432617188e+00,1.246318101882934570e+00,1.246239066123962402e+00,1.246160149574279785e+00,1.246081233024597168e+00,1.246002197265625000e+00,1.245923280715942383e+00,1.245844364166259766e+00,1.245765447616577148e+00,1.245686650276184082e+00,1.245607733726501465e+00,1.245528817176818848e+00,1.245449900627136230e+00,1.245370984077453613e+00,1.245292186737060547e+00,1.245213270187377930e+00,1.245134472846984863e+00,1.245055675506591797e+00,1.244976878166198730e+00,1.244898080825805664e+00,1.244819283485412598e+00,1.244740486145019531e+00,1.244661569595336914e+00,1.244582891464233398e+00,1.244504094123840332e+00,1.244425415992736816e+00,1.244346618652343750e+00,1.244267940521240234e+00,1.244189262390136719e+00,1.244110465049743652e+00,1.244031786918640137e+00,1.243953108787536621e+00,1.243874430656433105e+00,1.243795871734619141e+00,1.243717074394226074e+00,1.243638396263122559e+00,1.243559837341308594e+00,1.243481159210205078e+00,1.243402600288391113e+00,1.243323922157287598e+00,1.243245363235473633e+00,1.243166804313659668e+00,1.243088245391845703e+00,1.243009686470031738e+00,1.242931127548217773e+00,1.242852449417114258e+00,1.242774009704589844e+00,1.242695450782775879e+00,1.242616891860961914e+00,1.242538452148437500e+00
1.162336468696594238e+00,1.162267327308654785e+00,1.162198185920715332e+00,1.162129163742065430e+00,1.162060022354125977e+00,1.161991000175476074e+00,1.161921977996826172e+00,1.161852955818176270e+00,1.161783933639526367e+00,1.161714911460876465e+00,1.161646127700805664e+00,1.161577582359313965e+00,1.161508917808532715e+00,1.161440372467041016e+00,1.161371827125549316e+00,1.161303162574768066e+00,1.161234617233276367e+00,1.161166071891784668e+00,1.161097526550292969e+00,1.161028981208801270e+00,1.160960435867309570e+00,1.160891890525817871e+00,1.160823345184326172e+00,1.160754799842834473e+00,1.160686373710632324e+00,1.160617828369140625e+00,1.160549402236938477e+00,1.160480856895446777e+00,1.160412311553955078e+00,1.160343885421752930e+00,1.160275459289550781e+00,1.160207033157348633e+00,1.160138607025146484e+00,1.160070180892944336e+00,1.160001754760742188e+00,1.159933328628540039e+00,1.159864902496337891e+00,1.159796476364135742e+00,1.159728169441223145e+00,1.159659624099731445e+00,1.159591317176818848e+00,1.159522891044616699e+00,1.159454584121704102e+00,1.159386157989501953e+00,1.159317851066589355e+00,1.159249544143676758e+00,1.159181237220764160e+00,1.159112930297851562e+00,1.159044623374938965e+00,1.158976316452026367e+00,1.158907890319824219e+00,1.158839702606201172e+00,1.158771395683288574e+00,1.158703088760375977e+00,1.158634901046752930e+00,1.158566594123840332e+00,1.158498406410217285e+00,1.158430099487304688e+00,1.158361911773681641e+00,1.158293724060058594e+00,1.158225536346435547e+00,1.158157229423522949e+00,1.158089041709899902e+00,1.158020853996276855e+00,1.157952666282653809e+00,1.157884478569030762e+00,1.157816290855407715e+00,1.157748222351074219e+00,1.157680034637451172e+00,1.157611846923828125e+00,1.157543778419494629e+00,1.157475709915161133e+00,1.157407522201538086e+00,1.157339334487915039e+00,1.157271265983581543e+00,1.157203197479248047e+00,1.157135128974914551e+00,1.157067060470581055e+00,1.156998991966247559e+00,1.156930923461914062e+00
1.087087035179138184e+00,1.087026596069335938e+00,1.086966156959533691e+00,1.086905717849731445e+00,1.086845397949218750e+00,1.086785316467285156e+00,1.086725234985351562e+00,1.086665272712707520e+00,1.086605191230773926e+00,1.086545228958129883e+00,1.086485147476196289e+00,1.086425185203552246e+00,1.086365103721618652e+00,1.086305141448974609e+00,1.086245059967041016e+00,1.086185097694396973e+00,1.086125135421752930e+00,1.086065173149108887e+00,1.086005210876464844e+00,1.085945248603820801e+00,1.085885286331176758e+00,1.085825324058532715e+00,1.085765361785888672e+00,1.085705399513244629e+00,1.085645556449890137e+00,1.085585474967956543e+00,1.085525631904602051e+00,1.085465669631958008e+00,1.085405826568603516e+00,1.085345864295959473e+00,1.085286021232604980e+00,1.085226178169250488e+00,1.085166215896606445e+00,1.085106372833251953e+00,1.085046529769897461e+00,1.084986686706542969e+00,1.084926724433898926e+00,1.084866881370544434e+00,1.084807157516479492e+00,1.084747314453125000e+00,1.084687471389770508e+00,1.084627628326416016e+00,1.084567785263061523e+00,1.084507942199707031e+00,1.084448218345642090e+00,1.084388375282287598e+00,1.084328651428222656e+00,1.084268808364868164e+00,1.084208965301513672e+00,1.084149241447448730e+00,1.084089517593383789e+00,1.084029793739318848e+00,1.083970069885253906e+00,1.083910226821899414e+00,1.083850502967834473e+00,1.083790779113769531e+00,1.083731055259704590e+00,1.083671450614929199e+00,1.083611607551574707e+00,1.083551883697509766e+00,1.083492279052734375e+00,1.083432555198669434e+00,1.083372831344604492e+00,1.083313226699829102e+00,1.083253502845764160e+00,1.083193898200988770e+00,1.083134293556213379e+00,1.083074569702148438e+00,1.083014965057373047e+00,1.082955241203308105e+00,1.082895636558532715e+00,1.082836031913757324e+00,1.082776427268981934e+00,1.082716822624206543e+00,1.082657217979431152e+00,1.082597613334655762e+00,1.082538008689880371e+00,1.082478404045104980e+00,1.082418918609619141e+00,1.082359313964843750e+00
1.020989060401916504e+00,1.020936012268066406e+00,1.020882964134216309e+00,1.020830035209655762e+00,1.020777106285095215e+00,1.020724058151245117e+00,1.020671129226684570e+00,1.020618200302124023e+00,1.020565152168273926e+00,1.020512223243713379e+00,1.020459294319152832e+00,1.020406246185302734e+00,1.020353317260742188e+00,1.020300388336181641e+00,1.020247459411621094e+00,1.020194530487060547e+00,1.020141601562500000e+00,1.020088791847229004e+00,1.020035862922668457e+00,1.019982933998107910e+00,1.019930005073547363e+00,1.019877195358276367e+00,1.019824266433715820e+00,1.019771337509155273e+00,1.019718527793884277e+00,1.019665598869323730e+00,1.019612789154052734e+00,1.019559860229492188e+00,1.019507050514221191e+00,1.019454240798950195e+00,1.019401431083679199e+00,1.019348502159118652e+00,1.019295692443847656e+00,1.019242882728576660e+00,1.019190073013305664e+00,1.019137263298034668e+00,1.019084453582763672e+00,1.019031643867492676e+00,1.018978834152221680e+00,1.018926024436950684e+00,1.018873214721679688e+00,1.018820524215698242e+00,1.018767714500427246e+00,1.018714904785156250e+00,1.018662095069885254e+00,1.018609404563903809e+00,1.018556594848632812e+00,1.018503904342651367e+00,1.018451094627380371e+00,1.018398404121398926e+00,1.018345713615417480e+00,1.018292903900146484e+00,1.018240213394165039e+00,1.018187522888183594e+00,1.018134832382202148e+00,1.018082022666931152e+00,1.018029332160949707e+00,1.017976641654968262e+00,1.017923951148986816e+00,1.017871260643005371e+00,1.017818570137023926e+00,1.017765998840332031e+00,1.017713308334350586e+00,1.017660617828369141e+00,1.017607927322387695e+00,1.017555356025695801e+00,1.017502665519714355e+00,1.017449975013732910e+00,1.017397403717041016e+00,1.017344713211059570e+00,1.017292141914367676e+00,1.017239570617675781e+00,1.017186880111694336e+00,1.017134308815002441e+00,1.017081737518310547e+00,1.017029166221618652e+00,1.016976475715637207e+00,1.016923904418945312e+00,1.016871333122253418e+00,1.016818761825561523e+00
9.624692797660827637e-01,9.624221324920654297e-01,9.623751044273376465e-01,9.623279571533203125e-01,9.622809290885925293e-01,9.622337818145751953e-01,9.621867537498474121e-01,9.621396660804748535e-01,9.620925188064575195e-01,9.620455503463745117e-01,9.619984626770019531e-01,9.619514346122741699e-01,9.619043469429016113e-01,9.618573784828186035e-01,9.618102908134460449e-01,9.617633223533630371e-01,9.617162346839904785e-01,9.616692662239074707e-01,9.616221785545349121e-01,9.615750908851623535e-01,9.615281820297241211e-01,9.614810943603515625e-01,9.614341259002685547e-01,9.613870978355407715e-01,9.613401889801025391e-01,9.612931013107299805e-01,9.612461924552917480e-01,9.611991643905639648e-01,9.611522555351257324e-01,9.611052274703979492e-01,9.610581994056701660e-01,9.610112905502319336e-01,9.609643220901489258e-01,9.609174132347106934e-01,9.608704447746276855e-01,9.608235359191894531e-01,9.607765674591064453e-01,9.607296586036682129e-01,9.606826901435852051e-01,9.606358408927917480e-01,9.605888724327087402e-01,9.605420231819152832e-01,9.604950547218322754e-01,9.604480862617492676e-01,9.604012370109558105e-01,9.603542685508728027e-01,9.603074193000793457e-01,9.602605104446411133e-01,9.602136611938476562e-01,9.601667523384094238e-01,9.601199626922607422e-01,9.600729942321777344e-01,9.600260853767395020e-01,9.599792957305908203e-01,9.599323868751525879e-01,9.598855972290039062e-01,9.598386883735656738e-01,9.597918987274169922e-01,9.597450494766235352e-01,9.596982598304748535e-01,9.596513509750366211e-01,9.596046209335327148e-01,9.595577120780944824e-01,9.595109820365905762e-01,9.594641327857971191e-01,9.594172835350036621e-01,9.593704938888549805e-01,9.593236446380615234e-01,9.592769145965576172e-01,9.592300653457641602e-01,9.591833353042602539e-01,9.591365456581115723e-01,9.590898156166076660e-01,9.590429663658142090e-01,9.589962959289550781e-01,9.589495062828063965e-01,9.589026570320129395e-01,9.588559865951538086e-01,9.588091969490051270e-01,9.587625265121459961e-01
9.102941155433654785e-01,9.102520346641540527e-01,9.102098941802978516e-01,9.101678133010864258e-01,9.101256132125854492e-01,9.100835919380187988e-01,9.100413918495178223e-01,9.099992513656616211e-01,9.099572300910949707e-01,9.099150896072387695e-01,9.098730087280273438e-01,9.098308682441711426e-01,9.097888469696044922e-01,9.097467064857482910e-01,9.097046852111816406e-01,9.096625447273254395e-01,9.096205234527587891e-01,9.095784425735473633e-01,9.095363020896911621e-01,9.094943404197692871e-01,9.094521999359130859e-01,9.094101786613464355e-01,9.093680977821350098e-01,9.093261361122131348e-01,9.092840552330017090e-01,9.092420339584350586e-01,9.091999530792236328e-01,9.091579914093017578e-01,9.091159105300903320e-01,9.090738296508789062e-01,9.090318679809570312e-01,9.089898467063903809e-01,9.089478850364685059e-01,9.089058041572570801e-01,9.088638424873352051e-01,9.088218212127685547e-01,9.087798595428466797e-01,9.087378382682800293e-01,9.086958765983581543e-01,9.086538553237915039e-01,9.086118340492248535e-01,9.085699319839477539e-01,9.085279107093811035e-01,9.084860086441040039e-01,9.084439873695373535e-01,9.084020853042602539e-01,9.083600640296936035e-01,9.083181619644165039e-01,9.082762002944946289e-01,9.082342982292175293e-01,9.081922769546508789e-01,9.081503152847290039e-01,9.081084132194519043e-01,9.080664515495300293e-01,9.080246090888977051e-01,9.079826474189758301e-01,9.079407453536987305e-01,9.078987836837768555e-01,9.078569412231445312e-01,9.078149795532226562e-01,9.077731370925903320e-01,9.077311754226684570e-01,9.076892733573913574e-01,9.076474308967590332e-01,9.076054692268371582e-01,9.075636267662048340e-01,9.075217247009277344e-01,9.074798822402954102e-01,9.074379801750183105e-01,9.073961973190307617e-01,9.073542356491088867e-01,9.073124527931213379e-01,9.072705507278442383e-01,9.072286486625671387e-01,9.071868658065795898e-01,9.071449637413024902e-01,9.071031808853149414e-01,9.070612788200378418e-01,9.070194959640502930e-01,9.069776535034179688e-01
8.634849786758422852e-01,8.634470105171203613e-01,8.634091615676879883e-01,8.633711934089660645e-01,8.633332848548889160e-01,8.632954359054565430e-01,8.632574677467346191e-01,8.632196784019470215e-01,8.631817102432250977e-01,8.631438612937927246e-01,8.631059527397155762e-01,8.630681633949279785e-01,8.630301952362060547e-01,8.629924058914184570e-01,8.629544973373413086e-01,8.629165887832641602e-01,8.628787398338317871e-01,8.628408908843994141e-01,8.628030419349670410e-01,8.627651929855346680e-01,8.627273440361022949e-01,8.626894950866699219e-01,8.626517057418823242e-01,8.626137971878051758e-01,8.625760078430175781e-01,8.625381588935852051e-01,8.625003099441528320e-01,8.624625205993652344e-01,8.624246716499328613e-01,8.623868823051452637e-01,8.623490333557128906e-01,8.623112440109252930e-01,8.622733950614929199e-01,8.622356653213500977e-01,8.621978163719177246e-01,8.621600866317749023e-01,8.621222376823425293e-01,8.620843887329101562e-01,8.620466589927673340e-01,8.620088100433349609e-01,8.619710803031921387e-01,8.619332909584045410e-01,8.618955612182617188e-01,8.618577718734741211e-01,8.618200421333312988e-01,8.617821931838989258e-01,8.617445230484008789e-01,8.617067337036132812e-01,8.616688847541809082e-01,8.616312146186828613e-01,8.615934252738952637e-01,8.615556955337524414e-01,8.615179657936096191e-01,8.614802360534667969e-01,8.614424467086791992e-01,8.614047765731811523e-01,8.613670468330383301e-01,8.613293170928955078e-01,8.612915873527526855e-01,8.612537980079650879e-01,8.612161278724670410e-01,8.611783981323242188e-01,8.611407279968261719e-01,8.611029982566833496e-01,8.610653281211853027e-01,8.610275983810424805e-01,8.609899878501892090e-01,8.609521985054016113e-01,8.609145879745483398e-01,8.608768582344055176e-01,8.608391284942626953e-01,8.608015179634094238e-01,8.607637882232666016e-01,8.607261776924133301e-01,8.606884479522705078e-01,8.606508374214172363e-01,8.606131076812744141e-01,8.605754971504211426e-01,8.605378270149230957e-01,8.605002164840698242e-01
8.212543129920959473e-01,8.212199807167053223e-01,8.211857676506042480e-01,8.211514353752136230e-01,8.211171627044677734e-01,8.210828900337219238e-01,8.210486173629760742e-01,8.210143446922302246e-01,8.209800720214843750e-01,8.209457993507385254e-01,8.209115862846374512e-01,8.208772540092468262e-01,8.208429813385009766e-01,8.208087682723999023e-01,8.207744359970092773e-01,8.207402825355529785e-01,8.207059502601623535e-01,8.206717967987060547e-01,8.206374645233154297e-01,8.206033110618591309e-01,8.205690383911132812e-01,8.205348253250122070e-01,8.205005526542663574e-01,8.204662799835205078e-01,8.204321265220642090e-01,8.203978538513183594e-01,8.203636407852172852e-01,8.203294277191162109e-01,8.202952146530151367e-01,8.202610015869140625e-01,8.202268481254577637e-01,8.201925754547119141e-01,8.201584219932556152e-01,8.201241493225097656e-01,8.200899362564086914e-01,8.200557827949523926e-01,8.200215697288513184e-01,8.199874162673950195e-01,8.199532032012939453e-01,8.199190497398376465e-01,8.198848366737365723e-01,8.198506832122802734e-01,8.198164701461791992e-01,8.197823762893676758e-01,8.197481632232666016e-01,8.197139501571655273e-01,8.196797966957092285e-01,8.196456432342529297e-01,8.196114897727966309e-01,8.195773363113403320e-01,8.195431828498840332e-01,8.195090293884277344e-01,8.194749355316162109e-01,8.194407224655151367e-01,8.194066286087036133e-01,8.193724751472473145e-01,8.193382620811462402e-01,8.193041682243347168e-01,8.192700147628784180e-01,8.192359209060668945e-01,8.192017674446105957e-01,8.191676735877990723e-01,8.191335201263427734e-01,8.190994858741760254e-01,8.190653324127197266e-01,8.190312385559082031e-01,8.189970850944519043e-01,8.189629316329956055e-01,8.189288973808288574e-01,8.188947439193725586e-01,8.188607096672058105e-01,8.188265562057495117e-01,8.187925219535827637e-01,8.187584280967712402e-01,8.187243938446044922e-01,8.186902403831481934e-01,8.186562061309814453e-01,8.186221122741699219e-01,8.185879588127136230e-01,8.185539841651916504e-01
