3.101187467575073242e+00,3.179914236068725586e+00,3.262742280960083008e+00,3.350000381469726562e+00,3.442054271697998047e+00,3.539309978485107422e+00,3.642221450805664062e+00,3.751296997070312500e+00,3.867107152938842773e+00,3.990295648574829102e+00,4.121590614318847656e+00,4.261819839477539062e+00,4.411927700042724609e+00,4.572995185852050781e+00,4.746268272399902344e+00,5.000000000000000000e+00,5.000000000000000000e+00,5.000000000000000000e+00,5.000000000000000000e+00,5.000000000000000000e+00,5.000000000000000000e+00,5.000000000000000000e+00,5.000000000000000000e+00,5.000000000000000000e+00,5.000000000000000000e+00,5.000000000000000000e+00,5.000000000000000000e+00,5.000000000000000000e+00,5.000000000000000000e+00,5.000000000000000000e+00,5.000000000000000000e+00,5.000000000000000000e+00,5.000000000000000000e+00,5.000000000000000000e+00,5.000000000000000000e+00,5.000000000000000000e+00,5.000000000000000000e+00,5.000000000000000000e+00,5.000000000000000000e+00,5.000000000000000000e+00,5.000000000000000000e+00,5.000000000000000000e+00,5.000000000000000000e+00,5.000000000000000000e+00,5.000000000000000000e+00,5.000000000000000000e+00,5.000000000000000000e+00,5.000000000000000000e+00,5.000000000000000000e+00,5.000000000000000000e+00,5.000000000000000000e+00,5.000000000000000000e+00,5.000000000000000000e+00,5.000000000000000000e+00,5.000000000000000000e+00,5.000000000000000000e+00,5.000000000000000000e+00,5.000000000000000000e+00,6.976463198661804199e-01,6.796529293060302734e-01,6.651790738105773926e-01,6.513088345527648926e-01,6.419050693511962891e-01,6.355656385421752930e-01,6.293501257896423340e-01,6.232551336288452148e-01,6.180838942527770996e-01,6.136479377746582031e-01,6.092752218246459961e-01,6.129696369171142578e-01,6.170503497123718262e-01,6.198351979255676270e-01,6.226451992988586426e-01,6.254808902740478516e-01,4.262599468231201172e+00,4.424269795417785645e-01,4.184474647045135498e-01,4.085825979709625244e-01,4.026094675064086914e-01,5.000000000000000000e+00
3.101127624511718750e+00,3.179852008819580078e+00,3.262676715850830078e+00,3.349931478500366211e+00,3.441981554031372070e+00,3.539232969284057617e+00,3.642140150070190430e+00,3.751210451126098633e+00,3.867015361785888672e+00,3.990197896957397461e+00,4.121486663818359375e+00,4.261708736419677734e+00,4.411808490753173828e+00,4.572866916656494141e+00,4.746130943298339844e+00,4.933040618896484375e+00,5.000000000000000000e+00,5.000000000000000000e+00,5.000000000000000000e+00,5.000000000000000000e+00,5.000000000000000000e+00,5.000000000000000000e+00,5.000000000000000000e+00,5.000000000000000000e+00,5.000000000000000000e+00,5.000000000000000000e+00,5.000000000000000000e+00,5.000000000000000000e+00,5.000000000000000000e+00,5.000000000000000000e+00,5.000000000000000000e+00,5.000000000000000000e+00,5.000000000000000000e+00,5.000000000000000000e+00,5.000000000000000000e+00,5.000000000000000000e+00,5.000000000000000000e+00,5.000000000000000000e+00,5.000000000000000000e+00,5.000000000000000000e+00,5.000000000000000000e+00,5.000000000000000000e+00,5.000000000000000000e+00,5.000000000000000000e+00,5.000000000000000000e+00,5.000000000000000000e+00,5.000000000000000000e+00,5.000000000000000000e+00,5.000000000000000000e+00,5.000000000000000000e+00,5.000000000000000000e+00,5.000000000000000000e+00,5.000000000000000000e+00,5.000000000000000000e+00,5.000000000000000000e+00,5.000000000000000000e+00,5.000000000000000000e+00,5.000000000000000000e+00,6.985870003700256348e-01,6.790966987609863281e-01,6.646066904067993164e-01,6.507600545883178711e-01,6.419505476951599121e-01,6.356101632118225098e-01,6.293938159942626953e-01,6.237121224403381348e-01,6.191953420639038086e-01,6.147434711456298828e-01,6.103551983833312988e-01,6.150617599487304688e-01,6.197072267532348633e-01,6.225160956382751465e-01,6.253505945205688477e-01,4.393421173095703125e+00,4.262710094451904297e+00,4.417566061019897461e-01,4.187271296977996826e-01,4.076512157917022705e-01,4.017050862312316895e-01,5.000000000000000000e+00
3.101061344146728516e+00,3.179789543151855469e+00,3.262611865997314453e+00,3.349863052368164062e+00,3.441909074783325195e+00,3.539156436920166016e+00,3.642059087753295898e+00,3.751124620437622070e+00,3.866924047470092773e+00,3.990100622177124023e+00,4.121382713317871094e+00,4.261597633361816406e+00,4.411689281463623047e+00,4.572739124298095703e+00,4.745992660522460938e+00,4.932892322540283203e+00,5.000000000000000000e+00,5.000000000000000000e+00,5.000000000000000000e+00,5.000000000000000000e+00,5.000000000000000000e+00,5.000000000000000000e+00,5.000000000000000000e+00,5.000000000000000000e+00,5.000000000000000000e+00,5.000000000000000000e+00,5.000000000000000000e+00,5.000000000000000000e+00,5.000000000000000000e+00,5.000000000000000000e+00,5.000000000000000000e+00,5.000000000000000000e+00,5.000000000000000000e+00,5.000000000000000000e+00,5.000000000000000000e+00,5.000000000000000000e+00,5.000000000000000000e+00,5.000000000000000000e+00,5.000000000000000000e+00,5.000000000000000000e+00,5.000000000000000000e+00,5.000000000000000000e+00,5.000000000000000000e+00,5.000000000000000000e+00,5.000000000000000000e+00,5.000000000000000000e+00,5.000000000000000000e+00,5.000000000000000000e+00,5.000000000000000000e+00,5.000000000000000000e+00,5.000000000000000000e+00,5.000000000000000000e+00,5.000000000000000000e+00,5.000000000000000000e+00,5.000000000000000000e+00,5.000000000000000000e+00,5.000000000000000000e+00,5.000000000000000000e+00,6.995303034782409668e-01,6.799880862236022949e-01,6.640352606773376465e-01,6.502121686935424805e-01,6.419959664344787598e-01,6.356547474861145020e-01,6.294438242912292480e-01,6.248438954353332520e-01,6.203107833862304688e-01,6.158429384231567383e-01,6.119937896728515625e-01,6.171682476997375488e-01,6.223871111869812012e-01,6.252203583717346191e-01,6.280795931816101074e-01,4.393538475036621094e+00,4.262820243835449219e+00,4.403559565544128418e-01,4.204508662223815918e-01,4.072263240814208984e-01,4.008047580718994141e-01,5.000000000000000000e+00
3.100994825363159180e+00,3.179719448089599609e+00,3.262545824050903320e+00,3.349794149398803711e+00,3.441836357116699219e+00,3.539079666137695312e+00,3.641977548599243164e+00,3.751038074493408203e+00,3.866832256317138672e+00,3.990002870559692383e+00,4.121278762817382812e+00,4.261486530303955078e+00,4.411570072174072266e+00,4.572610855102539062e+00,4.745854854583740234e+00,4.932743072509765625e+00,5.000000000000000000e+00,5.000000000000000000e+00,5.000000000000000000e+00,5.000000000000000000e+00,5.000000000000000000e+00,5.000000000000000000e+00,5.000000000000000000e+00,5.000000000000000000e+00,5.000000000000000000e+00,5.000000000000000000e+00,5.000000000000000000e+00,5.000000000000000000e+00,5.000000000000000000e+00,5.000000000000000000e+00,5.000000000000000000e+00,5.000000000000000000e+00,5.000000000000000000e+00,5.000000000000000000e+00,5.000000000000000000e+00,5.000000000000000000e+00,5.000000000000000000e+00,5.000000000000000000e+00,5.000000000000000000e+00,5.000000000000000000e+00,5.000000000000000000e+00,5.000000000000000000e+00,5.000000000000000000e+00,5.000000000000000000e+00,5.000000000000000000e+00,5.000000000000000000e+00,5.000000000000000000e+00,5.000000000000000000e+00,5.000000000000000000e+00,5.000000000000000000e+00,5.000000000000000000e+00,5.000000000000000000e+00,5.000000000000000000e+00,5.000000000000000000e+00,5.000000000000000000e+00,5.000000000000000000e+00,5.000000000000000000e+00,5.000000000000000000e+00,7.004761099815368652e-01,6.808817386627197266e-01,6.634648442268371582e-01,6.496652364730834961e-01,6.420415043830871582e-01,6.356993913650512695e-01,6.305965185165405273e-01,6.259798407554626465e-01,6.214302182197570801e-01,6.169462800025939941e-01,6.140792369842529297e-01,6.192891597747802734e-01,6.245882511138916016e-01,6.279482245445251465e-01,6.308324933052062988e-01,4.393655776977539062e+00,4.262930393218994141e+00,4.415749609470367432e-01,4.221887886524200439e-01,4.072935581207275391e-01,5.000000000000000000e+00,5.000000000000000000e+00
3.100928306579589844e+00,3.179649829864501953e+00,3.262472152709960938e+00,3.349724769592285156e+00,3.441764116287231445e+00,3.539003133773803711e+00,3.641896486282348633e+00,3.750952243804931641e+00,3.866740703582763672e+00,3.989905595779418945e+00,4.121174335479736328e+00,4.261374950408935547e+00,4.411450862884521484e+00,4.572483062744140625e+00,4.745717048645019531e+00,4.932594299316406250e+00,5.000000000000000000e+00,5.000000000000000000e+00,5.000000000000000000e+00,5.000000000000000000e+00,5.000000000000000000e+00,5.000000000000000000e+00,5.000000000000000000e+00,5.000000000000000000e+00,5.000000000000000000e+00,5.000000000000000000e+00,5.000000000000000000e+00,5.000000000000000000e+00,5.000000000000000000e+00,5.000000000000000000e+00,5.000000000000000000e+00,5.000000000000000000e+00,5.000000000000000000e+00,5.000000000000000000e+00,5.000000000000000000e+00,5.000000000000000000e+00,5.000000000000000000e+00,5.000000000000000000e+00,5.000000000000000000e+00,5.000000000000000000e+00,5.000000000000000000e+00,5.000000000000000000e+00,5.000000000000000000e+00,5.000000000000000000e+00,5.000000000000000000e+00,5.000000000000000000e+00,5.000000000000000000e+00,5.000000000000000000e+00,5.000000000000000000e+00,5.000000000000000000e+00,5.000000000000000000e+00,5.000000000000000000e+00,5.000000000000000000e+00,5.000000000000000000e+00,5.000000000000000000e+00,5.000000000000000000e+00,5.000000000000000000e+00,5.000000000000000000e+00,7.014245390892028809e-01,6.817777156829833984e-01,6.632015705108642578e-01,6.491191983222961426e-01,6.420869231224060059e-01,6.364560127258300781e-01,6.317534446716308594e-01,6.271198987960815430e-01,6.225537657737731934e-01,6.180536150932312012e-01,6.161790490150451660e-01,6.214247941970825195e-01,6.267606019973754883e-01,6.306999921798706055e-01,6.336096525192260742e-01,4.393772602081298828e+00,4.263041019439697266e+00,4.434923231601715088e-01,4.239411354064941406e-01,4.073607623577117920e-01,5.000000000000000000e+00,5.000000000000000000e+00
3.100862264633178711e+00,3.179579973220825195e+00,3.262398958206176758e+00,3.349647283554077148e+00,3.441690921783447266e+00,3.538926124572753906e+00,3.641815185546875000e+00,3.750865936279296875e+00,3.866648912429809570e+00,3.989807844161987305e+00,4.121070384979248047e+00,4.261263847351074219e+00,4.411331653594970703e+00,4.572354793548583984e+00,4.745578765869140625e+00,4.932445049285888672e+00,5.000000000000000000e+00,5.000000000000000000e+00,5.000000000000000000e+00,5.000000000000000000e+00,5.000000000000000000e+00,5.000000000000000000e+00,5.000000000000000000e+00,5.000000000000000000e+00,5.000000000000000000e+00,5.000000000000000000e+00,5.000000000000000000e+00,5.000000000000000000e+00,5.000000000000000000e+00,5.000000000000000000e+00,5.000000000000000000e+00,5.000000000000000000e+00,5.000000000000000000e+00,5.000000000000000000e+00,5.000000000000000000e+00,5.000000000000000000e+00,5.000000000000000000e+00,5.000000000000000000e+00,5.000000000000000000e+00,5.000000000000000000e+00,5.000000000000000000e+00,5.000000000000000000e+00,5.000000000000000000e+00,5.000000000000000000e+00,5.000000000000000000e+00,5.000000000000000000e+00,5.000000000000000000e+00,5.000000000000000000e+00,5.000000000000000000e+00,5.000000000000000000e+00,5.000000000000000000e+00,5.000000000000000000e+00,5.000000000000000000e+00,5.000000000000000000e+00,5.000000000000000000e+00,5.000000000000000000e+00,5.000000000000000000e+00,5.000000000000000000e+00,7.023754119873046875e-01,6.826760768890380859e-01,6.640516519546508789e-01,6.486042141914367676e-01,6.424254775047302246e-01,6.376346349716186523e-01,6.329146027565002441e-01,6.282640695571899414e-01,6.236813068389892578e-01,6.191650032997131348e-01,6.182931065559387207e-01,6.235750913619995117e-01,6.289480924606323242e-01,6.334759593009948730e-01,6.364114284515380859e-01,4.393889904022216797e+00,4.263151168823242188e+00,4.454264640808105469e-01,4.247053563594818115e-01,4.074279963970184326e-01,5.000000000000000000e+00,5.000000000000000000e+00
3.100795745849609375e+00,3.179510354995727539e+00,3.262325286865234375e+00,3.349570035934448242e+00,3.441609144210815430e+00,3.538849353790283203e+00,3.641734123229980469e+00,3.750779867172241211e+00,3.866557598114013672e+00,3.989710569381713867e+00,4.120966434478759766e+00,4.261152744293212891e+00,4.411212444305419922e+00,4.572227001190185547e+00,4.745440959930419922e+00,4.932296276092529297e+00,5.000000000000000000e+00,5.000000000000000000e+00,5.000000000000000000e+00,5.000000000000000000e+00,5.000000000000000000e+00,5.000000000000000000e+00,5.000000000000000000e+00,5.000000000000000000e+00,5.000000000000000000e+00,5.000000000000000000e+00,5.000000000000000000e+00,5.000000000000000000e+00,5.000000000000000000e+00,5.000000000000000000e+00,5.000000000000000000e+00,5.000000000000000000e+00,5.000000000000000000e+00,5.000000000000000000e+00,5.000000000000000000e+00,5.000000000000000000e+00,5.000000000000000000e+00,5.000000000000000000e+00,5.000000000000000000e+00,5.000000000000000000e+00,5.000000000000000000e+00,5.000000000000000000e+00,5.000000000000000000e+00,5.000000000000000000e+00,5.000000000000000000e+00,5.000000000000000000e+00,5.000000000000000000e+00,5.000000000000000000e+00,5.000000000000000000e+00,5.000000000000000000e+00,5.000000000000000000e+00,5.000000000000000000e+00,5.000000000000000000e+00,5.000000000000000000e+00,5.000000000000000000e+00,5.000000000000000000e+00,5.000000000000000000e+00,5.000000000000000000e+00,7.033289670944213867e-01,6.835768818855285645e-01,6.649038791656494141e-01,6.486507058143615723e-01,6.436262130737304688e-01,6.388175487518310547e-01,6.340801119804382324e-01,6.294124126434326172e-01,6.248129606246948242e-01,6.202803254127502441e-01,6.204218864440917969e-01,6.257404088973999023e-01,6.311509013175964355e-01,6.362765431404113770e-01,4.533026218414306641e+00,4.394007205963134766e+00,4.263261795043945312e+00,4.473774731159210205e-01,4.244796335697174072e-01,4.074952304363250732e-01,5.000000000000000000e+00,5.000000000000000000e+00
3.100729465484619141e+00,3.179440498352050781e+00,3.262252092361450195e+00,3.349492549896240234e+00,3.441527366638183594e+00,3.538762807846069336e+00,3.641652822494506836e+00,3.750694036483764648e+00,3.866465806961059570e+00,3.989612817764282227e+00,4.120862483978271484e+00,4.261041641235351562e+00,4.411093235015869141e+00,4.572098731994628906e+00,4.745303153991699219e+00,4.932147026062011719e+00,5.000000000000000000e+00,5.000000000000000000e+00,5.000000000000000000e+00,5.000000000000000000e+00,5.000000000000000000e+00,5.000000000000000000e+00,5.000000000000000000e+00,5.000000000000000000e+00,5.000000000000000000e+00,5.000000000000000000e+00,5.000000000000000000e+00,5.000000000000000000e+00,5.000000000000000000e+00,5.000000000000000000e+00,5.000000000000000000e+00,5.000000000000000000e+00,5.000000000000000000e+00,5.000000000000000000e+00,5.000000000000000000e+00,5.000000000000000000e+00,5.000000000000000000e+00,5.000000000000000000e+00,5.000000000000000000e+00,5.000000000000000000e+00,5.000000000000000000e+00,5.000000000000000000e+00,5.000000000000000000e+00,5.000000000000000000e+00,5.000000000000000000e+00,5.000000000000000000e+00,5.000000000000000000e+00,5.000000000000000000e+00,5.000000000000000000e+00,5.000000000000000000e+00,5.000000000000000000e+00,5.000000000000000000e+00,5.000000000000000000e+00,5.000000000000000000e+00,5.000000000000000000e+00,5.000000000000000000e+00,5.000000000000000000e+00,5.000000000000000000e+00,7.042850852012634277e-01,6.844800114631652832e-01,6.653999686241149902e-01,6.493191123008728027e-01,6.445254087448120117e-01,6.398018598556518555e-01,6.351471543312072754e-01,6.305595636367797852e-01,6.259487867355346680e-01,6.213996410369873047e-01,6.225652694702148438e-01,6.279208064079284668e-01,6.333692669868469238e-01,6.389130949974060059e-01,4.533150672912597656e+00,4.394124507904052734e+00,4.263371944427490234e+00,4.493456780910491943e-01,4.242541193962097168e-01,4.075625538825988770e-01,5.000000000000000000e+00,5.000000000000000000e+00
3.100662946701049805e+00,3.179370880126953125e+00,3.262178421020507812e+00,3.349415302276611328e+00,3.441445589065551758e+00,3.538676500320434570e+00,3.641561031341552734e+00,3.750607490539550781e+00,3.866374492645263672e+00,3.989515542984008789e+00,4.120758533477783203e+00,4.260930538177490234e+00,4.410974025726318359e+00,4.571970939636230469e+00,4.745165348052978516e+00,4.931998252868652344e+00,5.000000000000000000e+00,5.000000000000000000e+00,5.000000000000000000e+00,5.000000000000000000e+00,5.000000000000000000e+00,5.000000000000000000e+00,5.000000000000000000e+00,5.000000000000000000e+00,5.000000000000000000e+00,5.000000000000000000e+00,5.000000000000000000e+00,5.000000000000000000e+00,5.000000000000000000e+00,5.000000000000000000e+00,5.000000000000000000e+00,5.000000000000000000e+00,5.000000000000000000e+00,5.000000000000000000e+00,5.000000000000000000e+00,5.000000000000000000e+00,5.000000000000000000e+00,5.000000000000000000e+00,5.000000000000000000e+00,5.000000000000000000e+00,5.000000000000000000e+00,5.000000000000000000e+00,5.000000000000000000e+00,5.000000000000000000e+00,5.000000000000000000e+00,5.000000000000000000e+00,5.000000000000000000e+00,5.000000000000000000e+00,5.000000000000000000e+00,5.000000000000000000e+00,5.000000000000000000e+00,5.000000000000000000e+00,5.000000000000000000e+00,5.000000000000000000e+00,5.000000000000000000e+00,5.000000000000000000e+00,5.000000000000000000e+00,5.000000000000000000e+00,7.051032185554504395e-01,6.842545270919799805e-01,6.646033525466918945e-01,6.499577164649963379e-01,6.451545953750610352e-01,6.404219269752502441e-01,6.357581615447998047e-01,6.312899589538574219e-01,6.268855333328247070e-01,6.225422024726867676e-01,6.254704594612121582e-01,6.303822994232177734e-01,6.356031894683837891e-01,6.411864161491394043e-01,4.533275604248046875e+00,4.394248962402343750e+00,4.263496398925781250e+00,4.513312876224517822e-01,4.240288138389587402e-01,4.076298177242279053e-01,5.000000000000000000e+00,5.000000000000000000e+00
3.100596904754638672e+00,3.179301023483276367e+00,3.262105226516723633e+00,3.349337577819824219e+00,3.441364049911499023e+00,3.538589954376220703e+00,3.641469717025756836e+00,3.750510215759277344e+00,3.866283178329467773e+00,3.989418506622314453e+00,4.120654582977294922e+00,4.260818958282470703e+00,4.410854816436767578e+00,4.571842670440673828e+00,4.745027542114257812e+00,4.931849002838134766e+00,5.000000000000000000e+00,5.000000000000000000e+00,5.000000000000000000e+00,5.000000000000000000e+00,5.000000000000000000e+00,5.000000000000000000e+00,5.000000000000000000e+00,5.000000000000000000e+00,5.000000000000000000e+00,5.000000000000000000e+00,5.000000000000000000e+00,5.000000000000000000e+00,5.000000000000000000e+00,5.000000000000000000e+00,5.000000000000000000e+00,5.000000000000000000e+00,5.000000000000000000e+00,5.000000000000000000e+00,5.000000000000000000e+00,5.000000000000000000e+00,5.000000000000000000e+00,5.000000000000000000e+00,5.000000000000000000e+00,5.000000000000000000e+00,5.000000000000000000e+00,5.000000000000000000e+00,5.000000000000000000e+00,5.000000000000000000e+00,5.000000000000000000e+00,5.000000000000000000e+00,5.000000000000000000e+00,5.000000000000000000e+00,5.000000000000000000e+00,5.000000000000000000e+00,5.000000000000000000e+00,5.000000000000000000e+00,5.000000000000000000e+00,5.000000000000000000e+00,5.000000000000000000e+00,5.000000000000000000e+00,5.000000000000000000e+00,5.000000000000000000e+00,7.035128474235534668e-01,6.828413605690002441e-01,6.627324223518371582e-01,6.514394283294677734e-01,6.462767124176025391e-01,6.416615247726440430e-01,6.371117830276489258e-01,6.326260566711425781e-01,6.282030940055847168e-01,6.238415241241455078e-01,6.288956403732299805e-01,6.343967914581298828e-01,6.394504308700561523e-01,6.445851325988769531e-01,4.533421516418457031e+00,4.394386768341064453e+00,4.263626098632812500e+00,4.533345103263854980e-01,4.238037765026092529e-01,4.076971411705017090e-01,4.000104069709777832e-01,5.000000000000000000e+00
3.100530385971069336e+00,3.179231166839599609e+00,3.262031793594360352e+00,3.349260091781616211e+00,3.441282272338867188e+00,3.538503408432006836e+00,3.641378164291381836e+00,3.750412940979003906e+00,3.866179943084716797e+00,3.989320755004882812e+00,4.120550632476806641e+00,4.260708332061767578e+00,4.410736083984375000e+00,4.571714878082275391e+00,4.744889259338378906e+00,4.931700229644775391e+00,5.000000000000000000e+00,5.000000000000000000e+00,5.000000000000000000e+00,5.000000000000000000e+00,5.000000000000000000e+00,5.000000000000000000e+00,5.000000000000000000e+00,5.000000000000000000e+00,5.000000000000000000e+00,5.000000000000000000e+00,5.000000000000000000e+00,5.000000000000000000e+00,5.000000000000000000e+00,5.000000000000000000e+00,5.000000000000000000e+00,5.000000000000000000e+00,5.000000000000000000e+00,5.000000000000000000e+00,5.000000000000000000e+00,5.000000000000000000e+00,5.000000000000000000e+00,5.000000000000000000e+00,5.000000000000000000e+00,5.000000000000000000e+00,5.000000000000000000e+00,5.000000000000000000e+00,5.000000000000000000e+00,5.000000000000000000e+00,5.000000000000000000e+00,5.000000000000000000e+00,5.000000000000000000e+00,5.000000000000000000e+00,5.000000000000000000e+00,5.000000000000000000e+00,5.000000000000000000e+00,5.000000000000000000e+00,5.000000000000000000e+00,5.000000000000000000e+00,5.000000000000000000e+00,5.000000000000000000e+00,5.000000000000000000e+00,7.221949696540832520e-01,6.995154619216918945e-01,6.780654788017272949e-01,6.597931385040283203e-01,6.544955968856811523e-01,6.492822766304016113e-01,6.441514492034912109e-01,6.391011476516723633e-01,6.341292858123779297e-01,6.295261383056640625e-01,6.262664794921875000e-01,6.321744322776794434e-01,6.381949782371520996e-01,6.435815691947937012e-01,4.681697845458984375e+00,4.533567905426025391e+00,4.394524097442626953e+00,4.263755798339843750e+00,4.553555846214294434e-01,4.235789775848388672e-01,4.077645242214202881e-01,4.000752270221710205e-01,5.000000000000000000e+00
3.100463867187500000e+00,3.179161548614501953e+00,3.261958122253417969e+00,3.349182844161987305e+00,3.441200256347656250e+00,3.538417100906372070e+00,3.641286373138427734e+00,3.750316143035888672e+00,3.866076469421386719e+00,3.989211082458496094e+00,4.120446681976318359e+00,4.260597229003906250e+00,4.410616874694824219e+00,4.571587085723876953e+00,4.744751453399658203e+00,4.931551456451416016e+00,5.000000000000000000e+00,5.000000000000000000e+00,5.000000000000000000e+00,5.000000000000000000e+00,5.000000000000000000e+00,5.000000000000000000e+00,5.000000000000000000e+00,5.000000000000000000e+00,5.000000000000000000e+00,5.000000000000000000e+00,5.000000000000000000e+00,5.000000000000000000e+00,5.000000000000000000e+00,5.000000000000000000e+00,5.000000000000000000e+00,5.000000000000000000e+00,5.000000000000000000e+00,5.000000000000000000e+00,5.000000000000000000e+00,5.000000000000000000e+00,5.000000000000000000e+00,5.000000000000000000e+00,5.000000000000000000e+00,5.000000000000000000e+00,5.000000000000000000e+00,5.000000000000000000e+00,5.000000000000000000e+00,5.000000000000000000e+00,5.000000000000000000e+00,5.000000000000000000e+00,5.000000000000000000e+00,5.000000000000000000e+00,5.000000000000000000e+00,5.000000000000000000e+00,5.000000000000000000e+00,5.000000000000000000e+00,5.000000000000000000e+00,5.000000000000000000e+00,5.000000000000000000e+00,5.000000000000000000e+00,5.000000000000000000e+00,7.159845232963562012e-01,6.936419606208801270e-01,6.725996136665344238e-01,6.627750992774963379e-01,6.573911905288696289e-01,6.520940661430358887e-01,6.468815803527832031e-01,6.417518258094787598e-01,6.367028355598449707e-01,6.317325830459594727e-01,6.320239305496215820e-01,6.363278031349182129e-01,6.415717601776123047e-01,6.477664709091186523e-01,4.681854248046875000e+00,4.533714771270751953e+00,4.394661903381347656e+00,4.263885498046875000e+00,4.140666961669921875e+00,4.233544170856475830e-01,4.078318774700164795e-01,4.001401066780090332e-01,5.000000000000000000e+00
3.100397825241088867e+00,3.179091691970825195e+00,3.261884927749633789e+00,3.349105358123779297e+00,3.441118717193603516e+00,3.538330554962158203e+00,3.641195058822631836e+00,3.750218868255615234e+00,3.865973711013793945e+00,3.989101171493530273e+00,4.120329856872558594e+00,4.260486125946044922e+00,4.410497665405273438e+00,4.571459293365478516e+00,4.744614124298095703e+00,4.931402683258056641e+00,5.000000000000000000e+00,5.000000000000000000e+00,5.000000000000000000e+00,5.000000000000000000e+00,5.000000000000000000e+00,5.000000000000000000e+00,5.000000000000000000e+00,5.000000000000000000e+00,5.000000000000000000e+00,5.000000000000000000e+00,5.000000000000000000e+00,5.000000000000000000e+00,5.000000000000000000e+00,5.000000000000000000e+00,5.000000000000000000e+00,5.000000000000000000e+00,5.000000000000000000e+00,5.000000000000000000e+00,5.000000000000000000e+00,5.000000000000000000e+00,5.000000000000000000e+00,5.000000000000000000e+00,5.000000000000000000e+00,5.000000000000000000e+00,5.000000000000000000e+00,5.000000000000000000e+00,5.000000000000000000e+00,5.000000000000000000e+00,5.000000000000000000e+00,5.000000000000000000e+00,5.000000000000000000e+00,5.000000000000000000e+00,5.000000000000000000e+00,5.000000000000000000e+00,5.000000000000000000e+00,5.000000000000000000e+00,5.000000000000000000e+00,5.000000000000000000e+00,5.000000000000000000e+00,5.000000000000000000e+00,7.313651442527770996e-01,7.080103158950805664e-01,6.861009001731872559e-01,6.725385189056396484e-01,6.665772199630737305e-01,6.607207655906677246e-01,6.549662351608276367e-01,6.493111252784729004e-01,6.440175175666809082e-01,6.389328837394714355e-01,6.374709010124206543e-01,6.407960057258605957e-01,6.445977687835693359e-01,6.492018103599548340e-01,6.538721323013305664e-01,4.682010650634765625e+00,4.533861160278320312e+00,4.394799709320068359e+00,4.264015197753906250e+00,4.140789508819580078e+00,4.231300950050354004e-01,4.078992605209350586e-01,4.002049863338470459e-01,5.000000000000000000e+00
3.100331306457519531e+00,3.179022073745727539e+00,3.261811256408691406e+00,3.349028110504150391e+00,3.441036939620971680e+00,3.538244485855102539e+00,3.641103506088256836e+00,3.750122070312500000e+00,3.865870237350463867e+00,3.988991498947143555e+00,4.120212554931640625e+00,4.260361194610595703e+00,4.410378456115722656e+00,4.571331024169921875e+00,4.744476318359375000e+00,4.931253910064697266e+00,5.000000000000000000e+00,5.000000000000000000e+00,5.000000000000000000e+00,5.000000000000000000e+00,5.000000000000000000e+00,5.000000000000000000e+00,5.000000000000000000e+00,5.000000000000000000e+00,5.000000000000000000e+00,5.000000000000000000e+00,5.000000000000000000e+00,5.000000000000000000e+00,5.000000000000000000e+00,5.000000000000000000e+00,5.000000000000000000e+00,5.000000000000000000e+00,5.000000000000000000e+00,5.000000000000000000e+00,5.000000000000000000e+00,5.000000000000000000e+00,5.000000000000000000e+00,5.000000000000000000e+00,5.000000000000000000e+00,5.000000000000000000e+00,5.000000000000000000e+00,5.000000000000000000e+00,5.000000000000000000e+00,5.000000000000000000e+00,5.000000000000000000e+00,5.000000000000000000e+00,5.000000000000000000e+00,5.000000000000000000e+00,5.000000000000000000e+00,5.000000000000000000e+00,5.000000000000000000e+00,5.000000000000000000e+00,5.000000000000000000e+00,5.000000000000000000e+00,5.000000000000000000e+00,7.456859946250915527e-01,7.229865193367004395e-01,7.001553773880004883e-01,6.825960874557495117e-01,6.764560341835021973e-01,6.704254746437072754e-01,6.645014286041259766e-01,6.586812138557434082e-01,6.529620289802551270e-01,6.473413109779357910e-01,6.432591676712036133e-01,6.464408636093139648e-01,6.498150229454040527e-01,6.532706022262573242e-01,6.578120589256286621e-01,4.840336322784423828e+00,4.682166576385498047e+00,4.534007549285888672e+00,4.394937515258789062e+00,4.264144897460937500e+00,4.140911579132080078e+00,4.229060113430023193e-01,4.079667031764984131e-01,4.002698659896850586e-01,5.000000000000000000e+00
3.100265026092529297e+00,3.178952217102050781e+00,3.261738061904907227e+00,3.348950624465942383e+00,3.440955400466918945e+00,3.538157939910888672e+00,3.641012191772460938e+00,3.750024795532226562e+00,3.865767478942871094e+00,3.988881587982177734e+00,4.120095729827880859e+00,4.260235786437988281e+00,4.410245418548583984e+00,4.571203231811523438e+00,4.744338512420654297e+00,4.931104660034179688e+00,5.000000000000000000e+00,5.000000000000000000e+00,5.000000000000000000e+00,5.000000000000000000e+00,5.000000000000000000e+00,5.000000000000000000e+00,5.000000000000000000e+00,5.000000000000000000e+00,5.000000000000000000e+00,5.000000000000000000e+00,5.000000000000000000e+00,5.000000000000000000e+00,5.000000000000000000e+00,5.000000000000000000e+00,5.000000000000000000e+00,5.000000000000000000e+00,5.000000000000000000e+00,5.000000000000000000e+00,5.000000000000000000e+00,5.000000000000000000e+00,5.000000000000000000e+00,5.000000000000000000e+00,5.000000000000000000e+00,5.000000000000000000e+00,5.000000000000000000e+00,5.000000000000000000e+00,5.000000000000000000e+00,5.000000000000000000e+00,5.000000000000000000e+00,5.000000000000000000e+00,5.000000000000000000e+00,5.000000000000000000e+00,5.000000000000000000e+00,5.000000000000000000e+00,5.000000000000000000e+00,5.000000000000000000e+00,5.000000000000000000e+00,5.000000000000000000e+00,5.000000000000000000e+00,7.380344867706298828e-01,7.147977948188781738e-01,6.929590702056884766e-01,6.866320371627807617e-01,6.804195046424865723e-01,6.743183135986328125e-01,6.683256626129150391e-01,6.624385118484497070e-01,6.559048891067504883e-01,6.520883440971374512e-01,6.528441309928894043e-01,6.561215519905090332e-01,6.594319939613342285e-01,6.627760529518127441e-01,5.000000000000000000e+00,4.840503215789794922e+00,4.682323455810546875e+00,4.534154415130615234e+00,4.395075321197509766e+00,4.264274597167968750e+00,4.141033649444580078e+00,4.226821362972259521e-01,4.089169204235076904e-01,4.016600251197814941e-01,5.000000000000000000e+00
3.100198745727539062e+00,3.178882598876953125e+00,3.261664390563964844e+00,3.348873376846313477e+00,3.440873622894287109e+00,3.538071632385253906e+00,3.640920400619506836e+00,3.749927997589111328e+00,3.865664005279541016e+00,3.988771915435791016e+00,4.119978427886962891e+00,4.260110855102539062e+00,4.410110950469970703e+00,4.571060180664062500e+00,4.744200706481933594e+00,4.930955886840820312e+00,5.000000000000000000e+00,5.000000000000000000e+00,5.000000000000000000e+00,5.000000000000000000e+00,5.000000000000000000e+00,5.000000000000000000e+00,5.000000000000000000e+00,5.000000000000000000e+00,5.000000000000000000e+00,5.000000000000000000e+00,5.000000000000000000e+00,5.000000000000000000e+00,5.000000000000000000e+00,5.000000000000000000e+00,5.000000000000000000e+00,5.000000000000000000e+00,5.000000000000000000e+00,5.000000000000000000e+00,5.000000000000000000e+00,5.000000000000000000e+00,5.000000000000000000e+00,5.000000000000000000e+00,5.000000000000000000e+00,5.000000000000000000e+00,5.000000000000000000e+00,5.000000000000000000e+00,5.000000000000000000e+00,5.000000000000000000e+00,5.000000000000000000e+00,5.000000000000000000e+00,5.000000000000000000e+00,5.000000000000000000e+00,5.000000000000000000e+00,5.000000000000000000e+00,5.000000000000000000e+00,5.000000000000000000e+00,5.000000000000000000e+00,5.000000000000000000e+00,7.522779703140258789e-01,7.300656437873840332e-01,7.067924141883850098e-01,6.971188187599182129e-01,6.907159686088562012e-01,6.844295859336853027e-01,6.782566905021667480e-01,6.714020371437072754e-01,6.644690632820129395e-01,6.613873243331909180e-01,6.599682569503784180e-01,6.627190709114074707e-01,6.660965681076049805e-01,6.695087552070617676e-01,5.000000000000000000e+00,5.000000000000000000e+00,4.840670585632324219e+00,4.682479858398437500e+00,4.534300804138183594e+00,4.395213127136230469e+00,4.264404296875000000e+00,4.141156196594238281e+00,4.326972961425781250e-01,4.102942645549774170e-01,4.030897617340087891e-01,5.000000000000000000e+00
3.100094556808471680e+00,3.178795576095581055e+00,3.261590957641601562e+00,3.348795890808105469e+00,3.440791606903076172e+00,3.537985086441040039e+00,3.640828847885131836e+00,3.749830961227416992e+00,3.865560770034790039e+00,3.988662004470825195e+00,4.119861125946044922e+00,4.259985446929931641e+00,4.409976482391357422e+00,4.570915699005126953e+00,4.744046688079833984e+00,4.930807113647460938e+00,5.000000000000000000e+00,5.000000000000000000e+00,5.000000000000000000e+00,5.000000000000000000e+00,5.000000000000000000e+00,5.000000000000000000e+00,5.000000000000000000e+00,5.000000000000000000e+00,5.000000000000000000e+00,5.000000000000000000e+00,5.000000000000000000e+00,5.000000000000000000e+00,5.000000000000000000e+00,5.000000000000000000e+00,5.000000000000000000e+00,5.000000000000000000e+00,5.000000000000000000e+00,5.000000000000000000e+00,5.000000000000000000e+00,5.000000000000000000e+00,5.000000000000000000e+00,5.000000000000000000e+00,5.000000000000000000e+00,5.000000000000000000e+00,5.000000000000000000e+00,5.000000000000000000e+00,5.000000000000000000e+00,5.000000000000000000e+00,5.000000000000000000e+00,5.000000000000000000e+00,5.000000000000000000e+00,5.000000000000000000e+00,5.000000000000000000e+00,5.000000000000000000e+00,5.000000000000000000e+00,5.000000000000000000e+00,5.000000000000000000e+00,7.670820951461791992e-01,7.444912791252136230e-01,7.217165827751159668e-01,7.079309821128845215e-01,7.013288736343383789e-01,6.948487758636474609e-01,6.876491904258728027e-01,6.803784370422363281e-01,6.732598543167114258e-01,6.709552407264709473e-01,6.694948673248291016e-01,6.694505810737609863e-01,6.728972792625427246e-01,6.763796210289001465e-01,5.000000000000000000e+00,5.000000000000000000e+00,5.000000000000000000e+00,4.840837478637695312e+00,4.682635784149169922e+00,4.534447669982910156e+00,4.395350933074951172e+00,4.264533519744873047e+00,4.141278266906738281e+00,4.435075521469116211e-01,4.112784266471862793e-01,4.045296609401702881e-01,5.000000000000000000e+00
3.099979639053344727e+00,3.178674697875976562e+00,3.261469125747680664e+00,3.348692178726196289e+00,3.440708875656127930e+00,3.537898540496826172e+00,3.640737533569335938e+00,3.749733686447143555e+00,3.865458011627197266e+00,3.988552093505859375e+00,4.119744300842285156e+00,4.259860038757324219e+00,4.409842491149902344e+00,4.570771694183349609e+00,4.743891239166259766e+00,4.930641174316406250e+00,5.000000000000000000e+00,5.000000000000000000e+00,5.000000000000000000e+00,5.000000000000000000e+00,5.000000000000000000e+00,5.000000000000000000e+00,5.000000000000000000e+00,5.000000000000000000e+00,5.000000000000000000e+00,5.000000000000000000e+00,5.000000000000000000e+00,5.000000000000000000e+00,5.000000000000000000e+00,5.000000000000000000e+00,5.000000000000000000e+00,5.000000000000000000e+00,5.000000000000000000e+00,5.000000000000000000e+00,5.000000000000000000e+00,5.000000000000000000e+00,5.000000000000000000e+00,5.000000000000000000e+00,5.000000000000000000e+00,5.000000000000000000e+00,5.000000000000000000e+00,5.000000000000000000e+00,5.000000000000000000e+00,5.000000000000000000e+00,5.000000000000000000e+00,5.000000000000000000e+00,5.000000000000000000e+00,5.000000000000000000e+00,5.000000000000000000e+00,5.000000000000000000e+00,5.000000000000000000e+00,5.000000000000000000e+00,5.000000000000000000e+00,7.589875459671020508e-01,7.368641495704650879e-01,7.190837264060974121e-01,7.122730016708374023e-01,7.047020792961120605e-01,6.970682740211486816e-01,6.895980238914489746e-01,6.823143362998962402e-01,6.808040738105773926e-01,6.793006062507629395e-01,6.778036952018737793e-01,6.798382997512817383e-01,6.833930015563964844e-01,5.000000000000000000e+00,5.000000000000000000e+00,5.000000000000000000e+00,5.000000000000000000e+00,4.841004371643066406e+00,4.682792663574218750e+00,4.534594058990478516e+00,4.395488739013671875e+00,4.264663696289062500e+00,4.141400814056396484e+00,4.025063514709472656e+00,4.198527336120605469e-01,4.055263400077819824e-01,5.000000000000000000e+00
3.099875211715698242e+00,3.178553581237792969e+00,3.261341810226440430e+00,3.348557949066162109e+00,3.440567016601562500e+00,3.537775039672851562e+00,3.640635967254638672e+00,3.749636888504028320e+00,3.865354537963867188e+00,3.988442420959472656e+00,4.119626998901367188e+00,4.259735107421875000e+00,4.409708499908447266e+00,4.570627689361572266e+00,4.743735790252685547e+00,4.930473327636718750e+00,5.000000000000000000e+00,5.000000000000000000e+00,5.000000000000000000e+00,5.000000000000000000e+00,5.000000000000000000e+00,5.000000000000000000e+00,5.000000000000000000e+00,5.000000000000000000e+00,5.000000000000000000e+00,5.000000000000000000e+00,5.000000000000000000e+00,5.000000000000000000e+00,5.000000000000000000e+00,5.000000000000000000e+00,5.000000000000000000e+00,5.000000000000000000e+00,5.000000000000000000e+00,5.000000000000000000e+00,5.000000000000000000e+00,5.000000000000000000e+00,5.000000000000000000e+00,5.000000000000000000e+00,5.000000000000000000e+00,5.000000000000000000e+00,5.000000000000000000e+00,5.000000000000000000e+00,5.000000000000000000e+00,5.000000000000000000e+00,5.000000000000000000e+00,5.000000000000000000e+00,5.000000000000000000e+00,5.000000000000000000e+00,5.000000000000000000e+00,5.000000000000000000e+00,5.000000000000000000e+00,5.000000000000000000e+00,7.764095664024353027e-01,7.514482140541076660e-01,7.305935621261596680e-01,7.226223945617675781e-01,7.145975828170776367e-01,7.067490816116333008e-01,6.990710496902465820e-01,6.925020217895507812e-01,6.909464597702026367e-01,6.893978118896484375e-01,6.878561973571777344e-01,6.869239211082458496e-01,6.905533671379089355e-01,5.000000000000000000e+00,5.000000000000000000e+00,5.000000000000000000e+00,5.000000000000000000e+00,5.000000000000000000e+00,4.841171264648437500e+00,4.682948589324951172e+00,4.534740924835205078e+00,4.395626544952392578e+00,4.264792919158935547e+00,4.141522884368896484e+00,4.025178909301757812e+00,4.300231635570526123e-01,4.064877331256866455e-01,5.000000000000000000e+00
3.099809169769287109e+00,3.178472757339477539e+00,3.261233091354370117e+00,3.348423480987548828e+00,3.440425157546997070e+00,3.537624835968017578e+00,3.640476942062377930e+00,3.749488592147827148e+00,3.865230321884155273e+00,3.988332509994506836e+00,4.119509696960449219e+00,4.259609699249267578e+00,4.409574031829833984e+00,4.570483207702636719e+00,4.743580818176269531e+00,4.930305480957031250e+00,5.000000000000000000e+00,5.000000000000000000e+00,5.000000000000000000e+00,5.000000000000000000e+00,5.000000000000000000e+00,5.000000000000000000e+00,5.000000000000000000e+00,5.000000000000000000e+00,5.000000000000000000e+00,5.000000000000000000e+00,5.000000000000000000e+00,5.000000000000000000e+00,5.000000000000000000e+00,5.000000000000000000e+00,5.000000000000000000e+00,5.000000000000000000e+00,5.000000000000000000e+00,5.000000000000000000e+00,5.000000000000000000e+00,5.000000000000000000e+00,5.000000000000000000e+00,5.000000000000000000e+00,5.000000000000000000e+00,5.000000000000000000e+00,5.000000000000000000e+00,5.000000000000000000e+00,5.000000000000000000e+00,5.000000000000000000e+00,5.000000000000000000e+00,5.000000000000000000e+00,5.000000000000000000e+00,5.000000000000000000e+00,5.000000000000000000e+00,5.000000000000000000e+00,5.000000000000000000e+00,5.000000000000000000e+00,7.719348669052124023e-01,7.472558617591857910e-01,7.318728566169738770e-01,7.240225672721862793e-01,7.163389325141906738e-01,7.088078260421752930e-01,7.029985785484313965e-01,7.013955712318420410e-01,6.997998356819152832e-01,6.982113718986511230e-01,6.966300606727600098e-01,6.978653073310852051e-01,5.000000000000000000e+00,5.000000000000000000e+00,5.000000000000000000e+00,5.000000000000000000e+00,5.000000000000000000e+00,5.000000000000000000e+00,4.841338634490966797e+00,4.683104991912841797e+00,4.534887790679931641e+00,4.395763874053955078e+00,4.264923095703125000e+00,4.141645431518554688e+00,4.025294780731201172e+00,4.406985640525817871e-01,4.074536263942718506e-01,4.008679389953613281e-01
3.099742650985717773e+00,3.178402900695800781e+00,3.261159896850585938e+00,3.348340988159179688e+00,3.440311670303344727e+00,3.537477016448974609e+00,3.640318155288696289e+00,3.749320030212402344e+00,3.865051507949829102e+00,3.988154649734497070e+00,4.119358062744140625e+00,4.259484767913818359e+00,4.409440040588378906e+00,4.570339202880859375e+00,4.743425369262695312e+00,4.930138111114501953e+00,5.000000000000000000e+00,5.000000000000000000e+00,5.000000000000000000e+00,5.000000000000000000e+00,5.000000000000000000e+00,5.000000000000000000e+00,5.000000000000000000e+00,5.000000000000000000e+00,5.000000000000000000e+00,5.000000000000000000e+00,5.000000000000000000e+00,5.000000000000000000e+00,5.000000000000000000e+00,5.000000000000000000e+00,5.000000000000000000e+00,5.000000000000000000e+00,5.000000000000000000e+00,5.000000000000000000e+00,5.000000000000000000e+00,5.000000000000000000e+00,5.000000000000000000e+00,5.000000000000000000e+00,5.000000000000000000e+00,5.000000000000000000e+00,5.000000000000000000e+00,5.000000000000000000e+00,5.000000000000000000e+00,5.000000000000000000e+00,5.000000000000000000e+00,5.000000000000000000e+00,5.000000000000000000e+00,5.000000000000000000e+00,5.000000000000000000e+00,5.000000000000000000e+00,5.000000000000000000e+00,5.000000000000000000e+00,7.675114274024963379e-01,7.431100010871887207e-01,7.323876619338989258e-01,7.245263457298278809e-01,7.168321013450622559e-01,7.093944549560546875e-01,7.089236974716186523e-01,7.097415924072265625e-01,7.088829874992370605e-01,7.072530388832092285e-01,7.056305408477783203e-01,5.000000000000000000e+00,5.000000000000000000e+00,5.000000000000000000e+00,5.000000000000000000e+00,5.000000000000000000e+00,5.000000000000000000e+00,5.000000000000000000e+00,4.841506004333496094e+00,4.683261394500732422e+00,4.535034179687500000e+00,4.395902156829833984e+00,4.265052795410156250e+00,4.141767501831054688e+00,4.025410175323486328e+00,3.915411710739135742e+00,4.172209799289703369e-01,4.018073081970214844e-01
3.099676609039306641e+00,3.178333520889282227e+00,3.261086225509643555e+00,3.348263502120971680e+00,3.440229654312133789e+00,3.537390470504760742e+00,3.640199661254882812e+00,3.749162912368774414e+00,3.864872455596923828e+00,3.987964153289794922e+00,4.119154453277587891e+00,4.259269714355468750e+00,4.409253120422363281e+00,4.570184707641601562e+00,4.743270397186279297e+00,4.929970264434814453e+00,5.000000000000000000e+00,5.000000000000000000e+00,5.000000000000000000e+00,5.000000000000000000e+00,5.000000000000000000e+00,5.000000000000000000e+00,5.000000000000000000e+00,5.000000000000000000e+00,5.000000000000000000e+00,5.000000000000000000e+00,5.000000000000000000e+00,5.000000000000000000e+00,5.000000000000000000e+00,5.000000000000000000e+00,5.000000000000000000e+00,5.000000000000000000e+00,5.000000000000000000e+00,5.000000000000000000e+00,5.000000000000000000e+00,5.000000000000000000e+00,5.000000000000000000e+00,5.000000000000000000e+00,5.000000000000000000e+00,5.000000000000000000e+00,5.000000000000000000e+00,5.000000000000000000e+00,5.000000000000000000e+00,5.000000000000000000e+00,5.000000000000000000e+00,5.000000000000000000e+00,5.000000000000000000e+00,5.000000000000000000e+00,5.000000000000000000e+00,5.000000000000000000e+00,5.000000000000000000e+00,7.890028953552246094e-01,7.631384134292602539e-01,7.409482002258300781e-01,7.329031825065612793e-01,7.250308990478515625e-01,7.173259258270263672e-01,7.118046283721923828e-01,7.131382822990417480e-01,7.139658927917480469e-01,7.147953510284423828e-01,7.156267166137695312e-01,5.000000000000000000e+00,5.000000000000000000e+00,5.000000000000000000e+00,5.000000000000000000e+00,5.000000000000000000e+00,5.000000000000000000e+00,5.000000000000000000e+00,5.000000000000000000e+00,4.841672897338867188e+00,4.683417797088623047e+00,4.535181045532226562e+00,4.396039485931396484e+00,4.265182495117187500e+00,4.141890048980712891e+00,4.025525569915771484e+00,3.915520906448364258e+00,4.273818731307983398e-01,4.027511179447174072e-01
3.099610090255737305e+00,3.178263664245605469e+00,3.261013031005859375e+00,3.348186254501342773e+00,3.440148353576660156e+00,3.537304401397705078e+00,3.640108108520507812e+00,3.749065876007080078e+00,3.864747762680053711e+00,3.987796068191528320e+00,4.118951320648193359e+00,4.259052753448486328e+00,4.409020423889160156e+00,4.569934844970703125e+00,4.743039608001708984e+00,4.929775238037109375e+00,5.000000000000000000e+00,5.000000000000000000e+00,5.000000000000000000e+00,5.000000000000000000e+00,5.000000000000000000e+00,5.000000000000000000e+00,5.000000000000000000e+00,5.000000000000000000e+00,5.000000000000000000e+00,5.000000000000000000e+00,5.000000000000000000e+00,5.000000000000000000e+00,5.000000000000000000e+00,5.000000000000000000e+00,5.000000000000000000e+00,5.000000000000000000e+00,5.000000000000000000e+00,5.000000000000000000e+00,5.000000000000000000e+00,5.000000000000000000e+00,5.000000000000000000e+00,5.000000000000000000e+00,5.000000000000000000e+00,5.000000000000000000e+00,5.000000000000000000e+00,5.000000000000000000e+00,5.000000000000000000e+00,5.000000000000000000e+00,5.000000000000000000e+00,5.000000000000000000e+00,5.000000000000000000e+00,5.000000000000000000e+00,5.000000000000000000e+00,5.000000000000000000e+00,5.000000000000000000e+00,7.843644618988037109e-01,7.588148713111877441e-01,7.414758801460266113e-01,7.334193587303161621e-01,7.255360484123229980e-01,7.182804346084594727e-01,7.160427570343017578e-01,7.174032926559448242e-01,7.182407975196838379e-01,7.190802097320556641e-01,7.199215888977050781e-01,5.000000000000000000e+00,5.000000000000000000e+00,5.000000000000000000e+00,5.000000000000000000e+00,5.000000000000000000e+00,5.000000000000000000e+00,5.000000000000000000e+00,5.000000000000000000e+00,4.841840267181396484e+00,4.683574199676513672e+00,4.535327434539794922e+00,4.396177768707275391e+00,4.265312194824218750e+00,4.142012119293212891e+00,4.025634765625000000e+00,3.915617704391479492e+00,4.379248917102813721e-01,4.048271179199218750e-01
3.099544048309326172e+00,3.178194046020507812e+00,3.260939598083496094e+00,3.348108768463134766e+00,3.440066337585449219e+00,3.537217855453491211e+00,3.640016317367553711e+00,3.748969078063964844e+00,3.864645004272460938e+00,3.987686395645141602e+00,4.118820190429687500e+00,4.258872509002685547e+00,4.408787250518798828e+00,4.569684505462646484e+00,4.742770195007324219e+00,4.929483413696289062e+00,5.000000000000000000e+00,5.000000000000000000e+00,5.000000000000000000e+00,5.000000000000000000e+00,5.000000000000000000e+00,5.000000000000000000e+00,5.000000000000000000e+00,5.000000000000000000e+00,5.000000000000000000e+00,5.000000000000000000e+00,5.000000000000000000e+00,5.000000000000000000e+00,5.000000000000000000e+00,5.000000000000000000e+00,5.000000000000000000e+00,5.000000000000000000e+00,5.000000000000000000e+00,5.000000000000000000e+00,5.000000000000000000e+00,5.000000000000000000e+00,5.000000000000000000e+00,5.000000000000000000e+00,5.000000000000000000e+00,5.000000000000000000e+00,5.000000000000000000e+00,5.000000000000000000e+00,5.000000000000000000e+00,5.000000000000000000e+00,5.000000000000000000e+00,5.000000000000000000e+00,5.000000000000000000e+00,5.000000000000000000e+00,5.000000000000000000e+00,5.000000000000000000e+00,5.000000000000000000e+00,7.797800898551940918e-01,7.545400857925415039e-01,7.420042753219604492e-01,7.339363098144531250e-01,7.263862490653991699e-01,7.192636728286743164e-01,7.203316092491149902e-01,7.217196226119995117e-01,7.225672006607055664e-01,7.234168052673339844e-01,5.000000000000000000e+00,5.000000000000000000e+00,5.000000000000000000e+00,5.000000000000000000e+00,5.000000000000000000e+00,5.000000000000000000e+00,5.000000000000000000e+00,5.000000000000000000e+00,5.000000000000000000e+00,4.842007160186767578e+00,4.683730602264404297e+00,4.535474300384521484e+00,4.396311283111572266e+00,4.265429973602294922e+00,4.142116069793701172e+00,4.025732517242431641e+00,3.915709972381591797e+00,3.811541557312011719e+00,4.145624935626983643e-01
3.099477529525756836e+00,3.178124189376831055e+00,3.260865926742553711e+00,3.348031520843505859e+00,3.439985036849975586e+00,3.537131786346435547e+00,3.639925241470336914e+00,3.748871803283691406e+00,3.864541769027709961e+00,3.987576484680175781e+00,4.118703365325927734e+00,4.258747100830078125e+00,4.408649444580078125e+00,4.569489479064941406e+00,4.742509841918945312e+00,4.929192543029785156e+00,5.000000000000000000e+00,5.000000000000000000e+00,5.000000000000000000e+00,5.000000000000000000e+00,5.000000000000000000e+00,5.000000000000000000e+00,5.000000000000000000e+00,5.000000000000000000e+00,5.000000000000000000e+00,5.000000000000000000e+00,5.000000000000000000e+00,5.000000000000000000e+00,5.000000000000000000e+00,5.000000000000000000e+00,5.000000000000000000e+00,5.000000000000000000e+00,5.000000000000000000e+00,5.000000000000000000e+00,5.000000000000000000e+00,5.000000000000000000e+00,5.000000000000000000e+00,5.000000000000000000e+00,5.000000000000000000e+00,5.000000000000000000e+00,5.000000000000000000e+00,5.000000000000000000e+00,5.000000000000000000e+00,5.000000000000000000e+00,5.000000000000000000e+00,5.000000000000000000e+00,5.000000000000000000e+00,5.000000000000000000e+00,5.000000000000000000e+00,5.000000000000000000e+00,8.020164966583251953e-01,7.752490639686584473e-01,7.507925033569335938e-01,7.425334453582763672e-01,7.346771359443664551e-01,7.273918390274047852e-01,7.228790521621704102e-01,7.246721982955932617e-01,7.260882258415222168e-01,7.269461154937744141e-01,7.278059720993041992e-01,5.000000000000000000e+00,5.000000000000000000e+00,5.000000000000000000e+00,5.000000000000000000e+00,5.000000000000000000e+00,5.000000000000000000e+00,5.000000000000000000e+00,5.000000000000000000e+00,5.000000000000000000e+00,4.842174530029296875e+00,4.683877468109130859e+00,4.535603046417236328e+00,4.396428108215332031e+00,4.265540122985839844e+00,4.142220020294189453e+00,4.025830268859863281e+00,3.915802717208862305e+00,3.811629295349121094e+00,4.247727990150451660e-01
3.099411487579345703e+00,3.178054809570312500e+00,3.260792732238769531e+00,3.347954034805297852e+00,3.439903020858764648e+00,3.537045240402221680e+00,3.639833688735961914e+00,3.748775243759155273e+00,3.864438772201538086e+00,3.987467050552368164e+00,4.118586063385009766e+00,4.258622169494628906e+00,4.408515453338623047e+00,4.569345474243164062e+00,4.742354869842529297e+00,4.928981304168701172e+00,5.000000000000000000e+00,5.000000000000000000e+00,5.000000000000000000e+00,5.000000000000000000e+00,5.000000000000000000e+00,5.000000000000000000e+00,5.000000000000000000e+00,5.000000000000000000e+00,5.000000000000000000e+00,5.000000000000000000e+00,5.000000000000000000e+00,5.000000000000000000e+00,5.000000000000000000e+00,5.000000000000000000e+00,5.000000000000000000e+00,5.000000000000000000e+00,5.000000000000000000e+00,5.000000000000000000e+00,5.000000000000000000e+00,5.000000000000000000e+00,5.000000000000000000e+00,5.000000000000000000e+00,5.000000000000000000e+00,5.000000000000000000e+00,5.000000000000000000e+00,5.000000000000000000e+00,5.000000000000000000e+00,5.000000000000000000e+00,5.000000000000000000e+00,5.000000000000000000e+00,5.000000000000000000e+00,5.000000000000000000e+00,5.000000000000000000e+00,5.000000000000000000e+00,7.972241640090942383e-01,7.707704305648803711e-01,7.513342499732971191e-01,7.431594133377075195e-01,7.357057929039001465e-01,7.284001708030700684e-01,7.272505164146423340e-01,7.290653586387634277e-01,7.305099964141845703e-01,7.313783168792724609e-01,7.322488427162170410e-01,5.000000000000000000e+00,5.000000000000000000e+00,5.000000000000000000e+00,5.000000000000000000e+00,5.000000000000000000e+00,5.000000000000000000e+00,5.000000000000000000e+00,5.000000000000000000e+00,5.000000000000000000e+00,4.842316150665283203e+00,4.684010505676269531e+00,4.535727024078369141e+00,4.396544933319091797e+00,4.265649795532226562e+00,4.142323493957519531e+00,4.025928497314453125e+00,3.915895462036132812e+00,3.811717271804809570e+00,4.351859688758850098e-01
3.099344968795776367e+00,3.177984952926635742e+00,3.260719299316406250e+00,3.347877025604248047e+00,3.439821720123291016e+00,3.536959171295166016e+00,3.639742374420166016e+00,3.748677968978881836e+00,3.864335536956787109e+00,3.987357139587402344e+00,4.118469238281250000e+00,4.258496761322021484e+00,4.408381462097167969e+00,4.569201469421386719e+00,4.742199897766113281e+00,4.928813934326171875e+00,5.000000000000000000e+00,5.000000000000000000e+00,5.000000000000000000e+00,5.000000000000000000e+00,5.000000000000000000e+00,5.000000000000000000e+00,5.000000000000000000e+00,5.000000000000000000e+00,5.000000000000000000e+00,5.000000000000000000e+00,5.000000000000000000e+00,5.000000000000000000e+00,5.000000000000000000e+00,5.000000000000000000e+00,5.000000000000000000e+00,5.000000000000000000e+00,5.000000000000000000e+00,5.000000000000000000e+00,5.000000000000000000e+00,5.000000000000000000e+00,5.000000000000000000e+00,5.000000000000000000e+00,5.000000000000000000e+00,5.000000000000000000e+00,5.000000000000000000e+00,5.000000000000000000e+00,5.000000000000000000e+00,5.000000000000000000e+00,5.000000000000000000e+00,5.000000000000000000e+00,5.000000000000000000e+00,5.000000000000000000e+00,5.000000000000000000e+00,5.000000000000000000e+00,7.924886941909790039e-01,7.663431167602539062e-01,7.518767714500427246e-01,7.442120313644409180e-01,7.367373108863830566e-01,7.298471331596374512e-01,7.316750288009643555e-01,7.335121035575866699e-01,7.349859476089477539e-01,7.358649373054504395e-01,5.000000000000000000e+00,5.000000000000000000e+00,5.000000000000000000e+00,5.000000000000000000e+00,5.000000000000000000e+00,5.000000000000000000e+00,5.000000000000000000e+00,5.000000000000000000e+00,5.000000000000000000e+00,5.000000000000000000e+00,4.842457771301269531e+00,4.684142589569091797e+00,4.535851478576660156e+00,4.396661758422851562e+00,4.265759944915771484e+00,4.142426967620849609e+00,4.026026248931884766e+00,3.915987730026245117e+00,3.811804771423339844e+00,3.713021278381347656e+00
3.099278926849365234e+00,3.177915334701538086e+00,3.260646104812622070e+00,3.347799539566040039e+00,3.439739942550659180e+00,3.536872625350952148e+00,3.639650821685791016e+00,3.748581171035766602e+00,3.864232778549194336e+00,3.987247705459594727e+00,4.118351936340332031e+00,4.258371829986572266e+00,4.408247470855712891e+00,4.569057464599609375e+00,4.742044448852539062e+00,4.928646087646484375e+00,5.000000000000000000e+00,5.000000000000000000e+00,5.000000000000000000e+00,5.000000000000000000e+00,5.000000000000000000e+00,5.000000000000000000e+00,5.000000000000000000e+00,5.000000000000000000e+00,5.000000000000000000e+00,5.000000000000000000e+00,5.000000000000000000e+00,5.000000000000000000e+00,5.000000000000000000e+00,5.000000000000000000e+00,5.000000000000000000e+00,5.000000000000000000e+00,5.000000000000000000e+00,5.000000000000000000e+00,5.000000000000000000e+00,5.000000000000000000e+00,5.000000000000000000e+00,5.000000000000000000e+00,5.000000000000000000e+00,5.000000000000000000e+00,5.000000000000000000e+00,5.000000000000000000e+00,5.000000000000000000e+00,5.000000000000000000e+00,5.000000000000000000e+00,5.000000000000000000e+00,5.000000000000000000e+00,5.000000000000000000e+00,5.000000000000000000e+00,5.000000000000000000e+00,7.878092527389526367e-01,7.619678378105163574e-01,7.529172897338867188e-01,7.452676296234130859e-01,7.377717494964599609e-01,7.343034744262695312e-01,7.361538410186767578e-01,7.380135059356689453e-01,7.395170331001281738e-01,7.404069900512695312e-01,5.000000000000000000e+00,5.000000000000000000e+00,5.000000000000000000e+00,5.000000000000000000e+00,5.000000000000000000e+00,5.000000000000000000e+00,5.000000000000000000e+00,5.000000000000000000e+00,5.000000000000000000e+00,5.000000000000000000e+00,4.842599391937255859e+00,4.684275150299072266e+00,4.535975933074951172e+00,4.396778583526611328e+00,4.265869617462158203e+00,4.142530918121337891e+00,4.026124000549316406e+00,3.916080713272094727e+00,3.811892747879028320e+00,3.713104724884033203e+00
3.099212408065795898e+00,3.177845478057861328e+00,3.260572671890258789e+00,3.347722053527832031e+00,3.439658403396606445e+00,3.536786556243896484e+00,3.639559507369995117e+00,3.748484134674072266e+00,3.864129543304443359e+00,3.987137794494628906e+00,4.118235111236572266e+00,4.258246421813964844e+00,4.408113002777099609e+00,4.568913459777832031e+00,4.741889476776123047e+00,4.928478240966796875e+00,5.000000000000000000e+00,5.000000000000000000e+00,5.000000000000000000e+00,5.000000000000000000e+00,5.000000000000000000e+00,5.000000000000000000e+00,5.000000000000000000e+00,5.000000000000000000e+00,5.000000000000000000e+00,5.000000000000000000e+00,5.000000000000000000e+00,5.000000000000000000e+00,5.000000000000000000e+00,5.000000000000000000e+00,5.000000000000000000e+00,5.000000000000000000e+00,5.000000000000000000e+00,5.000000000000000000e+00,5.000000000000000000e+00,5.000000000000000000e+00,5.000000000000000000e+00,5.000000000000000000e+00,5.000000000000000000e+00,5.000000000000000000e+00,5.000000000000000000e+00,5.000000000000000000e+00,5.000000000000000000e+00,5.000000000000000000e+00,5.000000000000000000e+00,5.000000000000000000e+00,5.000000000000000000e+00,5.000000000000000000e+00,5.000000000000000000e+00,8.110651969909667969e-01,7.835573554039001465e-01,7.623543739318847656e-01,7.540426254272460938e-01,7.463261485099792480e-01,7.388092279434204102e-01,7.388146519660949707e-01,7.406876683235168457e-01,7.425704002380371094e-01,7.441044449806213379e-01,5.000000000000000000e+00,5.000000000000000000e+00,5.000000000000000000e+00,5.000000000000000000e+00,5.000000000000000000e+00,5.000000000000000000e+00,5.000000000000000000e+00,5.000000000000000000e+00,5.000000000000000000e+00,5.000000000000000000e+00,5.000000000000000000e+00,4.842741012573242188e+00,4.684407711029052734e+00,4.536100387573242188e+00,4.396894931793212891e+00,4.265979766845703125e+00,4.142634391784667969e+00,4.026221752166748047e+00,3.916173458099365234e+00,3.811980485916137695e+00,3.713188171386718750e+00
3.099146366119384766e+00,3.177776098251342773e+00,3.260499477386474609e+00,3.347644805908203125e+00,3.439576625823974609e+00,3.536700010299682617e+00,3.639467954635620117e+00,3.748386859893798828e+00,3.864026784896850586e+00,3.987028360366821289e+00,4.118117809295654297e+00,4.258121490478515625e+00,4.407979011535644531e+00,4.568769454956054688e+00,4.741734504699707031e+00,4.928310871124267578e+00,5.000000000000000000e+00,5.000000000000000000e+00,5.000000000000000000e+00,5.000000000000000000e+00,5.000000000000000000e+00,5.000000000000000000e+00,5.000000000000000000e+00,5.000000000000000000e+00,5.000000000000000000e+00,5.000000000000000000e+00,5.000000000000000000e+00,5.000000000000000000e+00,5.000000000000000000e+00,5.000000000000000000e+00,5.000000000000000000e+00,5.000000000000000000e+00,5.000000000000000000e+00,5.000000000000000000e+00,5.000000000000000000e+00,5.000000000000000000e+00,5.000000000000000000e+00,5.000000000000000000e+00,5.000000000000000000e+00,5.000000000000000000e+00,5.000000000000000000e+00,5.000000000000000000e+00,5.000000000000000000e+00,5.000000000000000000e+00,5.000000000000000000e+00,5.000000000000000000e+00,5.000000000000000000e+00,5.000000000000000000e+00,5.000000000000000000e+00,8.065734505653381348e-01,7.793643474578857422e-01,7.643632292747497559e-01,7.560078501701354980e-01,7.478332519531250000e-01,7.414947748184204102e-01,7.433815002441406250e-01,7.452778816223144531e-01,7.471840381622314453e-01,7.487490773200988770e-01,5.000000000000000000e+00,5.000000000000000000e+00,5.000000000000000000e+00,5.000000000000000000e+00,5.000000000000000000e+00,5.000000000000000000e+00,5.000000000000000000e+00,5.000000000000000000e+00,5.000000000000000000e+00,5.000000000000000000e+00,5.000000000000000000e+00,4.842882633209228516e+00,4.684540271759033203e+00,4.536224365234375000e+00,4.397012233734130859e+00,4.266089916229248047e+00,4.142738342285156250e+00,4.026319980621337891e+00,3.916265726089477539e+00,3.812067985534667969e+00,3.713271141052246094e+00
3.099079847335815430e+00,3.177706241607666016e+00,3.260426044464111328e+00,3.347567319869995117e+00,3.439495086669921875e+00,3.536613941192626953e+00,3.639376878738403320e+00,3.748290300369262695e+00,3.863923549652099609e+00,3.986918449401855469e+00,4.118000984191894531e+00,4.257996082305908203e+00,4.407845020294189453e+00,4.568625450134277344e+00,4.741579055786132812e+00,4.854916095733642578e+00,4.853708267211914062e+00,4.852500915527343750e+00,4.851294517517089844e+00,4.850088596343994141e+00,4.848883152008056641e+00,4.847678184509277344e+00,4.846474170684814453e+00,4.845270633697509766e+00,4.844067573547363281e+00,4.842864990234375000e+00,4.841663360595703125e+00,4.840461730957031250e+00,4.839261054992675781e+00,4.838060855865478516e+00,4.836861610412597656e+00,4.835662841796875000e+00,4.834464550018310547e+00,4.833266735076904297e+00,4.832069396972656250e+00,4.830873489379882812e+00,4.829677104949951172e+00,4.828482151031494141e+00,4.827287197113037109e+00,4.826093196868896484e+00,4.824899673461914062e+00,4.823706626892089844e+00,4.822514533996582031e+00,4.821322441101074219e+00,4.820131778717041016e+00,4.818941116333007812e+00,4.817750930786132812e+00,4.816561222076416016e+00,4.815372943878173828e+00,8.021311759948730469e-01,7.752159833908081055e-01,7.663826942443847656e-01,7.579834461212158203e-01,7.497662305831909180e-01,7.465005517005920410e-01,7.482258677482604980e-01,7.499591112136840820e-01,7.518553137779235840e-01,4.803516387939453125e+00,4.802333831787109375e+00,4.801152229309082031e+00,4.799971103668212891e+00,4.798790454864501953e+00,4.797610282897949219e+00,4.796430587768554688e+00,4.795252323150634766e+00,4.794073581695556641e+00,4.792895793914794922e+00,4.791718482971191406e+00,4.790542602539062500e+00,4.789366245269775391e+00,4.684672832489013672e+00,4.536348819732666016e+00,4.397128582000732422e+00,4.266199588775634766e+00,4.142841815948486328e+00,4.026417732238769531e+00,3.916358470916748047e+00,3.812155961990356445e+00,3.713354587554931641e+00
3.099013805389404297e+00,3.177636623382568359e+00,3.260352849960327148e+00,3.347490310668945312e+00,3.439413309097290039e+00,3.536527395248413086e+00,3.639285326004028320e+00,3.748193025588989258e+00,3.771145582199096680e+00,3.770416736602783203e+00,3.769688129425048828e+00,3.768959760665893555e+00,3.768232345581054688e+00,3.767504453659057617e+00,3.766777038574218750e+00,3.766049861907958984e+00,3.765323162078857422e+00,3.764596462249755859e+00,3.763870000839233398e+00,3.763144016265869141e+00,3.762418270111083984e+00,3.761693239212036133e+00,3.760967969894409180e+00,3.760243177413940430e+00,3.759518384933471680e+00,3.758794069290161133e+00,3.758069992065429688e+00,3.757346153259277344e+00,3.756622791290283203e+00,3.755899429321289062e+00,3.755176782608032227e+00,3.754454135894775391e+00,3.753731727600097656e+00,3.753009557723999023e+00,3.752287864685058594e+00,3.751566171646118164e+00,3.750844955444335938e+00,3.750123739242553711e+00,3.749403476715087891e+00,3.748682975769042969e+00,3.747962713241577148e+00,3.747242927551269531e+00,3.746523141860961914e+00,3.745803833007812500e+00,3.745084762573242188e+00,3.744365930557250977e+00,3.743647336959838867e+00,3.742929458618164062e+00,8.297058343887329102e-01,7.977375984191894531e-01,7.770462632179260254e-01,7.684129476547241211e-01,7.599692940711975098e-01,7.515636682510375977e-01,7.515771389007568359e-01,7.533260583877563477e-01,7.550831437110900879e-01,7.568483352661132812e-01,3.735047340393066406e+00,3.734332323074340820e+00,3.733617544174194336e+00,3.732903242111206055e+00,3.732188940048217773e+00,3.731475114822387695e+00,3.730762004852294922e+00,3.730048656463623047e+00,3.729335546493530273e+00,3.728622913360595703e+00,3.727910280227661133e+00,3.727198123931884766e+00,3.726485967636108398e+00,3.725774288177490234e+00,3.725062847137451172e+00,3.724352121353149414e+00,3.723641157150268555e+00,3.722930669784545898e+00,3.722220420837402344e+00,3.721510171890258789e+00,3.720800399780273438e+00,3.713437795639038086e+00
3.083424568176269531e+00,3.082937002182006836e+00,3.082449674606323242e+00,3.081962823867797852e+00,3.081475973129272461e+00,3.080989360809326172e+00,3.080502748489379883e+00,3.080016851425170898e+00,3.079530477523803711e+00,3.079044580459594727e+00,3.078558683395385742e+00,3.078072786331176758e+00,3.077587366104125977e+00,3.077101945877075195e+00,3.076616525650024414e+00,3.076131343841552734e+00,3.075646638870239258e+00,3.075161933898925781e+00,3.074677228927612305e+00,3.074192762374877930e+00,3.073708295822143555e+00,3.073224067687988281e+00,3.072740077972412109e+00,3.072256088256835938e+00,3.071772575378417969e+00,3.071289062500000000e+00,3.070805549621582031e+00,3.070322275161743164e+00,3.069839239120483398e+00,3.069356203079223633e+00,3.068873405456542969e+00,3.068390607833862305e+00,3.067908048629760742e+00,3.067425966262817383e+00,3.066943883895874023e+00,3.066461563110351562e+00,3.065979719161987305e+00,3.065498113632202148e+00,3.065016508102416992e+00,3.064534902572631836e+00,3.064053535461425781e+00,3.063572645187377930e+00,3.063091754913330078e+00,3.062610864639282227e+00,3.062130212783813477e+00,3.061649560928344727e+00,3.061169147491455078e+00,3.060688734054565430e+00,8.237767815589904785e-01,7.933918237686157227e-01,7.791334390640258789e-01,7.704539299011230469e-01,7.618603110313415527e-01,7.556189298629760742e-01,7.567233443260192871e-01,7.584962248802185059e-01,7.602775096893310547e-01,3.055894613265991211e+00,3.055416107177734375e+00,3.054937839508056641e+00,3.054459571838378906e+00,3.053981304168701172e+00,3.053503274917602539e+00,3.053025484085083008e+00,3.052547693252563477e+00,3.052070140838623047e+00,3.051592826843261719e+00,3.051115751266479492e+00,3.050638675689697266e+00,3.050161600112915039e+00,3.049684762954711914e+00,3.049208164215087891e+00,3.048731565475463867e+00,3.048255205154418945e+00,3.047779083251953125e+00,3.047302961349487305e+00,3.046827316284179688e+00,3.046351671218872070e+00,3.045876026153564453e+00,3.045400381088256836e+00
2.605061054229736328e+00,2.604713201522827148e+00,2.604365587234497070e+00,2.604017972946166992e+00,2.603670358657836914e+00,2.603322982788085938e+00,2.602975368499755859e+00,2.602627992630004883e+00,2.602280855178833008e+00,2.601933717727661133e+00,2.601587057113647461e+00,2.601240158081054688e+00,2.600893259048461914e+00,2.600546598434448242e+00,2.600199937820434570e+00,2.599853515625000000e+00,2.599507093429565430e+00,2.599160671234130859e+00,2.598814487457275391e+00,2.598468542098999023e+00,2.598122358322143555e+00,2.597776412963867188e+00,2.597430467605590820e+00,2.597084760665893555e+00,2.596739053726196289e+00,2.596393585205078125e+00,2.596047878265380859e+00,2.595702886581420898e+00,2.595357418060302734e+00,2.595012187957763672e+00,2.594666957855224609e+00,2.594321966171264648e+00,2.593976974487304688e+00,2.593632221221923828e+00,2.593287467956542969e+00,2.592942714691162109e+00,2.592598438262939453e+00,2.592253923416137695e+00,2.591909408569335938e+00,2.591565132141113281e+00,2.591220855712890625e+00,2.590876817703247070e+00,2.590532779693603516e+00,2.590188741683959961e+00,2.589844942092895508e+00,2.589501380920410156e+00,2.589157581329345703e+00,2.588814020156860352e+00,8.179318904876708984e-01,7.901573181152343750e-01,7.812318205833435059e-01,7.724429368972778320e-01,7.637118697166442871e-01,7.602169513702392578e-01,7.619404196739196777e-01,7.637379169464111328e-01,7.655439376831054688e-01,2.585383415222167969e+00,2.585040807723999023e+00,2.584698438644409180e+00,2.584355831146240234e+00,2.584013700485229492e+00,2.583671569824218750e+00,2.583329439163208008e+00,2.582987546920776367e+00,2.582645416259765625e+00,2.582303524017333984e+00,2.581961870193481445e+00,2.581620216369628906e+00,2.581278562545776367e+00,2.580937147140502930e+00,2.580595970153808594e+00,2.580254554748535156e+00,2.579913377761840820e+00,2.579572200775146484e+00,2.579231023788452148e+00,2.578890085220336914e+00,2.578549385070800781e+00,2.578208446502685547e+00,2.577867984771728516e+00
2.255190134048461914e+00,2.254929542541503906e+00,2.254668951034545898e+00,2.254408359527587891e+00,2.254148006439208984e+00,2.253887414932250977e+00,2.253627061843872070e+00,2.253366708755493164e+00,2.253106594085693359e+00,2.252846479415893555e+00,2.252586364746093750e+00,2.252326250076293945e+00,2.252066135406494141e+00,2.251806259155273438e+00,2.251546382904052734e+00,2.251286506652832031e+00,2.251026630401611328e+00,2.250766992568969727e+00,2.250507354736328125e+00,2.250247716903686523e+00,2.249988317489624023e+00,2.249728918075561523e+00,2.249469518661499023e+00,2.249210119247436523e+00,2.248950958251953125e+00,2.248691558837890625e+00,2.248432397842407227e+00,2.248173475265502930e+00,2.247914314270019531e+00,2.247655391693115234e+00,2.247396469116210938e+00,2.247137784957885742e+00,2.246878862380981445e+00,2.246620178222656250e+00,2.246361494064331055e+00,2.246102809906005859e+00,2.245844125747680664e+00,2.245585680007934570e+00,2.245327234268188477e+00,2.245069026947021484e+00,2.244810581207275391e+00,2.244552373886108398e+00,2.244294166564941406e+00,2.244035959243774414e+00,2.243777990341186523e+00,2.243519783020019531e+00,2.243261814117431641e+00,8.497057557106018066e-01,8.124405741691589355e-01,7.923156023025512695e-01,7.833237051963806152e-01,7.743464112281799316e-01,7.660716772079467773e-01,7.654160261154174805e-01,7.672299146652221680e-01,7.690525054931640625e-01,2.240685462951660156e+00,2.240428209304809570e+00,2.240170955657958984e+00,2.239913702011108398e+00,2.239656686782836914e+00,2.239399433135986328e+00,2.239142417907714844e+00,2.238885402679443359e+00,2.238628625869750977e+00,2.238371849060058594e+00,2.238115072250366211e+00,2.237858295440673828e+00,2.237601757049560547e+00,2.237344980239868164e+00,2.237088441848754883e+00,2.236831903457641602e+00,2.236575603485107422e+00,2.236319065093994141e+00,2.236063003540039062e+00,2.235806703567504883e+00,2.235550403594970703e+00,2.235294342041015625e+00,2.235038280487060547e+00,2.234782218933105469e+00
1.988170623779296875e+00,1.987968087196350098e+00,1.987765431404113770e+00,1.987562775611877441e+00,1.987360239028930664e+00,1.987157821655273438e+00,1.986955404281616211e+00,1.986753106117248535e+00,1.986550807952880859e+00,1.986348509788513184e+00,1.986146330833435059e+00,1.985944032669067383e+00,1.985741972923278809e+00,1.985539913177490234e+00,1.985337853431701660e+00,1.985135793685913086e+00,1.984933853149414062e+00,1.984731912612915039e+00,1.984529972076416016e+00,1.984328031539916992e+00,1.984126210212707520e+00,1.983924508094787598e+00,1.983722805976867676e+00,1.983521103858947754e+00,1.983319401741027832e+00,1.983118057250976562e+00,1.982916474342346191e+00,1.982714891433715820e+00,1.982513427734375000e+00,1.982311964035034180e+00,1.982110619544982910e+00,1.981909275054931641e+00,1.981707930564880371e+00,1.981506586074829102e+00,1.981305360794067383e+00,1.981104135513305664e+00,1.980903029441833496e+00,1.980701923370361328e+00,1.980500817298889160e+00,1.980299711227416992e+00,1.980098724365234375e+00,1.979897737503051758e+00,1.979696869850158691e+00,1.979496240615844727e+00,1.979295372962951660e+00,1.979094624519348145e+00,1.978893756866455078e+00,8.434885144233703613e-01,8.079335689544677734e-01,7.944857478141784668e-01,7.852813005447387695e-01,7.762593030929565430e-01,7.707982063293457031e-01,7.707540392875671387e-01,7.725934386253356934e-01,1.977088809013366699e+00,1.976888418197631836e+00,1.976688146591186523e+00,1.976487874984741211e+00,1.976287722587585449e+00,1.976087689399719238e+00,1.975887537002563477e+00,1.975687503814697266e+00,1.975487351417541504e+00,1.975287318229675293e+00,1.975087404251098633e+00,1.974887371063232422e+00,1.974687576293945312e+00,1.974487662315368652e+00,1.974287867546081543e+00,1.974088072776794434e+00,1.973888278007507324e+00,1.973688602447509766e+00,1.973488926887512207e+00,1.973289370536804199e+00,1.973089694976806641e+00,1.972890257835388184e+00,1.972690939903259277e+00,1.972491502761840820e+00,1.972292065620422363e+00
1.777688145637512207e+00,1.777526140213012695e+00,1.777364134788513184e+00,1.777202248573303223e+00,1.777040362358093262e+00,1.776878595352172852e+00,1.776716709136962891e+00,1.776554942131042480e+00,1.776393175125122070e+00,1.776231408119201660e+00,1.776069641113281250e+00,1.775907993316650391e+00,1.775746345520019531e+00,1.775584697723388672e+00,1.775423169136047363e+00,1.775261640548706055e+00,1.775100111961364746e+00,1.774938583374023438e+00,1.774777054786682129e+00,1.774615645408630371e+00,1.774454236030578613e+00,1.774292826652526855e+00,1.774131417274475098e+00,1.773970127105712891e+00,1.773808836936950684e+00,1.773647546768188477e+00,1.773486375808715820e+00,1.773325085639953613e+00,1.773163914680480957e+00,1.773002743721008301e+00,1.772841691970825195e+00,1.772680521011352539e+00,1.772519469261169434e+00,1.772358417510986328e+00,1.772197484970092773e+00,1.772036433219909668e+00,1.771875500679016113e+00,1.771714806556701660e+00,1.771553874015808105e+00,1.771393060684204102e+00,1.771232247352600098e+00,1.771071434020996094e+00,1.770910620689392090e+00,1.770749926567077637e+00,1.770589113235473633e+00,1.770428419113159180e+00,1.770267844200134277e+00,8.373615145683288574e-01,8.059515357017517090e-01,7.965294122695922852e-01,7.872486114501953125e-01,7.781817317008972168e-01,7.755833864212036133e-01,7.761670351028442383e-01,8.008555173873901367e-01,1.768823385238647461e+00,1.768663048744201660e+00,1.768502712249755859e+00,1.768342375755310059e+00,1.768182158470153809e+00,1.768021821975708008e+00,1.767861604690551758e+00,1.767701506614685059e+00,1.767541289329528809e+00,1.767381191253662109e+00,1.767221093177795410e+00,1.767060995101928711e+00,1.766900897026062012e+00,1.766740918159484863e+00,1.766580939292907715e+00,1.766420960426330566e+00,1.766261100769042969e+00,1.766101360321044922e+00,1.765941500663757324e+00,1.765781641006469727e+00,1.765621781349182129e+00,1.765462040901184082e+00,1.765302300453186035e+00,1.765142560005187988e+00,1.764982938766479492e+00
1.607505798339843750e+00,1.607373356819152832e+00,1.607240915298461914e+00,1.607108473777770996e+00,1.606976151466369629e+00,1.606843709945678711e+00,1.606711387634277344e+00,1.606579065322875977e+00,1.606446743011474609e+00,1.606314539909362793e+00,1.606182217597961426e+00,1.606050014495849609e+00,1.605917811393737793e+00,1.605785608291625977e+00,1.605653285980224609e+00,1.605521202087402344e+00,1.605389118194580078e+00,1.605256915092468262e+00,1.605124831199645996e+00,1.604992866516113281e+00,1.604860782623291016e+00,1.604728817939758301e+00,1.604596734046936035e+00,1.604464769363403320e+00,1.604332804679870605e+00,1.604200959205627441e+00,1.604068994522094727e+00,1.603937149047851562e+00,1.603805303573608398e+00,1.603673458099365234e+00,1.603541612625122070e+00,1.603409886360168457e+00,1.603278160095214844e+00,1.603146433830261230e+00,1.603014707565307617e+00,1.602882981300354004e+00,1.602751374244689941e+00,1.602619647979736328e+00,1.602488040924072266e+00,1.602356433868408203e+00,1.602224826812744141e+00,1.602093219757080078e+00,1.601961612701416016e+00,1.601830124855041504e+00,1.601698637008666992e+00,1.601567149162292480e+00,1.601435661315917969e+00,8.497729897499084473e-01,8.081044554710388184e-01,7.985535860061645508e-01,7.892259359359741211e-01,7.816780209541320801e-01,7.804282903671264648e-01,7.816567420959472656e-01,1.600384831428527832e+00,1.600253582000732422e+00,1.600122332572937012e+00,1.599990963935852051e+00,1.599859833717346191e+00,1.599728584289550781e+00,1.599597454071044922e+00,1.599466323852539062e+00,1.599335193634033203e+00,1.599204063415527344e+00,1.599072933197021484e+00,1.598941922187805176e+00,1.598811030387878418e+00,1.598680019378662109e+00,1.598549008369445801e+00,1.598417997360229492e+00,1.598287105560302734e+00,1.598156094551086426e+00,1.598025202751159668e+00,1.597894310951232910e+00,1.597763419151306152e+00,1.597632646560668945e+00,1.597501754760742188e+00,1.597370982170104980e+00,1.597240209579467773e+00,1.597109436988830566e+00
1.467060565948486328e+00,1.466950178146362305e+00,1.466839909553527832e+00,1.466729640960693359e+00,1.466619372367858887e+00,1.466508984565734863e+00,1.466398715972900391e+00,1.466288566589355469e+00,1.466178297996520996e+00,1.466068148612976074e+00,1.465957999229431152e+00,1.465847849845886230e+00,1.465737700462341309e+00,1.465627551078796387e+00,1.465517520904541016e+00,1.465407371520996094e+00,1.465297341346740723e+00,1.465187311172485352e+00,1.465077161788940430e+00,1.464967250823974609e+00,1.464857220649719238e+00,1.464747190475463867e+00,1.464637279510498047e+00,1.464527249336242676e+00,1.464417338371276855e+00,1.464307427406311035e+00,1.464197516441345215e+00,1.464087605476379395e+00,1.463977813720703125e+00,1.463867902755737305e+00,1.463758111000061035e+00,1.463648200035095215e+00,1.463538408279418945e+00,1.463428616523742676e+00,1.463318824768066406e+00,1.463209152221679688e+00,1.463099360466003418e+00,1.462989687919616699e+00,1.462880015373229980e+00,1.462770223617553711e+00,1.462660551071166992e+00,1.462550997734069824e+00,1.462441325187683105e+00,1.462331652641296387e+00,1.462222218513488770e+00,1.462112665176391602e+00,8.718897104263305664e-01,8.359836935997009277e-01,8.194334506988525391e-01,8.106798529624938965e-01,7.912131547927856445e-01,7.865996956825256348e-01,7.853341698646545410e-01,8.101028203964233398e-01,1.461127042770385742e+00,1.461017608642578125e+00,1.460908174514770508e+00,1.460798859596252441e+00,1.460689425468444824e+00,1.460580110549926758e+00,1.460470795631408691e+00,1.460361599922180176e+00,1.460252285003662109e+00,1.460142970085144043e+00,1.460033655166625977e+00,1.459924459457397461e+00,1.459815144538879395e+00,1.459705948829650879e+00,1.459596753120422363e+00,1.459487557411193848e+00,1.459378361701965332e+00,1.459269165992736816e+00,1.459160089492797852e+00,1.459050893783569336e+00,1.458941817283630371e+00,1.458832740783691406e+00,1.458723545074462891e+00,1.458614587783813477e+00,1.458505630493164062e+00,1.458396553993225098e+00
1.349184274673461914e+00,1.349090933799743652e+00,1.348997712135314941e+00,1.348904371261596680e+00,1.348811149597167969e+00,1.348717927932739258e+00,1.348624706268310547e+00,1.348531484603881836e+00,1.348438262939453125e+00,1.348345041275024414e+00,1.348251819610595703e+00,1.348158717155456543e+00,1.348065495491027832e+00,1.347972393035888672e+00,1.347879290580749512e+00,1.347786068916320801e+00,1.347692966461181641e+00,1.347599864006042480e+00,1.347506880760192871e+00,1.347413778305053711e+00,1.347320795059204102e+00,1.347227692604064941e+00,1.347134709358215332e+00,1.347041606903076172e+00,1.346948623657226562e+00,1.346855521202087402e+00,1.346762537956237793e+00,1.346669554710388184e+00,1.346576690673828125e+00,1.346483707427978516e+00,1.346390724182128906e+00,1.346297860145568848e+00,1.346204996109008789e+00,1.346112012863159180e+00,1.346019148826599121e+00,1.345926284790039062e+00,1.345833420753479004e+00,1.345740675926208496e+00,1.345647931098937988e+00,1.345555067062377930e+00,1.345462322235107422e+00,1.345369458198547363e+00,1.345276713371276855e+00,1.345183968544006348e+00,1.345091223716735840e+00,1.344998478889465332e+00,8.568789362907409668e-01,8.299310207366943359e-01,8.186890482902526855e-01,8.124998211860656738e-01,8.069033622741699219e-01,8.039779067039489746e-01,7.960816621780395508e-01,1.344256997108459473e+00,1.344164371490478516e+00,1.344071865081787109e+00,1.343979358673095703e+00,1.343886733055114746e+00,1.343794107437133789e+00,1.343701601028442383e+00,1.343609094619750977e+00,1.343516469001770020e+00,1.343423962593078613e+00,1.343331456184387207e+00,1.343238949775695801e+00,1.343146562576293945e+00,1.343054056167602539e+00,1.342961549758911133e+00,1.342869162559509277e+00,1.342776656150817871e+00,1.342684268951416016e+00,1.342591881752014160e+00,1.342499494552612305e+00,1.342407226562500000e+00,1.342314839363098145e+00,1.342222452163696289e+00,1.342130184173583984e+00,1.342037796974182129e+00,1.341945528984069824e+00,1.341853141784667969e+00
1.248841762542724609e+00,1.248761773109436035e+00,1.248681902885437012e+00,1.248601913452148438e+00,1.248522043228149414e+00,1.248442173004150391e+00,1.248362302780151367e+00,1.248282432556152344e+00,1.248202562332153320e+00,1.248122692108154297e+00,1.248042821884155273e+00,1.247962951660156250e+00,1.247883200645446777e+00,1.247803330421447754e+00,1.247723460197448730e+00,1.247643709182739258e+00,1.247563838958740234e+00,1.247484087944030762e+00,1.247404336929321289e+00,1.247324585914611816e+00,1.247244834899902344e+00,1.247165083885192871e+00,1.247085332870483398e+00,1.247005581855773926e+00,1.246925950050354004e+00,1.246846199035644531e+00,1.246766567230224609e+00,1.246686816215515137e+00,1.246607184410095215e+00,1.246527552604675293e+00,1.246447920799255371e+00,1.246368288993835449e+00,1.246288657188415527e+00,1.246209025382995605e+00,1.246129393577575684e+00,1.246049761772155762e+00,1.245970249176025391e+00,1.245890617370605469e+00,1.245811104774475098e+00,1.245731592178344727e+00,1.245651960372924805e+00,1.245572447776794434e+00,1.245492935180664062e+00,1.245413422584533691e+00,1.245333909988403320e+00,8.776783943176269531e-01,8.526317477226257324e-01,8.264726996421813965e-01,8.153318762779235840e-01,8.099565505981445312e-01,8.059802651405334473e-01,1.244777798652648926e+00,1.244698405265808105e+00,1.244619011878967285e+00,1.244539618492126465e+00,1.244460225105285645e+00,1.244380831718444824e+00,1.244301438331604004e+00,1.244222044944763184e+00,1.244142770767211914e+00,1.244063377380371094e+00,1.243983983993530273e+00,1.243904709815979004e+00,1.243825435638427734e+00,1.243746161460876465e+00,1.243666768074035645e+00,1.243587493896484375e+00,1.243508338928222656e+00,1.243429064750671387e+00,1.243349909782409668e+00,1.243270635604858398e+00,1.243191361427307129e+00,1.243112206459045410e+00,1.243032932281494141e+00,1.242953777313232422e+00,1.242874622344970703e+00,1.242795467376708984e+00,1.242716312408447266e+00,1.242637157440185547e+00,1.242558002471923828e+00
1.162391543388366699e+00,1.162322282791137695e+00,1.162253022193908691e+00,1.162183761596679688e+00,1.162114500999450684e+00,1.162045359611511230e+00,1.161975979804992676e+00,1.161906838417053223e+00,1.161837577819824219e+00,1.161768436431884766e+00,1.161699295043945312e+00,1.161630034446716309e+00,1.161560893058776855e+00,1.161491751670837402e+00,1.161422610282897949e+00,1.161353468894958496e+00,1.161284327507019043e+00,1.161215186119079590e+00,1.161146044731140137e+00,1.161077022552490234e+00,1.161007881164550781e+00,1.160938739776611328e+00,1.160869717597961426e+00,1.160800576210021973e+00,1.160731554031372070e+00,1.160662531852722168e+00,1.160593390464782715e+00,1.160524368286132812e+00,1.160455346107482910e+00,1.160386323928833008e+00,1.160317301750183105e+00,1.160248279571533203e+00,1.160179257392883301e+00,1.160110354423522949e+00,1.160041332244873047e+00,1.159972310066223145e+00,1.159903287887573242e+00,1.159834384918212891e+00,1.159765362739562988e+00,1.159696459770202637e+00,1.159627556800842285e+00,1.159558534622192383e+00,1.159489631652832031e+00,1.159420728683471680e+00,1.159351825714111328e+00,8.683255314826965332e-01,8.456237912178039551e-01,8.238492608070373535e-01,8.109167814254760742e-01,8.037149310111999512e-01,8.003178238868713379e-01,8.048514127731323242e-01,1.158800959587097168e+00,1.158732175827026367e+00,1.158663272857666016e+00,1.158594489097595215e+00,1.158525705337524414e+00,1.158456921577453613e+00,1.158388137817382812e+00,1.158319354057312012e+00,1.158250570297241211e+00,1.158181786537170410e+00,1.158113121986389160e+00,1.158044457435607910e+00,1.157975673675537109e+00,1.157907009124755859e+00,1.157838225364685059e+00,1.157769560813903809e+00,1.157700777053833008e+00,1.157632112503051758e+00,1.157563447952270508e+00,1.157494783401489258e+00,1.157426118850708008e+00,1.157357454299926758e+00,1.157288789749145508e+00,1.157220125198364258e+00,1.157151460647583008e+00,1.157082796096801758e+00,1.157014250755310059e+00,1.156945705413818359e+00
1.087135195732116699e+00,1.087074637413024902e+00,1.087014079093933105e+00,1.086953520774841309e+00,1.086892962455749512e+00,1.086832404136657715e+00,1.086771845817565918e+00,1.086711287498474121e+00,1.086650729179382324e+00,1.086590170860290527e+00,1.086529731750488281e+00,1.086469173431396484e+00,1.086408734321594238e+00,1.086348176002502441e+00,1.086287736892700195e+00,1.086227178573608398e+00,1.086166739463806152e+00,1.086106300354003906e+00,1.086045861244201660e+00,1.085985302925109863e+00,1.085924863815307617e+00,1.085864424705505371e+00,1.085803985595703125e+00,1.085743546485900879e+00,1.085683226585388184e+00,1.085622787475585938e+00,1.085562348365783691e+00,1.085501909255981445e+00,1.085441470146179199e+00,1.085381031036376953e+00,1.085320711135864258e+00,1.085260272026062012e+00,1.085199952125549316e+00,1.085139632225036621e+00,1.085079193115234375e+00,1.085018873214721680e+00,1.084958553314208984e+00,1.084898233413696289e+00,1.084837913513183594e+00,1.084777593612670898e+00,1.084717273712158203e+00,1.084656953811645508e+00,1.084596633911132812e+00,1.084536314010620117e+00,1.084475994110107422e+00,8.643271923065185547e-01,8.435595631599426270e-01,8.235589265823364258e-01,8.047654032707214355e-01,7.948531508445739746e-01,7.864200472831726074e-01,7.850704193115234375e-01,7.998622655868530273e-01,1.083933711051940918e+00,1.083873510360717773e+00,1.083813309669494629e+00,1.083753108978271484e+00,1.083692908287048340e+00,1.083632707595825195e+00,1.083572626113891602e+00,1.083512425422668457e+00,1.083452224731445312e+00,1.083392024040222168e+00,1.083331942558288574e+00,1.083271741867065430e+00,1.083211541175842285e+00,1.083151459693908691e+00,1.083091259002685547e+00,1.083031177520751953e+00,1.082971096038818359e+00,1.082910895347595215e+00,1.082850813865661621e+00,1.082790732383728027e+00,1.082730650901794434e+00,1.082670569419860840e+00,1.082610487937927246e+00,1.082550406455993652e+00,1.082490324974060059e+00,1.082430362701416016e+00,1.082370281219482422e+00
1.021031022071838379e+00,1.020977616310119629e+00,1.020924091339111328e+00,1.020870685577392578e+00,1.020817279815673828e+00,1.020763874053955078e+00,1.020710468292236328e+00,1.020657062530517578e+00,1.020603656768798828e+00,1.020550251007080078e+00,1.020496845245361328e+00,1.020443558692932129e+00,1.020390152931213379e+00,1.020336747169494629e+00,1.020283460617065430e+00,1.020230054855346680e+00,1.020176649093627930e+00,1.020123362541198730e+00,1.020069956779479980e+00,1.020016670227050781e+00,1.019963264465332031e+00,1.019909977912902832e+00,1.019856691360473633e+00,1.019803285598754883e+00,1.019749999046325684e+00,1.019696712493896484e+00,1.019643425941467285e+00,1.019590139389038086e+00,1.019536852836608887e+00,1.019483566284179688e+00,1.019430279731750488e+00,1.019376993179321289e+00,1.019323825836181641e+00,1.019270539283752441e+00,1.019217252731323242e+00,1.019163966178894043e+00,1.019110798835754395e+00,1.019057512283325195e+00,1.019004344940185547e+00,1.018951058387756348e+00,1.018897891044616699e+00,1.018844723701477051e+00,1.018791437149047852e+00,1.018738269805908203e+00,1.018685102462768555e+00,8.640826344490051270e-01,8.425306677818298340e-01,8.263153433799743652e-01,8.055095076560974121e-01,7.875626683235168457e-01,7.766869068145751953e-01,7.720862627029418945e-01,7.771337032318115234e-01,1.018206596374511719e+00,1.018153429031372070e+00,1.018100261688232422e+00,1.018047094345092773e+00,1.017994046211242676e+00,1.017940878868103027e+00,1.017887830734252930e+00,1.017834663391113281e+00,1.017781615257263184e+00,1.017728447914123535e+00,1.017675399780273438e+00,1.017622351646423340e+00,1.017569184303283691e+00,1.017516136169433594e+00,1.017463088035583496e+00,1.017410039901733398e+00,1.017356991767883301e+00,1.017303943634033203e+00,1.017250895500183105e+00,1.017197847366333008e+00,1.017144799232482910e+00,1.017091870307922363e+00,1.017038822174072266e+00,1.016985774040222168e+00,1.016932725906372070e+00,1.016879796981811523e+00,1.016826748847961426e+00
9.625051021575927734e-01,9.624575972557067871e-01,9.624100923538208008e-01,9.623626470565795898e-01,9.623151421546936035e-01,9.622676968574523926e-01,9.622202515602111816e-01,9.621727466583251953e-01,9.621253013610839844e-01,9.620778560638427734e-01,9.620304107666015625e-01,9.619829654693603516e-01,9.619355797767639160e-01,9.618881344795227051e-01,9.618406891822814941e-01,9.617933034896850586e-01,9.617458581924438477e-01,9.616984724998474121e-01,9.616510272026062012e-01,9.616036415100097656e-01,9.615562558174133301e-01,9.615088701248168945e-01,9.614614844322204590e-01,9.614140987396240234e-01,9.613667130470275879e-01,9.613193273544311523e-01,9.612720012664794922e-01,9.612246155738830566e-01,9.611772298812866211e-01,9.611299037933349609e-01,9.610825777053833008e-01,9.610351920127868652e-01,9.609878659248352051e-01,9.609405398368835449e-01,9.608932137489318848e-01,9.608458876609802246e-01,9.607985615730285645e-01,9.607512354850769043e-01,9.607037901878356934e-01,9.606565237045288086e-01,9.606091976165771484e-01,9.605618715286254883e-01,9.605146050453186035e-01,9.604673385620117188e-01,9.604200124740600586e-01,9.603727459907531738e-01,9.603254795074462891e-01,8.383919596672058105e-01,8.089193105697631836e-01,7.870389819145202637e-01,7.687770128250122070e-01,7.607026696205139160e-01,7.598481774330139160e-01,7.722984552383422852e-01,9.599474072456359863e-01,9.599002003669738770e-01,9.598529934883117676e-01,9.598057270050048828e-01,9.597585201263427734e-01,9.597113132476806641e-01,9.596641063690185547e-01,9.596168994903564453e-01,9.595696926116943359e-01,9.595226049423217773e-01,9.594753980636596680e-01,9.594282507896423340e-01,9.593810439109802246e-01,9.593338370323181152e-01,9.592866897583007812e-01,9.592395424842834473e-01,9.591923356056213379e-01,9.591451883316040039e-01,9.590980410575866699e-01,9.590508937835693359e-01,9.590037465095520020e-01,9.589565992355346680e-01,9.589094519615173340e-01,9.588623046875000000e-01,9.588152170181274414e-01,9.587680697441101074e-01
9.103248715400695801e-01,9.102823734283447266e-01,9.102398753166198730e-01,9.101974368095397949e-01,9.101549983024597168e-01,9.101125001907348633e-01,9.100700616836547852e-01,9.100276231765747070e-01,9.099851250648498535e-01,9.099426865577697754e-01,9.099002480506896973e-01,9.098578095436096191e-01,9.098153710365295410e-01,9.097729325294494629e-01,9.097305536270141602e-01,9.096881151199340820e-01,9.096456766128540039e-01,9.096032977104187012e-01,9.095608592033386230e-01,9.095184803009033203e-01,9.094760417938232422e-01,9.094336628913879395e-01,9.093912839889526367e-01,9.093489050865173340e-01,9.093065261840820312e-01,9.092640876770019531e-01,9.092217683792114258e-01,9.091793894767761230e-01,9.091370105743408203e-01,9.090945124626159668e-01,9.090521931648254395e-01,9.090098142623901367e-01,9.089674353599548340e-01,9.089251160621643066e-01,9.088827371597290039e-01,9.088404178619384766e-01,9.087980985641479492e-01,9.087557792663574219e-01,9.087134003639221191e-01,9.086710810661315918e-01,9.086287617683410645e-01,9.085864424705505371e-01,9.085441231727600098e-01,9.085018038749694824e-01,9.084595441818237305e-01,9.084172248840332031e-01,9.083749055862426758e-01,9.083326458930969238e-01,9.082903265953063965e-01,9.082480669021606445e-01,7.600395083427429199e-01,7.509164214134216309e-01,7.445489168167114258e-01,7.506676912307739258e-01,7.708014845848083496e-01,9.079943895339965820e-01,9.079521298408508301e-01,9.079099297523498535e-01,9.078676700592041016e-01,9.078254103660583496e-01,9.077831506729125977e-01,9.077408909797668457e-01,9.076986908912658691e-01,9.076564311981201172e-01,9.076142311096191406e-01,9.075719714164733887e-01,9.075297713279724121e-01,9.074875712394714355e-01,9.074453711509704590e-01,9.074031114578247070e-01,9.073609113693237305e-01,9.073187112808227539e-01,9.072765707969665527e-01,9.072343707084655762e-01,9.071921706199645996e-01,9.071500897407531738e-01,9.071078896522521973e-01,9.070656895637512207e-01,9.070235490798950195e-01,9.069813489913940430e-01
8.635113835334777832e-01,8.634731769561767578e-01,8.634349107742309570e-01,8.633967041969299316e-01,8.633584976196289062e-01,8.633202910423278809e-01,8.632820844650268555e-01,8.632438778877258301e-01,8.632057309150695801e-01,8.631675243377685547e-01,8.631293177604675293e-01,8.630911111831665039e-01,8.630529642105102539e-01,8.630147576332092285e-01,8.629766106605529785e-01,8.629384040832519531e-01,8.629002571105957031e-01,8.628621101379394531e-01,8.628239035606384277e-01,8.627856969833374023e-01,8.627474904060363770e-01,8.627093434333801270e-01,8.626711964607238770e-01,8.626330494880676270e-01,8.625949025154113770e-01,8.625567555427551270e-01,8.625186681747436523e-01,8.624805212020874023e-01,8.624423742294311523e-01,8.624042868614196777e-01,8.623661398887634277e-01,8.623279929161071777e-01,8.622899055480957031e-01,8.622518181800842285e-01,8.622136712074279785e-01,8.621755838394165039e-01,8.621374964714050293e-01,8.620993494987487793e-01,8.620612621307373047e-01,8.620231747627258301e-01,8.619850873947143555e-01,8.619470000267028809e-01,8.619089126586914062e-01,8.618708252906799316e-01,8.618327975273132324e-01,8.617947101593017578e-01,8.617566227912902832e-01,8.617185950279235840e-01,8.616805076599121094e-01,8.616424202919006348e-01,7.556145191192626953e-01,7.418453097343444824e-01,7.346752285957336426e-01,7.306925058364868164e-01,7.453031539916992188e-01,7.655854821205139160e-01,8.613761067390441895e-01,8.613380789756774902e-01,8.613000512123107910e-01,8.612620234489440918e-01,8.612240552902221680e-01,8.611860275268554688e-01,8.611479997634887695e-01,8.611099720001220703e-01,8.610719442367553711e-01,8.610339760780334473e-01,8.609959483146667480e-01,8.609579801559448242e-01,8.609199523925781250e-01,8.608819842338562012e-01,8.608440160751342773e-01,8.608059883117675781e-01,8.607680201530456543e-01,8.607300519943237305e-01,8.606920838356018066e-01,8.606541156768798828e-01,8.606161475181579590e-01,8.605781793594360352e-01,8.605402112007141113e-01,8.605022430419921875e-01
