3.294639348983764648e+00,3.255007505416870117e+00,3.216317415237426758e+00,3.178536176681518555e+00,3.141632318496704102e+00,3.105575799942016602e+00,3.070337295532226562e+00,3.035889387130737305e+00,3.002206087112426758e+00,2.969262123107910156e+00,2.937033176422119141e+00,2.905496358871459961e+00,2.874629497528076172e+00,2.844411611557006836e+00,2.814822673797607422e+00,2.785842895507812500e+00,2.757453441619873047e+00,2.729636907577514648e+00,2.702376365661621094e+00,2.675654649734497070e+00,2.649456024169921875e+00,2.623765707015991211e+00,2.598568677902221680e+00,2.573851108551025391e+00,2.549599409103393555e+00,2.525800228118896484e+00,2.502441406250000000e+00,2.479510784149169922e+00,2.456996440887451172e+00,2.434887170791625977e+00,2.413172483444213867e+00,2.391841411590576172e+00,2.370884418487548828e+00,2.350291252136230469e+00,2.330052852630615234e+00,2.310159921646118164e+00,2.290604114532470703e+00,2.271376371383666992e+00,2.252468824386596680e+00,2.233873367309570312e+00,2.215582370758056641e+00,2.197588682174682617e+00,2.179884672164916992e+00,2.162463665008544922e+00,2.145318984985351562e+00,2.128444194793701172e+00,2.111832618713378906e+00,2.095478296279907227e+00,2.079375267028808594e+00,2.063518047332763672e+00,2.047900915145874023e+00,2.032518148422241211e+00,2.017364740371704102e+00,2.002435684204101562e+00,1.987726330757141113e+00,1.973231077194213867e+00,1.958945870399475098e+00,1.944865822792053223e+00,1.930986881256103516e+00,1.917304754257202148e+00,1.903814792633056641e+00,1.890513658523559570e+00,1.877396941184997559e+00,1.864460945129394531e+00,1.851702213287353516e+00,1.839116573333740234e+00,1.826701164245605469e+00,1.814452171325683594e+00,1.802366137504577637e+00,1.790440320968627930e+00,1.778671026229858398e+00,1.767055749893188477e+00,1.755591154098510742e+00,1.744274139404296875e+00,1.733102321624755859e+00,1.722072482109069824e+00,1.711182355880737305e+00,1.700429081916809082e+00,1.689809918403625488e+00,1.679322719573974609e+00
3.294642686843872070e+00,3.255010366439819336e+00,3.216320514678955078e+00,3.178539276123046875e+00,3.141635179519653320e+00,3.105578422546386719e+00,3.070340156555175781e+00,3.035892248153686523e+00,3.002208709716796875e+00,2.969264507293701172e+00,2.937035560607910156e+00,2.905498981475830078e+00,2.874631881713867188e+00,2.844413995742797852e+00,2.814824819564819336e+00,2.785845041275024414e+00,2.757455825805664062e+00,2.729639291763305664e+00,2.702378273010253906e+00,2.675656557083129883e+00,2.649458169937133789e+00,2.623767614364624023e+00,2.598570585250854492e+00,2.573853015899658203e+00,2.549601316452026367e+00,2.525802135467529297e+00,2.502443313598632812e+00,2.479512453079223633e+00,2.456998109817504883e+00,2.434889078140258789e+00,2.413174152374267578e+00,2.391843080520629883e+00,2.370885848999023438e+00,2.350292921066284180e+00,2.330054521560668945e+00,2.310161590576171875e+00,2.290605545043945312e+00,2.271378040313720703e+00,2.252470254898071289e+00,2.233874797821044922e+00,2.215583801269531250e+00,2.197589874267578125e+00,2.179886102676391602e+00,2.162465095520019531e+00,2.145320415496826172e+00,2.128445386886596680e+00,2.111834049224853516e+00,2.095479726791381836e+00,2.079376697540283203e+00,2.063519239425659180e+00,2.047901868820190430e+00,2.032519340515136719e+00,2.017365932464599609e+00,2.002436876296997070e+00,1.987727284431457520e+00,1.973232269287109375e+00,1.958947062492370605e+00,1.944866895675659180e+00,1.930988073348999023e+00,1.917305827140808105e+00,1.903815865516662598e+00,1.890514731407165527e+00,1.877397894859313965e+00,1.864462018013000488e+00,1.851703166961669922e+00,1.839117527008056641e+00,1.826702117919921875e+00,1.814453005790710449e+00,1.802367210388183594e+00,1.790441274642944336e+00,1.778671979904174805e+00,1.767056584358215332e+00,1.755591869354248047e+00,1.744274973869323730e+00,1.733103156089782715e+00,1.722073316574096680e+00,1.711183190345764160e+00,1.700429916381835938e+00,1.689810752868652344e+00,1.679323673248291016e+00
3.294646024703979492e+00,3.255013465881347656e+00,3.216323137283325195e+00,3.178542137145996094e+00,3.141638278961181641e+00,3.105581283569335938e+00,3.070342540740966797e+00,3.035894632339477539e+00,3.002211570739746094e+00,2.969267129898071289e+00,2.937038183212280273e+00,2.905501127243041992e+00,2.874634504318237305e+00,2.844416618347167969e+00,2.814827203750610352e+00,2.785847187042236328e+00,2.757457733154296875e+00,2.729641437530517578e+00,2.702380418777465820e+00,2.675658702850341797e+00,2.649460077285766602e+00,2.623769760131835938e+00,2.598572731018066406e+00,2.573854923248291016e+00,2.549602985382080078e+00,2.525804042816162109e+00,2.502444982528686523e+00,2.479514360427856445e+00,2.456999778747558594e+00,2.434890508651733398e+00,2.413175821304321289e+00,2.391844749450683594e+00,2.370887517929077148e+00,2.350294351577758789e+00,2.330056190490722656e+00,2.310163259506225586e+00,2.290606975555419922e+00,2.271379232406616211e+00,2.252471685409545898e+00,2.233876228332519531e+00,2.215585231781005859e+00,2.197591304779052734e+00,2.179887533187866211e+00,2.162466526031494141e+00,2.145321846008300781e+00,2.128446817398071289e+00,2.111835241317749023e+00,2.095480918884277344e+00,2.079377889633178711e+00,2.063520431518554688e+00,2.047903299331665039e+00,2.032520532608032227e+00,2.017367124557495117e+00,2.002438068389892578e+00,1.987728476524353027e+00,1.973233342170715332e+00,1.958948135375976562e+00,1.944868087768554688e+00,1.930989146232604980e+00,1.917306661605834961e+00,1.903816938400268555e+00,1.890515804290771484e+00,1.877398848533630371e+00,1.864462971687316895e+00,1.851704001426696777e+00,1.839118599891662598e+00,1.826703071594238281e+00,1.814453959465026855e+00,1.802368164062500000e+00,1.790442109107971191e+00,1.778672933578491211e+00,1.767057538032531738e+00,1.755592823028564453e+00,1.744275927543640137e+00,1.733104109764099121e+00,1.722074270248413086e+00,1.711184144020080566e+00,1.700430631637573242e+00,1.689811587333679199e+00,1.679324507713317871e+00
3.294649124145507812e+00,3.255016803741455078e+00,3.216326236724853516e+00,3.178544998168945312e+00,3.141640901565551758e+00,3.105584144592285156e+00,3.070345401763916016e+00,3.035897493362426758e+00,3.002213954925537109e+00,2.969269752502441406e+00,2.937040805816650391e+00,2.905503749847412109e+00,2.874636650085449219e+00,2.844419002532958984e+00,2.814829587936401367e+00,2.785849571228027344e+00,2.757460117340087891e+00,2.729643344879150391e+00,2.702382564544677734e+00,2.675660848617553711e+00,2.649462223052978516e+00,2.623771667480468750e+00,2.598574638366699219e+00,2.573856830596923828e+00,2.549604892730712891e+00,2.525805711746215820e+00,2.502446889877319336e+00,2.479516029357910156e+00,2.457001686096191406e+00,2.434892416000366211e+00,2.413177490234375000e+00,2.391846418380737305e+00,2.370889186859130859e+00,2.350296020507812500e+00,2.330057621002197266e+00,2.310164690017700195e+00,2.290608644485473633e+00,2.271380901336669922e+00,2.252473115921020508e+00,2.233877658843994141e+00,2.215586662292480469e+00,2.197592735290527344e+00,2.179888963699340820e+00,2.162467718124389648e+00,2.145323276519775391e+00,2.128448009490966797e+00,2.111836433410644531e+00,2.095482110977172852e+00,2.079379081726074219e+00,2.063521862030029297e+00,2.047904491424560547e+00,2.032521724700927734e+00,2.017368078231811523e+00,2.002439260482788086e+00,1.987729668617248535e+00,1.973234534263610840e+00,1.958949089050292969e+00,1.944869160652160645e+00,1.930990219116210938e+00,1.917307853698730469e+00,1.903818130493164062e+00,1.890516638755798340e+00,1.877399921417236328e+00,1.864464044570922852e+00,1.851705074310302734e+00,1.839119553565979004e+00,1.826704144477844238e+00,1.814454913139343262e+00,1.802369117736816406e+00,1.790443062782287598e+00,1.778673887252807617e+00,1.767058491706848145e+00,1.755593657493591309e+00,1.744276881217956543e+00,1.733104825019836426e+00,1.722075104713439941e+00,1.711184978485107422e+00,1.700431466102600098e+00,1.689812421798706055e+00,1.679325103759765625e+00
3.294651985168457031e+00,3.255019664764404297e+00,3.216329336166381836e+00,3.178547859191894531e+00,3.141643762588500977e+00,3.105586767196655273e+00,3.070348262786865234e+00,3.035900115966796875e+00,3.002216577529907227e+00,2.969272136688232422e+00,2.937043190002441406e+00,2.905506134033203125e+00,2.874639034271240234e+00,2.844421148300170898e+00,2.814831733703613281e+00,2.785851716995239258e+00,2.757462263107299805e+00,2.729645729064941406e+00,2.702384710311889648e+00,2.675662994384765625e+00,2.649464368820190430e+00,2.623773574829101562e+00,2.598576545715332031e+00,2.573858737945556641e+00,2.549607038497924805e+00,2.525807619094848633e+00,2.502448558807373047e+00,2.479517698287963867e+00,2.457003355026245117e+00,2.434894084930419922e+00,2.413179159164428711e+00,2.391848087310791016e+00,2.370890855789184570e+00,2.350297689437866211e+00,2.330059289932250977e+00,2.310166120529174805e+00,2.290610074996948242e+00,2.271382331848144531e+00,2.252474546432495117e+00,2.233879089355468750e+00,2.215588092803955078e+00,2.197594165802001953e+00,2.179890394210815430e+00,2.162469148635864258e+00,2.145324468612670898e+00,2.128449440002441406e+00,2.111837863922119141e+00,2.095483303070068359e+00,2.079380512237548828e+00,2.063523054122924805e+00,2.047905683517456055e+00,2.032522916793823242e+00,2.017369508743286133e+00,2.002440214157104492e+00,1.987730860710144043e+00,1.973235726356506348e+00,1.958950281143188477e+00,1.944870352745056152e+00,1.930991172790527344e+00,1.917308926582336426e+00,1.903819203376770020e+00,1.890517711639404297e+00,1.877400994300842285e+00,1.864465117454528809e+00,1.851706027984619141e+00,1.839120626449584961e+00,1.826704859733581543e+00,1.814455866813659668e+00,1.802370071411132812e+00,1.790444016456604004e+00,1.778674840927124023e+00,1.767059206962585449e+00,1.755594611167907715e+00,1.744277715682983398e+00,1.733105659484863281e+00,1.722076058387756348e+00,1.711185693740844727e+00,1.700432300567626953e+00,1.689813375473022461e+00,1.679325938224792480e+00
3.294655323028564453e+00,3.255022764205932617e+00,3.216332197189331055e+00,3.178550958633422852e+00,3.141646862030029297e+00,3.105589628219604492e+00,3.070350885391235352e+00,3.035902976989746094e+00,3.002219200134277344e+00,2.969274759292602539e+00,2.937045574188232422e+00,2.905508518218994141e+00,2.874641656875610352e+00,2.844423532485961914e+00,2.814834117889404297e+00,2.785853862762451172e+00,2.757464647293090820e+00,2.729647874832153320e+00,2.702386856079101562e+00,2.675664901733398438e+00,2.649466276168823242e+00,2.623775720596313477e+00,2.598578453063964844e+00,2.573860645294189453e+00,2.549608707427978516e+00,2.525809526443481445e+00,2.502450466156005859e+00,2.479519605636596680e+00,2.457005023956298828e+00,2.434895753860473633e+00,2.413180828094482422e+00,2.391849756240844727e+00,2.370892524719238281e+00,2.350299119949340820e+00,2.330060720443725586e+00,2.310167789459228516e+00,2.290611505508422852e+00,2.271383762359619141e+00,2.252476215362548828e+00,2.233880519866943359e+00,2.215589523315429688e+00,2.197595596313476562e+00,2.179891586303710938e+00,2.162470579147338867e+00,2.145325660705566406e+00,2.128450632095336914e+00,2.111839056015014648e+00,2.095484733581542969e+00,2.079381704330444336e+00,2.063524246215820312e+00,2.047906875610351562e+00,2.032524108886718750e+00,2.017370700836181641e+00,2.002441406250000000e+00,1.987732052803039551e+00,1.973236680030822754e+00,1.958951354026794434e+00,1.944871425628662109e+00,1.930992245674133301e+00,1.917309999465942383e+00,1.903820276260375977e+00,1.890518784523010254e+00,1.877402067184448242e+00,1.864465951919555664e+00,1.851707100868225098e+00,1.839121580123901367e+00,1.826705932617187500e+00,1.814456820487976074e+00,1.802370786666870117e+00,1.790444970130920410e+00,1.778675794601440430e+00,1.767060160636901855e+00,1.755595564842224121e+00,1.744278669357299805e+00,1.733106613159179688e+00,1.722076892852783203e+00,1.711186528205871582e+00,1.700433135032653809e+00,1.689814209938049316e+00,1.679326772689819336e+00
3.294658422470092773e+00,3.255025863647460938e+00,3.216335296630859375e+00,3.178553581237792969e+00,3.141649723052978516e+00,3.105592489242553711e+00,3.070353507995605469e+00,3.035905361175537109e+00,3.002221584320068359e+00,2.969277381896972656e+00,2.937048196792602539e+00,2.905510902404785156e+00,2.874643802642822266e+00,2.844425916671752930e+00,2.814836502075195312e+00,2.785856246948242188e+00,2.757466554641723633e+00,2.729650020599365234e+00,2.702389001846313477e+00,2.675667047500610352e+00,2.649468183517456055e+00,2.623777627944946289e+00,2.598580598831176758e+00,2.573862552642822266e+00,2.549610614776611328e+00,2.525811195373535156e+00,2.502452373504638672e+00,2.479521512985229492e+00,2.457006931304931641e+00,2.434897422790527344e+00,2.413182497024536133e+00,2.391851425170898438e+00,2.370894193649291992e+00,2.350300788879394531e+00,2.330062150955200195e+00,2.310169458389282227e+00,2.290613174438476562e+00,2.271385431289672852e+00,2.252477407455444336e+00,2.233881950378417969e+00,2.215590953826904297e+00,2.197597026824951172e+00,2.179893016815185547e+00,2.162471771240234375e+00,2.145327091217041016e+00,2.128452062606811523e+00,2.111840248107910156e+00,2.095485925674438477e+00,2.079382896423339844e+00,2.063525438308715820e+00,2.047908067703247070e+00,2.032525300979614258e+00,2.017371654510498047e+00,2.002442598342895508e+00,1.987733244895935059e+00,1.973237752914428711e+00,1.958952546119689941e+00,1.944872617721557617e+00,1.930993318557739258e+00,1.917311072349548340e+00,1.903821110725402832e+00,1.890519857406616211e+00,1.877403140068054199e+00,1.864466905593872070e+00,1.851708054542541504e+00,1.839122414588928223e+00,1.826706886291503906e+00,1.814457893371582031e+00,1.802371740341186523e+00,1.790445923805236816e+00,1.778676748275756836e+00,1.767061114311218262e+00,1.755596399307250977e+00,1.744279384613037109e+00,1.733107447624206543e+00,1.722077727317810059e+00,1.711187362670898438e+00,1.700433969497680664e+00,1.689814805984497070e+00,1.679327607154846191e+00
3.294661521911621094e+00,3.255028963088989258e+00,3.216338396072387695e+00,3.178556680679321289e+00,3.141652345657348633e+00,3.105595350265502930e+00,3.070356369018554688e+00,3.035908222198486328e+00,3.002224445343017578e+00,2.969279766082763672e+00,2.937050819396972656e+00,2.905513525009155273e+00,2.874646186828613281e+00,2.844428062438964844e+00,2.814838647842407227e+00,2.785858631134033203e+00,2.757468938827514648e+00,2.729652166366577148e+00,2.702390909194946289e+00,2.675669193267822266e+00,2.649470329284667969e+00,2.623779535293579102e+00,2.598582267761230469e+00,2.573864698410034180e+00,2.549612522125244141e+00,2.525813102722167969e+00,2.502454042434692383e+00,2.479523181915283203e+00,2.457008600234985352e+00,2.434899330139160156e+00,2.413184165954589844e+00,2.391853094100952148e+00,2.370895862579345703e+00,2.350302457809448242e+00,2.330063819885253906e+00,2.310170888900756836e+00,2.290614604949951172e+00,2.271386861801147461e+00,2.252479076385498047e+00,2.233883380889892578e+00,2.215592384338378906e+00,2.197598457336425781e+00,2.179894447326660156e+00,2.162473201751708984e+00,2.145328283309936523e+00,2.128453493118286133e+00,2.111841678619384766e+00,2.095487117767333984e+00,2.079384088516235352e+00,2.063526630401611328e+00,2.047909259796142578e+00,2.032526493072509766e+00,2.017372846603393555e+00,2.002443790435791016e+00,1.987734436988830566e+00,1.973238945007324219e+00,1.958953619003295898e+00,1.944873452186584473e+00,1.930994510650634766e+00,1.917312145233154297e+00,1.903822183609008789e+00,1.890520930290222168e+00,1.877403974533081055e+00,1.864467978477478027e+00,1.851709127426147461e+00,1.839123368263244629e+00,1.826707839965820312e+00,1.814458847045898438e+00,1.802372813224792480e+00,1.790446877479553223e+00,1.778677463531494141e+00,1.767062067985534668e+00,1.755597352981567383e+00,1.744280338287353516e+00,1.733108401298522949e+00,1.722078442573547363e+00,1.711188435554504395e+00,1.700434803962707520e+00,1.689815878868103027e+00,1.679328560829162598e+00
3.294664621353149414e+00,3.255031824111938477e+00,3.216341495513916016e+00,3.178559780120849609e+00,3.141655206680297852e+00,3.105597972869873047e+00,3.070358991622924805e+00,3.035910844802856445e+00,3.002227067947387695e+00,2.969282388687133789e+00,2.937052965164184570e+00,2.905515909194946289e+00,2.874648809432983398e+00,2.844430446624755859e+00,2.814840793609619141e+00,2.785860538482666016e+00,2.757471084594726562e+00,2.729654312133789062e+00,2.702393054962158203e+00,2.675671100616455078e+00,2.649472475051879883e+00,2.623781681060791016e+00,2.598584413528442383e+00,2.573866367340087891e+00,2.549614429473876953e+00,2.525815010070800781e+00,2.502455949783325195e+00,2.479524850845336914e+00,2.457010269165039062e+00,2.434900999069213867e+00,2.413185834884643555e+00,2.391854763031005859e+00,2.370897293090820312e+00,2.350304126739501953e+00,2.330065488815307617e+00,2.310172319412231445e+00,2.290616035461425781e+00,2.271388292312622070e+00,2.252480506896972656e+00,2.233884811401367188e+00,2.215593814849853516e+00,2.197599649429321289e+00,2.179895877838134766e+00,2.162474632263183594e+00,2.145329713821411133e+00,2.128454685211181641e+00,2.111842870712280273e+00,2.095488548278808594e+00,2.079385519027709961e+00,2.063527822494506836e+00,2.047910451889038086e+00,2.032527685165405273e+00,2.017374038696289062e+00,2.002444982528686523e+00,1.987735390663146973e+00,1.973240137100219727e+00,1.958954811096191406e+00,1.944874644279479980e+00,1.930995583534240723e+00,1.917313098907470703e+00,1.903823256492614746e+00,1.890522003173828125e+00,1.877405047416687012e+00,1.864469051361083984e+00,1.851710081100463867e+00,1.839124441146850586e+00,1.826708912849426270e+00,1.814459681510925293e+00,1.802373766899108887e+00,1.790447592735290527e+00,1.778678417205810547e+00,1.767063021659851074e+00,1.755598068237304688e+00,1.744281172752380371e+00,1.733109235763549805e+00,1.722079515457153320e+00,1.711189270019531250e+00,1.700435876846313477e+00,1.689816832542419434e+00,1.679329395294189453e+00
3.294667959213256836e+00,3.255034923553466797e+00,3.216344118118286133e+00,3.178562402725219727e+00,3.141658306121826172e+00,3.105600833892822266e+00,3.070361614227294922e+00,3.035913467407226562e+00,3.002229690551757812e+00,2.969285011291503906e+00,2.937055587768554688e+00,2.905518293380737305e+00,2.874650955200195312e+00,2.844432830810546875e+00,2.814843177795410156e+00,2.785862922668457031e+00,2.757473230361938477e+00,2.729656457901000977e+00,2.702395200729370117e+00,2.675673246383666992e+00,2.649474382400512695e+00,2.623783826828002930e+00,2.598586320877075195e+00,2.573868274688720703e+00,2.549616336822509766e+00,2.525816917419433594e+00,2.502457857131958008e+00,2.479526758193969727e+00,2.457011938095092773e+00,2.434902667999267578e+00,2.413187742233276367e+00,2.391856431961059570e+00,2.370898962020874023e+00,2.350305557250976562e+00,2.330066919326782227e+00,2.310173988342285156e+00,2.290617704391479492e+00,2.271389722824096680e+00,2.252481937408447266e+00,2.233886241912841797e+00,2.215595245361328125e+00,2.197601079940795898e+00,2.179897069931030273e+00,2.162476062774658203e+00,2.145331144332885742e+00,2.128455877304077148e+00,2.111844301223754883e+00,2.095489740371704102e+00,2.079386711120605469e+00,2.063529253005981445e+00,2.047911643981933594e+00,2.032528877258300781e+00,2.017375469207763672e+00,2.002446174621582031e+00,1.987736463546752930e+00,1.973241209983825684e+00,1.958955764770507812e+00,1.944875717163085938e+00,1.930996656417846680e+00,1.917314171791076660e+00,1.903824329376220703e+00,1.890522837638854980e+00,1.877406001091003418e+00,1.864470124244689941e+00,1.851710915565490723e+00,1.839125394821166992e+00,1.826709866523742676e+00,1.814460635185241699e+00,1.802374720573425293e+00,1.790448784828186035e+00,1.778679609298706055e+00,1.767063856124877930e+00,1.755599260330200195e+00,1.744282245635986328e+00,1.733110189437866211e+00,1.722080469131469727e+00,1.711190342903137207e+00,1.700436711311340332e+00,1.689817667007446289e+00,1.679330468177795410e+00
3.294670820236206055e+00,3.255038261413574219e+00,3.216347217559814453e+00,3.178565502166748047e+00,3.141660928726196289e+00,3.105603694915771484e+00,3.070364475250244141e+00,3.035916090011596680e+00,3.002232074737548828e+00,2.969287633895874023e+00,2.937058210372924805e+00,2.905520677566528320e+00,2.874653339385986328e+00,2.844434976577758789e+00,2.814845561981201172e+00,2.785865306854248047e+00,2.757475376129150391e+00,2.729658603668212891e+00,2.702397346496582031e+00,2.675675392150878906e+00,2.649476528167724609e+00,2.623785495758056641e+00,2.598588228225708008e+00,2.573870420455932617e+00,2.549618244171142578e+00,2.525818586349487305e+00,2.502459526062011719e+00,2.479528665542602539e+00,2.457013845443725586e+00,2.434904336929321289e+00,2.413189172744750977e+00,2.391858100891113281e+00,2.370900630950927734e+00,2.350307226181030273e+00,2.330068588256835938e+00,2.310175418853759766e+00,2.290619134902954102e+00,2.271391391754150391e+00,2.252483367919921875e+00,2.233887672424316406e+00,2.215596675872802734e+00,2.197602510452270508e+00,2.179898500442504883e+00,2.162477254867553711e+00,2.145332336425781250e+00,2.128457307815551758e+00,2.111845493316650391e+00,2.095490932464599609e+00,2.079387903213500977e+00,2.063530445098876953e+00,2.047912836074829102e+00,2.032530069351196289e+00,2.017376422882080078e+00,2.002447128295898438e+00,1.987737655639648438e+00,1.973242402076721191e+00,1.958956837654113770e+00,1.944876790046691895e+00,1.930997848510742188e+00,1.917315244674682617e+00,1.903825402259826660e+00,1.890524029731750488e+00,1.877407073974609375e+00,1.864471077919006348e+00,1.851712226867675781e+00,1.839126586914062500e+00,1.826710820198059082e+00,1.814461827278137207e+00,1.802375912666320801e+00,1.790449738502502441e+00,1.778680562973022461e+00,1.767065048217773438e+00,1.755600094795227051e+00,1.744283199310302734e+00,1.733111262321472168e+00,1.722081303596496582e+00,1.711191177368164062e+00,1.700437784194946289e+00,1.689818501472473145e+00,1.679331302642822266e+00
3.294674158096313477e+00,3.255041122436523438e+00,3.216350317001342773e+00,3.178568363189697266e+00,3.141663789749145508e+00,3.105606317520141602e+00,3.070367336273193359e+00,3.035918951034545898e+00,3.002234935760498047e+00,2.969290018081665039e+00,2.937060594558715820e+00,2.905523300170898438e+00,2.874655723571777344e+00,2.844437599182128906e+00,2.814847707748413086e+00,2.785867452621459961e+00,2.757477760314941406e+00,2.729660749435424805e+00,2.702399492263793945e+00,2.675677299499511719e+00,2.649478435516357422e+00,2.623787641525268555e+00,2.598590135574340820e+00,2.573872089385986328e+00,2.549620151519775391e+00,2.525820493698120117e+00,2.502461433410644531e+00,2.479530334472656250e+00,2.457015514373779297e+00,2.434906005859375000e+00,2.413190841674804688e+00,2.391859531402587891e+00,2.370902299880981445e+00,2.350308895111083984e+00,2.330070257186889648e+00,2.310177087783813477e+00,2.290620565414428711e+00,2.271392822265625000e+00,2.252485036849975586e+00,2.233889102935791016e+00,2.215597867965698242e+00,2.197603940963745117e+00,2.179899930953979492e+00,2.162478685379028320e+00,2.145333766937255859e+00,2.128458499908447266e+00,2.111846923828125000e+00,2.095492362976074219e+00,2.079389095306396484e+00,2.063531637191772461e+00,2.047914266586303711e+00,2.032531261444091797e+00,2.017377853393554688e+00,2.002448558807373047e+00,1.987738847732543945e+00,1.973243594169616699e+00,1.958958268165588379e+00,1.944877982139587402e+00,1.930998921394348145e+00,1.917316555976867676e+00,1.903826713562011719e+00,1.890525102615356445e+00,1.877408385276794434e+00,1.864472389221191406e+00,1.851713180541992188e+00,1.839127659797668457e+00,1.826712012290954590e+00,1.814462780952453613e+00,1.802376866340637207e+00,1.790450811386108398e+00,1.778681516647338867e+00,1.767066001892089844e+00,1.755601286888122559e+00,1.744284033775329590e+00,1.733112215995788574e+00,1.722082376480102539e+00,1.711192011833190918e+00,1.700438618659973145e+00,1.689819574356079102e+00,1.679332137107849121e+00
3.294677257537841797e+00,3.255044221878051758e+00,3.216353178024291992e+00,3.178571462631225586e+00,3.141666650772094727e+00,3.105609178543090820e+00,3.070369958877563477e+00,3.035921335220336914e+00,3.002237558364868164e+00,2.969292640686035156e+00,2.937062978744506836e+00,2.905525684356689453e+00,2.874658346176147461e+00,2.844439983367919922e+00,2.814850091934204102e+00,2.785869598388671875e+00,2.757479906082153320e+00,2.729662895202636719e+00,2.702401638031005859e+00,2.675679445266723633e+00,2.649480342864990234e+00,2.623789787292480469e+00,2.598592281341552734e+00,2.573873996734619141e+00,2.549621820449829102e+00,2.525822401046752930e+00,2.502463102340698242e+00,2.479532003402709961e+00,2.457017183303833008e+00,2.434907674789428711e+00,2.413192749023437500e+00,2.391861438751220703e+00,2.370903968811035156e+00,2.350310325622558594e+00,2.330071926116943359e+00,2.310178518295288086e+00,2.290622234344482422e+00,2.271394252777099609e+00,2.252486467361450195e+00,2.233890771865844727e+00,2.215599536895751953e+00,2.197605371475219727e+00,2.179901361465454102e+00,2.162480115890502930e+00,2.145335197448730469e+00,2.128459930419921875e+00,2.111848115921020508e+00,2.095493793487548828e+00,2.079390525817871094e+00,2.063533067703247070e+00,2.047915697097778320e+00,2.032532691955566406e+00,2.017379045486450195e+00,2.002449750900268555e+00,1.987740278244018555e+00,1.973245024681091309e+00,1.958959341049194336e+00,1.944879293441772461e+00,1.931000232696533203e+00,1.917317628860473633e+00,1.903827786445617676e+00,1.890526413917541504e+00,1.877409338951110840e+00,1.864473342895507812e+00,1.851714372634887695e+00,1.839128613471984863e+00,1.826713085174560547e+00,1.814463973045349121e+00,1.802377820014953613e+00,1.790451765060424805e+00,1.778682589530944824e+00,1.767066836357116699e+00,1.755602121353149414e+00,1.744285225868225098e+00,1.733113050460815430e+00,1.722083210945129395e+00,1.711193084716796875e+00,1.700439453125000000e+00,1.689820408821105957e+00,1.679333090782165527e+00
3.294680595397949219e+00,3.255047321319580078e+00,3.216356277465820312e+00,3.178574085235595703e+00,3.141669511795043945e+00,3.105612039566040039e+00,3.070372581481933594e+00,3.035923957824707031e+00,3.002239942550659180e+00,2.969295263290405273e+00,2.937065601348876953e+00,2.905528068542480469e+00,2.874660491943359375e+00,2.844442367553710938e+00,2.814852476119995117e+00,2.785871982574462891e+00,2.757482051849365234e+00,2.729665040969848633e+00,2.702403783798217773e+00,2.675681591033935547e+00,2.649482488632202148e+00,2.623791456222534180e+00,2.598594188690185547e+00,2.573876142501831055e+00,2.549623727798461914e+00,2.525824308395385742e+00,2.502464771270751953e+00,2.479533672332763672e+00,2.457019090652465820e+00,2.434909582138061523e+00,2.413194179534912109e+00,2.391863107681274414e+00,2.370905637741088867e+00,2.350312232971191406e+00,2.330073356628417969e+00,2.310180187225341797e+00,2.290623903274536133e+00,2.271395921707153320e+00,2.252487897872924805e+00,2.233892202377319336e+00,2.215600967407226562e+00,2.197606801986694336e+00,2.179902791976928711e+00,2.162481546401977539e+00,2.145336627960205078e+00,2.128461599349975586e+00,2.111849546432495117e+00,2.095494985580444336e+00,2.079391956329345703e+00,2.063534259796142578e+00,2.047916889190673828e+00,2.032534122467041016e+00,2.017380237579345703e+00,2.002451181411743164e+00,1.987741470336914062e+00,1.973246097564697266e+00,1.958960771560668945e+00,1.944880485534667969e+00,1.931001424789428711e+00,1.917318940162658691e+00,1.903828859329223633e+00,1.890527486801147461e+00,1.877410650253295898e+00,1.864474415779113770e+00,1.851715445518493652e+00,1.839129805564880371e+00,1.826714038848876953e+00,1.814464926719665527e+00,1.802379012107849121e+00,1.790452718734741211e+00,1.778683543205261230e+00,1.767068028450012207e+00,1.755603075027465820e+00,1.744286060333251953e+00,1.733114123344421387e+00,1.722084164619445801e+00,1.711194038391113281e+00,1.700440526008605957e+00,1.689821243286132812e+00,1.679334044456481934e+00
3.294683456420898438e+00,3.255050420761108398e+00,3.216359376907348633e+00,3.178577184677124023e+00,3.141672372817993164e+00,3.105614662170410156e+00,3.070375442504882812e+00,3.035926818847656250e+00,3.002242565155029297e+00,2.969297647476196289e+00,2.937068223953247070e+00,2.905530691146850586e+00,2.874662876129150391e+00,2.844444513320922852e+00,2.814854621887207031e+00,2.785874366760253906e+00,2.757484436035156250e+00,2.729667186737060547e+00,2.702405691146850586e+00,2.675683498382568359e+00,2.649484634399414062e+00,2.623793601989746094e+00,2.598596096038818359e+00,2.573878049850463867e+00,2.549625635147094727e+00,2.525826215744018555e+00,2.502466917037963867e+00,2.479535818099975586e+00,2.457020998001098633e+00,2.434911489486694336e+00,2.413196086883544922e+00,2.391865015029907227e+00,2.370907306671142578e+00,2.350313901901245117e+00,2.330075263977050781e+00,2.310181856155395508e+00,2.290625572204589844e+00,2.271397590637207031e+00,2.252489566802978516e+00,2.233893871307373047e+00,2.215602636337280273e+00,2.197608470916748047e+00,2.179904222488403320e+00,2.162483215332031250e+00,2.145338058471679688e+00,2.128463029861450195e+00,2.111851215362548828e+00,2.095496416091918945e+00,2.079393386840820312e+00,2.063535690307617188e+00,2.047918319702148438e+00,2.032535314559936523e+00,2.017381668090820312e+00,2.002452373504638672e+00,1.987742900848388672e+00,1.973247289657592773e+00,1.958961844444274902e+00,1.944881796836853027e+00,1.931002497673034668e+00,1.917320132255554199e+00,1.903830170631408691e+00,1.890528559684753418e+00,1.877411723136901855e+00,1.864475607872009277e+00,1.851716518402099609e+00,1.839130878448486328e+00,1.826715230941772461e+00,1.814465880393981934e+00,1.802379965782165527e+00,1.790453910827636719e+00,1.778684496879577637e+00,1.767068982124328613e+00,1.755604147911071777e+00,1.744287014007568359e+00,1.733114957809448242e+00,1.722085237503051758e+00,1.711194872856140137e+00,1.700441360473632812e+00,1.689822316169738770e+00,1.679334878921508789e+00
3.294686794281005859e+00,3.255053281784057617e+00,3.216361999511718750e+00,3.178580284118652344e+00,3.141675233840942383e+00,3.105617523193359375e+00,3.070378065109252930e+00,3.035929679870605469e+00,3.002245426177978516e+00,2.969300270080566406e+00,2.937070608139038086e+00,2.905532836914062500e+00,2.874665498733520508e+00,2.844446897506713867e+00,2.814857006072998047e+00,2.785876512527465820e+00,2.757486581802368164e+00,2.729669332504272461e+00,2.702408075332641602e+00,2.675685882568359375e+00,2.649486780166625977e+00,2.623795747756958008e+00,2.598598241806030273e+00,2.573880195617675781e+00,2.549627780914306641e+00,2.525828123092651367e+00,2.502469062805175781e+00,2.479537725448608398e+00,2.457022905349731445e+00,2.434913396835327148e+00,2.413197994232177734e+00,2.391866683959960938e+00,2.370909214019775391e+00,2.350315570831298828e+00,2.330076932907104492e+00,2.310183763504028320e+00,2.290627241134643555e+00,2.271399259567260742e+00,2.252491235733032227e+00,2.233895301818847656e+00,2.215604305267333984e+00,2.197610139846801758e+00,2.179905891418457031e+00,2.162484645843505859e+00,2.145339727401733398e+00,2.128464221954345703e+00,2.111852645874023438e+00,2.095497846603393555e+00,2.079394817352294922e+00,2.063537120819091797e+00,2.047919511795043945e+00,2.032536506652832031e+00,2.017383098602294922e+00,2.002453565597534180e+00,1.987744092941284180e+00,1.973248720169067383e+00,1.958963036537170410e+00,1.944882988929748535e+00,1.931003808975219727e+00,1.917321205139160156e+00,1.903831243515014648e+00,1.890529870986938477e+00,1.877412796020507812e+00,1.864476680755615234e+00,1.851717710494995117e+00,1.839131832122802734e+00,1.826716184616088867e+00,1.814467072486877441e+00,1.802380919456481934e+00,1.790454864501953125e+00,1.778685569763183594e+00,1.767069816589355469e+00,1.755605101585388184e+00,1.744288086891174316e+00,1.733115911483764648e+00,1.722086071968078613e+00,1.711195945739746094e+00,1.700442433357238770e+00,1.689823150634765625e+00,1.679335832595825195e+00
3.294689893722534180e+00,3.255056619644165039e+00,3.216365098953247070e+00,3.178582906723022461e+00,3.141678333282470703e+00,3.105620384216308594e+00,3.070380926132202148e+00,3.035932302474975586e+00,3.002248048782348633e+00,2.969302892684936523e+00,2.937073469161987305e+00,2.905535697937011719e+00,2.874667882919311523e+00,2.844449520111083984e+00,2.814859628677368164e+00,2.785878896713256836e+00,2.757489204406738281e+00,2.729671955108642578e+00,2.702410459518432617e+00,2.675688028335571289e+00,2.649488925933837891e+00,2.623798131942749023e+00,2.598600387573242188e+00,2.573882102966308594e+00,2.549629926681518555e+00,2.525830268859863281e+00,2.502470970153808594e+00,2.479539871215820312e+00,2.457024812698364258e+00,2.434915065765380859e+00,2.413199901580810547e+00,2.391868591308593750e+00,2.370910882949829102e+00,2.350317478179931641e+00,2.330078601837158203e+00,2.310185432434082031e+00,2.290628910064697266e+00,2.271400928497314453e+00,2.252492904663085938e+00,2.233896970748901367e+00,2.215605735778808594e+00,2.197611570358276367e+00,2.179907321929931641e+00,2.162486076354980469e+00,2.145341157913208008e+00,2.128465890884399414e+00,2.111853837966918945e+00,2.095499277114868164e+00,2.079396009445190430e+00,2.063538312911987305e+00,2.047920942306518555e+00,2.032537937164306641e+00,2.017384290695190430e+00,2.002454996109008789e+00,1.987745285034179688e+00,1.973249912261962891e+00,1.958964467048645020e+00,1.944884061813354492e+00,1.931004881858825684e+00,1.917322516441345215e+00,1.903832316398620605e+00,1.890530943870544434e+00,1.877413988113403320e+00,1.864477753639221191e+00,1.851718664169311523e+00,1.839133143424987793e+00,1.826717257499694824e+00,1.814468026161193848e+00,1.802382111549377441e+00,1.790455818176269531e+00,1.778686523437500000e+00,1.767071008682250977e+00,1.755606174468994141e+00,1.744289040565490723e+00,1.733116984367370605e+00,1.722087144851684570e+00,1.711196780204772949e+00,1.700443267822265625e+00,1.689824104309082031e+00,1.679336667060852051e+00
3.294693231582641602e+00,3.255059719085693359e+00,3.216368675231933594e+00,3.178586244583129883e+00,3.141681194305419922e+00,3.105623483657836914e+00,3.070384025573730469e+00,3.035935163497924805e+00,3.002250909805297852e+00,2.969305753707885742e+00,2.937075853347778320e+00,2.905538320541381836e+00,2.874670505523681641e+00,2.844452142715454102e+00,2.814862012863159180e+00,2.785881519317626953e+00,2.757491588592529297e+00,2.729674339294433594e+00,2.702412605285644531e+00,2.675690412521362305e+00,2.649491310119628906e+00,2.623800039291381836e+00,2.598602533340454102e+00,2.573884248733520508e+00,2.549631834030151367e+00,2.525832414627075195e+00,2.502472877502441406e+00,2.479541540145874023e+00,2.457026720046997070e+00,2.434916973114013672e+00,2.413201808929443359e+00,2.391870260238647461e+00,2.370912790298461914e+00,2.350319385528564453e+00,2.330080270767211914e+00,2.310187101364135742e+00,2.290630578994750977e+00,2.271402597427368164e+00,2.252494335174560547e+00,2.233898639678955078e+00,2.215607404708862305e+00,2.197613000869750977e+00,2.179908990859985352e+00,2.162487506866455078e+00,2.145342588424682617e+00,2.128467321395874023e+00,2.111855268478393555e+00,2.095500707626342773e+00,2.079397439956665039e+00,2.063539743423461914e+00,2.047922372817993164e+00,2.032539367675781250e+00,2.017385482788085938e+00,2.002456188201904297e+00,1.987746596336364746e+00,1.973250985145568848e+00,1.958965539932250977e+00,1.944885373115539551e+00,1.931006073951721191e+00,1.917323589324951172e+00,1.903833627700805664e+00,1.890531897544860840e+00,1.877415060997009277e+00,1.864478945732116699e+00,1.851719737052917480e+00,1.839134097099304199e+00,1.826718449592590332e+00,1.814469218254089355e+00,1.802383065223693848e+00,1.790457010269165039e+00,1.778687715530395508e+00,1.767071962356567383e+00,1.755607128143310547e+00,1.744290113449096680e+00,1.733117938041687012e+00,1.722087979316711426e+00,1.711197853088378906e+00,1.700444102287292480e+00,1.689825057983398438e+00,1.679337739944458008e+00
3.294696807861328125e+00,3.255063056945800781e+00,3.216371536254882812e+00,3.178589582443237305e+00,3.141684293746948242e+00,3.105626344680786133e+00,3.070387125015258789e+00,3.035938024520874023e+00,3.002254009246826172e+00,2.969308614730834961e+00,2.937078714370727539e+00,2.905541181564331055e+00,2.874673366546630859e+00,2.844454526901245117e+00,2.814864635467529297e+00,2.785883903503417969e+00,2.757493734359741211e+00,2.729676723480224609e+00,2.702414989471435547e+00,2.675692558288574219e+00,2.649493694305419922e+00,2.623802423477172852e+00,2.598604679107666016e+00,2.573886632919311523e+00,2.549633979797363281e+00,2.525834321975708008e+00,2.502475023269653320e+00,2.479543685913085938e+00,2.457028865814208984e+00,2.434919118881225586e+00,2.413203716278076172e+00,2.391872167587280273e+00,2.370914697647094727e+00,2.350321054458618164e+00,2.330082178115844727e+00,2.310188770294189453e+00,2.290632247924804688e+00,2.271404266357421875e+00,2.252496004104614258e+00,2.233900070190429688e+00,2.215609073638916016e+00,2.197614669799804688e+00,2.179910421371459961e+00,2.162489175796508789e+00,2.145344018936157227e+00,2.128468751907348633e+00,2.111856698989868164e+00,2.095502138137817383e+00,2.079398870468139648e+00,2.063541173934936523e+00,2.047923564910888672e+00,2.032540559768676758e+00,2.017386913299560547e+00,2.002457618713378906e+00,1.987747788429260254e+00,1.973252415657043457e+00,1.958966732025146484e+00,1.944886565208435059e+00,1.931007385253906250e+00,1.917324662208557129e+00,1.903834700584411621e+00,1.890533208847045898e+00,1.877416372299194336e+00,1.864480018615722656e+00,1.851720929145812988e+00,1.839135289192199707e+00,1.826719403266906738e+00,1.814470171928405762e+00,1.802384138107299805e+00,1.790457963943481445e+00,1.778688669204711914e+00,1.767073035240173340e+00,1.755608081817626953e+00,1.744290947914123535e+00,1.733119010925292969e+00,1.722088932991027832e+00,1.711198687553405762e+00,1.700445175170898438e+00,1.689825892448425293e+00,1.679338574409484863e+00
3.294699907302856445e+00,3.255066633224487305e+00,3.216375112533569336e+00,3.178592920303344727e+00,3.141687631607055664e+00,3.105629444122314453e+00,3.070390224456787109e+00,3.035941123962402344e+00,3.002256631851196289e+00,2.969311714172363281e+00,2.937081575393676758e+00,2.905543804168701172e+00,2.874675989151000977e+00,2.844457149505615234e+00,2.814867019653320312e+00,2.785886526107788086e+00,2.757496356964111328e+00,2.729678869247436523e+00,2.702417373657226562e+00,2.675694942474365234e+00,2.649495601654052734e+00,2.623804569244384766e+00,2.598606824874877930e+00,2.573888778686523438e+00,2.549636125564575195e+00,2.525836467742919922e+00,2.502476930618286133e+00,2.479545593261718750e+00,2.457030534744262695e+00,2.434921026229858398e+00,2.413205623626708984e+00,2.391873836517333984e+00,2.370916366577148438e+00,2.350322723388671875e+00,2.330083847045898438e+00,2.310190439224243164e+00,2.290633916854858398e+00,2.271405696868896484e+00,2.252497673034667969e+00,2.233901739120483398e+00,2.215610504150390625e+00,2.197616338729858398e+00,2.179911851882934570e+00,2.162490606307983398e+00,2.145345449447631836e+00,2.128470182418823242e+00,2.111858367919921875e+00,2.095503568649291992e+00,2.079400300979614258e+00,2.063542604446411133e+00,2.047924995422363281e+00,2.032541990280151367e+00,2.017388105392456055e+00,2.002458810806274414e+00,1.987748980522155762e+00,1.973253607749938965e+00,1.958968043327331543e+00,1.944887876510620117e+00,1.931008458137512207e+00,1.917325973510742188e+00,1.903836011886596680e+00,1.890534281730651855e+00,1.877417325973510742e+00,1.864481210708618164e+00,1.851722002029418945e+00,1.839136362075805664e+00,1.826720595359802246e+00,1.814471244812011719e+00,1.802385210990905762e+00,1.790459036827087402e+00,1.778689622879028320e+00,1.767073988914489746e+00,1.755609154701232910e+00,1.744291901588439941e+00,1.733119845390319824e+00,1.722090005874633789e+00,1.711199522018432617e+00,1.700446009635925293e+00,1.689826846122741699e+00,1.679339408874511719e+00
3.294703483581542969e+00,3.255070209503173828e+00,3.216378450393676758e+00,3.178595781326293945e+00,3.141690969467163086e+00,3.105632781982421875e+00,3.070392847061157227e+00,3.035944223403930664e+00,3.002259492874145508e+00,2.969314336776733398e+00,2.937084436416625977e+00,2.905546426773071289e+00,2.874678611755371094e+00,2.844459772109985352e+00,2.814869642257690430e+00,2.785888910293579102e+00,2.757498741149902344e+00,2.729681491851806641e+00,2.702419757843017578e+00,2.675697326660156250e+00,2.649497985839843750e+00,2.623806953430175781e+00,2.598608970642089844e+00,2.573890686035156250e+00,2.549638271331787109e+00,2.525838375091552734e+00,2.502478837966918945e+00,2.479547739028930664e+00,2.457032442092895508e+00,2.434922695159912109e+00,2.413207530975341797e+00,2.391875743865966797e+00,2.370918035507202148e+00,2.350324630737304688e+00,2.330085515975952148e+00,2.310192346572875977e+00,2.290635585784912109e+00,2.271407365798950195e+00,2.252499341964721680e+00,2.233903408050537109e+00,2.215611934661865234e+00,2.197617769241333008e+00,2.179913520812988281e+00,2.162492036819458008e+00,2.145347118377685547e+00,2.128471612930297852e+00,2.111859560012817383e+00,2.095504999160766602e+00,2.079401731491088867e+00,2.063543796539306641e+00,2.047926425933837891e+00,2.032543182373046875e+00,2.017389535903930664e+00,2.002460241317749023e+00,1.987750411033630371e+00,1.973254919052124023e+00,1.958969235420227051e+00,1.944889068603515625e+00,1.931009769439697266e+00,1.917327046394348145e+00,1.903837084770202637e+00,1.890535593032836914e+00,1.877418398857116699e+00,1.864482283592224121e+00,1.851723194122314453e+00,1.839137315750122070e+00,1.826721549034118652e+00,1.814472436904907227e+00,1.802386164665222168e+00,1.790459990501403809e+00,1.778690695762634277e+00,1.767074942588806152e+00,1.755610108375549316e+00,1.744292974472045898e+00,1.733120799064636230e+00,1.722090840339660645e+00,1.711200594902038574e+00,1.700446844100952148e+00,1.689827680587768555e+00,1.679340362548828125e+00
3.294707059860229492e+00,3.255073308944702148e+00,3.216381788253784180e+00,3.178599119186401367e+00,3.141693830490112305e+00,3.105635881423950195e+00,3.070395946502685547e+00,3.035946846008300781e+00,3.002262592315673828e+00,2.969317197799682617e+00,2.937087059020996094e+00,2.905549287796020508e+00,2.874681234359741211e+00,2.844462394714355469e+00,2.814872264862060547e+00,2.785891294479370117e+00,2.757501363754272461e+00,2.729683876037597656e+00,2.702422142028808594e+00,2.675699710845947266e+00,2.649500370025634766e+00,2.623808860778808594e+00,2.598611354827880859e+00,2.573892831802368164e+00,2.549640178680419922e+00,2.525840520858764648e+00,2.502480983734130859e+00,2.479549407958984375e+00,2.457034587860107422e+00,2.434924602508544922e+00,2.413209438323974609e+00,2.391877651214599609e+00,2.370919942855834961e+00,2.350326299667358398e+00,2.330087423324584961e+00,2.310193777084350586e+00,2.290637254714965820e+00,2.271409273147583008e+00,2.252501010894775391e+00,2.233905076980590820e+00,2.215613603591918945e+00,2.197619199752807617e+00,2.179915189743041992e+00,2.162493467330932617e+00,2.145348310470581055e+00,2.128473043441772461e+00,2.111860990524291992e+00,2.095506429672241211e+00,2.079403162002563477e+00,2.063545227050781250e+00,2.047927618026733398e+00,2.032544612884521484e+00,2.017390727996826172e+00,2.002461433410644531e+00,1.987751603126525879e+00,1.973256111145019531e+00,1.958970546722412109e+00,1.944890141487121582e+00,1.931010961532592773e+00,1.917328357696533203e+00,1.903838157653808594e+00,1.890536665916442871e+00,1.877419710159301758e+00,1.864483356475830078e+00,1.851724267005920410e+00,1.839138507843017578e+00,1.826722621917724609e+00,1.814473390579223633e+00,1.802387237548828125e+00,1.790460944175720215e+00,1.778691649436950684e+00,1.767076015472412109e+00,1.755610942840576172e+00,1.744293928146362305e+00,1.733121871948242188e+00,1.722091794013977051e+00,1.711201548576354980e+00,1.700447916984558105e+00,1.689828634262084961e+00,1.679341197013854980e+00
3.294710636138916016e+00,3.255076646804809570e+00,3.216384887695312500e+00,3.178602457046508789e+00,3.141696929931640625e+00,3.105638742446899414e+00,3.070399045944213867e+00,3.035949945449829102e+00,3.002265453338623047e+00,2.969320058822631836e+00,2.937089920043945312e+00,2.905551910400390625e+00,2.874683856964111328e+00,2.844465017318725586e+00,2.814874887466430664e+00,2.785893917083740234e+00,2.757503509521484375e+00,2.729686260223388672e+00,2.702424526214599609e+00,2.675701856613159180e+00,2.649502515792846680e+00,2.623811244964599609e+00,2.598613262176513672e+00,2.573894977569580078e+00,2.549642324447631836e+00,2.525842666625976562e+00,2.502482891082763672e+00,2.479551553726196289e+00,2.457036495208740234e+00,2.434926509857177734e+00,2.413211107254028320e+00,2.391879558563232422e+00,2.370921850204467773e+00,2.350327968597412109e+00,2.330089092254638672e+00,2.310195684432983398e+00,2.290638923645019531e+00,2.271410942077636719e+00,2.252502679824829102e+00,2.233906507492065430e+00,2.215615272521972656e+00,2.197620868682861328e+00,2.179916381835937500e+00,2.162495136260986328e+00,2.145349979400634766e+00,2.128474473953247070e+00,2.111862421035766602e+00,2.095507860183715820e+00,2.079404592514038086e+00,2.063546657562255859e+00,2.047929048538208008e+00,2.032546043395996094e+00,2.017392158508300781e+00,2.002462625503540039e+00,1.987753033638000488e+00,1.973257303237915039e+00,1.958971738815307617e+00,1.944891452789306641e+00,1.931012034416198730e+00,1.917329549789428711e+00,1.903839468955993652e+00,1.890537738800048828e+00,1.877420783042907715e+00,1.864484548568725586e+00,1.851725220680236816e+00,1.839139580726623535e+00,1.826723814010620117e+00,1.814474344253540039e+00,1.802388310432434082e+00,1.790462136268615723e+00,1.778692603111267090e+00,1.767076969146728516e+00,1.755612015724182129e+00,1.744294762611389160e+00,1.733122706413269043e+00,1.722092747688293457e+00,1.711202383041381836e+00,1.700448751449584961e+00,1.689829587936401367e+00,1.679342031478881836e+00
3.294713973999023438e+00,3.255080223083496094e+00,3.216388225555419922e+00,3.178605794906616211e+00,3.141700267791748047e+00,3.105641841888427734e+00,3.070402145385742188e+00,3.035952806472778320e+00,3.002268075942993164e+00,2.969322919845581055e+00,2.937092781066894531e+00,2.905554533004760742e+00,2.874686717987060547e+00,2.844467639923095703e+00,2.814877271652221680e+00,2.785896539688110352e+00,2.757506132125854492e+00,2.729688405990600586e+00,2.702426910400390625e+00,2.675704002380371094e+00,2.649504899978637695e+00,2.623813390731811523e+00,2.598615407943725586e+00,2.573897123336791992e+00,2.549644470214843750e+00,2.525844573974609375e+00,2.502485036849975586e+00,2.479553461074829102e+00,2.457038402557373047e+00,2.434928655624389648e+00,2.413213014602661133e+00,2.391881227493286133e+00,2.370923519134521484e+00,2.350329875946044922e+00,2.330090761184692383e+00,2.310197353363037109e+00,2.290640592575073242e+00,2.271412372589111328e+00,2.252504348754882812e+00,2.233908176422119141e+00,2.215616941452026367e+00,2.197622537612915039e+00,2.179918050765991211e+00,2.162496566772460938e+00,2.145351409912109375e+00,2.128475904464721680e+00,2.111864089965820312e+00,2.095509290695190430e+00,2.079405784606933594e+00,2.063548088073730469e+00,2.047930240631103516e+00,2.032547235488891602e+00,2.017393350601196289e+00,2.002464056015014648e+00,1.987754225730895996e+00,1.973258733749389648e+00,1.958972930908203125e+00,1.944892644882202148e+00,1.931013345718383789e+00,1.917330622673034668e+00,1.903840541839599609e+00,1.890538930892944336e+00,1.877421736717224121e+00,1.864485621452331543e+00,1.851726412773132324e+00,1.839140534400939941e+00,1.826724767684936523e+00,1.814475536346435547e+00,1.802389264106750488e+00,1.790463089942932129e+00,1.778693675994873047e+00,1.767077803611755371e+00,1.755612969398498535e+00,1.744295835494995117e+00,1.733123660087585449e+00,1.722093701362609863e+00,1.711203455924987793e+00,1.700449824333190918e+00,1.689830422401428223e+00,1.679343104362487793e+00
3.083811521530151367e+00,3.083328008651733398e+00,3.082845211029052734e+00,3.082361936569213867e+00,3.081879377365112305e+00,3.081396579742431641e+00,3.070405006408691406e+00,3.035955905914306641e+00,3.002271175384521484e+00,2.969325542449951172e+00,2.937095403671264648e+00,2.905557394027709961e+00,2.874689102172851562e+00,2.844470262527465820e+00,2.814879894256591797e+00,2.785898923873901367e+00,2.757508516311645508e+00,2.729691028594970703e+00,2.702429294586181641e+00,2.675706386566162109e+00,2.649507045745849609e+00,2.623815774917602539e+00,2.598617792129516602e+00,2.573899269104003906e+00,2.549646615982055664e+00,2.525846719741821289e+00,2.502486944198608398e+00,2.479555606842041016e+00,2.457040309906005859e+00,2.434930324554443359e+00,2.413214921951293945e+00,2.391883134841918945e+00,2.370925426483154297e+00,2.350331544876098633e+00,2.330092430114746094e+00,2.310199022293090820e+00,2.290642261505126953e+00,2.271414041519165039e+00,2.252506017684936523e+00,2.233909845352172852e+00,2.215618371963500977e+00,2.197623968124389648e+00,2.179919719696044922e+00,2.162497997283935547e+00,2.145352840423583984e+00,2.128477334976196289e+00,2.111865282058715820e+00,2.095510721206665039e+00,2.079407215118408203e+00,2.063549280166625977e+00,2.047931671142578125e+00,2.032548427581787109e+00,2.017394781112670898e+00,2.002465248107910156e+00,1.987755298614501953e+00,1.973259806632995605e+00,1.958974242210388184e+00,1.944893717765808105e+00,1.931014537811279297e+00,1.917331933975219727e+00,1.903841614723205566e+00,1.890540003776550293e+00,1.877423048019409180e+00,1.864486694335937500e+00,1.851727485656738281e+00,1.839141726493835449e+00,1.826725721359252930e+00,1.814476490020751953e+00,1.802390336990356445e+00,1.790464043617248535e+00,1.778694629669189453e+00,1.767078995704650879e+00,1.755614042282104492e+00,1.744296789169311523e+00,1.733124732971191406e+00,1.722094774246215820e+00,1.711204290390014648e+00,1.700450658798217773e+00,1.689831495285034180e+00,1.679343938827514648e+00
2.605341911315917969e+00,2.604996919631958008e+00,2.604651927947998047e+00,2.604307413101196289e+00,2.603962421417236328e+00,2.603618144989013672e+00,2.603273391723632812e+00,2.602929115295410156e+00,2.602584600448608398e+00,2.602240562438964844e+00,2.601896286010742188e+00,2.601552248001098633e+00,2.601208209991455078e+00,2.600864410400390625e+00,2.600520610809326172e+00,2.600177049636840820e+00,2.599833250045776367e+00,2.599489688873291016e+00,2.599146366119384766e+00,2.598803043365478516e+00,2.598459720611572266e+00,2.598116636276245117e+00,2.597773551940917969e+00,2.573901414871215820e+00,2.549648523330688477e+00,2.525848865509033203e+00,2.502488851547241211e+00,2.479557275772094727e+00,2.457042217254638672e+00,2.434932231903076172e+00,2.413216829299926758e+00,2.391885042190551758e+00,2.370927095413208008e+00,2.350333452224731445e+00,2.330094337463378906e+00,2.310200691223144531e+00,2.290644168853759766e+00,2.271415710449218750e+00,2.252507448196411133e+00,2.233911514282226562e+00,2.215620040893554688e+00,2.197625398635864258e+00,2.179921150207519531e+00,2.162499666213989258e+00,2.145354270935058594e+00,2.128479003906250000e+00,2.111866712570190430e+00,2.095512151718139648e+00,2.079408645629882812e+00,2.063550710678100586e+00,2.047933101654052734e+00,2.032549858093261719e+00,2.017395973205566406e+00,2.002466678619384766e+00,1.987756729125976562e+00,1.973260998725891113e+00,1.958975434303283691e+00,1.944895148277282715e+00,1.931015610694885254e+00,1.917333006858825684e+00,1.903842926025390625e+00,1.890541076660156250e+00,1.877424120903015137e+00,1.864487886428833008e+00,1.851728558540344238e+00,1.839142799377441406e+00,1.826727032661437988e+00,1.814477682113647461e+00,1.802391409873962402e+00,1.790465235710144043e+00,1.778695821762084961e+00,1.767079949378967285e+00,1.755614995956420898e+00,1.744297862052917480e+00,1.733125567436218262e+00,1.722095608711242676e+00,1.711205363273620605e+00,1.700451493263244629e+00,1.689832329750061035e+00,1.679344892501831055e+00
2.255403995513916016e+00,2.255145549774169922e+00,2.254886865615844727e+00,2.254628658294677734e+00,2.254370212554931641e+00,2.254112005233764648e+00,2.253853797912597656e+00,2.253595590591430664e+00,2.253337383270263672e+00,2.253079414367675781e+00,2.252821445465087891e+00,2.252563476562500000e+00,2.252305746078491211e+00,2.252048015594482422e+00,2.251790046691894531e+00,2.251532554626464844e+00,2.251274824142456055e+00,2.251017332077026367e+00,2.250759601593017578e+00,2.250502347946166992e+00,2.250244855880737305e+00,2.249987602233886719e+00,2.249730110168457031e+00,2.249473094940185547e+00,2.249215841293334961e+00,2.248958826065063477e+00,2.248701572418212891e+00,2.248444795608520508e+00,2.248187780380249023e+00,2.247931003570556641e+00,2.247673988342285156e+00,2.247417449951171875e+00,2.247160673141479492e+00,2.246903896331787109e+00,2.246647357940673828e+00,2.246390819549560547e+00,2.246134281158447266e+00,2.245877981185913086e+00,2.245621681213378906e+00,2.233912944793701172e+00,2.215621471405029297e+00,2.197627067565917969e+00,2.179922819137573242e+00,2.162501096725463867e+00,2.145355701446533203e+00,2.128480434417724609e+00,2.111868143081665039e+00,2.095513343811035156e+00,2.079410076141357422e+00,2.063552141189575195e+00,2.047934293746948242e+00,2.032551288604736328e+00,2.017397403717041016e+00,2.002467870712280273e+00,1.987757921218872070e+00,1.973262429237365723e+00,1.958976507186889648e+00,1.944896221160888672e+00,1.931016921997070312e+00,1.917334079742431641e+00,1.903843998908996582e+00,1.890542387962341309e+00,1.877425312995910645e+00,1.864488959312438965e+00,1.851729750633239746e+00,1.839143991470336914e+00,1.826727986335754395e+00,1.814478635787963867e+00,1.802392482757568359e+00,1.790466189384460449e+00,1.778696775436401367e+00,1.767081022262573242e+00,1.755615949630737305e+00,1.744298815727233887e+00,1.733126640319824219e+00,1.722096562385559082e+00,1.711206197738647461e+00,1.700452566146850586e+00,1.689833164215087891e+00,1.679345726966857910e+00
1.988339066505432129e+00,1.988138318061828613e+00,1.987937450408935547e+00,1.987736463546752930e+00,1.987535595893859863e+00,1.987335085868835449e+00,1.987134337425231934e+00,1.986933588981628418e+00,1.986732840538024902e+00,1.986532449722290039e+00,1.986331820487976074e+00,1.986131191253662109e+00,1.985930681228637695e+00,1.985730409622192383e+00,1.985530018806457520e+00,1.985329627990722656e+00,1.985129237174987793e+00,1.984929084777832031e+00,1.984728813171386719e+00,1.984528541564941406e+00,1.984328269958496094e+00,1.984128355979919434e+00,1.983928203582763672e+00,1.983728170394897461e+00,1.983528137207031250e+00,1.983328342437744141e+00,1.983128309249877930e+00,1.982928395271301270e+00,1.982728481292724609e+00,1.982528924942016602e+00,1.982329130172729492e+00,1.982129335403442383e+00,1.981929540634155273e+00,1.981730103492736816e+00,1.981530427932739258e+00,1.981330871582031250e+00,1.981131315231323242e+00,1.980931997299194336e+00,1.980732560157775879e+00,1.980533003807067871e+00,1.980333685874938965e+00,1.980134487152099609e+00,1.979935169219970703e+00,1.979735851287841797e+00,1.979536652565002441e+00,1.979337692260742188e+00,1.979138493537902832e+00,1.978939294815063477e+00,1.978740215301513672e+00,1.978541374206542969e+00,1.978342413902282715e+00,1.978143453598022461e+00,1.977944493293762207e+00,1.977745652198791504e+00,1.977547049522399902e+00,1.973263502120971680e+00,1.958977937698364258e+00,1.944897532463073730e+00,1.931017994880676270e+00,1.917335391044616699e+00,1.903845310211181641e+00,1.890543460845947266e+00,1.877426385879516602e+00,1.864490151405334473e+00,1.851730823516845703e+00,1.839144945144653320e+00,1.826729178428649902e+00,1.814479589462280273e+00,1.802393436431884766e+00,1.790467262268066406e+00,1.778697729110717773e+00,1.767081975936889648e+00,1.755617022514343262e+00,1.744299650192260742e+00,1.733127593994140625e+00,1.722097516059875488e+00,1.711207032203674316e+00,1.700453400611877441e+00,1.689834237098693848e+00,1.679346561431884766e+00
1.777825117111206055e+00,1.777664422988891602e+00,1.777503728866577148e+00,1.777343273162841797e+00,1.777182698249816895e+00,1.777022123336791992e+00,1.776861548423767090e+00,1.776701331138610840e+00,1.776540756225585938e+00,1.776380419731140137e+00,1.776219964027404785e+00,1.776059746742248535e+00,1.775899410247802734e+00,1.775739073753356934e+00,1.775578737258911133e+00,1.775418639183044434e+00,1.775258421897888184e+00,1.775098204612731934e+00,1.774937987327575684e+00,1.774778008460998535e+00,1.774617910385131836e+00,1.774457812309265137e+00,1.774297714233398438e+00,1.774137854576110840e+00,1.773977875709533691e+00,1.773817896842956543e+00,1.773657917976379395e+00,1.773498177528381348e+00,1.773338198661804199e+00,1.773178339004516602e+00,1.773018479347229004e+00,1.772858858108520508e+00,1.772699117660522461e+00,1.772539377212524414e+00,1.772379636764526367e+00,1.772220134735107422e+00,1.772060394287109375e+00,1.771900773048400879e+00,1.771741151809692383e+00,1.771581768989562988e+00,1.771422266960144043e+00,1.771262645721435547e+00,1.771103143692016602e+00,1.770943880081176758e+00,1.770784497261047363e+00,1.770624995231628418e+00,1.770465612411499023e+00,1.770306468009948730e+00,1.770147204399108887e+00,1.769987821578979492e+00,1.769828557968139648e+00,1.769669532775878906e+00,1.769510269165039062e+00,1.769351124763488770e+00,1.769191980361938477e+00,1.769033074378967285e+00,1.768873929977416992e+00,1.768714904785156250e+00,1.768555879592895508e+00,1.768396973609924316e+00,1.768238067626953125e+00,1.768079042434692383e+00,1.767920136451721191e+00,1.767761468887329102e+00,1.767602562904357910e+00,1.767443656921386719e+00,1.767284870147705078e+00,1.767126321792602539e+00,1.766967535018920898e+00,1.766808867454528809e+00,1.766650080680847168e+00,1.766491413116455078e+00,1.755617976188659668e+00,1.744300723075866699e+00,1.733128428459167480e+00,1.722098469734191895e+00,1.711208105087280273e+00,1.700454354286193848e+00,1.689835071563720703e+00,1.679347634315490723e+00
1.607619404792785645e+00,1.607488036155700684e+00,1.607356667518615723e+00,1.607225298881530762e+00,1.607094168663024902e+00,1.606962919235229492e+00,1.606831550598144531e+00,1.606700301170349121e+00,1.606569290161132812e+00,1.606438040733337402e+00,1.606306791305541992e+00,1.606175661087036133e+00,1.606044650077819824e+00,1.605913519859313965e+00,1.605782389640808105e+00,1.605651378631591797e+00,1.605520248413085938e+00,1.605389356613159180e+00,1.605258345603942871e+00,1.605127334594726562e+00,1.604996323585510254e+00,1.604865550994873047e+00,1.604734659194946289e+00,1.604603648185729980e+00,1.604472756385803223e+00,1.604342103004455566e+00,1.604211211204528809e+00,1.604080319404602051e+00,1.603949546813964844e+00,1.603818893432617188e+00,1.603688120841979980e+00,1.603557467460632324e+00,1.603426694869995117e+00,1.603296160697937012e+00,1.603165507316589355e+00,1.603034734725952148e+00,1.602904200553894043e+00,1.602773666381835938e+00,1.602643132209777832e+00,1.602512478828430176e+00,1.602381944656372070e+00,1.602251529693603516e+00,1.602121114730834961e+00,1.601990580558776855e+00,1.601860046386718750e+00,1.601729750633239746e+00,1.601599335670471191e+00,1.601468920707702637e+00,1.601338624954223633e+00,1.601208329200744629e+00,1.601078033447265625e+00,1.600947737693786621e+00,1.600817441940307617e+00,1.600687265396118164e+00,1.600556969642639160e+00,1.600426793098449707e+00,1.600296616554260254e+00,1.600166559219360352e+00,1.600036382675170898e+00,1.599906206130981445e+00,1.599776029586791992e+00,1.599646091461181641e+00,1.599516034126281738e+00,1.599385976791381836e+00,1.599255919456481934e+00,1.599125981330871582e+00,1.598996043205261230e+00,1.598865985870361328e+00,1.598736047744750977e+00,1.598606228828430176e+00,1.598476409912109375e+00,1.598346471786499023e+00,1.598216533660888672e+00,1.598086833953857422e+00,1.597957015037536621e+00,1.597827196121215820e+00,1.597697496414184570e+00,1.597567796707153320e+00,1.597438097000122070e+00,1.597308278083801270e+00
1.467156529426574707e+00,1.467047095298767090e+00,1.466937780380249023e+00,1.466828346252441406e+00,1.466719031333923340e+00,1.466609597206115723e+00,1.466500401496887207e+00,1.466391086578369141e+00,1.466281771659851074e+00,1.466172456741333008e+00,1.466063261032104492e+00,1.465954065322875977e+00,1.465844750404357910e+00,1.465735554695129395e+00,1.465626358985900879e+00,1.465517163276672363e+00,1.465407967567443848e+00,1.465298891067504883e+00,1.465189814567565918e+00,1.465080738067626953e+00,1.464971542358398438e+00,1.464862465858459473e+00,1.464753508567810059e+00,1.464644432067871094e+00,1.464535355567932129e+00,1.464426279067993164e+00,1.464317440986633301e+00,1.464208364486694336e+00,1.464099407196044922e+00,1.463990449905395508e+00,1.463881611824035645e+00,1.463772654533386230e+00,1.463663697242736816e+00,1.463554739952087402e+00,1.463445901870727539e+00,1.463337182998657227e+00,1.463228225708007812e+00,1.463119387626647949e+00,1.463010549545288086e+00,1.462901949882507324e+00,1.462793111801147461e+00,1.462684273719787598e+00,1.462575554847717285e+00,1.462466955184936523e+00,1.462358236312866211e+00,1.462249517440795898e+00,1.462140798568725586e+00,1.462032198905944824e+00,1.461923599243164062e+00,1.461814880371093750e+00,1.461706280708312988e+00,1.461597800254821777e+00,1.461489200592041016e+00,1.461380600929260254e+00,1.461272001266479492e+00,1.461163640022277832e+00,1.461055040359497070e+00,1.460946559906005859e+00,1.460837960243225098e+00,1.460729598999023438e+00,1.460621118545532227e+00,1.460512757301330566e+00,1.460404276847839355e+00,1.460295915603637695e+00,1.460187554359436035e+00,1.460079193115234375e+00,1.459970831871032715e+00,1.459862589836120605e+00,1.459754228591918945e+00,1.459645867347717285e+00,1.459537506103515625e+00,1.459429383277893066e+00,1.459321141242980957e+00,1.459212779998779297e+00,1.459104537963867188e+00,1.458996415138244629e+00,1.458888292312622070e+00,1.458780050277709961e+00,1.458671808242797852e+00,1.458563804626464844e+00
1.349266767501831055e+00,1.349174141883850098e+00,1.349081635475158691e+00,1.348989129066467285e+00,1.348896741867065430e+00,1.348804235458374023e+00,1.348711729049682617e+00,1.348619222640991211e+00,1.348526835441589355e+00,1.348434448242187500e+00,1.348341941833496094e+00,1.348249554634094238e+00,1.348157286643981934e+00,1.348064899444580078e+00,1.347972512245178223e+00,1.347880125045776367e+00,1.347787857055664062e+00,1.347695469856262207e+00,1.347603201866149902e+00,1.347510814666748047e+00,1.347418665885925293e+00,1.347326397895812988e+00,1.347234129905700684e+00,1.347141861915588379e+00,1.347049593925476074e+00,1.346957445144653320e+00,1.346865177154541016e+00,1.346772909164428711e+00,1.346680879592895508e+00,1.346588611602783203e+00,1.346496462821960449e+00,1.346404314041137695e+00,1.346312284469604492e+00,1.346220135688781738e+00,1.346127986907958984e+00,1.346035838127136230e+00,1.345943808555603027e+00,1.345851659774780273e+00,1.345759630203247070e+00,1.345667600631713867e+00,1.345575571060180664e+00,1.345483541488647461e+00,1.345391511917114258e+00,1.345299482345581055e+00,1.345207571983337402e+00,1.345115542411804199e+00,1.345023632049560547e+00,1.344931602478027344e+00,1.344839811325073242e+00,1.344747781753540039e+00,1.344655871391296387e+00,1.344563961029052734e+00,1.344472050666809082e+00,1.344380259513854980e+00,1.344288349151611328e+00,1.344196557998657227e+00,1.344104647636413574e+00,1.344012856483459473e+00,1.343921065330505371e+00,1.343829274177551270e+00,1.343737483024597168e+00,1.343645811080932617e+00,1.343554019927978516e+00,1.343462228775024414e+00,1.343370437622070312e+00,1.343278765678405762e+00,1.343187093734741211e+00,1.343095302581787109e+00,1.343003630638122559e+00,1.342912077903747559e+00,1.342820286750793457e+00,1.342728614807128906e+00,1.342637062072753906e+00,1.342545509338378906e+00,1.342453837394714355e+00,1.342362165451049805e+00,1.342270612716674805e+00,1.342179059982299805e+00,1.342087507247924805e+00,1.341995954513549805e+00
1.248913288116455078e+00,1.248834013938903809e+00,1.248754858970642090e+00,1.248675584793090820e+00,1.248596310615539551e+00,1.248517036437988281e+00,1.248437881469726562e+00,1.248358607292175293e+00,1.248279452323913574e+00,1.248200178146362305e+00,1.248121023178100586e+00,1.248041868209838867e+00,1.247962713241577148e+00,1.247883558273315430e+00,1.247804403305053711e+00,1.247725248336791992e+00,1.247646093368530273e+00,1.247566938400268555e+00,1.247487902641296387e+00,1.247408866882324219e+00,1.247329711914062500e+00,1.247250676155090332e+00,1.247171640396118164e+00,1.247092604637145996e+00,1.247013449668884277e+00,1.246934413909912109e+00,1.246855497360229492e+00,1.246776461601257324e+00,1.246697425842285156e+00,1.246618390083312988e+00,1.246539473533630371e+00,1.246460437774658203e+00,1.246381521224975586e+00,1.246302485466003418e+00,1.246223688125610352e+00,1.246144652366638184e+00,1.246065735816955566e+00,1.245986819267272949e+00,1.245907902717590332e+00,1.245828986167907715e+00,1.245750188827514648e+00,1.245671272277832031e+00,1.245592474937438965e+00,1.245513558387756348e+00,1.245434641838073730e+00,1.245355844497680664e+00,1.245277047157287598e+00,1.245198249816894531e+00,1.245119452476501465e+00,1.245040655136108398e+00,1.244961857795715332e+00,1.244883060455322266e+00,1.244804263114929199e+00,1.244725465774536133e+00,1.244646787643432617e+00,1.244568109512329102e+00,1.244489312171936035e+00,1.244410634040832520e+00,1.244331955909729004e+00,1.244253277778625488e+00,1.244174599647521973e+00,1.244095802307128906e+00,1.244017243385314941e+00,1.243938565254211426e+00,1.243859887123107910e+00,1.243781208992004395e+00,1.243702650070190430e+00,1.243624091148376465e+00,1.243545413017272949e+00,1.243466854095458984e+00,1.243388175964355469e+00,1.243309736251831055e+00,1.243231058120727539e+00,1.243152499198913574e+00,1.243073940277099609e+00,1.242995500564575195e+00,1.242916941642761230e+00,1.242838382720947266e+00,1.242759943008422852e+00,1.242681503295898438e+00
1.162454366683959961e+00,1.162385702133178711e+00,1.162317037582397461e+00,1.162248373031616211e+00,1.162179708480834961e+00,1.162111043930053711e+00,1.162042379379272461e+00,1.161973834037780762e+00,1.161905169486999512e+00,1.161836624145507812e+00,1.161767959594726562e+00,1.161699414253234863e+00,1.161630749702453613e+00,1.161562204360961914e+00,1.161493539810180664e+00,1.161425113677978516e+00,1.161356568336486816e+00,1.161287903785705566e+00,1.161219358444213867e+00,1.161150813102722168e+00,1.161082386970520020e+00,1.161013841629028320e+00,1.160945296287536621e+00,1.160876750946044922e+00,1.160808324813842773e+00,1.160739779472351074e+00,1.160671353340148926e+00,1.160602807998657227e+00,1.160534381866455078e+00,1.160465955734252930e+00,1.160397529602050781e+00,1.160328984260559082e+00,1.160260677337646484e+00,1.160192251205444336e+00,1.160123825073242188e+00,1.160055398941040039e+00,1.159986972808837891e+00,1.159918665885925293e+00,1.159850239753723145e+00,1.159781813621520996e+00,1.159713506698608398e+00,1.159645199775695801e+00,1.159576773643493652e+00,1.159508466720581055e+00,1.159440159797668457e+00,1.159371733665466309e+00,1.159303426742553711e+00,1.159235119819641113e+00,1.159166932106018066e+00,1.159098625183105469e+00,1.159030318260192871e+00,1.158962011337280273e+00,1.158893704414367676e+00,1.158825516700744629e+00,1.158757209777832031e+00,1.158688902854919434e+00,1.158620715141296387e+00,1.158552527427673340e+00,1.158484220504760742e+00,1.158416032791137695e+00,1.158347964286804199e+00,1.158279657363891602e+00,1.158211469650268555e+00,1.158143281936645508e+00,1.158075213432312012e+00,1.158007025718688965e+00,1.157938838005065918e+00,1.157870650291442871e+00,1.157802581787109375e+00,1.157734394073486328e+00,1.157666325569152832e+00,1.157598137855529785e+00,1.157530069351196289e+00,1.157462000846862793e+00,1.157393932342529297e+00,1.157325744628906250e+00,1.157257795333862305e+00,1.157189726829528809e+00,1.157121658325195312e+00,1.157053589820861816e+00
1.087190985679626465e+00,1.087131023406982422e+00,1.087070822715759277e+00,1.087010860443115234e+00,1.086950778961181641e+00,1.086890697479248047e+00,1.086830735206604004e+00,1.086770653724670410e+00,1.086710572242736816e+00,1.086650609970092773e+00,1.086590528488159180e+00,1.086530566215515137e+00,1.086470484733581543e+00,1.086410641670227051e+00,1.086350560188293457e+00,1.086290597915649414e+00,1.086230635643005371e+00,1.086170673370361328e+00,1.086110711097717285e+00,1.086050748825073242e+00,1.085990786552429199e+00,1.085930824279785156e+00,1.085870981216430664e+00,1.085811018943786621e+00,1.085751056671142578e+00,1.085691213607788086e+00,1.085631251335144043e+00,1.085571289062500000e+00,1.085511445999145508e+00,1.085451602935791016e+00,1.085391640663146973e+00,1.085331797599792480e+00,1.085271954536437988e+00,1.085212111473083496e+00,1.085152268409729004e+00,1.085092425346374512e+00,1.085032463073730469e+00,1.084972620010375977e+00,1.084912896156311035e+00,1.084853053092956543e+00,1.084793210029602051e+00,1.084733366966247559e+00,1.084673643112182617e+00,1.084613800048828125e+00,1.084553956985473633e+00,1.084494233131408691e+00,1.084434509277343750e+00,1.084374666213989258e+00,1.084314942359924316e+00,1.084255099296569824e+00,1.084195375442504883e+00,1.084135651588439941e+00,1.084075927734375000e+00,1.084016203880310059e+00,1.083956480026245117e+00,1.083896756172180176e+00,1.083837032318115234e+00,1.083777308464050293e+00,1.083717703819274902e+00,1.083657979965209961e+00,1.083598256111145020e+00,1.083538532257080078e+00,1.083478927612304688e+00,1.083419322967529297e+00,1.083359599113464355e+00,1.083299875259399414e+00,1.083240270614624023e+00,1.083180665969848633e+00,1.083121061325073242e+00,1.083061337471008301e+00,1.083001852035522461e+00,1.082942128181457520e+00,1.082882523536682129e+00,1.082822918891906738e+00,1.082763433456420898e+00,1.082703828811645508e+00,1.082644224166870117e+00,1.082584619522094727e+00,1.082525134086608887e+00,1.082465529441833496e+00
1.021080851554870605e+00,1.021027922630310059e+00,1.020974874496459961e+00,1.020921945571899414e+00,1.020869016647338867e+00,1.020815968513488770e+00,1.020763039588928223e+00,1.020710110664367676e+00,1.020657181739807129e+00,1.020604133605957031e+00,1.020551204681396484e+00,1.020498275756835938e+00,1.020445346832275391e+00,1.020392417907714844e+00,1.020339488983154297e+00,1.020286679267883301e+00,1.020233750343322754e+00,1.020180821418762207e+00,1.020127892494201660e+00,1.020075082778930664e+00,1.020022153854370117e+00,1.019969224929809570e+00,1.019916415214538574e+00,1.019863486289978027e+00,1.019810676574707031e+00,1.019757747650146484e+00,1.019704937934875488e+00,1.019652128219604492e+00,1.019599199295043945e+00,1.019546389579772949e+00,1.019493579864501953e+00,1.019440770149230957e+00,1.019387960433959961e+00,1.019335150718688965e+00,1.019282341003417969e+00,1.019229531288146973e+00,1.019176721572875977e+00,1.019123911857604980e+00,1.019071102142333984e+00,1.019018411636352539e+00,1.018965601921081543e+00,1.018912792205810547e+00,1.018859982490539551e+00,1.018807291984558105e+00,1.018754482269287109e+00,1.018701791763305664e+00,1.018648982048034668e+00,1.018596291542053223e+00,1.018543601036071777e+00,1.018490791320800781e+00,1.018438100814819336e+00,1.018385291099548340e+00,1.018332719802856445e+00,1.018279910087585449e+00,1.018227219581604004e+00,1.018174529075622559e+00,1.018121838569641113e+00,1.018069148063659668e+00,1.018016457557678223e+00,1.017963767051696777e+00,1.017911195755004883e+00,1.017858505249023438e+00,1.017805814743041992e+00,1.017753124237060547e+00,1.017700552940368652e+00,1.017647862434387207e+00,1.017595291137695312e+00,1.017542600631713867e+00,1.017490029335021973e+00,1.017437458038330078e+00,1.017384767532348633e+00,1.017332196235656738e+00,1.017279624938964844e+00,1.017227053642272949e+00,1.017174363136291504e+00,1.017121791839599609e+00,1.017069220542907715e+00,1.017016649246215820e+00,1.016964077949523926e+00,1.016911506652832031e+00
9.625500440597534180e-01,9.625030159950256348e-01,9.624558091163635254e-01,9.624087810516357422e-01,9.623616337776184082e-01,9.623146057128906250e-01,9.622675776481628418e-01,9.622204303741455078e-01,9.621734023094177246e-01,9.621264338493347168e-01,9.620792865753173828e-01,9.620323181152343750e-01,9.619851708412170410e-01,9.619382023811340332e-01,9.618912339210510254e-01,9.618441462516784668e-01,9.617971181869506836e-01,9.617501497268676758e-01,9.617031216621398926e-01,9.616561532020568848e-01,9.616090655326843262e-01,9.615620970726013184e-01,9.615151286125183105e-01,9.614681005477905273e-01,9.614211320877075195e-01,9.613742232322692871e-01,9.613271951675415039e-01,9.612802267074584961e-01,9.612331986427307129e-01,9.611862897872924805e-01,9.611393809318542480e-01,9.610923528671264648e-01,9.610454440116882324e-01,9.609985351562500000e-01,9.609515666961669922e-01,9.609046578407287598e-01,9.608576297760009766e-01,9.608107805252075195e-01,9.607638716697692871e-01,9.607169032096862793e-01,9.606700539588928223e-01,9.606231451034545898e-01,9.605761766433715820e-01,9.605293273925781250e-01,9.604823589324951172e-01,9.604355096817016602e-01,9.603887200355529785e-01,9.603417515754699707e-01,9.602949023246765137e-01,9.602481126785278320e-01,9.602011442184448242e-01,9.601543545722961426e-01,9.601073861122131348e-01,9.600605964660644531e-01,9.600138068199157715e-01,9.599668979644775391e-01,9.599201083183288574e-01,9.598733186721801758e-01,9.598264098167419434e-01,9.597796201705932617e-01,9.597327113151550293e-01,9.596859812736511230e-01,9.596391916275024414e-01,9.595922827720642090e-01,9.595455527305603027e-01,9.594987630844116211e-01,9.594519138336181641e-01,9.594051837921142578e-01,9.593583345413208008e-01,9.593116044998168945e-01,9.592648744583129883e-01,9.592180252075195312e-01,9.591712951660156250e-01,9.591244459152221680e-01,9.590777754783630371e-01,9.590310454368591309e-01,9.589842557907104492e-01,9.589375257492065430e-01,9.588908553123474121e-01,9.588440060615539551e-01
9.103655815124511719e-01,9.103234410285949707e-01,9.102813601493835449e-01,9.102392196655273438e-01,9.101971387863159180e-01,9.101549983024597168e-01,9.101129174232482910e-01,9.100708365440368652e-01,9.100286960601806641e-01,9.099866151809692383e-01,9.099445939064025879e-01,9.099024534225463867e-01,9.098603725433349609e-01,9.098182320594787598e-01,9.097762107849121094e-01,9.097341895103454590e-01,9.096920490264892578e-01,9.096500277519226074e-01,9.096079468727111816e-01,9.095659255981445312e-01,9.095239043235778809e-01,9.094817638397216797e-01,9.094398021697998047e-01,9.093977808952331543e-01,9.093557000160217285e-01,9.093136787414550781e-01,9.092715978622436523e-01,9.092296361923217773e-01,9.091876149177551270e-01,9.091455936431884766e-01,9.091035723686218262e-01,9.090616106986999512e-01,9.090195894241333008e-01,9.089776277542114258e-01,9.089355468750000000e-01,9.088935852050781250e-01,9.088516235351562500e-01,9.088096022605895996e-01,9.087676405906677246e-01,9.087257385253906250e-01,9.086837172508239746e-01,9.086417555809020996e-01,9.085997343063354492e-01,9.085578322410583496e-01,9.085158705711364746e-01,9.084739089012145996e-01,9.084319472312927246e-01,9.083900451660156250e-01,9.083480834960937500e-01,9.083061814308166504e-01,9.082641601562500000e-01,9.082222580909729004e-01,9.081804156303405762e-01,9.081383943557739258e-01,9.080965518951416016e-01,9.080546498298645020e-01,9.080126881599426270e-01,9.079708456993103027e-01,9.079288840293884277e-01,9.078869819641113281e-01,9.078451395034790039e-01,9.078031778335571289e-01,9.077613353729248047e-01,9.077194929122924805e-01,9.076775312423706055e-01,9.076357483863830566e-01,9.075937867164611816e-01,9.075519442558288574e-01,9.075101613998413086e-01,9.074681997299194336e-01,9.074264168739318848e-01,9.073845744132995605e-01,9.073426723480224609e-01,9.073008894920349121e-01,9.072589874267578125e-01,9.072172045707702637e-01,9.071753621101379395e-01,9.071335196495056152e-01,9.070917367935180664e-01,9.070498943328857422e-01
8.635485172271728516e-01,8.635105490684509277e-01,8.634727001190185547e-01,8.634347319602966309e-01,8.633968830108642578e-01,8.633590340614318848e-01,8.633211255073547363e-01,8.632832765579223633e-01,8.632454276084899902e-01,8.632074594497680664e-01,8.631696701049804688e-01,8.631317019462585449e-01,8.630939126014709473e-01,8.630560636520385742e-01,8.630181550979614258e-01,8.629803061485290527e-01,8.629425168037414551e-01,8.629046082496643066e-01,8.628667593002319336e-01,8.628289103507995605e-01,8.627910614013671875e-01,8.627532720565795898e-01,8.627154231071472168e-01,8.626775741577148438e-01,8.626397848129272461e-01,8.626019358634948730e-01,8.625641465187072754e-01,8.625262975692749023e-01,8.624885082244873047e-01,8.624507188796997070e-01,8.624128699302673340e-01,8.623750805854797363e-01,8.623373508453369141e-01,8.622995018959045410e-01,8.622617125511169434e-01,8.622238636016845703e-01,8.621861338615417480e-01,8.621483445167541504e-01,8.621105551719665527e-01,8.620727658271789551e-01,8.620349764823913574e-01,8.619972467422485352e-01,8.619595170021057129e-01,8.619216680526733398e-01,8.618839383125305176e-01,8.618462085723876953e-01,8.618084192276000977e-01,8.617706894874572754e-01,8.617329001426696777e-01,8.616951704025268555e-01,8.616575002670288086e-01,8.616197109222412109e-01,8.615819811820983887e-01,8.615443110466003418e-01,8.615065217018127441e-01,8.614688515663146973e-01,8.614310622215270996e-01,8.613933920860290527e-01,8.613557219505310059e-01,8.613179326057434082e-01,8.612802624702453613e-01,8.612425923347473145e-01,8.612048625946044922e-01,8.611671924591064453e-01,8.611294031143188477e-01,8.610917925834655762e-01,8.610541224479675293e-01,8.610163927078247070e-01,8.609787225723266602e-01,8.609411120414733887e-01,8.609033823013305664e-01,8.608657121658325195e-01,8.608279824256896973e-01,8.607903718948364258e-01,8.607527613639831543e-01,8.607150316238403320e-01,8.606774210929870605e-01,8.606398105621337891e-01,8.606020808219909668e-01,8.605644702911376953e-01
8.213111758232116699e-01,8.212768435478210449e-01,8.212425708770751953e-01,8.212083578109741211e-01,8.211740255355834961e-01,8.211397528648376465e-01,8.211055397987365723e-01,8.210712075233459473e-01,8.210369944572448730e-01,8.210026621818542480e-01,8.209684491157531738e-01,8.209342360496520996e-01,8.208999037742614746e-01,8.208656907081604004e-01,8.208314776420593262e-01,8.207972049713134766e-01,8.207629919052124023e-01,8.207286596298217773e-01,8.206945061683654785e-01,8.206602931022644043e-01,8.206260204315185547e-01,8.205918073654174805e-01,8.205575942993164062e-01,8.205233216285705566e-01,8.204891681671142578e-01,8.204548954963684082e-01,8.204206824302673340e-01,8.203865289688110352e-01,8.203522562980651855e-01,8.203181028366088867e-01,8.202839493751525879e-01,8.202496767044067383e-01,8.202155232429504395e-01,8.201812505722045898e-01,8.201470971107482910e-01,8.201129436492919922e-01,8.200787305831909180e-01,8.200445771217346191e-01,8.200104236602783203e-01,8.199762105941772461e-01,8.199420571327209473e-01,8.199078440666198730e-01,8.198736906051635742e-01,8.198395371437072754e-01,8.198053240776062012e-01,8.197712302207946777e-01,8.197370767593383789e-01,8.197028636932373047e-01,8.196687698364257812e-01,8.196345567703247070e-01,8.196004629135131836e-01,8.195663690567016602e-01,8.195321559906005859e-01,8.194980621337890625e-01,8.194638490676879883e-01,8.194297552108764648e-01,8.193956613540649414e-01,8.193615078926086426e-01,8.193274140357971191e-01,8.192933201789855957e-01,8.192591667175292969e-01,8.192250728607177734e-01,8.191909193992614746e-01,8.191568255424499512e-01,8.191227316856384277e-01,8.190885782241821289e-01,8.190545439720153809e-01,8.190204501152038574e-01,8.189862966537475586e-01,8.189522624015808105e-01,8.189181089401245117e-01,8.188840746879577637e-01,8.188499808311462402e-01,8.188158869743347168e-01,8.187818527221679688e-01,8.187477588653564453e-01,8.187136650085449219e-01,8.186796307563781738e-01,8.186454772949218750e-01,8.186115026473999023e-01
7.830129861831665039e-01,7.829818129539489746e-01,7.829506397247314453e-01,7.829194664955139160e-01,7.828883528709411621e-01,7.828571796417236328e-01,7.828260660171508789e-01,7.827948331832885742e-01,7.827637195587158203e-01,7.827326059341430664e-01,7.827014327049255371e-01,7.826703190803527832e-01,7.826392054557800293e-01,7.826080322265625000e-01,7.825769186019897461e-01,7.825457453727722168e-01,7.825146913528442383e-01,7.824835777282714844e-01,7.824524044990539551e-01,7.824212908744812012e-01,7.823902368545532227e-01,7.823590636253356934e-01,7.823280096054077148e-01,7.822968363761901855e-01,7.822657823562622070e-01,7.822346687316894531e-01,7.822035551071166992e-01,7.821724414825439453e-01,7.821413874626159668e-01,7.821102738380432129e-01,7.820792198181152344e-01,7.820480465888977051e-01,7.820169925689697266e-01,7.819859385490417480e-01,7.819548249244689941e-01,7.819237709045410156e-01,7.818927168846130371e-01,7.818616032600402832e-01,7.818305492401123047e-01,7.817994356155395508e-01,7.817683815956115723e-01,7.817373871803283691e-01,7.817062735557556152e-01,7.816752195358276367e-01,7.816442251205444336e-01,7.816131114959716797e-01,7.815820574760437012e-01,7.815510034561157227e-01,7.815199494361877441e-01,7.814889550209045410e-01,7.814578413963317871e-01,7.814268469810485840e-01,7.813958525657653809e-01,7.813647985458374023e-01,7.813337445259094238e-01,7.813026905059814453e-01,7.812716960906982422e-01,7.812407016754150391e-01,7.812096476554870605e-01,7.811786532402038574e-01,7.811476588249206543e-01,7.811166048049926758e-01,7.810856103897094727e-01,7.810545563697814941e-01,7.810235619544982910e-01,7.809925675392150879e-01,7.809615731239318848e-01,7.809305787086486816e-01,7.808995246887207031e-01,7.808685898780822754e-01,7.808375954627990723e-01,7.808065414428710938e-01,7.807756066322326660e-01,7.807446718215942383e-01,7.807136178016662598e-01,7.806826829910278320e-01,7.806516289710998535e-01,7.806206941604614258e-01,7.805897593498229980e-01,7.805587649345397949e-01
7.481273412704467773e-01,7.480989098548889160e-01,7.480704784393310547e-01,7.480419874191284180e-01,7.480136156082153320e-01,7.479851841926574707e-01,7.479566931724548340e-01,7.479282617568969727e-01,7.478998303413391113e-01,7.478713989257812500e-01,7.478430271148681641e-01,7.478145360946655273e-01,7.477861642837524414e-01,7.477577328681945801e-01,7.477293014526367188e-01,7.477008700370788574e-01,7.476724386215209961e-01,7.476440668106079102e-01,7.476156949996948242e-01,7.475872039794921875e-01,7.475588321685791016e-01,7.475304007530212402e-01,7.475020289421081543e-01,7.474736571311950684e-01,7.474452257156372070e-01,7.474168539047241211e-01,7.473884820938110352e-01,7.473600506782531738e-01,7.473316788673400879e-01,7.473032474517822266e-01,7.472748756408691406e-01,7.472465038299560547e-01,7.472180724143981934e-01,7.471897602081298828e-01,7.471613883972167969e-01,7.471329569816589355e-01,7.471046447753906250e-01,7.470762133598327637e-01,7.470479011535644531e-01,7.470195293426513672e-01,7.469911575317382812e-01,7.469627857208251953e-01,7.469344735145568848e-01,7.469060420989990234e-01,7.468777298927307129e-01,7.468493580818176270e-01,7.468209862709045410e-01,7.467926740646362305e-01,7.467643022537231445e-01,7.467359900474548340e-01,7.467076778411865234e-01,7.466793060302734375e-01,7.466509938240051270e-01,7.466226220130920410e-01,7.465943098068237305e-01,7.465659976005554199e-01,7.465376257896423340e-01,7.465093135833740234e-01,7.464810013771057129e-01,7.464526295661926270e-01,7.464243769645690918e-01,7.463960051536560059e-01,7.463676929473876953e-01,7.463394403457641602e-01,7.463110685348510742e-01,7.462827563285827637e-01,7.462545037269592285e-01,7.462261319160461426e-01,7.461978793144226074e-01,7.461695075035095215e-01,7.461412549018859863e-01,7.461130023002624512e-01,7.460846304893493652e-01,7.460563778877258301e-01,7.460281252861022949e-01,7.459998130798339844e-01,7.459715008735656738e-01,7.459431886672973633e-01,7.459149360656738281e-01,7.458866834640502930e-01
7.162176966667175293e-01,7.161915898323059082e-01,7.161655426025390625e-01,7.161394953727722168e-01,7.161133885383605957e-01,7.160873413085937500e-01,7.160612344741821289e-01,7.160351872444152832e-01,7.160091400146484375e-01,7.159830927848815918e-01,7.159570455551147461e-01,7.159309983253479004e-01,7.159049510955810547e-01,7.158789038658142090e-01,7.158527970314025879e-01,7.158268094062805176e-01,7.158007621765136719e-01,7.157747149467468262e-01,7.157486677169799805e-01,7.157226800918579102e-01,7.156965732574462891e-01,7.156705856323242188e-01,7.156444787979125977e-01,7.156184911727905273e-01,7.155925035476684570e-01,7.155663967132568359e-01,7.155404090881347656e-01,7.155144214630126953e-01,7.154883742332458496e-01,7.154623866081237793e-01,7.154363393783569336e-01,7.154102921485900879e-01,7.153843045234680176e-01,7.153582572937011719e-01,7.153322696685791016e-01,7.153062224388122559e-01,7.152802348136901855e-01,7.152543067932128906e-01,7.152282595634460449e-01,7.152022719383239746e-01,7.151762843132019043e-01,7.151502370834350586e-01,7.151243090629577637e-01,7.150982618331909180e-01,7.150722742080688477e-01,7.150463461875915527e-01,7.150202989578247070e-01,7.149943113327026367e-01,7.149683833122253418e-01,7.149423360824584961e-01,7.149164080619812012e-01,7.148903608322143555e-01,7.148644328117370605e-01,7.148385047912597656e-01,7.148124575614929199e-01,7.147865295410156250e-01,7.147606015205383301e-01,7.147345542907714844e-01,7.147086262702941895e-01,7.146826386451721191e-01,7.146567106246948242e-01,7.146307826042175293e-01,7.146047949790954590e-01,7.145788669586181641e-01,7.145528793334960938e-01,7.145268917083740234e-01,7.145009636878967285e-01,7.144750356674194336e-01,7.144491076469421387e-01,7.144231796264648438e-01,7.143971920013427734e-01,7.143712639808654785e-01,7.143453359603881836e-01,7.143194079399108887e-01,7.142934799194335938e-01,7.142674922943115234e-01,7.142415642738342285e-01,7.142156958580017090e-01,7.141897082328796387e-01,7.141638398170471191e-01
6.869187355041503906e-01,6.868947744369506836e-01,6.868707537651062012e-01,6.868467926979064941e-01,6.868227720260620117e-01,6.867988109588623047e-01,6.867748498916625977e-01,6.867508292198181152e-01,6.867269277572631836e-01,6.867029666900634766e-01,6.866789460182189941e-01,6.866549849510192871e-01,6.866310238838195801e-01,6.866070628166198730e-01,6.865831017494201660e-01,6.865591406822204590e-01,6.865351796150207520e-01,6.865112781524658203e-01,6.864872574806213379e-01,6.864633560180664062e-01,6.864393353462219238e-01,6.864154338836669922e-01,6.863914728164672852e-01,6.863675117492675781e-01,6.863436102867126465e-01,6.863196492195129395e-01,6.862956881523132324e-01,6.862717866897583008e-01,6.862478256225585938e-01,6.862238645553588867e-01,6.861999630928039551e-01,6.861760020256042480e-01,6.861521005630493164e-01,6.861281991004943848e-01,6.861042380332946777e-01,6.860803365707397461e-01,6.860563755035400391e-01,6.860324740409851074e-01,6.860085725784301758e-01,6.859846115112304688e-01,6.859607100486755371e-01,6.859368085861206055e-01,6.859128475189208984e-01,6.858890056610107422e-01,6.858650445938110352e-01,6.858411431312561035e-01,6.858172416687011719e-01,6.857933402061462402e-01,6.857694387435913086e-01,6.857455372810363770e-01,6.857216358184814453e-01,6.856977343559265137e-01,6.856738328933715820e-01,6.856499314308166504e-01,6.856260895729064941e-01,6.856021285057067871e-01,6.855782866477966309e-01,6.855543255805969238e-01,6.855304837226867676e-01,6.855065822601318359e-01,6.854826807975769043e-01,6.854588389396667480e-01,6.854349374771118164e-01,6.854110360145568848e-01,6.853871941566467285e-01,6.853632926940917969e-01,6.853394508361816406e-01,6.853156089782714844e-01,6.852916479110717773e-01,6.852678060531616211e-01,6.852439641952514648e-01,6.852200627326965332e-01,6.851962208747863770e-01,6.851723194122314453e-01,6.851484775543212891e-01,6.851246356964111328e-01,6.851007938385009766e-01,6.850769519805908203e-01,6.850531101226806641e-01,6.850292086601257324e-01
6.599226593971252441e-01,6.599005460739135742e-01,6.598783731460571289e-01,6.598562598228454590e-01,6.598341464996337891e-01,6.598119735717773438e-01,6.597898602485656738e-01,6.597678065299987793e-01,6.597456336021423340e-01,6.597235202789306641e-01,6.597013473510742188e-01,6.596792936325073242e-01,6.596571803092956543e-01,6.596350073814392090e-01,6.596128940582275391e-01,6.595908403396606445e-01,6.595686674118041992e-01,6.595466136932373047e-01,6.595244407653808594e-01,6.595023870468139648e-01,6.594802737236022949e-01,6.594581604003906250e-01,6.594360470771789551e-01,6.594139933586120605e-01,6.593918204307556152e-01,6.593697667121887207e-01,6.593476533889770508e-01,6.593255400657653809e-01,6.593034863471984863e-01,6.592813730239868164e-01,6.592592597007751465e-01,6.592372059822082520e-01,6.592150926589965820e-01,6.591930389404296875e-01,6.591709256172180176e-01,6.591488122940063477e-01,6.591267585754394531e-01,6.591046452522277832e-01,6.590825915336608887e-01,6.590605378150939941e-01,6.590384244918823242e-01,6.590163707733154297e-01,6.589942574501037598e-01,6.589722037315368652e-01,6.589501500129699707e-01,6.589280366897583008e-01,6.589060425758361816e-01,6.588839888572692871e-01,6.588618755340576172e-01,6.588398218154907227e-01,6.588177084922790527e-01,6.587957143783569336e-01,6.587736606597900391e-01,6.587515473365783691e-01,6.587295532226562500e-01,6.587074995040893555e-01,6.586853861808776855e-01,6.586633920669555664e-01,6.586412787437438965e-01,6.586192846298217773e-01,6.585972309112548828e-01,6.585751771926879883e-01,6.585531234741210938e-01,6.585311293601989746e-01,6.585090160369873047e-01,6.584870219230651855e-01,6.584649682044982910e-01,6.584429144859313965e-01,6.584209203720092773e-01,6.583988666534423828e-01,6.583768129348754883e-01,6.583547592163085938e-01,6.583327651023864746e-01,6.583107113838195801e-01,6.582886576652526855e-01,6.582666635513305664e-01,6.582446694374084473e-01,6.582226157188415527e-01,6.582006216049194336e-01,6.581785678863525391e-01
6.349682807922363281e-01,6.349477767944335938e-01,6.349272727966308594e-01,6.349067687988281250e-01,6.348863244056701660e-01,6.348658204078674316e-01,6.348453164100646973e-01,6.348248720169067383e-01,6.348043680191040039e-01,6.347838640213012695e-01,6.347634196281433105e-01,6.347429156303405762e-01,6.347224712371826172e-01,6.347019672393798828e-01,6.346814632415771484e-01,6.346610188484191895e-01,6.346405148506164551e-01,6.346200704574584961e-01,6.345996260643005371e-01,6.345791220664978027e-01,6.345586776733398438e-01,6.345382332801818848e-01,6.345177292823791504e-01,6.344972848892211914e-01,6.344767808914184570e-01,6.344563364982604980e-01,6.344358921051025391e-01,6.344153881072998047e-01,6.343950033187866211e-01,6.343745589256286621e-01,6.343540549278259277e-01,6.343336105346679688e-01,6.343131661415100098e-01,6.342927217483520508e-01,6.342722773551940918e-01,6.342517733573913574e-01,6.342313885688781738e-01,6.342109441757202148e-01,6.341904997825622559e-01,6.341700553894042969e-01,6.341495513916015625e-01,6.341291666030883789e-01,6.341087222099304199e-01,6.340882778167724609e-01,6.340678334236145020e-01,6.340474486351013184e-01,6.340270042419433594e-01,6.340065598487854004e-01,6.339861154556274414e-01,6.339656710624694824e-01,6.339452862739562988e-01,6.339248418807983398e-01,6.339043974876403809e-01,6.338840126991271973e-01,6.338635683059692383e-01,6.338431835174560547e-01,6.338227391242980957e-01,6.338022947311401367e-01,6.337819099426269531e-01,6.337614655494689941e-01,6.337410807609558105e-01,6.337206959724426270e-01,6.337002515792846680e-01,6.336798667907714844e-01,6.336593627929687500e-01,6.336389780044555664e-01,6.336185932159423828e-01,6.335981488227844238e-01,6.335777640342712402e-01,6.335573792457580566e-01,6.335369944572448730e-01,6.335166096687316895e-01,6.334961652755737305e-01,6.334757804870605469e-01,6.334553956985473633e-01,6.334350109100341797e-01,6.334146261215209961e-01,6.333942413330078125e-01,6.333737969398498535e-01,6.333534121513366699e-01
6.118323802947998047e-01,6.118133664131164551e-01,6.117943525314331055e-01,6.117753386497497559e-01,6.117562651634216309e-01,6.117372512817382812e-01,6.117182970046997070e-01,6.116992235183715820e-01,6.116802096366882324e-01,6.116611957550048828e-01,6.116421818733215332e-01,6.116231679916381836e-01,6.116041541099548340e-01,6.115851402282714844e-01,6.115661263465881348e-01,6.115471124649047852e-01,6.115280985832214355e-01,6.115090847015380859e-01,6.114900708198547363e-01,6.114711165428161621e-01,6.114520430564880371e-01,6.114330887794494629e-01,6.114140748977661133e-01,6.113950610160827637e-01,6.113761067390441895e-01,6.113570928573608398e-01,6.113380789756774902e-01,6.113191246986389160e-01,6.113001108169555664e-01,6.112810969352722168e-01,6.112621426582336426e-01,6.112431287765502930e-01,6.112241148948669434e-01,6.112051010131835938e-01,6.111861467361450195e-01,6.111671924591064453e-01,6.111481785774230957e-01,6.111292243003845215e-01,6.111102104187011719e-01,6.110912561416625977e-01,6.110722422599792480e-01,6.110532283782958984e-01,6.110342741012573242e-01,6.110153198242187500e-01,6.109963059425354004e-01,6.109773516654968262e-01,6.109583973884582520e-01,6.109394431114196777e-01,6.109204888343811035e-01,6.109014749526977539e-01,6.108825206756591797e-01,6.108635663986206055e-01,6.108445525169372559e-01,6.108255982398986816e-01,6.108066439628601074e-01,6.107876896858215332e-01,6.107687354087829590e-01,6.107497215270996094e-01,6.107308268547058105e-01,6.107118725776672363e-01,6.106928586959838867e-01,6.106739640235900879e-01,6.106549501419067383e-01,6.106359958648681641e-01,6.106171011924743652e-01,6.105980873107910156e-01,6.105791926383972168e-01,6.105602383613586426e-01,6.105412840843200684e-01,6.105223298072814941e-01,6.105033755302429199e-01,6.104844212532043457e-01,6.104655265808105469e-01,6.104465723037719727e-01,6.104276180267333984e-01,6.104087233543395996e-01,6.103897094726562500e-01,6.103708148002624512e-01,6.103518605232238770e-01,6.103329062461853027e-01
