3.099885702133178711e+00,3.178553819656372070e+00,3.261318922042846680e+00,3.348509788513183594e+00,3.440490484237670898e+00,3.537667036056518555e+00,3.640482902526855469e+00,3.749453306198120117e+00,3.865148782730102539e+00,3.988211631774902344e+00,4.119368553161621094e+00,4.259445190429687500e+00,4.409383773803710938e+00,4.570263385772705078e+00,4.743327617645263672e+00,4.930014610290527344e+00,5.000000000000000000e+00,5.000000000000000000e+00,5.000000000000000000e+00,5.000000000000000000e+00,5.000000000000000000e+00,5.000000000000000000e+00,5.000000000000000000e+00,5.000000000000000000e+00,5.000000000000000000e+00,5.000000000000000000e+00,5.000000000000000000e+00,5.000000000000000000e+00,5.000000000000000000e+00,5.000000000000000000e+00,5.000000000000000000e+00,5.000000000000000000e+00,5.000000000000000000e+00,5.000000000000000000e+00,5.000000000000000000e+00,5.000000000000000000e+00,5.000000000000000000e+00,5.000000000000000000e+00,5.000000000000000000e+00,5.000000000000000000e+00,5.000000000000000000e+00,5.000000000000000000e+00,5.000000000000000000e+00,5.000000000000000000e+00,5.000000000000000000e+00,5.000000000000000000e+00,5.000000000000000000e+00,5.000000000000000000e+00,5.000000000000000000e+00,5.000000000000000000e+00,5.000000000000000000e+00,5.000000000000000000e+00,5.000000000000000000e+00,5.000000000000000000e+00,5.000000000000000000e+00,5.000000000000000000e+00,5.000000000000000000e+00,5.000000000000000000e+00,5.000000000000000000e+00,5.000000000000000000e+00,5.000000000000000000e+00,5.000000000000000000e+00,5.000000000000000000e+00,5.000000000000000000e+00,5.000000000000000000e+00,5.000000000000000000e+00,5.000000000000000000e+00,5.000000000000000000e+00,5.000000000000000000e+00,5.000000000000000000e+00,4.841172695159912109e+00,4.682941913604736328e+00,4.534726619720458984e+00,4.395606040954589844e+00,4.264767169952392578e+00,4.141492366790771484e+00,4.025144100189208984e+00,3.915154457092285156e+00,3.811013221740722656e+00,3.712267398834228516e+00
3.099819183349609375e+00,3.178484201431274414e+00,3.261245727539062500e+00,3.348432302474975586e+00,3.440408468246459961e+00,3.537580728530883789e+00,3.640401363372802734e+00,3.749366998672485352e+00,3.865057229995727539e+00,3.988113880157470703e+00,4.119264602661132812e+00,4.259334087371826172e+00,4.409264564514160156e+00,4.570135593414306641e+00,4.743189334869384766e+00,4.929865360260009766e+00,5.000000000000000000e+00,5.000000000000000000e+00,5.000000000000000000e+00,5.000000000000000000e+00,5.000000000000000000e+00,5.000000000000000000e+00,5.000000000000000000e+00,5.000000000000000000e+00,5.000000000000000000e+00,5.000000000000000000e+00,5.000000000000000000e+00,5.000000000000000000e+00,5.000000000000000000e+00,5.000000000000000000e+00,5.000000000000000000e+00,5.000000000000000000e+00,5.000000000000000000e+00,5.000000000000000000e+00,5.000000000000000000e+00,5.000000000000000000e+00,5.000000000000000000e+00,5.000000000000000000e+00,5.000000000000000000e+00,5.000000000000000000e+00,5.000000000000000000e+00,5.000000000000000000e+00,5.000000000000000000e+00,5.000000000000000000e+00,5.000000000000000000e+00,5.000000000000000000e+00,5.000000000000000000e+00,5.000000000000000000e+00,5.000000000000000000e+00,5.000000000000000000e+00,5.000000000000000000e+00,5.000000000000000000e+00,5.000000000000000000e+00,5.000000000000000000e+00,5.000000000000000000e+00,5.000000000000000000e+00,5.000000000000000000e+00,5.000000000000000000e+00,5.000000000000000000e+00,5.000000000000000000e+00,5.000000000000000000e+00,5.000000000000000000e+00,5.000000000000000000e+00,5.000000000000000000e+00,5.000000000000000000e+00,5.000000000000000000e+00,5.000000000000000000e+00,5.000000000000000000e+00,5.000000000000000000e+00,5.000000000000000000e+00,4.841313838958740234e+00,4.683073997497558594e+00,4.534850597381591797e+00,4.395722389221191406e+00,4.264876842498779297e+00,4.141594409942626953e+00,4.025236129760742188e+00,3.915237665176391602e+00,3.811090707778930664e+00,3.712341070175170898e+00
3.099752902984619141e+00,3.178414344787597656e+00,3.261172294616699219e+00,3.348355054855346680e+00,3.440327167510986328e+00,3.537494182586669922e+00,3.640309810638427734e+00,3.749280691146850586e+00,3.864965915679931641e+00,3.988016843795776367e+00,4.119160652160644531e+00,4.259222984313964844e+00,4.409145355224609375e+00,4.570007324218750000e+00,4.743051528930664062e+00,4.929716587066650391e+00,5.000000000000000000e+00,5.000000000000000000e+00,5.000000000000000000e+00,5.000000000000000000e+00,5.000000000000000000e+00,5.000000000000000000e+00,5.000000000000000000e+00,5.000000000000000000e+00,5.000000000000000000e+00,5.000000000000000000e+00,5.000000000000000000e+00,5.000000000000000000e+00,5.000000000000000000e+00,5.000000000000000000e+00,5.000000000000000000e+00,5.000000000000000000e+00,5.000000000000000000e+00,5.000000000000000000e+00,5.000000000000000000e+00,5.000000000000000000e+00,5.000000000000000000e+00,5.000000000000000000e+00,5.000000000000000000e+00,5.000000000000000000e+00,5.000000000000000000e+00,5.000000000000000000e+00,5.000000000000000000e+00,5.000000000000000000e+00,5.000000000000000000e+00,5.000000000000000000e+00,5.000000000000000000e+00,5.000000000000000000e+00,5.000000000000000000e+00,5.000000000000000000e+00,5.000000000000000000e+00,5.000000000000000000e+00,5.000000000000000000e+00,5.000000000000000000e+00,5.000000000000000000e+00,5.000000000000000000e+00,5.000000000000000000e+00,5.000000000000000000e+00,5.000000000000000000e+00,5.000000000000000000e+00,5.000000000000000000e+00,5.000000000000000000e+00,5.000000000000000000e+00,5.000000000000000000e+00,5.000000000000000000e+00,5.000000000000000000e+00,5.000000000000000000e+00,5.000000000000000000e+00,5.000000000000000000e+00,5.000000000000000000e+00,4.841454982757568359e+00,4.683205604553222656e+00,4.534974575042724609e+00,4.395833969116210938e+00,4.264977455139160156e+00,4.141685962677001953e+00,4.025322437286376953e+00,3.915319442749023438e+00,3.811168193817138672e+00,3.712414503097534180e+00
3.099686622619628906e+00,3.178344964981079102e+00,3.261098861694335938e+00,3.348277568817138672e+00,3.440245151519775391e+00,3.537407636642456055e+00,3.640218496322631836e+00,3.749183893203735352e+00,3.864874124526977539e+00,3.987919092178344727e+00,4.119056224822998047e+00,4.259111404418945312e+00,4.409026145935058594e+00,4.569879055023193359e+00,4.742913722991943359e+00,4.929567337036132812e+00,5.000000000000000000e+00,5.000000000000000000e+00,5.000000000000000000e+00,5.000000000000000000e+00,5.000000000000000000e+00,5.000000000000000000e+00,5.000000000000000000e+00,5.000000000000000000e+00,5.000000000000000000e+00,5.000000000000000000e+00,5.000000000000000000e+00,5.000000000000000000e+00,5.000000000000000000e+00,5.000000000000000000e+00,5.000000000000000000e+00,5.000000000000000000e+00,5.000000000000000000e+00,5.000000000000000000e+00,5.000000000000000000e+00,5.000000000000000000e+00,5.000000000000000000e+00,5.000000000000000000e+00,5.000000000000000000e+00,5.000000000000000000e+00,5.000000000000000000e+00,5.000000000000000000e+00,5.000000000000000000e+00,5.000000000000000000e+00,5.000000000000000000e+00,5.000000000000000000e+00,5.000000000000000000e+00,5.000000000000000000e+00,5.000000000000000000e+00,5.000000000000000000e+00,5.000000000000000000e+00,5.000000000000000000e+00,5.000000000000000000e+00,5.000000000000000000e+00,5.000000000000000000e+00,5.000000000000000000e+00,5.000000000000000000e+00,5.000000000000000000e+00,5.000000000000000000e+00,5.000000000000000000e+00,5.000000000000000000e+00,5.000000000000000000e+00,5.000000000000000000e+00,5.000000000000000000e+00,5.000000000000000000e+00,5.000000000000000000e+00,5.000000000000000000e+00,5.000000000000000000e+00,5.000000000000000000e+00,5.000000000000000000e+00,4.841593265533447266e+00,4.683329582214355469e+00,4.535084724426269531e+00,4.395937442779541016e+00,4.265074253082275391e+00,4.141777515411376953e+00,4.025409221649169922e+00,3.915401220321655273e+00,3.811245679855346680e+00,3.712488412857055664e+00
3.099620342254638672e+00,3.178275108337402344e+00,3.261025428771972656e+00,3.348200082778930664e+00,3.440163850784301758e+00,3.537321567535400391e+00,3.640126943588256836e+00,3.749086856842041016e+00,3.864770889282226562e+00,3.987821578979492188e+00,4.118952274322509766e+00,4.259000301361083984e+00,4.408906936645507812e+00,4.569751262664794922e+00,4.742775440216064453e+00,4.929418087005615234e+00,5.000000000000000000e+00,5.000000000000000000e+00,5.000000000000000000e+00,5.000000000000000000e+00,5.000000000000000000e+00,5.000000000000000000e+00,5.000000000000000000e+00,5.000000000000000000e+00,5.000000000000000000e+00,5.000000000000000000e+00,5.000000000000000000e+00,5.000000000000000000e+00,5.000000000000000000e+00,5.000000000000000000e+00,5.000000000000000000e+00,5.000000000000000000e+00,5.000000000000000000e+00,5.000000000000000000e+00,5.000000000000000000e+00,5.000000000000000000e+00,5.000000000000000000e+00,5.000000000000000000e+00,5.000000000000000000e+00,5.000000000000000000e+00,5.000000000000000000e+00,5.000000000000000000e+00,5.000000000000000000e+00,5.000000000000000000e+00,5.000000000000000000e+00,5.000000000000000000e+00,5.000000000000000000e+00,5.000000000000000000e+00,5.000000000000000000e+00,5.000000000000000000e+00,5.000000000000000000e+00,5.000000000000000000e+00,5.000000000000000000e+00,5.000000000000000000e+00,5.000000000000000000e+00,5.000000000000000000e+00,5.000000000000000000e+00,5.000000000000000000e+00,5.000000000000000000e+00,5.000000000000000000e+00,5.000000000000000000e+00,5.000000000000000000e+00,5.000000000000000000e+00,5.000000000000000000e+00,5.000000000000000000e+00,5.000000000000000000e+00,5.000000000000000000e+00,5.000000000000000000e+00,5.000000000000000000e+00,5.000000000000000000e+00,4.841718673706054688e+00,4.683446407318115234e+00,4.535194873809814453e+00,4.396040439605712891e+00,4.265171527862548828e+00,4.141869068145751953e+00,4.025495529174804688e+00,3.915482997894287109e+00,3.811323642730712891e+00,3.712562084197998047e+00
3.099554061889648438e+00,3.178205251693725586e+00,3.260952234268188477e+00,3.348122835159301758e+00,3.440081834793090820e+00,3.537235021591186523e+00,3.640035390853881836e+00,3.748990058898925781e+00,3.864668130874633789e+00,3.987712144851684570e+00,4.118848323822021484e+00,4.258889198303222656e+00,4.408787727355957031e+00,4.569622993469238281e+00,4.742637634277343750e+00,4.929269313812255859e+00,5.000000000000000000e+00,5.000000000000000000e+00,5.000000000000000000e+00,5.000000000000000000e+00,5.000000000000000000e+00,5.000000000000000000e+00,5.000000000000000000e+00,5.000000000000000000e+00,5.000000000000000000e+00,5.000000000000000000e+00,5.000000000000000000e+00,5.000000000000000000e+00,5.000000000000000000e+00,5.000000000000000000e+00,5.000000000000000000e+00,5.000000000000000000e+00,5.000000000000000000e+00,5.000000000000000000e+00,5.000000000000000000e+00,5.000000000000000000e+00,5.000000000000000000e+00,5.000000000000000000e+00,5.000000000000000000e+00,5.000000000000000000e+00,5.000000000000000000e+00,5.000000000000000000e+00,5.000000000000000000e+00,5.000000000000000000e+00,5.000000000000000000e+00,5.000000000000000000e+00,5.000000000000000000e+00,5.000000000000000000e+00,5.000000000000000000e+00,5.000000000000000000e+00,5.000000000000000000e+00,5.000000000000000000e+00,5.000000000000000000e+00,5.000000000000000000e+00,5.000000000000000000e+00,5.000000000000000000e+00,5.000000000000000000e+00,5.000000000000000000e+00,5.000000000000000000e+00,5.000000000000000000e+00,5.000000000000000000e+00,5.000000000000000000e+00,5.000000000000000000e+00,5.000000000000000000e+00,5.000000000000000000e+00,5.000000000000000000e+00,5.000000000000000000e+00,5.000000000000000000e+00,5.000000000000000000e+00,5.000000000000000000e+00,4.841843605041503906e+00,4.683563709259033203e+00,4.535304546356201172e+00,4.396143913269042969e+00,4.265268802642822266e+00,4.141960620880126953e+00,4.025582313537597656e+00,3.915565252304077148e+00,3.811401128768920898e+00,3.712635517120361328e+00
3.099487781524658203e+00,3.178135633468627930e+00,3.260878801345825195e+00,3.348045349121093750e+00,3.440000057220458984e+00,3.537148952484130859e+00,3.639944076538085938e+00,3.748892784118652344e+00,3.864564895629882812e+00,3.987602710723876953e+00,4.118731498718261719e+00,4.258777618408203125e+00,4.408668518066406250e+00,4.569495201110839844e+00,4.742499828338623047e+00,4.929120063781738281e+00,5.000000000000000000e+00,5.000000000000000000e+00,5.000000000000000000e+00,5.000000000000000000e+00,5.000000000000000000e+00,5.000000000000000000e+00,5.000000000000000000e+00,5.000000000000000000e+00,5.000000000000000000e+00,5.000000000000000000e+00,5.000000000000000000e+00,5.000000000000000000e+00,5.000000000000000000e+00,5.000000000000000000e+00,5.000000000000000000e+00,5.000000000000000000e+00,5.000000000000000000e+00,5.000000000000000000e+00,5.000000000000000000e+00,5.000000000000000000e+00,5.000000000000000000e+00,5.000000000000000000e+00,5.000000000000000000e+00,5.000000000000000000e+00,5.000000000000000000e+00,5.000000000000000000e+00,5.000000000000000000e+00,5.000000000000000000e+00,5.000000000000000000e+00,5.000000000000000000e+00,5.000000000000000000e+00,5.000000000000000000e+00,5.000000000000000000e+00,5.000000000000000000e+00,5.000000000000000000e+00,5.000000000000000000e+00,5.000000000000000000e+00,5.000000000000000000e+00,5.000000000000000000e+00,5.000000000000000000e+00,5.000000000000000000e+00,5.000000000000000000e+00,5.000000000000000000e+00,5.000000000000000000e+00,5.000000000000000000e+00,5.000000000000000000e+00,5.000000000000000000e+00,5.000000000000000000e+00,5.000000000000000000e+00,5.000000000000000000e+00,5.000000000000000000e+00,5.000000000000000000e+00,5.000000000000000000e+00,5.000000000000000000e+00,4.841968536376953125e+00,4.683680534362792969e+00,4.535414218902587891e+00,4.396246910095214844e+00,4.265365600585937500e+00,4.142052173614501953e+00,4.025668621063232422e+00,3.915647029876708984e+00,3.811478614807128906e+00,3.712708950042724609e+00
3.099421501159667969e+00,3.178065776824951172e+00,3.260805130004882812e+00,3.347968101501464844e+00,3.439918756484985352e+00,3.537062406539916992e+00,3.639852523803710938e+00,3.748795747756958008e+00,3.864462137222290039e+00,3.987492561340332031e+00,4.118614673614501953e+00,4.258653163909912109e+00,4.408549308776855469e+00,4.569366931915283203e+00,4.742362022399902344e+00,4.928971290588378906e+00,5.000000000000000000e+00,5.000000000000000000e+00,5.000000000000000000e+00,5.000000000000000000e+00,5.000000000000000000e+00,5.000000000000000000e+00,5.000000000000000000e+00,5.000000000000000000e+00,5.000000000000000000e+00,5.000000000000000000e+00,5.000000000000000000e+00,5.000000000000000000e+00,5.000000000000000000e+00,5.000000000000000000e+00,5.000000000000000000e+00,5.000000000000000000e+00,5.000000000000000000e+00,5.000000000000000000e+00,5.000000000000000000e+00,5.000000000000000000e+00,5.000000000000000000e+00,5.000000000000000000e+00,5.000000000000000000e+00,5.000000000000000000e+00,5.000000000000000000e+00,5.000000000000000000e+00,5.000000000000000000e+00,5.000000000000000000e+00,5.000000000000000000e+00,5.000000000000000000e+00,5.000000000000000000e+00,5.000000000000000000e+00,5.000000000000000000e+00,5.000000000000000000e+00,5.000000000000000000e+00,5.000000000000000000e+00,5.000000000000000000e+00,5.000000000000000000e+00,5.000000000000000000e+00,5.000000000000000000e+00,5.000000000000000000e+00,5.000000000000000000e+00,5.000000000000000000e+00,5.000000000000000000e+00,5.000000000000000000e+00,5.000000000000000000e+00,5.000000000000000000e+00,5.000000000000000000e+00,5.000000000000000000e+00,5.000000000000000000e+00,5.000000000000000000e+00,5.000000000000000000e+00,5.000000000000000000e+00,5.000000000000000000e+00,4.842093944549560547e+00,4.683797836303710938e+00,4.535524368286132812e+00,4.396349906921386719e+00,4.265463352203369141e+00,4.142143726348876953e+00,4.025755405426025391e+00,3.915728807449340820e+00,3.811556100845336914e+00,3.712782621383666992e+00
3.099354982376098633e+00,3.177996397018432617e+00,3.260731935501098633e+00,3.347890615463256836e+00,3.439836740493774414e+00,3.536975860595703125e+00,3.639761447906494141e+00,3.748698949813842773e+00,3.864358663558959961e+00,3.987382650375366211e+00,4.118497848510742188e+00,4.258528232574462891e+00,4.408416271209716797e+00,4.569239139556884766e+00,4.742223739624023438e+00,4.928822040557861328e+00,5.000000000000000000e+00,5.000000000000000000e+00,5.000000000000000000e+00,5.000000000000000000e+00,5.000000000000000000e+00,5.000000000000000000e+00,5.000000000000000000e+00,5.000000000000000000e+00,5.000000000000000000e+00,5.000000000000000000e+00,5.000000000000000000e+00,5.000000000000000000e+00,5.000000000000000000e+00,5.000000000000000000e+00,5.000000000000000000e+00,5.000000000000000000e+00,5.000000000000000000e+00,5.000000000000000000e+00,5.000000000000000000e+00,5.000000000000000000e+00,5.000000000000000000e+00,5.000000000000000000e+00,5.000000000000000000e+00,5.000000000000000000e+00,5.000000000000000000e+00,5.000000000000000000e+00,5.000000000000000000e+00,5.000000000000000000e+00,5.000000000000000000e+00,5.000000000000000000e+00,5.000000000000000000e+00,5.000000000000000000e+00,5.000000000000000000e+00,5.000000000000000000e+00,5.000000000000000000e+00,5.000000000000000000e+00,5.000000000000000000e+00,5.000000000000000000e+00,5.000000000000000000e+00,5.000000000000000000e+00,5.000000000000000000e+00,5.000000000000000000e+00,5.000000000000000000e+00,5.000000000000000000e+00,5.000000000000000000e+00,5.000000000000000000e+00,5.000000000000000000e+00,5.000000000000000000e+00,5.000000000000000000e+00,5.000000000000000000e+00,5.000000000000000000e+00,5.000000000000000000e+00,5.000000000000000000e+00,5.000000000000000000e+00,4.842218875885009766e+00,4.683915138244628906e+00,4.535634040832519531e+00,4.396453380584716797e+00,4.265560150146484375e+00,4.142235755920410156e+00,4.025841712951660156e+00,3.915810585021972656e+00,3.811633586883544922e+00,3.712856531143188477e+00
3.099288940429687500e+00,3.177926540374755859e+00,3.260658502578735352e+00,3.347813129425048828e+00,3.439755439758300781e+00,3.536889791488647461e+00,3.639669656753540039e+00,3.748601675033569336e+00,3.864255905151367188e+00,3.987273216247558594e+00,4.118380546569824219e+00,4.258403301239013672e+00,4.408281803131103516e+00,4.569096565246582031e+00,4.742085933685302734e+00,4.928673267364501953e+00,5.000000000000000000e+00,5.000000000000000000e+00,5.000000000000000000e+00,5.000000000000000000e+00,5.000000000000000000e+00,5.000000000000000000e+00,5.000000000000000000e+00,5.000000000000000000e+00,5.000000000000000000e+00,5.000000000000000000e+00,5.000000000000000000e+00,5.000000000000000000e+00,5.000000000000000000e+00,5.000000000000000000e+00,5.000000000000000000e+00,5.000000000000000000e+00,5.000000000000000000e+00,5.000000000000000000e+00,5.000000000000000000e+00,5.000000000000000000e+00,5.000000000000000000e+00,5.000000000000000000e+00,5.000000000000000000e+00,5.000000000000000000e+00,5.000000000000000000e+00,5.000000000000000000e+00,5.000000000000000000e+00,5.000000000000000000e+00,5.000000000000000000e+00,5.000000000000000000e+00,5.000000000000000000e+00,5.000000000000000000e+00,5.000000000000000000e+00,5.000000000000000000e+00,5.000000000000000000e+00,5.000000000000000000e+00,5.000000000000000000e+00,5.000000000000000000e+00,5.000000000000000000e+00,5.000000000000000000e+00,5.000000000000000000e+00,5.000000000000000000e+00,5.000000000000000000e+00,5.000000000000000000e+00,5.000000000000000000e+00,5.000000000000000000e+00,5.000000000000000000e+00,5.000000000000000000e+00,5.000000000000000000e+00,5.000000000000000000e+00,5.000000000000000000e+00,5.000000000000000000e+00,5.000000000000000000e+00,5.000000000000000000e+00,4.842344284057617188e+00,4.684031963348388672e+00,4.535744190216064453e+00,4.396556377410888672e+00,4.265657424926757812e+00,4.142327308654785156e+00,4.025928497314453125e+00,3.915892362594604492e+00,3.811711549758911133e+00,3.712929964065551758e+00
3.099184036254882812e+00,3.177838802337646484e+00,3.260585308074951172e+00,3.347736120223999023e+00,3.439673662185668945e+00,3.536803245544433594e+00,3.639578580856323242e+00,3.748505115509033203e+00,3.864152669906616211e+00,3.987163305282592773e+00,4.118263244628906250e+00,4.258277893066406250e+00,4.408147811889648438e+00,4.568952560424804688e+00,4.741932868957519531e+00,4.928524017333984375e+00,5.000000000000000000e+00,5.000000000000000000e+00,5.000000000000000000e+00,5.000000000000000000e+00,5.000000000000000000e+00,5.000000000000000000e+00,5.000000000000000000e+00,5.000000000000000000e+00,5.000000000000000000e+00,5.000000000000000000e+00,5.000000000000000000e+00,5.000000000000000000e+00,5.000000000000000000e+00,5.000000000000000000e+00,5.000000000000000000e+00,5.000000000000000000e+00,5.000000000000000000e+00,5.000000000000000000e+00,5.000000000000000000e+00,5.000000000000000000e+00,5.000000000000000000e+00,5.000000000000000000e+00,5.000000000000000000e+00,5.000000000000000000e+00,5.000000000000000000e+00,5.000000000000000000e+00,5.000000000000000000e+00,5.000000000000000000e+00,5.000000000000000000e+00,5.000000000000000000e+00,5.000000000000000000e+00,5.000000000000000000e+00,5.000000000000000000e+00,5.000000000000000000e+00,5.000000000000000000e+00,5.000000000000000000e+00,5.000000000000000000e+00,5.000000000000000000e+00,5.000000000000000000e+00,5.000000000000000000e+00,5.000000000000000000e+00,5.000000000000000000e+00,5.000000000000000000e+00,5.000000000000000000e+00,5.000000000000000000e+00,5.000000000000000000e+00,5.000000000000000000e+00,5.000000000000000000e+00,5.000000000000000000e+00,5.000000000000000000e+00,5.000000000000000000e+00,5.000000000000000000e+00,5.000000000000000000e+00,5.000000000000000000e+00,4.842469692230224609e+00,4.684149742126464844e+00,4.535853862762451172e+00,4.396659851074218750e+00,4.265754699707031250e+00,4.142418861389160156e+00,4.026014804840087891e+00,3.915974617004394531e+00,3.811789035797119141e+00,3.713003635406494141e+00
3.099069118499755859e+00,3.177717924118041992e+00,3.260462284088134766e+00,3.347631454467773438e+00,3.439589262008666992e+00,3.536717176437377930e+00,3.639487028121948242e+00,3.748407840728759766e+00,3.864049434661865234e+00,3.987053871154785156e+00,4.118146419525146484e+00,4.258152961730957031e+00,4.408013820648193359e+00,4.568808078765869141e+00,4.741777420043945312e+00,4.928359031677246094e+00,5.000000000000000000e+00,5.000000000000000000e+00,5.000000000000000000e+00,5.000000000000000000e+00,5.000000000000000000e+00,5.000000000000000000e+00,5.000000000000000000e+00,5.000000000000000000e+00,5.000000000000000000e+00,5.000000000000000000e+00,5.000000000000000000e+00,5.000000000000000000e+00,5.000000000000000000e+00,5.000000000000000000e+00,5.000000000000000000e+00,5.000000000000000000e+00,5.000000000000000000e+00,5.000000000000000000e+00,5.000000000000000000e+00,5.000000000000000000e+00,5.000000000000000000e+00,5.000000000000000000e+00,5.000000000000000000e+00,5.000000000000000000e+00,5.000000000000000000e+00,5.000000000000000000e+00,5.000000000000000000e+00,5.000000000000000000e+00,5.000000000000000000e+00,5.000000000000000000e+00,5.000000000000000000e+00,5.000000000000000000e+00,5.000000000000000000e+00,5.000000000000000000e+00,5.000000000000000000e+00,5.000000000000000000e+00,5.000000000000000000e+00,5.000000000000000000e+00,5.000000000000000000e+00,5.000000000000000000e+00,5.000000000000000000e+00,5.000000000000000000e+00,5.000000000000000000e+00,5.000000000000000000e+00,5.000000000000000000e+00,5.000000000000000000e+00,5.000000000000000000e+00,5.000000000000000000e+00,5.000000000000000000e+00,5.000000000000000000e+00,5.000000000000000000e+00,5.000000000000000000e+00,5.000000000000000000e+00,5.000000000000000000e+00,4.842595100402832031e+00,4.684266567230224609e+00,4.535964012145996094e+00,4.396763324737548828e+00,4.265851974487304688e+00,4.142510414123535156e+00,4.026101589202880859e+00,3.916056394577026367e+00,3.811866760253906250e+00,3.713077068328857422e+00
3.098965883255004883e+00,3.177597045898437500e+00,3.260335445404052734e+00,3.347497224807739258e+00,3.439447879791259766e+00,3.536592245101928711e+00,3.639384269714355469e+00,3.748311042785644531e+00,3.863946676254272461e+00,3.986943960189819336e+00,4.118029117584228516e+00,4.258027553558349609e+00,4.407879829406738281e+00,4.568664073944091797e+00,4.741622447967529297e+00,4.928191184997558594e+00,5.000000000000000000e+00,5.000000000000000000e+00,5.000000000000000000e+00,5.000000000000000000e+00,5.000000000000000000e+00,5.000000000000000000e+00,5.000000000000000000e+00,5.000000000000000000e+00,5.000000000000000000e+00,5.000000000000000000e+00,5.000000000000000000e+00,5.000000000000000000e+00,5.000000000000000000e+00,5.000000000000000000e+00,5.000000000000000000e+00,5.000000000000000000e+00,5.000000000000000000e+00,5.000000000000000000e+00,5.000000000000000000e+00,5.000000000000000000e+00,5.000000000000000000e+00,5.000000000000000000e+00,5.000000000000000000e+00,5.000000000000000000e+00,5.000000000000000000e+00,5.000000000000000000e+00,5.000000000000000000e+00,5.000000000000000000e+00,5.000000000000000000e+00,5.000000000000000000e+00,5.000000000000000000e+00,5.000000000000000000e+00,5.000000000000000000e+00,5.000000000000000000e+00,5.000000000000000000e+00,5.000000000000000000e+00,5.000000000000000000e+00,5.000000000000000000e+00,5.000000000000000000e+00,5.000000000000000000e+00,5.000000000000000000e+00,5.000000000000000000e+00,5.000000000000000000e+00,5.000000000000000000e+00,5.000000000000000000e+00,5.000000000000000000e+00,5.000000000000000000e+00,5.000000000000000000e+00,5.000000000000000000e+00,5.000000000000000000e+00,5.000000000000000000e+00,5.000000000000000000e+00,5.000000000000000000e+00,5.000000000000000000e+00,4.842720031738281250e+00,4.684383869171142578e+00,4.536073684692382812e+00,4.396866321563720703e+00,4.265949249267578125e+00,4.142602443695068359e+00,4.026188373565673828e+00,3.916138172149658203e+00,3.811944246292114258e+00,3.713150978088378906e+00
3.098899841308593750e+00,3.177517414093017578e+00,3.260227680206298828e+00,3.347363233566284180e+00,3.439306259155273438e+00,3.536442756652832031e+00,3.639225721359252930e+00,3.748162031173706055e+00,3.863821268081665039e+00,3.986834049224853516e+00,4.117912292480468750e+00,4.257902622222900391e+00,4.407745838165283203e+00,4.568520069122314453e+00,4.741466999053955078e+00,4.928023815155029297e+00,5.000000000000000000e+00,5.000000000000000000e+00,5.000000000000000000e+00,5.000000000000000000e+00,5.000000000000000000e+00,5.000000000000000000e+00,5.000000000000000000e+00,5.000000000000000000e+00,5.000000000000000000e+00,5.000000000000000000e+00,5.000000000000000000e+00,5.000000000000000000e+00,5.000000000000000000e+00,5.000000000000000000e+00,5.000000000000000000e+00,5.000000000000000000e+00,5.000000000000000000e+00,5.000000000000000000e+00,5.000000000000000000e+00,5.000000000000000000e+00,5.000000000000000000e+00,5.000000000000000000e+00,5.000000000000000000e+00,5.000000000000000000e+00,5.000000000000000000e+00,5.000000000000000000e+00,5.000000000000000000e+00,5.000000000000000000e+00,5.000000000000000000e+00,5.000000000000000000e+00,5.000000000000000000e+00,5.000000000000000000e+00,5.000000000000000000e+00,5.000000000000000000e+00,5.000000000000000000e+00,5.000000000000000000e+00,5.000000000000000000e+00,5.000000000000000000e+00,5.000000000000000000e+00,5.000000000000000000e+00,5.000000000000000000e+00,5.000000000000000000e+00,5.000000000000000000e+00,5.000000000000000000e+00,5.000000000000000000e+00,5.000000000000000000e+00,5.000000000000000000e+00,5.000000000000000000e+00,5.000000000000000000e+00,5.000000000000000000e+00,5.000000000000000000e+00,5.000000000000000000e+00,5.000000000000000000e+00,5.000000000000000000e+00,4.842845439910888672e+00,4.684501171112060547e+00,4.536183357238769531e+00,4.396969795227050781e+00,4.266046047210693359e+00,4.142693996429443359e+00,4.026274681091308594e+00,3.916219949722290039e+00,3.812021732330322266e+00,3.713224649429321289e+00
3.098833799362182617e+00,3.177448034286499023e+00,3.260154485702514648e+00,3.347281932830810547e+00,3.439193725585937500e+00,3.536296129226684570e+00,3.639067411422729492e+00,3.747993707656860352e+00,3.863642454147338867e+00,3.986655473709106445e+00,4.117758750915527344e+00,4.257777214050292969e+00,4.407611370086669922e+00,4.568376064300537109e+00,4.741312026977539062e+00,4.927855968475341797e+00,5.000000000000000000e+00,5.000000000000000000e+00,5.000000000000000000e+00,5.000000000000000000e+00,5.000000000000000000e+00,5.000000000000000000e+00,5.000000000000000000e+00,5.000000000000000000e+00,5.000000000000000000e+00,5.000000000000000000e+00,5.000000000000000000e+00,5.000000000000000000e+00,5.000000000000000000e+00,5.000000000000000000e+00,5.000000000000000000e+00,5.000000000000000000e+00,5.000000000000000000e+00,5.000000000000000000e+00,5.000000000000000000e+00,5.000000000000000000e+00,5.000000000000000000e+00,5.000000000000000000e+00,5.000000000000000000e+00,5.000000000000000000e+00,5.000000000000000000e+00,5.000000000000000000e+00,5.000000000000000000e+00,5.000000000000000000e+00,5.000000000000000000e+00,5.000000000000000000e+00,5.000000000000000000e+00,5.000000000000000000e+00,5.000000000000000000e+00,5.000000000000000000e+00,5.000000000000000000e+00,5.000000000000000000e+00,5.000000000000000000e+00,5.000000000000000000e+00,5.000000000000000000e+00,5.000000000000000000e+00,5.000000000000000000e+00,5.000000000000000000e+00,5.000000000000000000e+00,5.000000000000000000e+00,5.000000000000000000e+00,5.000000000000000000e+00,5.000000000000000000e+00,5.000000000000000000e+00,5.000000000000000000e+00,5.000000000000000000e+00,5.000000000000000000e+00,5.000000000000000000e+00,5.000000000000000000e+00,5.000000000000000000e+00,4.842970848083496094e+00,4.684617996215820312e+00,4.536293506622314453e+00,4.397072792053222656e+00,4.266143321990966797e+00,4.142785549163818359e+00,4.026361465454101562e+00,3.916301727294921875e+00,3.812099695205688477e+00,3.713298082351684570e+00
3.098767995834350586e+00,3.177378416061401367e+00,3.260081529617309570e+00,3.347204685211181641e+00,3.439112663269042969e+00,3.536209821701049805e+00,3.638949394226074219e+00,3.747837543487548828e+00,3.863463878631591797e+00,3.986465215682983398e+00,4.117556095123291016e+00,4.257561683654785156e+00,4.407423496246337891e+00,4.568220138549804688e+00,4.741156578063964844e+00,4.927688598632812500e+00,5.000000000000000000e+00,5.000000000000000000e+00,5.000000000000000000e+00,5.000000000000000000e+00,5.000000000000000000e+00,5.000000000000000000e+00,5.000000000000000000e+00,5.000000000000000000e+00,5.000000000000000000e+00,5.000000000000000000e+00,5.000000000000000000e+00,5.000000000000000000e+00,5.000000000000000000e+00,5.000000000000000000e+00,5.000000000000000000e+00,5.000000000000000000e+00,5.000000000000000000e+00,5.000000000000000000e+00,5.000000000000000000e+00,5.000000000000000000e+00,5.000000000000000000e+00,5.000000000000000000e+00,5.000000000000000000e+00,5.000000000000000000e+00,5.000000000000000000e+00,5.000000000000000000e+00,5.000000000000000000e+00,5.000000000000000000e+00,5.000000000000000000e+00,5.000000000000000000e+00,5.000000000000000000e+00,5.000000000000000000e+00,5.000000000000000000e+00,5.000000000000000000e+00,5.000000000000000000e+00,5.000000000000000000e+00,5.000000000000000000e+00,5.000000000000000000e+00,5.000000000000000000e+00,5.000000000000000000e+00,5.000000000000000000e+00,5.000000000000000000e+00,5.000000000000000000e+00,5.000000000000000000e+00,5.000000000000000000e+00,5.000000000000000000e+00,5.000000000000000000e+00,5.000000000000000000e+00,5.000000000000000000e+00,5.000000000000000000e+00,5.000000000000000000e+00,5.000000000000000000e+00,5.000000000000000000e+00,5.000000000000000000e+00,4.843095779418945312e+00,4.684735298156738281e+00,4.536403179168701172e+00,4.397176265716552734e+00,4.266240596771240234e+00,4.142877101898193359e+00,4.026447772979736328e+00,3.916383981704711914e+00,3.812178850173950195e+00,3.713377475738525391e+00
3.098701953887939453e+00,3.177309036254882812e+00,3.260008335113525391e+00,3.347127676010131836e+00,3.439031362533569336e+00,3.536123752593994141e+00,3.638858556747436523e+00,3.747740983963012695e+00,3.863340854644775391e+00,3.986298322677612305e+00,4.117353439331054688e+00,4.257344722747802734e+00,4.407191276550292969e+00,4.567970752716064453e+00,4.740924835205078125e+00,4.927491664886474609e+00,5.000000000000000000e+00,5.000000000000000000e+00,5.000000000000000000e+00,5.000000000000000000e+00,5.000000000000000000e+00,5.000000000000000000e+00,5.000000000000000000e+00,5.000000000000000000e+00,5.000000000000000000e+00,5.000000000000000000e+00,5.000000000000000000e+00,5.000000000000000000e+00,5.000000000000000000e+00,5.000000000000000000e+00,5.000000000000000000e+00,5.000000000000000000e+00,5.000000000000000000e+00,5.000000000000000000e+00,5.000000000000000000e+00,5.000000000000000000e+00,5.000000000000000000e+00,5.000000000000000000e+00,5.000000000000000000e+00,5.000000000000000000e+00,5.000000000000000000e+00,5.000000000000000000e+00,5.000000000000000000e+00,5.000000000000000000e+00,5.000000000000000000e+00,5.000000000000000000e+00,5.000000000000000000e+00,5.000000000000000000e+00,5.000000000000000000e+00,5.000000000000000000e+00,5.000000000000000000e+00,5.000000000000000000e+00,5.000000000000000000e+00,5.000000000000000000e+00,5.000000000000000000e+00,5.000000000000000000e+00,5.000000000000000000e+00,5.000000000000000000e+00,5.000000000000000000e+00,5.000000000000000000e+00,5.000000000000000000e+00,5.000000000000000000e+00,5.000000000000000000e+00,5.000000000000000000e+00,5.000000000000000000e+00,5.000000000000000000e+00,5.000000000000000000e+00,5.000000000000000000e+00,5.000000000000000000e+00,5.000000000000000000e+00,4.843221187591552734e+00,4.684852600097656250e+00,4.536513328552246094e+00,4.397279262542724609e+00,4.266337871551513672e+00,4.142968654632568359e+00,4.026538848876953125e+00,3.916474580764770508e+00,3.812266826629638672e+00,3.713460922241210938e+00
3.098635673522949219e+00,3.177239894866943359e+00,3.259935379028320312e+00,3.347050666809082031e+00,3.438949823379516602e+00,3.536038160324096680e+00,3.638767480850219727e+00,3.747644186019897461e+00,3.863238096237182617e+00,3.986189126968383789e+00,4.117223739624023438e+00,4.257165908813476562e+00,4.406958580017089844e+00,4.567720890045166016e+00,4.740655899047851562e+00,4.927200794219970703e+00,5.000000000000000000e+00,5.000000000000000000e+00,5.000000000000000000e+00,5.000000000000000000e+00,5.000000000000000000e+00,5.000000000000000000e+00,5.000000000000000000e+00,5.000000000000000000e+00,5.000000000000000000e+00,5.000000000000000000e+00,5.000000000000000000e+00,5.000000000000000000e+00,5.000000000000000000e+00,5.000000000000000000e+00,5.000000000000000000e+00,5.000000000000000000e+00,5.000000000000000000e+00,5.000000000000000000e+00,5.000000000000000000e+00,5.000000000000000000e+00,5.000000000000000000e+00,5.000000000000000000e+00,5.000000000000000000e+00,5.000000000000000000e+00,5.000000000000000000e+00,5.000000000000000000e+00,5.000000000000000000e+00,5.000000000000000000e+00,5.000000000000000000e+00,5.000000000000000000e+00,5.000000000000000000e+00,5.000000000000000000e+00,5.000000000000000000e+00,5.000000000000000000e+00,5.000000000000000000e+00,5.000000000000000000e+00,5.000000000000000000e+00,5.000000000000000000e+00,5.000000000000000000e+00,5.000000000000000000e+00,5.000000000000000000e+00,5.000000000000000000e+00,5.000000000000000000e+00,5.000000000000000000e+00,5.000000000000000000e+00,5.000000000000000000e+00,5.000000000000000000e+00,5.000000000000000000e+00,5.000000000000000000e+00,5.000000000000000000e+00,5.000000000000000000e+00,5.000000000000000000e+00,5.000000000000000000e+00,5.000000000000000000e+00,4.843346595764160156e+00,4.684969902038574219e+00,4.536623001098632812e+00,4.397385597229003906e+00,4.266442775726318359e+00,4.143072605133056641e+00,4.026637077331542969e+00,3.916567325592041016e+00,3.812355279922485352e+00,3.713544368743896484e+00
3.098569631576538086e+00,3.177170276641845703e+00,3.259862184524536133e+00,3.346973657608032227e+00,3.438868522644042969e+00,3.535952091217041016e+00,3.638676404953002930e+00,3.747547864913940430e+00,3.863135337829589844e+00,3.986080169677734375e+00,4.117107391357421875e+00,4.257041454315185547e+00,4.406822681427001953e+00,4.567527770996093750e+00,4.740397930145263672e+00,4.926910400390625000e+00,5.000000000000000000e+00,5.000000000000000000e+00,5.000000000000000000e+00,5.000000000000000000e+00,5.000000000000000000e+00,5.000000000000000000e+00,5.000000000000000000e+00,5.000000000000000000e+00,5.000000000000000000e+00,5.000000000000000000e+00,5.000000000000000000e+00,5.000000000000000000e+00,5.000000000000000000e+00,5.000000000000000000e+00,5.000000000000000000e+00,5.000000000000000000e+00,5.000000000000000000e+00,5.000000000000000000e+00,5.000000000000000000e+00,5.000000000000000000e+00,5.000000000000000000e+00,5.000000000000000000e+00,5.000000000000000000e+00,5.000000000000000000e+00,5.000000000000000000e+00,5.000000000000000000e+00,5.000000000000000000e+00,5.000000000000000000e+00,5.000000000000000000e+00,5.000000000000000000e+00,5.000000000000000000e+00,5.000000000000000000e+00,5.000000000000000000e+00,5.000000000000000000e+00,5.000000000000000000e+00,5.000000000000000000e+00,5.000000000000000000e+00,5.000000000000000000e+00,5.000000000000000000e+00,5.000000000000000000e+00,5.000000000000000000e+00,5.000000000000000000e+00,5.000000000000000000e+00,5.000000000000000000e+00,5.000000000000000000e+00,5.000000000000000000e+00,5.000000000000000000e+00,5.000000000000000000e+00,5.000000000000000000e+00,5.000000000000000000e+00,5.000000000000000000e+00,5.000000000000000000e+00,5.000000000000000000e+00,5.000000000000000000e+00,4.843472003936767578e+00,4.685093879699707031e+00,4.536745071411132812e+00,4.397502899169921875e+00,4.266552925109863281e+00,4.143177032470703125e+00,4.026735305786132812e+00,3.916660308837890625e+00,3.812443017959594727e+00,3.713628292083740234e+00
3.098503828048706055e+00,3.177100896835327148e+00,3.259789228439331055e+00,3.346896648406982422e+00,3.438787460327148438e+00,3.535866022109985352e+00,3.638585567474365234e+00,3.747451305389404297e+00,3.863032579421997070e+00,3.985970735549926758e+00,4.116990566253662109e+00,4.256916522979736328e+00,4.406688690185546875e+00,4.567384243011474609e+00,4.740242958068847656e+00,4.926701068878173828e+00,5.000000000000000000e+00,5.000000000000000000e+00,5.000000000000000000e+00,5.000000000000000000e+00,5.000000000000000000e+00,5.000000000000000000e+00,5.000000000000000000e+00,5.000000000000000000e+00,5.000000000000000000e+00,5.000000000000000000e+00,5.000000000000000000e+00,5.000000000000000000e+00,5.000000000000000000e+00,5.000000000000000000e+00,5.000000000000000000e+00,5.000000000000000000e+00,5.000000000000000000e+00,5.000000000000000000e+00,5.000000000000000000e+00,5.000000000000000000e+00,5.000000000000000000e+00,5.000000000000000000e+00,5.000000000000000000e+00,5.000000000000000000e+00,5.000000000000000000e+00,5.000000000000000000e+00,5.000000000000000000e+00,5.000000000000000000e+00,5.000000000000000000e+00,5.000000000000000000e+00,5.000000000000000000e+00,5.000000000000000000e+00,5.000000000000000000e+00,5.000000000000000000e+00,5.000000000000000000e+00,5.000000000000000000e+00,5.000000000000000000e+00,5.000000000000000000e+00,5.000000000000000000e+00,5.000000000000000000e+00,5.000000000000000000e+00,5.000000000000000000e+00,5.000000000000000000e+00,5.000000000000000000e+00,5.000000000000000000e+00,5.000000000000000000e+00,5.000000000000000000e+00,5.000000000000000000e+00,5.000000000000000000e+00,5.000000000000000000e+00,5.000000000000000000e+00,5.000000000000000000e+00,5.000000000000000000e+00,5.000000000000000000e+00,4.843614101409912109e+00,4.685226440429687500e+00,4.536869525909423828e+00,4.397619724273681641e+00,4.266663551330566406e+00,4.143280982971191406e+00,4.026833534240722656e+00,3.916753530502319336e+00,3.812530994415283203e+00,3.713711738586425781e+00
3.098437786102294922e+00,3.177031278610229492e+00,3.259716033935546875e+00,3.346819400787353516e+00,3.438705921173095703e+00,3.535779953002929688e+00,3.638494491577148438e+00,3.747354507446289062e+00,3.862930297851562500e+00,3.985861301422119141e+00,4.116874217987060547e+00,4.256792068481445312e+00,4.406555175781250000e+00,4.567241191864013672e+00,4.740088939666748047e+00,4.926534175872802734e+00,5.000000000000000000e+00,5.000000000000000000e+00,5.000000000000000000e+00,5.000000000000000000e+00,5.000000000000000000e+00,5.000000000000000000e+00,5.000000000000000000e+00,5.000000000000000000e+00,5.000000000000000000e+00,5.000000000000000000e+00,5.000000000000000000e+00,5.000000000000000000e+00,5.000000000000000000e+00,5.000000000000000000e+00,5.000000000000000000e+00,5.000000000000000000e+00,5.000000000000000000e+00,5.000000000000000000e+00,5.000000000000000000e+00,5.000000000000000000e+00,5.000000000000000000e+00,5.000000000000000000e+00,5.000000000000000000e+00,5.000000000000000000e+00,5.000000000000000000e+00,5.000000000000000000e+00,5.000000000000000000e+00,5.000000000000000000e+00,5.000000000000000000e+00,5.000000000000000000e+00,5.000000000000000000e+00,5.000000000000000000e+00,5.000000000000000000e+00,5.000000000000000000e+00,5.000000000000000000e+00,5.000000000000000000e+00,5.000000000000000000e+00,5.000000000000000000e+00,5.000000000000000000e+00,5.000000000000000000e+00,5.000000000000000000e+00,5.000000000000000000e+00,5.000000000000000000e+00,5.000000000000000000e+00,5.000000000000000000e+00,5.000000000000000000e+00,5.000000000000000000e+00,5.000000000000000000e+00,5.000000000000000000e+00,5.000000000000000000e+00,5.000000000000000000e+00,5.000000000000000000e+00,5.000000000000000000e+00,5.000000000000000000e+00,4.843756198883056641e+00,4.685359477996826172e+00,4.536994457244873047e+00,4.397737026214599609e+00,4.266773700714111328e+00,4.143384933471679688e+00,4.026932239532470703e+00,3.916846275329589844e+00,3.812619447708129883e+00,3.713794946670532227e+00
3.098371744155883789e+00,3.176962137222290039e+00,3.259643077850341797e+00,3.346742630004882812e+00,3.438624620437622070e+00,3.535694122314453125e+00,3.638403177261352539e+00,3.747258424758911133e+00,3.862827539443969727e+00,3.985751867294311523e+00,4.116757392883300781e+00,4.256667613983154297e+00,4.406421661376953125e+00,4.567097187042236328e+00,4.739933967590332031e+00,4.926367282867431641e+00,5.000000000000000000e+00,5.000000000000000000e+00,5.000000000000000000e+00,5.000000000000000000e+00,5.000000000000000000e+00,5.000000000000000000e+00,5.000000000000000000e+00,5.000000000000000000e+00,5.000000000000000000e+00,5.000000000000000000e+00,5.000000000000000000e+00,5.000000000000000000e+00,5.000000000000000000e+00,5.000000000000000000e+00,5.000000000000000000e+00,5.000000000000000000e+00,5.000000000000000000e+00,5.000000000000000000e+00,5.000000000000000000e+00,5.000000000000000000e+00,5.000000000000000000e+00,5.000000000000000000e+00,5.000000000000000000e+00,5.000000000000000000e+00,5.000000000000000000e+00,5.000000000000000000e+00,5.000000000000000000e+00,5.000000000000000000e+00,5.000000000000000000e+00,5.000000000000000000e+00,5.000000000000000000e+00,5.000000000000000000e+00,5.000000000000000000e+00,5.000000000000000000e+00,5.000000000000000000e+00,5.000000000000000000e+00,5.000000000000000000e+00,5.000000000000000000e+00,5.000000000000000000e+00,5.000000000000000000e+00,5.000000000000000000e+00,5.000000000000000000e+00,5.000000000000000000e+00,5.000000000000000000e+00,5.000000000000000000e+00,5.000000000000000000e+00,5.000000000000000000e+00,5.000000000000000000e+00,5.000000000000000000e+00,5.000000000000000000e+00,5.000000000000000000e+00,5.000000000000000000e+00,5.000000000000000000e+00,5.000000000000000000e+00,4.843898296356201172e+00,4.685492515563964844e+00,4.537118911743164062e+00,4.397854328155517578e+00,4.266883850097656250e+00,4.143488883972167969e+00,4.027029991149902344e+00,3.916939020156860352e+00,3.812707424163818359e+00,4.262229502201080322e-01
3.098305940628051758e+00,3.176892757415771484e+00,3.259569883346557617e+00,3.346665620803833008e+00,3.438543081283569336e+00,3.535608053207397461e+00,3.638312101364135742e+00,3.747161626815795898e+00,3.862724781036376953e+00,3.985643148422241211e+00,4.116641044616699219e+00,4.256543159484863281e+00,4.406288146972656250e+00,4.566954135894775391e+00,4.739779949188232422e+00,4.926200389862060547e+00,5.000000000000000000e+00,5.000000000000000000e+00,5.000000000000000000e+00,5.000000000000000000e+00,5.000000000000000000e+00,5.000000000000000000e+00,5.000000000000000000e+00,5.000000000000000000e+00,5.000000000000000000e+00,5.000000000000000000e+00,5.000000000000000000e+00,5.000000000000000000e+00,5.000000000000000000e+00,5.000000000000000000e+00,5.000000000000000000e+00,5.000000000000000000e+00,5.000000000000000000e+00,5.000000000000000000e+00,5.000000000000000000e+00,5.000000000000000000e+00,5.000000000000000000e+00,5.000000000000000000e+00,5.000000000000000000e+00,5.000000000000000000e+00,5.000000000000000000e+00,5.000000000000000000e+00,5.000000000000000000e+00,5.000000000000000000e+00,5.000000000000000000e+00,5.000000000000000000e+00,5.000000000000000000e+00,5.000000000000000000e+00,5.000000000000000000e+00,5.000000000000000000e+00,5.000000000000000000e+00,5.000000000000000000e+00,5.000000000000000000e+00,5.000000000000000000e+00,5.000000000000000000e+00,5.000000000000000000e+00,5.000000000000000000e+00,5.000000000000000000e+00,5.000000000000000000e+00,5.000000000000000000e+00,5.000000000000000000e+00,5.000000000000000000e+00,5.000000000000000000e+00,5.000000000000000000e+00,5.000000000000000000e+00,5.000000000000000000e+00,5.000000000000000000e+00,5.000000000000000000e+00,5.000000000000000000e+00,5.000000000000000000e+00,4.844040870666503906e+00,4.685625553131103516e+00,4.537243843078613281e+00,4.397971153259277344e+00,4.266994476318359375e+00,4.143592834472656250e+00,4.027128696441650391e+00,3.917032003402709961e+00,4.378876984119415283e-01,4.213037490844726562e-01
3.098239660263061523e+00,3.176823139190673828e+00,3.259496927261352539e+00,3.346588373184204102e+00,3.438462018966674805e+00,3.535522222518920898e+00,3.638221502304077148e+00,3.747065067291259766e+00,3.862622499465942383e+00,3.985533714294433594e+00,4.116524219512939453e+00,4.256418228149414062e+00,4.406154632568359375e+00,4.566810607910156250e+00,4.739624977111816406e+00,4.926033496856689453e+00,5.000000000000000000e+00,5.000000000000000000e+00,5.000000000000000000e+00,5.000000000000000000e+00,5.000000000000000000e+00,5.000000000000000000e+00,5.000000000000000000e+00,5.000000000000000000e+00,5.000000000000000000e+00,5.000000000000000000e+00,5.000000000000000000e+00,5.000000000000000000e+00,5.000000000000000000e+00,5.000000000000000000e+00,5.000000000000000000e+00,5.000000000000000000e+00,5.000000000000000000e+00,5.000000000000000000e+00,5.000000000000000000e+00,5.000000000000000000e+00,5.000000000000000000e+00,5.000000000000000000e+00,5.000000000000000000e+00,5.000000000000000000e+00,5.000000000000000000e+00,5.000000000000000000e+00,5.000000000000000000e+00,5.000000000000000000e+00,5.000000000000000000e+00,5.000000000000000000e+00,5.000000000000000000e+00,5.000000000000000000e+00,5.000000000000000000e+00,5.000000000000000000e+00,5.000000000000000000e+00,5.000000000000000000e+00,5.000000000000000000e+00,5.000000000000000000e+00,5.000000000000000000e+00,5.000000000000000000e+00,5.000000000000000000e+00,5.000000000000000000e+00,5.000000000000000000e+00,5.000000000000000000e+00,5.000000000000000000e+00,5.000000000000000000e+00,5.000000000000000000e+00,5.000000000000000000e+00,5.000000000000000000e+00,5.000000000000000000e+00,5.000000000000000000e+00,5.000000000000000000e+00,5.000000000000000000e+00,5.000000000000000000e+00,4.844182968139648438e+00,4.685758590698242188e+00,4.537368297576904297e+00,4.398088455200195312e+00,4.267104625701904297e+00,4.143696784973144531e+00,4.027226924896240234e+00,3.917125225067138672e+00,4.326971769332885742e-01,4.185096025466918945e-01
3.098173618316650391e+00,3.176753997802734375e+00,3.259423971176147461e+00,3.346511363983154297e+00,3.438380718231201172e+00,3.535436153411865234e+00,3.638130187988281250e+00,3.746968269348144531e+00,3.862519741058349609e+00,3.985424280166625977e+00,4.116407871246337891e+00,4.256293773651123047e+00,4.406021118164062500e+00,4.566667079925537109e+00,4.739470958709716797e+00,4.855098247528076172e+00,4.853893756866455078e+00,4.852690219879150391e+00,4.851486682891845703e+00,4.850284099578857422e+00,4.849081993103027344e+00,4.847880363464355469e+00,4.846679687500000000e+00,4.845479488372802734e+00,4.844279289245605469e+00,4.843080043792724609e+00,4.841881752014160156e+00,4.840683460235595703e+00,4.839486122131347656e+00,4.838289260864257812e+00,4.837093353271484375e+00,4.835897922515869141e+00,4.834702491760253906e+00,4.833508014678955078e+00,4.832314014434814453e+00,4.831120967864990234e+00,4.829928398132324219e+00,4.828736305236816406e+00,4.827544689178466797e+00,4.826354026794433594e+00,4.825163841247558594e+00,4.823974132537841797e+00,4.822784900665283203e+00,4.821596145629882812e+00,4.820408344268798828e+00,4.819221019744873047e+00,4.818034172058105469e+00,4.816847801208496094e+00,4.815662384033203125e+00,4.814477443695068359e+00,4.813292980194091797e+00,4.812108993530273438e+00,4.810925960540771484e+00,4.809742927551269531e+00,4.808560848236083984e+00,4.807379245758056641e+00,4.806198120117187500e+00,4.805017948150634766e+00,4.803838253021240234e+00,4.802659034729003906e+00,4.801480293273925781e+00,4.800302028656005859e+00,4.799124240875244141e+00,4.797947406768798828e+00,4.796771049499511719e+00,4.795595645904541016e+00,4.794420242309570312e+00,4.793245792388916016e+00,4.792071819305419922e+00,4.790898323059082031e+00,4.789725780487060547e+00,4.685891628265380859e+00,4.537493228912353516e+00,4.398205757141113281e+00,4.267214775085449219e+00,4.143801212310791016e+00,4.027325153350830078e+00,4.447240233421325684e-01,4.276283085346221924e-01,4.181292951107025146e-01
3.098107576370239258e+00,3.176684617996215820e+00,3.259350776672363281e+00,3.346434593200683594e+00,3.438299417495727539e+00,3.535350322723388672e+00,3.638039112091064453e+00,3.746872186660766602e+00,3.771249294281005859e+00,3.770522594451904297e+00,3.769796133041381836e+00,3.769069910049438477e+00,3.768343925476074219e+00,3.767618417739868164e+00,3.766892910003662109e+00,3.766167879104614258e+00,3.765442609786987305e+00,3.764718055725097656e+00,3.763993740081787109e+00,3.763269901275634766e+00,3.762546062469482422e+00,3.761822700500488281e+00,3.761099576950073242e+00,3.760376691818237305e+00,3.759654045104980469e+00,3.758931875228881836e+00,3.758209705352783203e+00,3.757488012313842773e+00,3.756766557693481445e+00,3.756045341491699219e+00,3.755324363708496094e+00,3.754603624343872070e+00,3.753883361816406250e+00,3.753163337707519531e+00,3.752443313598632812e+00,3.751723766326904297e+00,3.751004219055175781e+00,3.750285148620605469e+00,3.749566555023193359e+00,3.748847961425781250e+00,3.748129844665527344e+00,3.747411966323852539e+00,3.746694326400756836e+00,3.745976924896240234e+00,3.745260000228881836e+00,3.744543075561523438e+00,3.743826627731323242e+00,3.743110418319702148e+00,3.742394447326660156e+00,3.741678714752197266e+00,3.740963220596313477e+00,3.740248203277587891e+00,3.739533185958862305e+00,3.738818645477294922e+00,3.738104343414306641e+00,3.737390041351318359e+00,3.736675977706909180e+00,3.735962629318237305e+00,3.735249280929565430e+00,3.734536409378051758e+00,3.733823776245117188e+00,3.733111381530761719e+00,3.732399225234985352e+00,3.731687307357788086e+00,3.730975627899169922e+00,3.730264186859130859e+00,3.729553222656250000e+00,3.728842496871948242e+00,3.728131771087646484e+00,3.727421522140502930e+00,3.726711511611938477e+00,3.726001977920532227e+00,3.725292444229125977e+00,3.724583387374877930e+00,3.723874330520629883e+00,3.723165273666381836e+00,3.722456932067871094e+00,4.393711984157562256e-01,4.260559976100921631e-01,4.177496433258056641e-01
3.083487987518310547e+00,3.083002090454101562e+00,3.082516431808471680e+00,3.082030773162841797e+00,3.081545352935791016e+00,3.081060171127319336e+00,3.080574989318847656e+00,3.080090045928955078e+00,3.079604864120483398e+00,3.079120159149169922e+00,3.078635692596435547e+00,3.078151464462280273e+00,3.077667236328125000e+00,3.077183008193969727e+00,3.076699256896972656e+00,3.076215505599975586e+00,3.075731754302978516e+00,3.075248479843139648e+00,3.074765205383300781e+00,3.074281930923461914e+00,3.073798894882202148e+00,3.073316097259521484e+00,3.072833538055419922e+00,3.072350978851318359e+00,3.071868658065795898e+00,3.071386337280273438e+00,3.070904254913330078e+00,3.070422410964965820e+00,3.069940328598022461e+00,3.069458723068237305e+00,3.068977117538452148e+00,3.068495750427246094e+00,3.068014621734619141e+00,3.067533731460571289e+00,3.067052841186523438e+00,3.066572189331054688e+00,3.066091537475585938e+00,3.065611124038696289e+00,3.065130949020385742e+00,3.064650774002075195e+00,3.064170837402343750e+00,3.063691139221191406e+00,3.063211441040039062e+00,3.062731981277465820e+00,3.062252521514892578e+00,3.061773300170898438e+00,3.061294317245483398e+00,3.060815334320068359e+00,3.060336351394653320e+00,3.059857606887817383e+00,3.059379100799560547e+00,3.058900833129882812e+00,3.058422803878784180e+00,3.057944774627685547e+00,3.057466745376586914e+00,3.056989192962646484e+00,3.056511402130126953e+00,3.056034088134765625e+00,3.055556774139404297e+00,3.055079698562622070e+00,3.054602622985839844e+00,3.054125785827636719e+00,3.053649187088012695e+00,3.053172588348388672e+00,3.052696228027343750e+00,3.052220106124877930e+00,3.051743984222412109e+00,3.051268100738525391e+00,3.050791978836059570e+00,3.050316333770751953e+00,3.049840927124023438e+00,3.049365520477294922e+00,3.048890352249145508e+00,3.048415422439575195e+00,3.047940492630004883e+00,3.047465801239013672e+00,3.046991109848022461e+00,3.046516656875610352e+00,4.256618320941925049e-01,4.173707067966461182e-01
2.605110168457031250e+00,2.604763507843017578e+00,2.604416608810424805e+00,2.604069948196411133e+00,2.603723526000976562e+00,2.603377103805541992e+00,2.603030681610107422e+00,2.602684497833251953e+00,2.602338314056396484e+00,2.601991891860961914e+00,2.601645946502685547e+00,2.601300001144409180e+00,2.600954294204711914e+00,2.600608587265014648e+00,2.600262880325317383e+00,2.599917411804199219e+00,2.599571943283081055e+00,2.599226474761962891e+00,2.598881244659423828e+00,2.598536014556884766e+00,2.598191022872924805e+00,2.597845792770385742e+00,2.597501039505004883e+00,2.597156047821044922e+00,2.596811532974243164e+00,2.596466779708862305e+00,2.596122264862060547e+00,2.595777988433837891e+00,2.595433473587036133e+00,2.595089197158813477e+00,2.594745159149169922e+00,2.594401121139526367e+00,2.594057083129882812e+00,2.593713283538818359e+00,2.593369483947753906e+00,2.593025684356689453e+00,2.592682123184204102e+00,2.592338562011718750e+00,2.591995000839233398e+00,2.591651678085327148e+00,2.591308355331420898e+00,2.590965270996093750e+00,2.590622186660766602e+00,2.590279102325439453e+00,2.589936256408691406e+00,2.589593410491943359e+00,2.589250802993774414e+00,2.588908195495605469e+00,2.588565587997436523e+00,2.588223218917846680e+00,2.587880849838256836e+00,2.587538480758666992e+00,2.587196350097656250e+00,2.586854457855224609e+00,2.586512327194213867e+00,2.586170434951782227e+00,2.585828781127929688e+00,2.585486888885498047e+00,2.585145473480224609e+00,2.584803819656372070e+00,2.584462165832519531e+00,2.584120988845825195e+00,2.583779573440551758e+00,2.583438396453857422e+00,2.583097457885742188e+00,2.582756519317626953e+00,2.582415580749511719e+00,2.582074642181396484e+00,2.581733942031860352e+00,2.581393241882324219e+00,2.581052780151367188e+00,2.580712318420410156e+00,2.580372095108032227e+00,2.580031633377075195e+00,2.579691648483276367e+00,2.579351425170898438e+00,2.579011440277099609e+00,2.578671455383300781e+00,4.582695960998535156e-01,4.169924259185791016e-01
2.255229711532592773e+00,2.254969835281372070e+00,2.254709959030151367e+00,2.254450321197509766e+00,2.254190444946289062e+00,2.253930807113647461e+00,2.253671169281005859e+00,2.253411531448364258e+00,2.253152132034301758e+00,2.252892732620239258e+00,2.252633333206176758e+00,2.252373933792114258e+00,2.252114772796630859e+00,2.251855611801147461e+00,2.251596212387084961e+00,2.251337051391601562e+00,2.251078128814697266e+00,2.250819206237792969e+00,2.250560283660888672e+00,2.250301361083984375e+00,2.250042676925659180e+00,2.249783754348754883e+00,2.249525308609008789e+00,2.249266624450683594e+00,2.249007940292358398e+00,2.248749494552612305e+00,2.248491048812866211e+00,2.248232841491699219e+00,2.247974395751953125e+00,2.247716188430786133e+00,2.247457981109619141e+00,2.247199773788452148e+00,2.246941804885864258e+00,2.246683597564697266e+00,2.246425628662109375e+00,2.246167659759521484e+00,2.245909929275512695e+00,2.245652198791503906e+00,2.245394468307495117e+00,2.245136737823486328e+00,2.244879007339477539e+00,2.244621515274047852e+00,2.244364023208618164e+00,2.244106769561767578e+00,2.243849277496337891e+00,2.243592023849487305e+00,2.243334770202636719e+00,2.243077516555786133e+00,2.242820501327514648e+00,2.242563247680664062e+00,2.242306232452392578e+00,2.242049455642700195e+00,2.241792440414428711e+00,2.241535425186157227e+00,2.241278648376464844e+00,2.241022109985351562e+00,2.240765333175659180e+00,2.240508794784545898e+00,2.240252256393432617e+00,2.239995718002319336e+00,2.239739179611206055e+00,2.239482879638671875e+00,2.239226579666137695e+00,2.238970279693603516e+00,2.238714218139648438e+00,2.238458156585693359e+00,2.238202095031738281e+00,2.237946033477783203e+00,2.237689971923828125e+00,2.237434148788452148e+00,2.237178325653076172e+00,2.236922502517700195e+00,2.236666679382324219e+00,2.236411094665527344e+00,2.236155271530151367e+00,2.235899925231933594e+00,2.235644340515136719e+00,4.664372801780700684e-01,4.536024034023284912e-01,4.166148304939270020e-01
1.988203406333923340e+00,1.988001465797424316e+00,1.987799406051635742e+00,1.987597584724426270e+00,1.987395524978637695e+00,1.987193822860717773e+00,1.986991882324218750e+00,1.986790299415588379e+00,1.986588358879089355e+00,1.986386895179748535e+00,1.986185073852539062e+00,1.985983610153198242e+00,1.985781908035278320e+00,1.985580444335937500e+00,1.985378861427307129e+00,1.985177636146545410e+00,1.984976053237915039e+00,1.984774589538574219e+00,1.984573364257812500e+00,1.984371900558471680e+00,1.984170794486999512e+00,1.983969569206237793e+00,1.983768463134765625e+00,1.983567237854003906e+00,1.983366250991821289e+00,1.983165144920349121e+00,1.982964038848876953e+00,1.982763171195983887e+00,1.982562184333801270e+00,1.982361435890197754e+00,1.982160449028015137e+00,1.981959819793701172e+00,1.981758952140808105e+00,1.981558322906494141e+00,1.981357574462890625e+00,1.981157064437866211e+00,1.980956315994262695e+00,1.980755925178527832e+00,1.980555295944213867e+00,1.980354905128479004e+00,1.980154395103454590e+00,1.979954123497009277e+00,1.979753613471984863e+00,1.979553461074829102e+00,1.979353070259094238e+00,1.979152917861938477e+00,1.978952646255493164e+00,1.978752374649047852e+00,1.978552341461181641e+00,1.978352189064025879e+00,1.978152275085449219e+00,1.977952241897583008e+00,1.977752327919006348e+00,1.977552294731140137e+00,1.977352619171142578e+00,1.977152705192565918e+00,1.976953029632568359e+00,1.976753115653991699e+00,1.976553559303283691e+00,1.976353764533996582e+00,1.976154327392578125e+00,1.975954532623291016e+00,1.975755214691162109e+00,1.975555539131164551e+00,1.975356221199035645e+00,1.975156664848327637e+00,1.974957227706909180e+00,1.974757909774780273e+00,1.974558591842651367e+00,1.974359393119812012e+00,1.974160075187683105e+00,1.973960995674133301e+00,1.973761796951293945e+00,1.973562717437744141e+00,1.973363637924194336e+00,1.973164677619934082e+00,4.751016497611999512e-01,4.613120257854461670e-01,4.479766488075256348e-01,4.330886900424957275e-01
1.777716159820556641e+00,1.777554750442504883e+00,1.777393221855163574e+00,1.777231812477111816e+00,1.777070283889770508e+00,1.776908993721008301e+00,1.776747584342956543e+00,1.776586294174194336e+00,1.776424884796142578e+00,1.776263713836669922e+00,1.776102423667907715e+00,1.775941252708435059e+00,1.775779962539672852e+00,1.775618910789489746e+00,1.775457739830017090e+00,1.775296688079833984e+00,1.775135517120361328e+00,1.774974584579467773e+00,1.774813532829284668e+00,1.774652481079101562e+00,1.774491429328918457e+00,1.774330496788024902e+00,1.774169564247131348e+00,1.774008750915527344e+00,1.773847818374633789e+00,1.773687124252319336e+00,1.773526310920715332e+00,1.773365616798400879e+00,1.773204803466796875e+00,1.773044228553771973e+00,1.772883415222167969e+00,1.772722840309143066e+00,1.772562146186828613e+00,1.772401690483093262e+00,1.772241115570068359e+00,1.772080659866333008e+00,1.771920084953308105e+00,1.771759629249572754e+00,1.771599173545837402e+00,1.771438717842102051e+00,1.771278381347656250e+00,1.771117925643920898e+00,1.770957708358764648e+00,1.770797371864318848e+00,1.770637154579162598e+00,1.770476818084716797e+00,1.770316720008850098e+00,1.770156502723693848e+00,1.769996404647827148e+00,1.769836187362670898e+00,1.769676208496093750e+00,1.769516110420227051e+00,1.769356131553649902e+00,1.769196033477783203e+00,1.769036173820495605e+00,1.768876194953918457e+00,1.768716335296630859e+00,1.768556356430053711e+00,1.768396496772766113e+00,1.768236756324768066e+00,1.768076777458190918e+00,1.767917156219482422e+00,1.767757296562194824e+00,1.767597675323486328e+00,1.767437934875488281e+00,1.767278432846069336e+00,1.767118692398071289e+00,1.766959190368652344e+00,1.766799569129943848e+00,1.766640067100524902e+00,1.766480445861816406e+00,1.766321063041687012e+00,1.766161561012268066e+00,1.766002297401428223e+00,1.765842795372009277e+00,4.828577339649200439e-01,4.685139656066894531e-01,4.564700722694396973e-01,4.406733810901641846e-01,4.317694902420043945e-01
1.607530117034912109e+00,1.607397913932800293e+00,1.607265949249267578e+00,1.607133865356445312e+00,1.607002019882202148e+00,1.606869935989379883e+00,1.606737971305847168e+00,1.606606006622314453e+00,1.606474161148071289e+00,1.606342196464538574e+00,1.606210350990295410e+00,1.606078505516052246e+00,1.605946779251098633e+00,1.605814814567565918e+00,1.605683088302612305e+00,1.605551242828369141e+00,1.605419635772705078e+00,1.605287790298461914e+00,1.605156183242797852e+00,1.605024456977844238e+00,1.604892849922180176e+00,1.604761123657226562e+00,1.604629635810852051e+00,1.604497909545898438e+00,1.604366302490234375e+00,1.604234814643859863e+00,1.604103207588195801e+00,1.603971838951110840e+00,1.603840231895446777e+00,1.603708863258361816e+00,1.603577375411987305e+00,1.603445887565612793e+00,1.603314518928527832e+00,1.603183031082153320e+00,1.603051781654357910e+00,1.602920413017272949e+00,1.602789163589477539e+00,1.602657794952392578e+00,1.602526545524597168e+00,1.602395296096801758e+00,1.602264165878295898e+00,1.602132797241210938e+00,1.602001786231994629e+00,1.601870536804199219e+00,1.601739406585693359e+00,1.601608276367187500e+00,1.601477265357971191e+00,1.601346015930175781e+00,1.601215124130249023e+00,1.601083993911743164e+00,1.600952863693237305e+00,1.600821971893310547e+00,1.600690960884094238e+00,1.600560069084167480e+00,1.600429058074951172e+00,1.600298285484313965e+00,1.600167274475097656e+00,1.600036501884460449e+00,1.599905610084533691e+00,1.599774837493896484e+00,1.599643945693969727e+00,1.599513292312622070e+00,1.599382400512695312e+00,1.599251747131347656e+00,1.599120974540710449e+00,1.598990321159362793e+00,1.598859667778015137e+00,1.598729014396667480e+00,1.598598361015319824e+00,1.598467826843261719e+00,1.598337173461914062e+00,1.598206520080566406e+00,1.598076105117797852e+00,1.597945451736450195e+00,4.886422157287597656e-01,4.756602346897125244e-01,4.622057974338531494e-01,4.487063288688659668e-01,4.393941462039947510e-01,4.304583370685577393e-01
1.467081904411315918e+00,1.466971874237060547e+00,1.466861963272094727e+00,1.466751933097839355e+00,1.466642022132873535e+00,1.466532111167907715e+00,1.466422200202941895e+00,1.466312289237976074e+00,1.466202378273010254e+00,1.466092467308044434e+00,1.465982675552368164e+00,1.465872764587402344e+00,1.465763092041015625e+00,1.465653181076049805e+00,1.465543508529663086e+00,1.465433597564697266e+00,1.465323925018310547e+00,1.465214133262634277e+00,1.465104460716247559e+00,1.464994668960571289e+00,1.464885115623474121e+00,1.464775323867797852e+00,1.464665770530700684e+00,1.464556097984313965e+00,1.464446544647216797e+00,1.464336872100830078e+00,1.464227318763732910e+00,1.464117527008056641e+00,1.464008092880249023e+00,1.463898420333862305e+00,1.463788986206054688e+00,1.463679432868957520e+00,1.463569998741149902e+00,1.463460445404052734e+00,1.463351011276245117e+00,1.463241577148437500e+00,1.463132143020629883e+00,1.463022708892822266e+00,1.462913393974304199e+00,1.462803959846496582e+00,1.462694644927978516e+00,1.462585210800170898e+00,1.462476015090942383e+00,1.462366580963134766e+00,1.462257266044616699e+00,1.462148070335388184e+00,1.462038755416870117e+00,1.461929559707641602e+00,1.461820244789123535e+00,1.461711168289184570e+00,1.461601853370666504e+00,1.461492776870727539e+00,1.461383461952209473e+00,1.461274385452270508e+00,1.461165189743041992e+00,1.461056232452392578e+00,1.460947036743164062e+00,1.460837960243225098e+00,1.460728883743286133e+00,1.460619926452636719e+00,1.460510849952697754e+00,1.460401892662048340e+00,1.460292816162109375e+00,1.460183739662170410e+00,1.460074782371520996e+00,1.459965825080871582e+00,1.459856986999511719e+00,1.459748029708862305e+00,1.459639191627502441e+00,1.459530234336853027e+00,1.459421396255493164e+00,1.459312438964843750e+00,1.459203720092773438e+00,4.945003986358642578e-01,4.815813004970550537e-01,4.699849784374237061e-01,4.571330845355987549e-01,4.474446475505828857e-01,4.381835758686065674e-01,4.295226633548736572e-01
1.349203467369079590e+00,1.349110364913940430e+00,1.349017381668090820e+00,1.348924398422241211e+00,1.348831415176391602e+00,1.348738431930541992e+00,1.348645329475402832e+00,1.348552465438842773e+00,1.348459482192993164e+00,1.348366618156433105e+00,1.348273634910583496e+00,1.348180770874023438e+00,1.348087787628173828e+00,1.347995042800903320e+00,1.347902059555053711e+00,1.347809314727783203e+00,1.347716331481933594e+00,1.347623586654663086e+00,1.347530722618103027e+00,1.347437977790832520e+00,1.347345232963562012e+00,1.347252488136291504e+00,1.347159624099731445e+00,1.347066998481750488e+00,1.346974134445190430e+00,1.346881508827209473e+00,1.346788763999938965e+00,1.346696138381958008e+00,1.346603393554687500e+00,1.346510767936706543e+00,1.346418023109436035e+00,1.346325278282165527e+00,1.346232771873474121e+00,1.346140027046203613e+00,1.346047520637512207e+00,1.345954775810241699e+00,1.345862150192260742e+00,1.345769643783569336e+00,1.345677018165588379e+00,1.345584511756896973e+00,1.345492005348205566e+00,1.345399498939514160e+00,1.345306992530822754e+00,1.345214486122131348e+00,1.345121979713439941e+00,1.345029592514038086e+00,1.344936966896057129e+00,1.344844579696655273e+00,1.344752192497253418e+00,1.344659805297851562e+00,1.344567298889160156e+00,1.344475030899047852e+00,1.344382524490356445e+00,1.344290256500244141e+00,1.344197750091552734e+00,1.344105362892150879e+00,1.344013094902038574e+00,1.343920707702636719e+00,1.343828558921813965e+00,1.343736171722412109e+00,1.343643903732299805e+00,1.343551635742187500e+00,1.343459367752075195e+00,1.343367099761962891e+00,1.343274950981140137e+00,1.343182682991027832e+00,1.343090534210205078e+00,1.342998266220092773e+00,1.342906117439270020e+00,1.342813849449157715e+00,1.342721819877624512e+00,1.342629551887512207e+00,5.044869184494018555e-01,4.880145490169525146e-01,4.771665036678314209e-01,4.672215580940246582e-01,4.555995762348175049e-01,4.461900293827056885e-01,4.369797408580780029e-01,4.299851059913635254e-01
1.248858928680419922e+00,1.248779296875000000e+00,1.248699545860290527e+00,1.248619914054870605e+00,1.248540163040161133e+00,1.248460531234741211e+00,1.248380899429321289e+00,1.248301267623901367e+00,1.248221516609191895e+00,1.248142004013061523e+00,1.248062252998352051e+00,1.247982740402221680e+00,1.247903108596801758e+00,1.247823596000671387e+00,1.247743964195251465e+00,1.247664451599121094e+00,1.247584819793701172e+00,1.247505307197570801e+00,1.247425675392150879e+00,1.247346282005310059e+00,1.247266650199890137e+00,1.247187256813049316e+00,1.247107625007629395e+00,1.247028231620788574e+00,1.246948719024658203e+00,1.246869325637817383e+00,1.246789813041687012e+00,1.246710419654846191e+00,1.246630907058715820e+00,1.246551513671875000e+00,1.246472001075744629e+00,1.246392726898193359e+00,1.246313214302062988e+00,1.246233940124511719e+00,1.246154427528381348e+00,1.246075034141540527e+00,1.245995640754699707e+00,1.245916366577148438e+00,1.245836973190307617e+00,1.245757699012756348e+00,1.245678305625915527e+00,1.245599150657653809e+00,1.245519757270812988e+00,1.245440483093261719e+00,1.245361208915710449e+00,1.245281934738159180e+00,1.245202660560607910e+00,1.245123505592346191e+00,1.245044231414794922e+00,1.244964957237243652e+00,1.244885802268981934e+00,1.244806528091430664e+00,1.244727373123168945e+00,1.244648098945617676e+00,1.244569063186645508e+00,1.244489789009094238e+00,1.244410753250122070e+00,1.244331479072570801e+00,1.244252443313598633e+00,1.244173288345336914e+00,1.244094133377075195e+00,1.244014978408813477e+00,1.243935942649841309e+00,1.243856906890869141e+00,1.243777871131896973e+00,1.243698716163635254e+00,1.243619680404663086e+00,1.243540644645690918e+00,1.243461608886718750e+00,1.243382573127746582e+00,1.243303537368774414e+00,1.243224620819091797e+00,4.968190491199493408e-01,4.843943119049072266e-01,4.744069576263427734e-01,4.638074636459350586e-01,4.541549980640411377e-01,4.448961615562438965e-01,4.364548921585083008e-01,4.304485023021697998e-01
1.162407159805297852e+00,1.162338137626647949e+00,1.162268996238708496e+00,1.162200093269348145e+00,1.162130951881408691e+00,1.162061929702758789e+00,1.161992907524108887e+00,1.161924004554748535e+00,1.161854863166809082e+00,1.161785960197448730e+00,1.161716938018798828e+00,1.161648035049438477e+00,1.161579012870788574e+00,1.161510109901428223e+00,1.161441087722778320e+00,1.161372184753417969e+00,1.161303162574768066e+00,1.161234378814697266e+00,1.161165356636047363e+00,1.161096453666687012e+00,1.161027550697326660e+00,1.160958766937255859e+00,1.160889744758605957e+00,1.160820960998535156e+00,1.160752058029174805e+00,1.160683274269104004e+00,1.160614371299743652e+00,1.160545468330383301e+00,1.160476684570312500e+00,1.160407900810241699e+00,1.160338997840881348e+00,1.160270094871520996e+00,1.160201430320739746e+00,1.160132527351379395e+00,1.160063743591308594e+00,1.159994959831237793e+00,1.159926295280456543e+00,1.159857392311096191e+00,1.159788608551025391e+00,1.159719944000244141e+00,1.159651160240173340e+00,1.159582376480102539e+00,1.159513711929321289e+00,1.159444928169250488e+00,1.159376263618469238e+00,1.159307599067687988e+00,1.159238934516906738e+00,1.159170150756835938e+00,1.159101486206054688e+00,1.159032821655273438e+00,1.158964157104492188e+00,1.158895492553710938e+00,1.158826947212219238e+00,1.158758282661437988e+00,1.158689618110656738e+00,1.158620953559875488e+00,1.158552408218383789e+00,1.158483743667602539e+00,1.158415198326110840e+00,1.158346652984619141e+00,1.158277988433837891e+00,1.158209562301635742e+00,1.158140897750854492e+00,1.158072352409362793e+00,1.158003807067871094e+00,1.157935380935668945e+00,1.157866716384887695e+00,1.157798290252685547e+00,1.157729744911193848e+00,1.157661318778991699e+00,1.157592773437500000e+00,1.157524347305297852e+00,4.940225780010223389e-01,4.814389050006866455e-01,4.718711376190185547e-01,4.625252187252044678e-01,4.529240131378173828e-01,4.437132775783538818e-01,4.364092946052551270e-01,4.306424856185913086e-01
1.087149620056152344e+00,1.087089180946350098e+00,1.087028741836547852e+00,1.086968302726745605e+00,1.086907982826232910e+00,1.086847543716430664e+00,1.086787223815917969e+00,1.086726784706115723e+00,1.086666464805603027e+00,1.086606144905090332e+00,1.086545825004577637e+00,1.086485505104064941e+00,1.086425185203552246e+00,1.086364746093750000e+00,1.086304545402526855e+00,1.086244225502014160e+00,1.086183905601501465e+00,1.086123585700988770e+00,1.086063265800476074e+00,1.086002945899963379e+00,1.085942745208740234e+00,1.085882425308227539e+00,1.085822224617004395e+00,1.085761904716491699e+00,1.085701704025268555e+00,1.085641384124755859e+00,1.085581183433532715e+00,1.085520982742309570e+00,1.085460782051086426e+00,1.085400581359863281e+00,1.085340380668640137e+00,1.085280179977416992e+00,1.085219979286193848e+00,1.085159778594970703e+00,1.085099577903747559e+00,1.085039377212524414e+00,1.084979295730590820e+00,1.084919095039367676e+00,1.084858894348144531e+00,1.084798693656921387e+00,1.084738612174987793e+00,1.084678411483764648e+00,1.084618330001831055e+00,1.084558129310607910e+00,1.084498047828674316e+00,1.084437847137451172e+00,1.084377884864807129e+00,1.084317684173583984e+00,1.084257602691650391e+00,1.084197521209716797e+00,1.084137439727783203e+00,1.084077358245849609e+00,1.084017395973205566e+00,1.083957314491271973e+00,1.083897233009338379e+00,1.083837151527404785e+00,1.083777070045471191e+00,1.083717107772827148e+00,1.083657026290893555e+00,1.083597064018249512e+00,1.083536982536315918e+00,1.083477020263671875e+00,1.083417057991027832e+00,1.083357095718383789e+00,1.083297014236450195e+00,1.083237051963806152e+00,1.083177089691162109e+00,1.083117127418518066e+00,1.083057165145874023e+00,1.082997322082519531e+00,1.082937240600585938e+00,1.082877397537231445e+00,1.082817435264587402e+00,4.790898263454437256e-01,4.694079458713531494e-01,4.607004523277282715e-01,4.518805742263793945e-01,4.430077970027923584e-01,4.351252317428588867e-01,4.299585521221160889e-01
1.021044254302978516e+00,1.020990967750549316e+00,1.020937681198120117e+00,1.020884394645690918e+00,1.020831108093261719e+00,1.020777821540832520e+00,1.020724654197692871e+00,1.020671367645263672e+00,1.020618200302124023e+00,1.020564913749694824e+00,1.020511627197265625e+00,1.020458459854125977e+00,1.020405173301696777e+00,1.020352005958557129e+00,1.020298838615417480e+00,1.020245552062988281e+00,1.020192384719848633e+00,1.020139217376708984e+00,1.020086050033569336e+00,1.020032763481140137e+00,1.019979715347290039e+00,1.019926428794860840e+00,1.019873380661010742e+00,1.019820094108581543e+00,1.019767045974731445e+00,1.019713878631591797e+00,1.019660711288452148e+00,1.019607543945312500e+00,1.019554495811462402e+00,1.019501328468322754e+00,1.019448161125183105e+00,1.019395112991333008e+00,1.019341945648193359e+00,1.019288897514343262e+00,1.019235730171203613e+00,1.019182682037353516e+00,1.019129633903503418e+00,1.019076466560363770e+00,1.019023418426513672e+00,1.018970370292663574e+00,1.018917322158813477e+00,1.018864274024963379e+00,1.018811225891113281e+00,1.018758058547973633e+00,1.018705129623413086e+00,1.018652081489562988e+00,1.018598914146423340e+00,1.018545866012573242e+00,1.018492817878723145e+00,1.018439888954162598e+00,1.018386840820312500e+00,1.018333911895751953e+00,1.018280863761901855e+00,1.018227815628051758e+00,1.018174886703491211e+00,1.018121838569641113e+00,1.018068909645080566e+00,1.018015980720520020e+00,1.017962932586669922e+00,1.017910003662109375e+00,1.017857074737548828e+00,1.017804145812988281e+00,1.017751097679138184e+00,1.017698287963867188e+00,1.017645239830017090e+00,1.017592310905456543e+00,1.017539381980895996e+00,1.017486453056335449e+00,1.017433643341064453e+00,1.017380595207214355e+00,1.017327785491943359e+00,1.017274856567382812e+00,1.017222046852111816e+00,4.783128499984741211e-01,4.675557613372802734e-01,4.587894976139068604e-01,4.503160417079925537e-01,4.425228238105773926e-01,4.346573948860168457e-01,4.283572137355804443e-01
9.625173211097717285e-01,9.624699950218200684e-01,9.624227285385131836e-01,9.623753428459167480e-01,9.623279571533203125e-01,9.622805714607238770e-01,9.622333645820617676e-01,9.621860384941101074e-01,9.621386528015136719e-01,9.620913267135620117e-01,9.620441198348999023e-01,9.619967937469482422e-01,9.619494676589965820e-01,9.619021415710449219e-01,9.618549346923828125e-01,9.618076086044311523e-01,9.617603421211242676e-01,9.617130160331726074e-01,9.616656899452209473e-01,9.616185426712036133e-01,9.615712165832519531e-01,9.615239500999450684e-01,9.614766836166381836e-01,9.614295363426208496e-01,9.613822698593139648e-01,9.613350033760070801e-01,9.612877368927001953e-01,9.612405896186828613e-01,9.611933231353759766e-01,9.611461162567138672e-01,9.610988497734069824e-01,9.610517024993896484e-01,9.610044956207275391e-01,9.609572887420654297e-01,9.609100222587585449e-01,9.608629345893859863e-01,9.608157277107238770e-01,9.607685208320617676e-01,9.607213139533996582e-01,9.606742262840270996e-01,9.606270194053649902e-01,9.605798125267028809e-01,9.605326652526855469e-01,9.604855775833129883e-01,9.604383707046508789e-01,9.603912234306335449e-01,9.603440761566162109e-01,9.602969884872436523e-01,9.602498412132263184e-01,9.602026939392089844e-01,9.601555466651916504e-01,9.601083993911743164e-01,9.600612521171569824e-01,9.600142240524291992e-01,9.599670767784118652e-01,9.599199891090393066e-01,9.598728418350219727e-01,9.598258733749389648e-01,9.597787261009216309e-01,9.597316384315490723e-01,9.596845507621765137e-01,9.596374034881591797e-01,9.595904350280761719e-01,9.595433473587036133e-01,9.594962596893310547e-01,9.594491720199584961e-01,9.594022035598754883e-01,9.593551754951477051e-01,9.593080878257751465e-01,9.592610001564025879e-01,9.592140913009643555e-01,9.591670036315917969e-01,9.591199755668640137e-01,9.590729475021362305e-01,4.667553007602691650e-01,4.570036530494689941e-01,4.486431777477264404e-01,4.413873255252838135e-01,4.341905713081359863e-01,4.267677366733551025e-01
9.103361964225769043e-01,9.102939367294311523e-01,9.102515578269958496e-01,9.102091789245605469e-01,9.101668000221252441e-01,9.101245403289794922e-01,9.100822210311889648e-01,9.100398421287536621e-01,9.099974632263183594e-01,9.099552631378173828e-01,9.099128842353820801e-01,9.098705649375915527e-01,9.098282456398010254e-01,9.097859859466552734e-01,9.097436666488647461e-01,9.097013473510742188e-01,9.096590280532836914e-01,9.096167683601379395e-01,9.095745086669921875e-01,9.095321893692016602e-01,9.094898700714111328e-01,9.094476699829101562e-01,9.094053506851196289e-01,9.093630909919738770e-01,9.093207716941833496e-01,9.092786312103271484e-01,9.092363119125366211e-01,9.091940522193908691e-01,9.091517925262451172e-01,9.091095924377441406e-01,9.090673327445983887e-01,9.090250730514526367e-01,9.089828133583068848e-01,9.089406728744506836e-01,9.088984131813049316e-01,9.088561534881591797e-01,9.088139533996582031e-01,9.087718129158020020e-01,9.087295532226562500e-01,9.086873531341552734e-01,9.086450934410095215e-01,9.086030125617980957e-01,9.085607528686523438e-01,9.085185527801513672e-01,9.084763526916503906e-01,9.084342122077941895e-01,9.083920121192932129e-01,9.083498120307922363e-01,9.083076715469360352e-01,9.082655310630798340e-01,9.082233905792236328e-01,9.081811904907226562e-01,9.081389904022216797e-01,9.080968499183654785e-01,9.080546498298645020e-01,9.080125093460083008e-01,9.079704284667968750e-01,9.079282879829406738e-01,9.078861474990844727e-01,9.078439474105834961e-01,9.078019261360168457e-01,9.077597856521606445e-01,9.077176451683044434e-01,9.076755046844482422e-01,9.076334834098815918e-01,9.075913429260253906e-01,9.075492024421691895e-01,9.075071215629577637e-01,9.074651002883911133e-01,9.074229598045349121e-01,9.073808789253234863e-01,9.073387384414672852e-01,9.072966575622558594e-01,9.072546362876892090e-01,9.072125554084777832e-01,4.566264450550079346e-01,4.469095766544342041e-01,4.394625127315521240e-01,4.330366253852844238e-01,4.261662364006042480e-01
8.635220527648925781e-01,8.634839057922363281e-01,8.634457588195800781e-01,8.634077310562133789e-01,8.633696436882019043e-01,8.633314967155456543e-01,8.632934093475341797e-01,8.632553815841674805e-01,8.632172346115112305e-01,8.631791472434997559e-01,8.631410598754882812e-01,8.631030321121215820e-01,8.630649447441101074e-01,8.630268573760986328e-01,8.629887700080871582e-01,8.629507422447204590e-01,8.629126548767089844e-01,8.628746271133422852e-01,8.628365397453308105e-01,8.627985119819641113e-01,8.627604842185974121e-01,8.627223968505859375e-01,8.626843690872192383e-01,8.626464009284973145e-01,8.626083135604858398e-01,8.625702857971191406e-01,8.625321984291076660e-01,8.624942898750305176e-01,8.624562025070190430e-01,8.624181747436523438e-01,8.623801469802856445e-01,8.623421788215637207e-01,8.623041510581970215e-01,8.622661232948303223e-01,8.622280955314636230e-01,8.621901869773864746e-01,8.621521592140197754e-01,8.621141910552978516e-01,8.620761632919311523e-01,8.620382547378540039e-01,8.620002269744873047e-01,8.619622588157653809e-01,8.619242310523986816e-01,8.618862628936767578e-01,8.618483543395996094e-01,8.618103861808776855e-01,8.617724180221557617e-01,8.617343902587890625e-01,8.616965413093566895e-01,8.616585731506347656e-01,8.616206049919128418e-01,8.615826368331909180e-01,8.615447282791137695e-01,8.615068197250366211e-01,8.614688515663146973e-01,8.614308834075927734e-01,8.613930344581604004e-01,8.613550066947937012e-01,8.613171577453613281e-01,8.612791895866394043e-01,8.612412810325622559e-01,8.612033128738403320e-01,8.611654043197631836e-01,8.611275553703308105e-01,8.610896468162536621e-01,8.610517382621765137e-01,8.610138297080993652e-01,8.609759807586669922e-01,8.609380722045898438e-01,8.609001636505126953e-01,8.608622550964355469e-01,8.608244657516479492e-01,8.607865571975708008e-01,8.607487082481384277e-01,5.602067112922668457e-01,5.451107025146484375e-01,4.462401270866394043e-01,4.373341202735900879e-01,4.303440451622009277e-01,4.242461025714874268e-01
8.212871551513671875e-01,8.212527036666870117e-01,8.212182521820068359e-01,8.211837410926818848e-01,8.211492896080017090e-01,8.211148381233215332e-01,8.210803866386413574e-01,8.210459351539611816e-01,8.210114240646362305e-01,8.209769725799560547e-01,8.209425806999206543e-01,8.209081292152404785e-01,8.208736777305603027e-01,8.208391666412353516e-01,8.208048343658447266e-01,8.207703828811645508e-01,8.207359313964843750e-01,8.207014799118041992e-01,8.206670880317687988e-01,8.206326961517333984e-01,8.205982446670532227e-01,8.205637931823730469e-01,8.205294609069824219e-01,8.204950094223022461e-01,8.204606175422668457e-01,8.204261660575866699e-01,8.203918337821960449e-01,8.203573822975158691e-01,8.203229904174804688e-01,8.202885985374450684e-01,8.202542662620544434e-01,8.202198147773742676e-01,8.201854228973388672e-01,8.201510310173034668e-01,8.201166987419128418e-01,8.200823068618774414e-01,8.200479149818420410e-01,8.200135231018066406e-01,8.199792504310607910e-01,8.199448585510253906e-01,8.199104666709899902e-01,8.198760747909545898e-01,8.198418021202087402e-01,8.198074102401733398e-01,8.197730779647827148e-01,8.197386860847473145e-01,8.197044134140014648e-01,8.196700215339660645e-01,8.196356892585754395e-01,8.196013569831848145e-01,8.195670843124389648e-01,8.195326924324035645e-01,8.194983601570129395e-01,8.194640278816223145e-01,8.194297552108764648e-01,8.193954229354858398e-01,8.193610906600952148e-01,8.193267583847045898e-01,8.192924857139587402e-01,8.192581534385681152e-01,8.192237615585327148e-01,8.191895484924316406e-01,8.191552162170410156e-01,8.191208839416503906e-01,8.190866112709045410e-01,8.190523386001586914e-01,8.190180659294128418e-01,8.189837336540222168e-01,8.189494609832763672e-01,8.189152479171752930e-01,8.188809156417846680e-01,8.188466429710388184e-01,8.188123703002929688e-01,8.187781572341918945e-01,5.537457466125488281e-01,5.413478016853332520e-01,4.511001706123352051e-01,4.361925423145294189e-01,4.283338487148284912e-01,4.219339489936828613e-01
7.829911112785339355e-01,7.829597592353820801e-01,7.829284071922302246e-01,7.828970551490783691e-01,7.828657627105712891e-01,7.828344702720642090e-01,7.828031182289123535e-01,7.827717661857604980e-01,7.827405333518981934e-01,7.827091813087463379e-01,7.826778292655944824e-01,7.826465368270874023e-01,7.826152443885803223e-01,7.825839519500732422e-01,7.825525999069213867e-01,7.825213074684143066e-01,7.824900746345520020e-01,7.824587821960449219e-01,7.824274301528930664e-01,7.823961377143859863e-01,7.823649048805236816e-01,7.823336124420166016e-01,7.823023200035095215e-01,7.822710275650024414e-01,7.822397947311401367e-01,7.822085022926330566e-01,7.821772098541259766e-01,7.821459174156188965e-01,7.821146845817565918e-01,7.820834517478942871e-01,7.820521593093872070e-01,7.820208668708801270e-01,7.819896340370178223e-01,7.819584012031555176e-01,7.819271087646484375e-01,7.818958759307861328e-01,7.818646430969238281e-01,7.818334102630615234e-01,7.818021178245544434e-01,7.817708849906921387e-01,7.817397117614746094e-01,7.817084789276123047e-01,7.816771864891052246e-01,7.816459536552429199e-01,7.816147804260253906e-01,7.815835475921630859e-01,7.815523147583007812e-01,7.815210819244384766e-01,7.814899086952209473e-01,7.814586758613586426e-01,7.814274430274963379e-01,7.813962101936340332e-01,7.813650369644165039e-01,7.813338637351989746e-01,7.813026309013366699e-01,7.812713980674743652e-01,7.812402844429016113e-01,7.812090516090393066e-01,7.811778187751770020e-01,7.811466455459594727e-01,7.811154723167419434e-01,7.810842990875244141e-01,7.810531258583068848e-01,7.810218930244445801e-01,7.809907197952270508e-01,7.809594869613647461e-01,7.809283137321472168e-01,7.808972001075744629e-01,7.808660268783569336e-01,7.808348536491394043e-01,7.808036804199218750e-01,7.807725071907043457e-01,7.807413935661315918e-01,5.615735054016113281e-01,5.504186749458312988e-01,5.406963825225830078e-01,5.302209854125976562e-01,4.366525113582611084e-01,4.270806908607482910e-01,4.198658168315887451e-01
7.481073141098022461e-01,7.480787038803100586e-01,7.480501532554626465e-01,7.480215430259704590e-01,7.479929327964782715e-01,7.479643225669860840e-01,7.479357719421386719e-01,7.479071617126464844e-01,7.478785514831542969e-01,7.478499412536621094e-01,7.478213906288146973e-01,7.477927803993225098e-01,7.477642297744750977e-01,7.477356195449829102e-01,7.477070689201354980e-01,7.476785182952880859e-01,7.476499080657958984e-01,7.476213574409484863e-01,7.475928068161010742e-01,7.475642561912536621e-01,7.475356459617614746e-01,7.475070953369140625e-01,7.474785447120666504e-01,7.474499940872192383e-01,7.474214434623718262e-01,7.473928332328796387e-01,7.473643422126770020e-01,7.473357915878295898e-01,7.473072409629821777e-01,7.472786903381347656e-01,7.472501397132873535e-01,7.472216486930847168e-01,7.471930980682373047e-01,7.471645474433898926e-01,7.471359968185424805e-01,7.471075057983398438e-01,7.470789551734924316e-01,7.470504045486450195e-01,7.470218539237976074e-01,7.469934225082397461e-01,7.469648718833923340e-01,7.469363212585449219e-01,7.469077706336975098e-01,7.468793392181396484e-01,7.468507885932922363e-01,7.468222975730895996e-01,7.467937469482421875e-01,7.467653155326843262e-01,7.467367649078369141e-01,7.467082738876342773e-01,7.466797232627868652e-01,7.466512918472290039e-01,7.466228008270263672e-01,7.465943098068237305e-01,7.465657591819763184e-01,7.465373277664184570e-01,7.465088367462158203e-01,7.464803457260131836e-01,7.464518547058105469e-01,7.464234232902526855e-01,7.463949322700500488e-01,7.463664412498474121e-01,7.463379502296447754e-01,7.463095188140869141e-01,7.462810277938842773e-01,7.462525963783264160e-01,7.462241053581237793e-01,7.461956739425659180e-01,7.461671233177185059e-01,7.461386919021606445e-01,7.461102604866027832e-01,7.460817694664001465e-01,5.689313411712646484e-01,5.561298131942749023e-01,5.462065339088439941e-01,5.369634628295898438e-01,5.284299850463867188e-01,5.192947387695312500e-01,4.271422028541564941e-01,4.189049899578094482e-01
7.161992192268371582e-01,7.161730527877807617e-01,7.161468267440795898e-01,7.161206007003784180e-01,7.160943746566772461e-01,7.160682082176208496e-01,7.160419821739196777e-01,7.160157561302185059e-01,7.159895300865173340e-01,7.159634232521057129e-01,7.159371972084045410e-01,7.159109711647033691e-01,7.158847451210021973e-01,7.158586382865905762e-01,7.158324122428894043e-01,7.158061861991882324e-01,7.157800197601318359e-01,7.157538533210754395e-01,7.157276868820190430e-01,7.157014608383178711e-01,7.156752943992614746e-01,7.156491279602050781e-01,7.156229615211486816e-01,7.155967354774475098e-01,7.155705690383911133e-01,7.155444622039794922e-01,7.155182957649230957e-01,7.154920697212219238e-01,7.154659032821655273e-01,7.154397964477539062e-01,7.154136300086975098e-01,7.153874635696411133e-01,7.153612971305847168e-01,7.153351306915283203e-01,7.153089642524719238e-01,7.152827978134155273e-01,7.152566909790039062e-01,7.152305841445922852e-01,7.152044177055358887e-01,7.151782512664794922e-01,7.151520848274230957e-01,7.151259779930114746e-01,7.150998115539550781e-01,7.150737047195434570e-01,7.150475382804870605e-01,7.150214314460754395e-01,7.149953246116638184e-01,7.149691581726074219e-01,7.149430513381958008e-01,7.149169445037841797e-01,7.148908376693725586e-01,7.148646712303161621e-01,7.148385643959045410e-01,7.148124575614929199e-01,7.147863507270812988e-01,7.147602438926696777e-01,7.147340774536132812e-01,7.147080302238464355e-01,7.146819233894348145e-01,7.146557569503784180e-01,7.146296501159667969e-01,7.146036028861999512e-01,7.145774960517883301e-01,7.145513892173767090e-01,7.145252823829650879e-01,7.144992351531982422e-01,7.144731283187866211e-01,7.144470214843750000e-01,7.144209146499633789e-01,7.143948674201965332e-01,7.143687605857849121e-01,7.143425941467285156e-01,5.653345584869384766e-01,5.522722005844116211e-01,5.434073209762573242e-01,5.348226428031921387e-01,5.260779857635498047e-01,5.170653462409973145e-01,5.083563923835754395e-01,4.177063703536987305e-01
6.869017481803894043e-01,6.868776082992553711e-01,6.868534684181213379e-01,6.868293881416320801e-01,6.868053078651428223e-01,6.867811679840087891e-01,6.867570281028747559e-01,6.867329478263854980e-01,6.867088675498962402e-01,6.866847276687622070e-01,6.866606473922729492e-01,6.866365671157836914e-01,6.866124868392944336e-01,6.865883469581604004e-01,6.865642666816711426e-01,6.865401864051818848e-01,6.865161061286926270e-01,6.864919662475585938e-01,6.864678859710693359e-01,6.864438652992248535e-01,6.864197254180908203e-01,6.863956451416015625e-01,6.863715648651123047e-01,6.863475441932678223e-01,6.863234639167785645e-01,6.862993240356445312e-01,6.862752437591552734e-01,6.862512230873107910e-01,6.862271428108215332e-01,6.862030625343322754e-01,6.861789822578430176e-01,6.861549615859985352e-01,6.861308813095092773e-01,6.861068010330200195e-01,6.860827207565307617e-01,6.860587000846862793e-01,6.860346794128417969e-01,6.860105991363525391e-01,6.859865188598632812e-01,6.859624981880187988e-01,6.859384179115295410e-01,6.859143972396850586e-01,6.858903169631958008e-01,6.858662962913513184e-01,6.858422756195068359e-01,6.858181953430175781e-01,6.857941746711730957e-01,6.857701539993286133e-01,6.857461333274841309e-01,6.857220530509948730e-01,6.856980323791503906e-01,6.856740117073059082e-01,6.856499910354614258e-01,6.856259703636169434e-01,6.856018900871276855e-01,6.855778694152832031e-01,6.855539083480834961e-01,6.855298280715942383e-01,6.855058073997497559e-01,6.854817867279052734e-01,6.854578256607055664e-01,6.854338049888610840e-01,6.854097843170166016e-01,6.853857636451721191e-01,6.853617429733276367e-01,6.853377819061279297e-01,6.853137612342834473e-01,6.852897405624389648e-01,6.852657794952392578e-01,6.852417588233947754e-01,6.852177381515502930e-01,6.851937174797058105e-01,5.667068362236022949e-01,5.505756735801696777e-01,5.412148833274841309e-01,5.326987504959106445e-01,5.237467885017395020e-01,5.155252814292907715e-01,5.079484581947326660e-01,4.184907078742980957e-01
6.599069237709045410e-01,6.598846912384033203e-01,6.598624587059020996e-01,6.598401665687561035e-01,6.598179340362548828e-01,6.597957015037536621e-01,6.597734093666076660e-01,6.597511768341064453e-01,6.597288846969604492e-01,6.597067117691040039e-01,6.596844792366027832e-01,6.596621870994567871e-01,6.596399545669555664e-01,6.596177220344543457e-01,6.595954895019531250e-01,6.595732569694519043e-01,6.595510244369506836e-01,6.595287919044494629e-01,6.595065593719482422e-01,6.594843268394470215e-01,6.594620943069458008e-01,6.594398617744445801e-01,6.594176292419433594e-01,6.593953967094421387e-01,6.593731641769409180e-01,6.593509316444396973e-01,6.593287587165832520e-01,6.593065261840820312e-01,6.592842936515808105e-01,6.592620611190795898e-01,6.592398881912231445e-01,6.592176556587219238e-01,6.591954827308654785e-01,6.591732501983642578e-01,6.591510772705078125e-01,6.591288447380065918e-01,6.591066122055053711e-01,6.590844392776489258e-01,6.590622663497924805e-01,6.590400338172912598e-01,6.590178012847900391e-01,6.589956283569335938e-01,6.589734554290771484e-01,6.589512825012207031e-01,6.589290499687194824e-01,6.589068174362182617e-01,6.588847041130065918e-01,6.588624715805053711e-01,6.588402986526489258e-01,6.588180661201477051e-01,6.587959527969360352e-01,6.587737798690795898e-01,6.587515473365783691e-01,6.587293744087219238e-01,6.587072014808654785e-01,6.586850285530090332e-01,6.586628556251525879e-01,6.586406826972961426e-01,6.586185097694396973e-01,6.585963368415832520e-01,6.585741639137268066e-01,6.585519909858703613e-01,6.585298776626586914e-01,6.585077047348022461e-01,6.584855318069458008e-01,6.584633588790893555e-01,6.584411859512329102e-01,6.584190726280212402e-01,6.583968997001647949e-01,6.583747267723083496e-01,6.583526134490966797e-01,6.583304405212402344e-01,6.583082675933837891e-01,5.495703220367431641e-01,5.401322841644287109e-01,5.310051441192626953e-01,5.230910778045654297e-01,5.153148770332336426e-01,5.077441334724426270e-01,4.996445775032043457e-01
