5.000000000000000000e+00,5.000000000000000000e+00,5.000000000000000000e+00,5.000000000000000000e+00,5.000000000000000000e+00,5.000000000000000000e+00,5.000000000000000000e+00,5.000000000000000000e+00,5.000000000000000000e+00,5.000000000000000000e+00,5.000000000000000000e+00,5.000000000000000000e+00,5.000000000000000000e+00,5.000000000000000000e+00,5.000000000000000000e+00,5.000000000000000000e+00,5.000000000000000000e+00,5.000000000000000000e+00,5.000000000000000000e+00,5.000000000000000000e+00,5.000000000000000000e+00,5.000000000000000000e+00,5.000000000000000000e+00,5.000000000000000000e+00,5.000000000000000000e+00,5.000000000000000000e+00,5.000000000000000000e+00,5.000000000000000000e+00,5.000000000000000000e+00,5.000000000000000000e+00,5.000000000000000000e+00,5.000000000000000000e+00,5.000000000000000000e+00,5.000000000000000000e+00,5.000000000000000000e+00,5.000000000000000000e+00,5.000000000000000000e+00,5.000000000000000000e+00,5.000000000000000000e+00,5.000000000000000000e+00,5.000000000000000000e+00,5.000000000000000000e+00,5.000000000000000000e+00,5.000000000000000000e+00,5.000000000000000000e+00,5.000000000000000000e+00,5.000000000000000000e+00,5.000000000000000000e+00,5.000000000000000000e+00,5.000000000000000000e+00,5.000000000000000000e+00,5.000000000000000000e+00,5.000000000000000000e+00,5.000000000000000000e+00,4.991492271423339844e+00,4.826315402984619141e+00,4.671720027923583984e+00,4.526721477508544922e+00,4.390452384948730469e+00,4.262161254882812500e+00,4.141171455383300781e+00,4.026861190795898438e+00,3.918692111968994141e+00,3.816182374954223633e+00,3.718899011611938477e+00,3.626452445983886719e+00,3.538490295410156250e+00,3.454694032669067383e+00,3.374775171279907227e+00,3.298470258712768555e+00,3.225539684295654297e+00,3.155764341354370117e+00,3.088943958282470703e+00,3.024894237518310547e+00,2.963446855545043945e+00,2.904446601867675781e+00,2.847749471664428711e+00,2.793223619461059570e+00,2.740746498107910156e+00,2.690204858779907227e+00
5.000000000000000000e+00,5.000000000000000000e+00,5.000000000000000000e+00,5.000000000000000000e+00,5.000000000000000000e+00,5.000000000000000000e+00,5.000000000000000000e+00,5.000000000000000000e+00,5.000000000000000000e+00,5.000000000000000000e+00,5.000000000000000000e+00,5.000000000000000000e+00,5.000000000000000000e+00,5.000000000000000000e+00,5.000000000000000000e+00,5.000000000000000000e+00,5.000000000000000000e+00,5.000000000000000000e+00,5.000000000000000000e+00,5.000000000000000000e+00,5.000000000000000000e+00,5.000000000000000000e+00,5.000000000000000000e+00,5.000000000000000000e+00,5.000000000000000000e+00,5.000000000000000000e+00,5.000000000000000000e+00,5.000000000000000000e+00,5.000000000000000000e+00,5.000000000000000000e+00,5.000000000000000000e+00,5.000000000000000000e+00,5.000000000000000000e+00,5.000000000000000000e+00,5.000000000000000000e+00,5.000000000000000000e+00,5.000000000000000000e+00,5.000000000000000000e+00,5.000000000000000000e+00,5.000000000000000000e+00,5.000000000000000000e+00,5.000000000000000000e+00,5.000000000000000000e+00,5.000000000000000000e+00,5.000000000000000000e+00,5.000000000000000000e+00,5.000000000000000000e+00,5.000000000000000000e+00,5.000000000000000000e+00,5.000000000000000000e+00,5.000000000000000000e+00,5.000000000000000000e+00,5.000000000000000000e+00,5.000000000000000000e+00,4.991492271423339844e+00,4.826315402984619141e+00,4.671738624572753906e+00,4.526773452758789062e+00,4.390534400939941406e+00,4.262256622314453125e+00,4.141261100769042969e+00,4.026946067810058594e+00,3.918773174285888672e+00,3.816258907318115234e+00,3.718971490859985352e+00,3.626521348953247070e+00,3.538556098937988281e+00,3.454756975173950195e+00,3.374835252761840820e+00,3.298527479171752930e+00,3.225594282150268555e+00,3.155816555023193359e+00,3.088994026184082031e+00,3.024942636489868164e+00,2.963493347167968750e+00,2.904490947723388672e+00,2.847792148590087891e+00,2.793264627456665039e+00,2.740786075592041016e+00,2.690243005752563477e+00
5.000000000000000000e+00,5.000000000000000000e+00,5.000000000000000000e+00,5.000000000000000000e+00,5.000000000000000000e+00,5.000000000000000000e+00,5.000000000000000000e+00,5.000000000000000000e+00,5.000000000000000000e+00,5.000000000000000000e+00,5.000000000000000000e+00,5.000000000000000000e+00,5.000000000000000000e+00,5.000000000000000000e+00,5.000000000000000000e+00,5.000000000000000000e+00,5.000000000000000000e+00,5.000000000000000000e+00,5.000000000000000000e+00,5.000000000000000000e+00,5.000000000000000000e+00,5.000000000000000000e+00,5.000000000000000000e+00,5.000000000000000000e+00,5.000000000000000000e+00,5.000000000000000000e+00,5.000000000000000000e+00,5.000000000000000000e+00,5.000000000000000000e+00,5.000000000000000000e+00,5.000000000000000000e+00,5.000000000000000000e+00,5.000000000000000000e+00,4.867089748382568359e+00,4.873233318328857422e+00,5.000000000000000000e+00,5.000000000000000000e+00,5.000000000000000000e+00,5.000000000000000000e+00,5.000000000000000000e+00,5.000000000000000000e+00,5.000000000000000000e+00,5.000000000000000000e+00,5.000000000000000000e+00,5.000000000000000000e+00,5.000000000000000000e+00,5.000000000000000000e+00,5.000000000000000000e+00,5.000000000000000000e+00,5.000000000000000000e+00,5.000000000000000000e+00,5.000000000000000000e+00,5.000000000000000000e+00,5.000000000000000000e+00,4.991559028625488281e+00,4.826417446136474609e+00,4.671853065490722656e+00,4.526881217956542969e+00,4.390635967254638672e+00,4.262352466583251953e+00,4.141351699829101562e+00,4.027031421661376953e+00,3.918853521347045898e+00,3.816335678100585938e+00,3.719044446945190430e+00,3.626590728759765625e+00,3.538621664047241211e+00,3.454819679260253906e+00,3.374895095825195312e+00,3.298584699630737305e+00,3.225649118423461914e+00,3.155868768692016602e+00,3.089044094085693359e+00,3.024990558624267578e+00,2.963539361953735352e+00,2.904535293579101562e+00,2.847834825515747070e+00,2.793305397033691406e+00,2.740825414657592773e+00,2.690280914306640625e+00
5.000000000000000000e+00,5.000000000000000000e+00,5.000000000000000000e+00,5.000000000000000000e+00,5.000000000000000000e+00,5.000000000000000000e+00,5.000000000000000000e+00,5.000000000000000000e+00,5.000000000000000000e+00,5.000000000000000000e+00,5.000000000000000000e+00,5.000000000000000000e+00,5.000000000000000000e+00,5.000000000000000000e+00,5.000000000000000000e+00,5.000000000000000000e+00,5.000000000000000000e+00,5.000000000000000000e+00,5.000000000000000000e+00,5.000000000000000000e+00,5.000000000000000000e+00,5.000000000000000000e+00,5.000000000000000000e+00,5.000000000000000000e+00,5.000000000000000000e+00,5.000000000000000000e+00,5.000000000000000000e+00,5.000000000000000000e+00,5.000000000000000000e+00,5.000000000000000000e+00,5.000000000000000000e+00,5.000000000000000000e+00,5.000000000000000000e+00,4.879268646240234375e+00,4.878571987152099609e+00,5.000000000000000000e+00,5.000000000000000000e+00,5.000000000000000000e+00,5.000000000000000000e+00,5.000000000000000000e+00,5.000000000000000000e+00,5.000000000000000000e+00,5.000000000000000000e+00,5.000000000000000000e+00,5.000000000000000000e+00,5.000000000000000000e+00,5.000000000000000000e+00,5.000000000000000000e+00,5.000000000000000000e+00,5.000000000000000000e+00,5.000000000000000000e+00,5.000000000000000000e+00,5.000000000000000000e+00,5.000000000000000000e+00,4.991690158843994141e+00,4.826539993286132812e+00,4.671967983245849609e+00,4.526988983154296875e+00,4.390737056732177734e+00,4.262447357177734375e+00,4.141441822052001953e+00,4.027116775512695312e+00,3.918934106826782227e+00,3.816411972045898438e+00,3.719116926193237305e+00,3.626659631729125977e+00,3.538687705993652344e+00,3.454882621765136719e+00,3.374954700469970703e+00,3.298641920089721680e+00,3.225703716278076172e+00,3.155921459197998047e+00,3.089094400405883789e+00,3.025038719177246094e+00,2.963585376739501953e+00,2.904579639434814453e+00,2.847877264022827148e+00,2.793346643447875977e+00,2.740864992141723633e+00,2.690319061279296875e+00
5.000000000000000000e+00,5.000000000000000000e+00,5.000000000000000000e+00,5.000000000000000000e+00,5.000000000000000000e+00,5.000000000000000000e+00,5.000000000000000000e+00,5.000000000000000000e+00,5.000000000000000000e+00,5.000000000000000000e+00,5.000000000000000000e+00,5.000000000000000000e+00,5.000000000000000000e+00,5.000000000000000000e+00,5.000000000000000000e+00,5.000000000000000000e+00,5.000000000000000000e+00,5.000000000000000000e+00,5.000000000000000000e+00,5.000000000000000000e+00,5.000000000000000000e+00,5.000000000000000000e+00,5.000000000000000000e+00,5.000000000000000000e+00,5.000000000000000000e+00,5.000000000000000000e+00,5.000000000000000000e+00,5.000000000000000000e+00,5.000000000000000000e+00,5.000000000000000000e+00,5.000000000000000000e+00,5.000000000000000000e+00,5.000000000000000000e+00,4.979443073272705078e+00,4.956855773925781250e+00,5.000000000000000000e+00,5.000000000000000000e+00,5.000000000000000000e+00,5.000000000000000000e+00,5.000000000000000000e+00,5.000000000000000000e+00,5.000000000000000000e+00,5.000000000000000000e+00,5.000000000000000000e+00,5.000000000000000000e+00,5.000000000000000000e+00,5.000000000000000000e+00,5.000000000000000000e+00,5.000000000000000000e+00,5.000000000000000000e+00,5.000000000000000000e+00,5.000000000000000000e+00,5.000000000000000000e+00,5.000000000000000000e+00,4.991821289062500000e+00,4.826662540435791016e+00,4.672082424163818359e+00,4.527097225189208984e+00,4.390838623046875000e+00,4.262543201446533203e+00,4.141531944274902344e+00,4.027202129364013672e+00,3.919015169143676758e+00,3.816488981246948242e+00,3.719189643859863281e+00,3.626728773117065430e+00,3.538753509521484375e+00,3.454945325851440430e+00,3.375014781951904297e+00,3.298699378967285156e+00,3.225758314132690430e+00,3.155973672866821289e+00,3.089144468307495117e+00,3.025086879730224609e+00,2.963631868362426758e+00,2.904624223709106445e+00,2.847919940948486328e+00,2.793387651443481445e+00,2.740904569625854492e+00,2.690357208251953125e+00
5.000000000000000000e+00,5.000000000000000000e+00,5.000000000000000000e+00,5.000000000000000000e+00,5.000000000000000000e+00,5.000000000000000000e+00,5.000000000000000000e+00,5.000000000000000000e+00,5.000000000000000000e+00,5.000000000000000000e+00,5.000000000000000000e+00,5.000000000000000000e+00,5.000000000000000000e+00,5.000000000000000000e+00,5.000000000000000000e+00,5.000000000000000000e+00,5.000000000000000000e+00,5.000000000000000000e+00,5.000000000000000000e+00,5.000000000000000000e+00,5.000000000000000000e+00,5.000000000000000000e+00,5.000000000000000000e+00,5.000000000000000000e+00,5.000000000000000000e+00,5.000000000000000000e+00,5.000000000000000000e+00,5.000000000000000000e+00,5.000000000000000000e+00,5.000000000000000000e+00,5.000000000000000000e+00,4.914152622222900391e+00,4.905994415283203125e+00,4.886218547821044922e+00,4.893527984619140625e+00,4.920629978179931641e+00,4.952880382537841797e+00,5.000000000000000000e+00,5.000000000000000000e+00,5.000000000000000000e+00,5.000000000000000000e+00,5.000000000000000000e+00,5.000000000000000000e+00,5.000000000000000000e+00,5.000000000000000000e+00,5.000000000000000000e+00,5.000000000000000000e+00,5.000000000000000000e+00,5.000000000000000000e+00,5.000000000000000000e+00,5.000000000000000000e+00,5.000000000000000000e+00,5.000000000000000000e+00,5.000000000000000000e+00,4.991951942443847656e+00,4.826784610748291016e+00,4.672197341918945312e+00,4.527204990386962891e+00,4.390939712524414062e+00,4.262638568878173828e+00,4.141622066497802734e+00,4.027287483215332031e+00,3.919095754623413086e+00,3.816565275192260742e+00,3.719262599945068359e+00,3.626798152923583984e+00,3.538819551467895508e+00,3.455007791519165039e+00,3.375074625015258789e+00,3.298756361007690430e+00,3.225813150405883789e+00,3.156026124954223633e+00,3.089194536209106445e+00,3.025134801864624023e+00,2.963677883148193359e+00,2.904668331146240234e+00,2.847962617874145508e+00,2.793428659439086914e+00,2.740943908691406250e+00,2.690395116806030273e+00
5.000000000000000000e+00,5.000000000000000000e+00,5.000000000000000000e+00,5.000000000000000000e+00,5.000000000000000000e+00,5.000000000000000000e+00,5.000000000000000000e+00,5.000000000000000000e+00,5.000000000000000000e+00,5.000000000000000000e+00,5.000000000000000000e+00,5.000000000000000000e+00,5.000000000000000000e+00,5.000000000000000000e+00,5.000000000000000000e+00,5.000000000000000000e+00,5.000000000000000000e+00,5.000000000000000000e+00,5.000000000000000000e+00,5.000000000000000000e+00,5.000000000000000000e+00,5.000000000000000000e+00,5.000000000000000000e+00,5.000000000000000000e+00,5.000000000000000000e+00,5.000000000000000000e+00,5.000000000000000000e+00,5.000000000000000000e+00,5.000000000000000000e+00,5.000000000000000000e+00,5.000000000000000000e+00,4.896915912628173828e+00,4.871614933013916016e+00,4.834123134613037109e+00,4.849564075469970703e+00,4.886823654174804688e+00,4.973368644714355469e+00,5.000000000000000000e+00,5.000000000000000000e+00,5.000000000000000000e+00,5.000000000000000000e+00,5.000000000000000000e+00,5.000000000000000000e+00,5.000000000000000000e+00,5.000000000000000000e+00,5.000000000000000000e+00,5.000000000000000000e+00,5.000000000000000000e+00,5.000000000000000000e+00,5.000000000000000000e+00,5.000000000000000000e+00,5.000000000000000000e+00,5.000000000000000000e+00,5.000000000000000000e+00,4.992083072662353516e+00,4.826907157897949219e+00,4.672312259674072266e+00,4.527312278747558594e+00,4.391041278839111328e+00,4.262734413146972656e+00,4.141712188720703125e+00,4.027372360229492188e+00,3.919176816940307617e+00,3.816641569137573242e+00,3.719335079193115234e+00,3.626867055892944336e+00,3.538885116577148438e+00,3.455070734024047852e+00,3.375134706497192383e+00,3.298813343048095703e+00,3.225867748260498047e+00,3.156078338623046875e+00,3.089244842529296875e+00,3.025182962417602539e+00,2.963724136352539062e+00,2.904712677001953125e+00,2.848005294799804688e+00,2.793469667434692383e+00,2.740983486175537109e+00,2.690433263778686523e+00
5.000000000000000000e+00,5.000000000000000000e+00,5.000000000000000000e+00,5.000000000000000000e+00,5.000000000000000000e+00,5.000000000000000000e+00,5.000000000000000000e+00,5.000000000000000000e+00,5.000000000000000000e+00,5.000000000000000000e+00,5.000000000000000000e+00,5.000000000000000000e+00,5.000000000000000000e+00,5.000000000000000000e+00,5.000000000000000000e+00,5.000000000000000000e+00,5.000000000000000000e+00,5.000000000000000000e+00,5.000000000000000000e+00,5.000000000000000000e+00,5.000000000000000000e+00,5.000000000000000000e+00,5.000000000000000000e+00,5.000000000000000000e+00,5.000000000000000000e+00,5.000000000000000000e+00,5.000000000000000000e+00,5.000000000000000000e+00,5.000000000000000000e+00,5.000000000000000000e+00,5.000000000000000000e+00,4.952554702758789062e+00,4.898677825927734375e+00,4.838568687438964844e+00,4.841573715209960938e+00,4.904485225677490234e+00,4.972678184509277344e+00,5.000000000000000000e+00,5.000000000000000000e+00,5.000000000000000000e+00,5.000000000000000000e+00,5.000000000000000000e+00,5.000000000000000000e+00,5.000000000000000000e+00,5.000000000000000000e+00,5.000000000000000000e+00,5.000000000000000000e+00,5.000000000000000000e+00,5.000000000000000000e+00,5.000000000000000000e+00,5.000000000000000000e+00,5.000000000000000000e+00,5.000000000000000000e+00,5.000000000000000000e+00,4.992217063903808594e+00,4.827032566070556641e+00,4.672428607940673828e+00,4.527420997619628906e+00,4.391142845153808594e+00,4.262829780578613281e+00,4.141802310943603516e+00,4.027457714080810547e+00,3.919257402420043945e+00,3.816718578338623047e+00,3.719408035278320312e+00,3.626936197280883789e+00,3.538950920104980469e+00,3.455133438110351562e+00,3.375194549560546875e+00,3.298870801925659180e+00,3.225922822952270508e+00,3.156130552291870117e+00,3.089294910430908203e+00,3.025231122970581055e+00,2.963770151138305664e+00,2.904757022857666016e+00,2.848047971725463867e+00,2.793510675430297852e+00,2.741022825241088867e+00,2.690471172332763672e+00
5.000000000000000000e+00,5.000000000000000000e+00,5.000000000000000000e+00,5.000000000000000000e+00,5.000000000000000000e+00,5.000000000000000000e+00,5.000000000000000000e+00,5.000000000000000000e+00,5.000000000000000000e+00,5.000000000000000000e+00,5.000000000000000000e+00,5.000000000000000000e+00,5.000000000000000000e+00,5.000000000000000000e+00,5.000000000000000000e+00,5.000000000000000000e+00,5.000000000000000000e+00,5.000000000000000000e+00,5.000000000000000000e+00,5.000000000000000000e+00,5.000000000000000000e+00,5.000000000000000000e+00,5.000000000000000000e+00,5.000000000000000000e+00,5.000000000000000000e+00,5.000000000000000000e+00,5.000000000000000000e+00,5.000000000000000000e+00,5.000000000000000000e+00,5.000000000000000000e+00,5.000000000000000000e+00,5.000000000000000000e+00,4.937006473541259766e+00,4.834620952606201172e+00,4.844908237457275391e+00,4.901447296142578125e+00,4.980005264282226562e+00,5.000000000000000000e+00,5.000000000000000000e+00,5.000000000000000000e+00,5.000000000000000000e+00,5.000000000000000000e+00,5.000000000000000000e+00,5.000000000000000000e+00,5.000000000000000000e+00,5.000000000000000000e+00,5.000000000000000000e+00,5.000000000000000000e+00,5.000000000000000000e+00,5.000000000000000000e+00,5.000000000000000000e+00,5.000000000000000000e+00,5.000000000000000000e+00,5.000000000000000000e+00,4.992354869842529297e+00,4.827160835266113281e+00,4.672548770904541016e+00,4.527534008026123047e+00,4.391249179840087891e+00,4.262929439544677734e+00,4.141895771026611328e+00,4.027545928955078125e+00,3.919340133666992188e+00,3.816796779632568359e+00,3.719481468200683594e+00,3.627005815505981445e+00,3.539016962051391602e+00,3.455196380615234375e+00,3.375254154205322266e+00,3.298928022384643555e+00,3.225977182388305664e+00,3.156183242797851562e+00,3.089345216751098633e+00,3.025279045104980469e+00,2.963816404342651367e+00,2.904801368713378906e+00,2.848090648651123047e+00,2.793551683425903320e+00,2.741062641143798828e+00,2.690509319305419922e+00
5.000000000000000000e+00,5.000000000000000000e+00,5.000000000000000000e+00,5.000000000000000000e+00,5.000000000000000000e+00,5.000000000000000000e+00,5.000000000000000000e+00,5.000000000000000000e+00,5.000000000000000000e+00,5.000000000000000000e+00,5.000000000000000000e+00,5.000000000000000000e+00,5.000000000000000000e+00,5.000000000000000000e+00,5.000000000000000000e+00,5.000000000000000000e+00,5.000000000000000000e+00,5.000000000000000000e+00,5.000000000000000000e+00,5.000000000000000000e+00,5.000000000000000000e+00,5.000000000000000000e+00,5.000000000000000000e+00,5.000000000000000000e+00,5.000000000000000000e+00,5.000000000000000000e+00,5.000000000000000000e+00,5.000000000000000000e+00,5.000000000000000000e+00,5.000000000000000000e+00,5.000000000000000000e+00,5.000000000000000000e+00,4.881195545196533203e+00,4.839493274688720703e+00,4.834665298461914062e+00,4.886023998260498047e+00,4.984677314758300781e+00,5.000000000000000000e+00,5.000000000000000000e+00,5.000000000000000000e+00,5.000000000000000000e+00,5.000000000000000000e+00,5.000000000000000000e+00,5.000000000000000000e+00,5.000000000000000000e+00,5.000000000000000000e+00,5.000000000000000000e+00,5.000000000000000000e+00,5.000000000000000000e+00,5.000000000000000000e+00,5.000000000000000000e+00,5.000000000000000000e+00,5.000000000000000000e+00,5.000000000000000000e+00,4.992492198944091797e+00,4.827289104461669922e+00,4.672668933868408203e+00,4.527646541595458984e+00,4.391355514526367188e+00,4.263029575347900391e+00,4.141990661621093750e+00,4.027635097503662109e+00,3.919425010681152344e+00,3.816876888275146484e+00,3.719557762145996094e+00,3.627078533172607422e+00,3.539085865020751953e+00,3.455261945724487305e+00,3.375316381454467773e+00,3.298986911773681641e+00,3.226033449172973633e+00,3.156236648559570312e+00,3.089395761489868164e+00,3.025327682495117188e+00,2.963862657546997070e+00,2.904845952987670898e+00,2.848133087158203125e+00,2.793592691421508789e+00,2.741101980209350586e+00,2.690547466278076172e+00
5.000000000000000000e+00,5.000000000000000000e+00,5.000000000000000000e+00,5.000000000000000000e+00,5.000000000000000000e+00,5.000000000000000000e+00,5.000000000000000000e+00,5.000000000000000000e+00,5.000000000000000000e+00,5.000000000000000000e+00,5.000000000000000000e+00,5.000000000000000000e+00,5.000000000000000000e+00,5.000000000000000000e+00,5.000000000000000000e+00,5.000000000000000000e+00,5.000000000000000000e+00,5.000000000000000000e+00,5.000000000000000000e+00,5.000000000000000000e+00,5.000000000000000000e+00,5.000000000000000000e+00,5.000000000000000000e+00,5.000000000000000000e+00,5.000000000000000000e+00,5.000000000000000000e+00,5.000000000000000000e+00,5.000000000000000000e+00,5.000000000000000000e+00,5.000000000000000000e+00,5.000000000000000000e+00,5.000000000000000000e+00,4.862600803375244141e+00,4.844648838043212891e+00,4.854666709899902344e+00,4.903895854949951172e+00,5.000000000000000000e+00,4.951685905456542969e+00,5.000000000000000000e+00,5.000000000000000000e+00,5.000000000000000000e+00,5.000000000000000000e+00,5.000000000000000000e+00,5.000000000000000000e+00,5.000000000000000000e+00,5.000000000000000000e+00,5.000000000000000000e+00,5.000000000000000000e+00,5.000000000000000000e+00,5.000000000000000000e+00,5.000000000000000000e+00,5.000000000000000000e+00,5.000000000000000000e+00,5.000000000000000000e+00,4.992629528045654297e+00,4.827417373657226562e+00,4.672789573669433594e+00,4.527760028839111328e+00,4.391461849212646484e+00,4.263129711151123047e+00,4.142085075378417969e+00,4.027724742889404297e+00,3.919509649276733398e+00,3.816956758499145508e+00,3.719634056091308594e+00,3.627151012420654297e+00,3.539155006408691406e+00,3.455327272415161133e+00,3.375379085540771484e+00,3.299046993255615234e+00,3.226090908050537109e+00,3.156291484832763672e+00,3.089448451995849609e+00,3.025377988815307617e+00,2.963911056518554688e+00,2.904892206192016602e+00,2.848177433013916016e+00,2.793635129928588867e+00,2.741142511367797852e+00,2.690586328506469727e+00
5.000000000000000000e+00,5.000000000000000000e+00,5.000000000000000000e+00,5.000000000000000000e+00,5.000000000000000000e+00,5.000000000000000000e+00,5.000000000000000000e+00,5.000000000000000000e+00,5.000000000000000000e+00,5.000000000000000000e+00,5.000000000000000000e+00,5.000000000000000000e+00,5.000000000000000000e+00,5.000000000000000000e+00,5.000000000000000000e+00,5.000000000000000000e+00,5.000000000000000000e+00,5.000000000000000000e+00,5.000000000000000000e+00,5.000000000000000000e+00,5.000000000000000000e+00,5.000000000000000000e+00,5.000000000000000000e+00,5.000000000000000000e+00,5.000000000000000000e+00,5.000000000000000000e+00,5.000000000000000000e+00,5.000000000000000000e+00,5.000000000000000000e+00,5.000000000000000000e+00,5.000000000000000000e+00,5.000000000000000000e+00,4.815914154052734375e+00,4.786072254180908203e+00,4.886859416961669922e+00,4.891115665435791016e+00,5.000000000000000000e+00,4.901391506195068359e+00,5.000000000000000000e+00,5.000000000000000000e+00,5.000000000000000000e+00,5.000000000000000000e+00,5.000000000000000000e+00,5.000000000000000000e+00,5.000000000000000000e+00,5.000000000000000000e+00,5.000000000000000000e+00,5.000000000000000000e+00,5.000000000000000000e+00,5.000000000000000000e+00,5.000000000000000000e+00,5.000000000000000000e+00,5.000000000000000000e+00,5.000000000000000000e+00,4.992766380310058594e+00,4.827546119689941406e+00,4.672909736633300781e+00,4.527873039245605469e+00,4.391567707061767578e+00,4.263229846954345703e+00,4.142179489135742188e+00,4.027813911437988281e+00,3.919593811035156250e+00,3.817037105560302734e+00,3.719710350036621094e+00,3.627223491668701172e+00,3.539224147796630859e+00,3.455393075942993164e+00,3.375442028045654297e+00,3.299107074737548828e+00,3.226148128509521484e+00,3.156346082687377930e+00,3.089501142501831055e+00,3.025428533554077148e+00,2.963959455490112305e+00,2.904938459396362305e+00,2.848222017288208008e+00,2.793678045272827148e+00,2.741183996200561523e+00,2.690626144409179688e+00
5.000000000000000000e+00,5.000000000000000000e+00,5.000000000000000000e+00,5.000000000000000000e+00,5.000000000000000000e+00,5.000000000000000000e+00,5.000000000000000000e+00,5.000000000000000000e+00,5.000000000000000000e+00,5.000000000000000000e+00,5.000000000000000000e+00,5.000000000000000000e+00,5.000000000000000000e+00,5.000000000000000000e+00,5.000000000000000000e+00,5.000000000000000000e+00,5.000000000000000000e+00,5.000000000000000000e+00,5.000000000000000000e+00,5.000000000000000000e+00,5.000000000000000000e+00,5.000000000000000000e+00,5.000000000000000000e+00,5.000000000000000000e+00,5.000000000000000000e+00,5.000000000000000000e+00,5.000000000000000000e+00,5.000000000000000000e+00,5.000000000000000000e+00,5.000000000000000000e+00,5.000000000000000000e+00,5.000000000000000000e+00,4.824019908905029297e+00,4.768293857574462891e+00,4.879120349884033203e+00,4.882233142852783203e+00,5.000000000000000000e+00,4.827313423156738281e+00,5.000000000000000000e+00,5.000000000000000000e+00,5.000000000000000000e+00,5.000000000000000000e+00,5.000000000000000000e+00,5.000000000000000000e+00,5.000000000000000000e+00,5.000000000000000000e+00,5.000000000000000000e+00,5.000000000000000000e+00,5.000000000000000000e+00,5.000000000000000000e+00,5.000000000000000000e+00,5.000000000000000000e+00,5.000000000000000000e+00,5.000000000000000000e+00,4.992904186248779297e+00,4.827674388885498047e+00,4.673029899597167969e+00,4.527986049652099609e+00,4.391674041748046875e+00,4.263329982757568359e+00,4.142273902893066406e+00,4.027903556823730469e+00,3.919678449630737305e+00,3.817117452621459961e+00,3.719786643981933594e+00,3.627295970916748047e+00,3.539292812347412109e+00,3.455459117889404297e+00,3.375504732131958008e+00,3.299166917800903320e+00,3.226205348968505859e+00,3.156401157379150391e+00,3.089553833007812500e+00,3.025479078292846680e+00,2.964007854461669922e+00,2.904984951019287109e+00,2.848266839981079102e+00,2.793721199035644531e+00,2.741225481033325195e+00,2.690665960311889648e+00
5.000000000000000000e+00,5.000000000000000000e+00,5.000000000000000000e+00,5.000000000000000000e+00,5.000000000000000000e+00,5.000000000000000000e+00,5.000000000000000000e+00,5.000000000000000000e+00,5.000000000000000000e+00,5.000000000000000000e+00,5.000000000000000000e+00,5.000000000000000000e+00,5.000000000000000000e+00,5.000000000000000000e+00,5.000000000000000000e+00,5.000000000000000000e+00,5.000000000000000000e+00,5.000000000000000000e+00,5.000000000000000000e+00,5.000000000000000000e+00,5.000000000000000000e+00,5.000000000000000000e+00,5.000000000000000000e+00,5.000000000000000000e+00,5.000000000000000000e+00,5.000000000000000000e+00,5.000000000000000000e+00,5.000000000000000000e+00,5.000000000000000000e+00,5.000000000000000000e+00,5.000000000000000000e+00,4.950181961059570312e+00,5.000000000000000000e+00,4.752651691436767578e+00,4.887711048126220703e+00,4.890553951263427734e+00,5.000000000000000000e+00,5.000000000000000000e+00,5.000000000000000000e+00,5.000000000000000000e+00,5.000000000000000000e+00,5.000000000000000000e+00,5.000000000000000000e+00,5.000000000000000000e+00,5.000000000000000000e+00,5.000000000000000000e+00,5.000000000000000000e+00,5.000000000000000000e+00,5.000000000000000000e+00,5.000000000000000000e+00,5.000000000000000000e+00,5.000000000000000000e+00,5.000000000000000000e+00,5.000000000000000000e+00,4.993041515350341797e+00,4.827802658081054688e+00,4.673150539398193359e+00,4.528098583221435547e+00,4.391780376434326172e+00,4.263430118560791016e+00,4.142368793487548828e+00,4.027992725372314453e+00,3.919763326644897461e+00,3.817197799682617188e+00,3.719862937927246094e+00,3.627368688583374023e+00,3.539361953735351562e+00,3.455524921417236328e+00,3.375567674636840820e+00,3.299226999282836914e+00,3.226262569427490234e+00,3.156455993652343750e+00,3.089606285095214844e+00,3.025529623031616211e+00,2.964056015014648438e+00,2.905031442642211914e+00,2.848311662673950195e+00,2.793764114379882812e+00,2.741266489028930664e+00,2.690705776214599609e+00
5.000000000000000000e+00,5.000000000000000000e+00,5.000000000000000000e+00,5.000000000000000000e+00,5.000000000000000000e+00,5.000000000000000000e+00,5.000000000000000000e+00,5.000000000000000000e+00,5.000000000000000000e+00,5.000000000000000000e+00,5.000000000000000000e+00,5.000000000000000000e+00,5.000000000000000000e+00,5.000000000000000000e+00,5.000000000000000000e+00,5.000000000000000000e+00,5.000000000000000000e+00,5.000000000000000000e+00,5.000000000000000000e+00,5.000000000000000000e+00,5.000000000000000000e+00,5.000000000000000000e+00,5.000000000000000000e+00,5.000000000000000000e+00,5.000000000000000000e+00,5.000000000000000000e+00,5.000000000000000000e+00,5.000000000000000000e+00,5.000000000000000000e+00,5.000000000000000000e+00,5.000000000000000000e+00,4.901584625244140625e+00,5.000000000000000000e+00,4.731958866119384766e+00,4.899474143981933594e+00,4.897578239440917969e+00,5.000000000000000000e+00,5.000000000000000000e+00,5.000000000000000000e+00,5.000000000000000000e+00,5.000000000000000000e+00,5.000000000000000000e+00,5.000000000000000000e+00,5.000000000000000000e+00,5.000000000000000000e+00,5.000000000000000000e+00,5.000000000000000000e+00,5.000000000000000000e+00,5.000000000000000000e+00,5.000000000000000000e+00,5.000000000000000000e+00,5.000000000000000000e+00,5.000000000000000000e+00,5.000000000000000000e+00,4.993178367614746094e+00,4.827930927276611328e+00,4.673270702362060547e+00,4.528211593627929688e+00,4.391886711120605469e+00,4.263530254364013672e+00,4.142463207244873047e+00,4.028081893920898438e+00,3.919847965240478516e+00,3.817278146743774414e+00,3.719939231872558594e+00,3.627440690994262695e+00,3.539430856704711914e+00,3.455590724945068359e+00,3.375630378723144531e+00,3.299286603927612305e+00,3.226320028305053711e+00,3.156511068344116211e+00,3.089658975601196289e+00,3.025579929351806641e+00,2.964104652404785156e+00,2.905077934265136719e+00,2.848356246948242188e+00,2.793807268142700195e+00,2.741307973861694336e+00,2.690745592117309570e+00
5.000000000000000000e+00,5.000000000000000000e+00,5.000000000000000000e+00,5.000000000000000000e+00,5.000000000000000000e+00,5.000000000000000000e+00,5.000000000000000000e+00,5.000000000000000000e+00,5.000000000000000000e+00,5.000000000000000000e+00,5.000000000000000000e+00,5.000000000000000000e+00,5.000000000000000000e+00,5.000000000000000000e+00,5.000000000000000000e+00,5.000000000000000000e+00,5.000000000000000000e+00,5.000000000000000000e+00,5.000000000000000000e+00,5.000000000000000000e+00,5.000000000000000000e+00,5.000000000000000000e+00,5.000000000000000000e+00,5.000000000000000000e+00,5.000000000000000000e+00,5.000000000000000000e+00,5.000000000000000000e+00,5.000000000000000000e+00,5.000000000000000000e+00,5.000000000000000000e+00,5.000000000000000000e+00,5.000000000000000000e+00,5.000000000000000000e+00,4.737269401550292969e+00,4.818228721618652344e+00,4.903253078460693359e+00,5.000000000000000000e+00,5.000000000000000000e+00,5.000000000000000000e+00,5.000000000000000000e+00,5.000000000000000000e+00,5.000000000000000000e+00,5.000000000000000000e+00,5.000000000000000000e+00,5.000000000000000000e+00,5.000000000000000000e+00,5.000000000000000000e+00,5.000000000000000000e+00,5.000000000000000000e+00,5.000000000000000000e+00,5.000000000000000000e+00,5.000000000000000000e+00,5.000000000000000000e+00,5.000000000000000000e+00,4.993316173553466797e+00,4.828059673309326172e+00,4.673390865325927734e+00,4.528324604034423828e+00,4.391992568969726562e+00,4.263630390167236328e+00,4.142557621002197266e+00,4.028171539306640625e+00,3.919932603836059570e+00,3.817358493804931641e+00,3.720015525817871094e+00,3.627513408660888672e+00,3.539499998092651367e+00,3.455656528472900391e+00,3.375693321228027344e+00,3.299346685409545898e+00,3.226377487182617188e+00,3.156565904617309570e+00,3.089711666107177734e+00,3.025630235671997070e+00,2.964153051376342773e+00,2.905124664306640625e+00,2.848401069641113281e+00,2.793849945068359375e+00,2.741349458694458008e+00,2.690785646438598633e+00
5.000000000000000000e+00,5.000000000000000000e+00,5.000000000000000000e+00,5.000000000000000000e+00,5.000000000000000000e+00,5.000000000000000000e+00,5.000000000000000000e+00,5.000000000000000000e+00,5.000000000000000000e+00,5.000000000000000000e+00,5.000000000000000000e+00,5.000000000000000000e+00,5.000000000000000000e+00,5.000000000000000000e+00,5.000000000000000000e+00,5.000000000000000000e+00,5.000000000000000000e+00,5.000000000000000000e+00,5.000000000000000000e+00,5.000000000000000000e+00,5.000000000000000000e+00,5.000000000000000000e+00,5.000000000000000000e+00,5.000000000000000000e+00,5.000000000000000000e+00,5.000000000000000000e+00,5.000000000000000000e+00,5.000000000000000000e+00,5.000000000000000000e+00,5.000000000000000000e+00,5.000000000000000000e+00,5.000000000000000000e+00,5.000000000000000000e+00,4.775336265563964844e+00,4.984998703002929688e+00,5.000000000000000000e+00,5.000000000000000000e+00,5.000000000000000000e+00,5.000000000000000000e+00,5.000000000000000000e+00,5.000000000000000000e+00,5.000000000000000000e+00,5.000000000000000000e+00,5.000000000000000000e+00,5.000000000000000000e+00,5.000000000000000000e+00,5.000000000000000000e+00,5.000000000000000000e+00,5.000000000000000000e+00,5.000000000000000000e+00,5.000000000000000000e+00,5.000000000000000000e+00,5.000000000000000000e+00,5.000000000000000000e+00,4.993453502655029297e+00,4.828187942504882812e+00,4.673511505126953125e+00,4.528437614440917969e+00,4.392098903656005859e+00,4.263730525970458984e+00,4.142652034759521484e+00,4.028261184692382812e+00,3.920017480850219727e+00,3.817438840866088867e+00,3.720091342926025391e+00,3.627585887908935547e+00,3.539569139480590820e+00,3.455722332000732422e+00,3.375755786895751953e+00,3.299406766891479492e+00,3.226434946060180664e+00,3.156620979309082031e+00,3.089763879776000977e+00,3.025680541992187500e+00,2.964201450347900391e+00,2.905171155929565430e+00,2.848445653915405273e+00,2.793893098831176758e+00,2.741390943527221680e+00,2.690825462341308594e+00
5.000000000000000000e+00,5.000000000000000000e+00,5.000000000000000000e+00,5.000000000000000000e+00,5.000000000000000000e+00,5.000000000000000000e+00,5.000000000000000000e+00,5.000000000000000000e+00,5.000000000000000000e+00,5.000000000000000000e+00,5.000000000000000000e+00,5.000000000000000000e+00,5.000000000000000000e+00,5.000000000000000000e+00,5.000000000000000000e+00,5.000000000000000000e+00,5.000000000000000000e+00,5.000000000000000000e+00,5.000000000000000000e+00,5.000000000000000000e+00,5.000000000000000000e+00,5.000000000000000000e+00,5.000000000000000000e+00,5.000000000000000000e+00,5.000000000000000000e+00,5.000000000000000000e+00,5.000000000000000000e+00,5.000000000000000000e+00,5.000000000000000000e+00,5.000000000000000000e+00,5.000000000000000000e+00,5.000000000000000000e+00,5.000000000000000000e+00,4.789266586303710938e+00,5.000000000000000000e+00,5.000000000000000000e+00,5.000000000000000000e+00,5.000000000000000000e+00,5.000000000000000000e+00,5.000000000000000000e+00,5.000000000000000000e+00,5.000000000000000000e+00,5.000000000000000000e+00,5.000000000000000000e+00,5.000000000000000000e+00,5.000000000000000000e+00,5.000000000000000000e+00,5.000000000000000000e+00,5.000000000000000000e+00,5.000000000000000000e+00,5.000000000000000000e+00,5.000000000000000000e+00,5.000000000000000000e+00,5.000000000000000000e+00,4.993590831756591797e+00,4.828316211700439453e+00,4.673631668090820312e+00,4.528550624847412109e+00,4.392205238342285156e+00,4.263830661773681641e+00,4.142746925354003906e+00,4.028350353240966797e+00,3.920102119445800781e+00,3.817518711090087891e+00,3.720167636871337891e+00,3.627658367156982422e+00,3.539638042449951172e+00,3.455788135528564453e+00,3.375818490982055664e+00,3.299466848373413086e+00,3.226492166519165039e+00,3.156675815582275391e+00,3.089816570281982422e+00,3.025731086730957031e+00,2.964249849319458008e+00,2.905217647552490234e+00,2.848490238189697266e+00,2.793936014175415039e+00,2.741432428359985352e+00,2.690865516662597656e+00
5.000000000000000000e+00,5.000000000000000000e+00,5.000000000000000000e+00,5.000000000000000000e+00,5.000000000000000000e+00,5.000000000000000000e+00,5.000000000000000000e+00,5.000000000000000000e+00,5.000000000000000000e+00,5.000000000000000000e+00,5.000000000000000000e+00,5.000000000000000000e+00,5.000000000000000000e+00,5.000000000000000000e+00,5.000000000000000000e+00,5.000000000000000000e+00,5.000000000000000000e+00,5.000000000000000000e+00,5.000000000000000000e+00,5.000000000000000000e+00,5.000000000000000000e+00,5.000000000000000000e+00,5.000000000000000000e+00,5.000000000000000000e+00,5.000000000000000000e+00,5.000000000000000000e+00,5.000000000000000000e+00,5.000000000000000000e+00,5.000000000000000000e+00,5.000000000000000000e+00,5.000000000000000000e+00,5.000000000000000000e+00,5.000000000000000000e+00,4.810656547546386719e+00,4.865554332733154297e+00,5.000000000000000000e+00,5.000000000000000000e+00,5.000000000000000000e+00,5.000000000000000000e+00,5.000000000000000000e+00,5.000000000000000000e+00,5.000000000000000000e+00,5.000000000000000000e+00,5.000000000000000000e+00,5.000000000000000000e+00,5.000000000000000000e+00,5.000000000000000000e+00,5.000000000000000000e+00,5.000000000000000000e+00,5.000000000000000000e+00,5.000000000000000000e+00,5.000000000000000000e+00,5.000000000000000000e+00,5.000000000000000000e+00,4.993728160858154297e+00,4.828444957733154297e+00,4.673751831054687500e+00,4.528663635253906250e+00,4.392312049865722656e+00,4.263930797576904297e+00,4.142841339111328125e+00,4.028439521789550781e+00,3.920186996459960938e+00,3.817599058151245117e+00,3.720243930816650391e+00,3.627730846405029297e+00,3.539707183837890625e+00,3.455853700637817383e+00,3.375881433486938477e+00,3.299526691436767578e+00,3.226549625396728516e+00,3.156730413436889648e+00,3.089869260787963867e+00,3.025781631469726562e+00,2.964298248291015625e+00,2.905264139175415039e+00,2.848535060882568359e+00,2.793979167938232422e+00,2.741473674774169922e+00,2.690905332565307617e+00
5.000000000000000000e+00,5.000000000000000000e+00,5.000000000000000000e+00,5.000000000000000000e+00,5.000000000000000000e+00,5.000000000000000000e+00,5.000000000000000000e+00,5.000000000000000000e+00,5.000000000000000000e+00,5.000000000000000000e+00,5.000000000000000000e+00,5.000000000000000000e+00,5.000000000000000000e+00,5.000000000000000000e+00,5.000000000000000000e+00,5.000000000000000000e+00,5.000000000000000000e+00,5.000000000000000000e+00,5.000000000000000000e+00,5.000000000000000000e+00,5.000000000000000000e+00,5.000000000000000000e+00,5.000000000000000000e+00,5.000000000000000000e+00,5.000000000000000000e+00,5.000000000000000000e+00,5.000000000000000000e+00,5.000000000000000000e+00,5.000000000000000000e+00,5.000000000000000000e+00,5.000000000000000000e+00,5.000000000000000000e+00,5.000000000000000000e+00,4.839807510375976562e+00,5.000000000000000000e+00,5.000000000000000000e+00,5.000000000000000000e+00,5.000000000000000000e+00,5.000000000000000000e+00,5.000000000000000000e+00,5.000000000000000000e+00,5.000000000000000000e+00,5.000000000000000000e+00,5.000000000000000000e+00,5.000000000000000000e+00,5.000000000000000000e+00,5.000000000000000000e+00,5.000000000000000000e+00,5.000000000000000000e+00,5.000000000000000000e+00,5.000000000000000000e+00,5.000000000000000000e+00,5.000000000000000000e+00,5.000000000000000000e+00,4.993865489959716797e+00,4.828573226928710938e+00,4.673872470855712891e+00,4.528776645660400391e+00,4.392417907714843750e+00,4.264030933380126953e+00,4.142935752868652344e+00,4.028529167175292969e+00,3.920271158218383789e+00,3.817679405212402344e+00,3.720320224761962891e+00,3.627803564071655273e+00,3.539776325225830078e+00,3.455919504165649414e+00,3.375944375991821289e+00,3.299586772918701172e+00,3.226607084274291992e+00,3.156785488128662109e+00,3.089921951293945312e+00,3.025832176208496094e+00,2.964346885681152344e+00,2.905310392379760742e+00,2.848579645156860352e+00,2.794022083282470703e+00,2.741515159606933594e+00,2.690945148468017578e+00
5.000000000000000000e+00,5.000000000000000000e+00,5.000000000000000000e+00,5.000000000000000000e+00,5.000000000000000000e+00,5.000000000000000000e+00,5.000000000000000000e+00,5.000000000000000000e+00,5.000000000000000000e+00,5.000000000000000000e+00,5.000000000000000000e+00,5.000000000000000000e+00,5.000000000000000000e+00,5.000000000000000000e+00,5.000000000000000000e+00,5.000000000000000000e+00,5.000000000000000000e+00,5.000000000000000000e+00,5.000000000000000000e+00,5.000000000000000000e+00,5.000000000000000000e+00,5.000000000000000000e+00,5.000000000000000000e+00,5.000000000000000000e+00,5.000000000000000000e+00,5.000000000000000000e+00,5.000000000000000000e+00,5.000000000000000000e+00,5.000000000000000000e+00,5.000000000000000000e+00,5.000000000000000000e+00,5.000000000000000000e+00,5.000000000000000000e+00,5.000000000000000000e+00,4.851432800292968750e+00,5.000000000000000000e+00,5.000000000000000000e+00,5.000000000000000000e+00,5.000000000000000000e+00,5.000000000000000000e+00,5.000000000000000000e+00,5.000000000000000000e+00,5.000000000000000000e+00,5.000000000000000000e+00,5.000000000000000000e+00,5.000000000000000000e+00,5.000000000000000000e+00,5.000000000000000000e+00,5.000000000000000000e+00,5.000000000000000000e+00,5.000000000000000000e+00,5.000000000000000000e+00,5.000000000000000000e+00,5.000000000000000000e+00,4.994003295898437500e+00,4.828701496124267578e+00,4.673992633819580078e+00,4.528889656066894531e+00,4.392524242401123047e+00,4.264131546020507812e+00,4.143030643463134766e+00,4.028618812561035156e+00,3.920355796813964844e+00,3.817759752273559570e+00,3.720396518707275391e+00,3.627876043319702148e+00,3.539844989776611328e+00,3.455985307693481445e+00,3.376007080078125000e+00,3.299646854400634766e+00,3.226664066314697266e+00,3.156840324401855469e+00,3.089974403381347656e+00,3.025882482528686523e+00,2.964395284652709961e+00,2.905356884002685547e+00,2.848624467849731445e+00,2.794065237045288086e+00,2.741556644439697266e+00,2.690984964370727539e+00
4.871542453765869141e+00,4.870331764221191406e+00,4.869121551513671875e+00,4.867912292480468750e+00,4.866703033447265625e+00,4.865495204925537109e+00,4.864287376403808594e+00,4.863080024719238281e+00,4.861873626708984375e+00,4.860667705535888672e+00,4.859462261199951172e+00,4.858257293701171875e+00,4.857053279876708984e+00,4.855849742889404297e+00,4.854647159576416016e+00,4.853444576263427734e+00,4.852242946624755859e+00,4.851041793823242188e+00,4.849841594696044922e+00,4.848641395568847656e+00,4.847442150115966797e+00,4.846243381500244141e+00,4.845045089721679688e+00,4.843847274780273438e+00,4.842650413513183594e+00,4.841454029083251953e+00,4.840258598327636719e+00,4.839063167572021484e+00,4.837868690490722656e+00,4.836674213409423828e+00,4.835480690002441406e+00,4.834288120269775391e+00,4.833095550537109375e+00,4.831903934478759766e+00,4.707681655883789062e+00,4.829522132873535156e+00,4.828332424163818359e+00,4.827143192291259766e+00,4.825953960418701172e+00,4.824766159057617188e+00,4.823578357696533203e+00,4.822391510009765625e+00,4.821205139160156250e+00,4.820019245147705078e+00,4.818833827972412109e+00,4.817649364471435547e+00,4.816465377807617188e+00,4.815281867980957031e+00,4.814098834991455078e+00,4.812916278839111328e+00,4.811734676361083984e+00,4.810553550720214844e+00,4.809372901916503906e+00,4.808192729949951172e+00,4.807013511657714844e+00,4.805834293365478516e+00,4.674113273620605469e+00,4.529002666473388672e+00,4.392630577087402344e+00,4.264231204986572266e+00,4.143125057220458984e+00,4.028707981109619141e+00,3.920440673828125000e+00,3.817840337753295898e+00,3.720472812652587891e+00,3.627948284149169922e+00,3.539914131164550781e+00,3.456051349639892578e+00,3.376070022583007812e+00,3.299706935882568359e+00,3.226721525192260742e+00,3.156895160675048828e+00,3.090027093887329102e+00,3.025933027267456055e+00,2.964443445205688477e+00,2.905403614044189453e+00,2.848669290542602539e+00,2.794108152389526367e+00,2.741597890853881836e+00,2.691025018692016602e+00
3.776060104370117188e+00,3.775332689285278320e+00,3.774605035781860352e+00,3.773878335952758789e+00,3.773151874542236328e+00,3.772425651550292969e+00,3.771699190139770508e+00,3.770973443984985352e+00,3.770248174667358398e+00,3.769522905349731445e+00,3.768797636032104492e+00,3.768073081970214844e+00,3.767348766326904297e+00,3.766624450683593750e+00,3.765900850296020508e+00,3.765177249908447266e+00,3.764454126358032227e+00,3.763730764389038086e+00,3.763008117675781250e+00,3.762285947799682617e+00,3.761563777923583984e+00,3.760841608047485352e+00,3.760120153427124023e+00,3.759398937225341797e+00,3.758677959442138672e+00,3.757956743240356445e+00,3.757236480712890625e+00,3.756516218185424805e+00,3.755796432495117188e+00,3.755076408386230469e+00,3.754357099533081055e+00,3.753638029098510742e+00,3.752918958663940430e+00,3.752200365066528320e+00,3.751482248306274414e+00,3.750764369964599609e+00,3.750046253204345703e+00,3.749328851699829102e+00,3.748611688613891602e+00,3.747895002365112305e+00,3.747178077697753906e+00,3.746461629867553711e+00,3.745745658874511719e+00,3.745029926300048828e+00,3.744314193725585938e+00,3.743598937988281250e+00,3.742884159088134766e+00,3.742169380187988281e+00,3.741454601287841797e+00,3.740740537643432617e+00,3.740026712417602539e+00,3.739312887191772461e+00,3.738599538803100586e+00,3.737886667251586914e+00,3.737173795700073242e+00,3.736460924148559570e+00,3.735748767852783203e+00,3.735036849975585938e+00,3.734325170516967773e+00,3.733613491058349609e+00,3.732902288436889648e+00,3.732191562652587891e+00,3.731481075286865234e+00,3.730770349502563477e+00,3.720549106597900391e+00,3.628020763397216797e+00,3.539983272552490234e+00,3.456117153167724609e+00,3.376132726669311523e+00,3.299766540527343750e+00,3.226778984069824219e+00,3.156950235366821289e+00,3.090079784393310547e+00,3.025983333587646484e+00,2.964491844177246094e+00,2.905450105667114258e+00,2.848713874816894531e+00,2.794151306152343750e+00,2.741639375686645508e+00,2.691064834594726562e+00
3.082815408706665039e+00,3.082330465316772461e+00,3.081845521926879883e+00,3.081361055374145508e+00,3.080876827239990234e+00,3.080392599105834961e+00,3.079908132553100586e+00,3.079424381256103516e+00,3.078940629959106445e+00,3.078456878662109375e+00,3.077973127365112305e+00,3.077489852905273438e+00,3.077006816864013672e+00,3.076523542404174805e+00,3.076040506362915039e+00,3.075557947158813477e+00,3.075075387954711914e+00,3.074592590332031250e+00,3.074110507965087891e+00,3.073628425598144531e+00,3.073146343231201172e+00,3.072664260864257812e+00,3.072182655334472656e+00,3.071701288223266602e+00,3.071219921112060547e+00,3.070738554000854492e+00,3.070257425308227539e+00,3.069776535034179688e+00,3.069295883178710938e+00,3.068814992904663086e+00,3.068334579467773438e+00,3.067854166030883789e+00,3.067373752593994141e+00,3.066893815994262695e+00,3.066414117813110352e+00,3.065934419631958008e+00,3.065454721450805664e+00,3.064975261688232422e+00,3.064496040344238281e+00,3.064017057418823242e+00,3.063537836074829102e+00,3.063059091567993164e+00,3.062580347061157227e+00,3.062101840972900391e+00,3.061623334884643555e+00,3.061145067214965820e+00,3.060667037963867188e+00,3.060189247131347656e+00,3.059711217880249023e+00,3.059233665466308594e+00,3.058756113052368164e+00,3.058278560638427734e+00,3.057801485061645508e+00,3.057324409484863281e+00,3.056847572326660156e+00,3.056370735168457031e+00,3.055894136428833008e+00,3.055417776107788086e+00,3.054941415786743164e+00,3.054465055465698242e+00,3.053989171981811523e+00,3.053513288497924805e+00,3.053037643432617188e+00,3.052561998367309570e+00,3.052086591720581055e+00,3.051611423492431641e+00,3.051136255264282227e+00,3.050661087036132812e+00,3.050186395645141602e+00,3.049711704254150391e+00,3.049237012863159180e+00,3.048762559890747070e+00,3.048288583755493164e+00,3.026033639907836914e+00,2.964540243148803711e+00,2.905496597290039062e+00,2.848758697509765625e+00,2.794193983078002930e+00,2.741680622100830078e+00,2.691104888916015625e+00
2.604632377624511719e+00,2.604286193847656250e+00,2.603940010070800781e+00,2.603594303131103516e+00,2.603248357772827148e+00,2.602902650833129883e+00,2.602556943893432617e+00,2.602211236953735352e+00,2.601865768432617188e+00,2.601520538330078125e+00,2.601175069808959961e+00,2.600829839706420898e+00,2.600484848022460938e+00,2.600139617919921875e+00,2.599794626235961914e+00,2.599449872970581055e+00,2.599105119705200195e+00,2.598760366439819336e+00,2.598415851593017578e+00,2.598071336746215820e+00,2.597727060317993164e+00,2.597382545471191406e+00,2.597038269042968750e+00,2.596694231033325195e+00,2.596350193023681641e+00,2.596006155014038086e+00,2.595662355422973633e+00,2.595318794250488281e+00,2.594974994659423828e+00,2.594631433486938477e+00,2.594287872314453125e+00,2.593944549560546875e+00,2.593600988388061523e+00,2.593257904052734375e+00,2.592914819717407227e+00,2.592571973800659180e+00,2.592228889465332031e+00,2.591886043548583984e+00,2.591543197631835938e+00,2.591200590133666992e+00,2.590857982635498047e+00,2.590515375137329102e+00,2.590173244476318359e+00,2.589830875396728516e+00,2.589488506317138672e+00,2.589146375656127930e+00,2.588804483413696289e+00,2.588462591171264648e+00,2.588120460510253906e+00,2.587778806686401367e+00,2.587437152862548828e+00,2.587095499038696289e+00,2.586754083633422852e+00,2.586412668228149414e+00,2.586071491241455078e+00,2.585730075836181641e+00,2.585388898849487305e+00,2.585047960281372070e+00,2.584707021713256836e+00,2.584366083145141602e+00,2.584025382995605469e+00,2.583684682846069336e+00,2.583344221115112305e+00,2.583003520965576172e+00,2.582663059234619141e+00,2.582322835922241211e+00,2.581982612609863281e+00,2.581642389297485352e+00,2.581302404403686523e+00,2.580962419509887695e+00,2.580622434616088867e+00,2.580282688140869141e+00,2.579943180084228516e+00,2.579603433609008789e+00,2.579263925552368164e+00,2.578924417495727539e+00,2.578585147857666016e+00,2.578245878219604492e+00,2.577906608581542969e+00,2.577567577362060547e+00
2.254873514175415039e+00,2.254614114761352539e+00,2.254354715347290039e+00,2.254095315933227539e+00,2.253836154937744141e+00,2.253576993942260742e+00,2.253317832946777344e+00,2.253058671951293945e+00,2.252799749374389648e+00,2.252540826797485352e+00,2.252281904220581055e+00,2.252023220062255859e+00,2.251764297485351562e+00,2.251505613327026367e+00,2.251246929168701172e+00,2.250988483428955078e+00,2.250729799270629883e+00,2.250471353530883789e+00,2.250212907791137695e+00,2.249954700469970703e+00,2.249696493148803711e+00,2.249438047409057617e+00,2.249179840087890625e+00,2.248921871185302734e+00,2.248663902282714844e+00,2.248405694961547852e+00,2.248147726058959961e+00,2.247889995574951172e+00,2.247632265090942383e+00,2.247374296188354492e+00,2.247116565704345703e+00,2.246859073638916016e+00,2.246601343154907227e+00,2.246343851089477539e+00,2.246086359024047852e+00,2.245829105377197266e+00,2.245571613311767578e+00,2.245314359664916992e+00,2.245057106018066406e+00,2.244799852371215820e+00,2.244542837142944336e+00,2.244285821914672852e+00,2.244028806686401367e+00,2.243771791458129883e+00,2.243514776229858398e+00,2.243257999420166016e+00,2.243001461029052734e+00,2.242744684219360352e+00,2.242487907409667969e+00,2.242231369018554688e+00,2.241974830627441406e+00,2.241718292236328125e+00,2.241461992263793945e+00,2.241205692291259766e+00,2.240949392318725586e+00,2.240693092346191406e+00,2.240437030792236328e+00,2.240180969238281250e+00,2.239924907684326172e+00,2.239668846130371094e+00,2.239412784576416016e+00,2.239156961441040039e+00,2.238901138305664062e+00,2.238645315170288086e+00,2.238389730453491211e+00,2.238134145736694336e+00,2.237878561019897461e+00,2.237622976303100586e+00,2.237367391586303711e+00,2.237112045288085938e+00,2.236856698989868164e+00,2.236601352691650391e+00,2.236346244812011719e+00,2.236090898513793945e+00,2.235835790634155273e+00,2.235580682754516602e+00,2.235325813293457031e+00,2.235070705413818359e+00,2.234815835952758789e+00,2.234560966491699219e+00
1.987934827804565430e+00,1.987732052803039551e+00,1.987529277801513672e+00,1.987326860427856445e+00,1.987124204635620117e+00,1.986921787261962891e+00,1.986719250679016113e+00,1.986517071723937988e+00,1.986315846443176270e+00,1.986114501953125000e+00,1.985913276672363281e+00,1.985712051391601562e+00,1.985510945320129395e+00,1.985309600830078125e+00,1.985108494758605957e+00,1.984907507896423340e+00,1.984706521034240723e+00,1.984505534172058105e+00,1.984304547309875488e+00,1.984103679656982422e+00,1.983902931213378906e+00,1.983701825141906738e+00,1.983501076698303223e+00,1.983300447463989258e+00,1.983099699020385742e+00,1.982899069786071777e+00,1.982698559761047363e+00,1.982497930526733398e+00,1.982297420501708984e+00,1.982096791267395020e+00,1.981896281242370605e+00,1.981696009635925293e+00,1.981495618820190430e+00,1.981295347213745117e+00,1.981095075607299805e+00,1.980894804000854492e+00,1.980694413185119629e+00,1.980494260787963867e+00,1.980294108390808105e+00,1.980094075202941895e+00,1.979894042015075684e+00,1.979694008827209473e+00,1.979494094848632812e+00,1.979294180870056152e+00,1.979094147682189941e+00,1.978894233703613281e+00,1.978694558143615723e+00,1.978494763374328613e+00,1.978295087814331055e+00,1.978095412254333496e+00,1.977895736694335938e+00,1.977695941925048828e+00,1.977496385574340820e+00,1.977296948432922363e+00,1.977097392082214355e+00,1.976898074150085449e+00,1.976698637008666992e+00,1.976499319076538086e+00,1.976300001144409180e+00,1.976100564002990723e+00,1.975901246070861816e+00,1.975702166557312012e+00,1.975502967834472656e+00,1.975303888320922852e+00,1.975104808807373047e+00,1.974905848503112793e+00,1.974706768989562988e+00,1.974507689476013184e+00,1.974308729171752930e+00,1.974109888076782227e+00,1.973911046981811523e+00,1.973712325096130371e+00,1.973513484001159668e+00,1.973314881324768066e+00,1.973115921020507812e+00,1.972917318344116211e+00,1.972718715667724609e+00,1.972520232200622559e+00,1.972321748733520508e+00,1.972123265266418457e+00
1.777508854866027832e+00,1.777346730232238770e+00,1.777184605598449707e+00,1.777022719383239746e+00,1.776860713958740234e+00,1.776698827743530273e+00,1.776536822319030762e+00,1.776375055313110352e+00,1.776213169097900391e+00,1.776051521301269531e+00,1.775889635086059570e+00,1.775727987289428711e+00,1.775566101074218750e+00,1.775404572486877441e+00,1.775242805480957031e+00,1.775081872940063477e+00,1.774921059608459473e+00,1.774760127067565918e+00,1.774599552154541016e+00,1.774438858032226562e+00,1.774278163909912109e+00,1.774117588996887207e+00,1.773957014083862305e+00,1.773796439170837402e+00,1.773635983467102051e+00,1.773475289344787598e+00,1.773314833641052246e+00,1.773154377937316895e+00,1.772993922233581543e+00,1.772833585739135742e+00,1.772673249244689941e+00,1.772512912750244141e+00,1.772352457046508789e+00,1.772192239761352539e+00,1.772032022476196289e+00,1.771871805191040039e+00,1.771711587905883789e+00,1.771551489830017090e+00,1.771391391754150391e+00,1.771231293678283691e+00,1.771071076393127441e+00,1.770910978317260742e+00,1.770750999450683594e+00,1.770591020584106445e+00,1.770431041717529297e+00,1.770271182060241699e+00,1.770111322402954102e+00,1.769951462745666504e+00,1.769791483879089355e+00,1.769631624221801758e+00,1.769471883773803711e+00,1.769312143325805664e+00,1.769152402877807617e+00,1.768992781639099121e+00,1.768833041191101074e+00,1.768673300743103027e+00,1.768513679504394531e+00,1.768354177474975586e+00,1.768194556236267090e+00,1.768035054206848145e+00,1.767875552177429199e+00,1.767716169357299805e+00,1.767556786537170410e+00,1.767397165298461914e+00,1.767237782478332520e+00,1.767078518867492676e+00,1.766919136047363281e+00,1.766759872436523438e+00,1.766600608825683594e+00,1.766441464424133301e+00,1.766282081604003906e+00,1.766122937202453613e+00,1.765963792800903320e+00,1.765804648399353027e+00,1.765645623207092285e+00,1.765486598014831543e+00,1.765327572822570801e+00,1.765168547630310059e+00,1.765009403228759766e+00,1.764850497245788574e+00
1.607366561889648438e+00,1.607234001159667969e+00,1.607101559638977051e+00,1.606968998908996582e+00,1.606836557388305664e+00,1.606704235076904297e+00,1.606571674346923828e+00,1.606439352035522461e+00,1.606307029724121094e+00,1.606174707412719727e+00,1.606042385101318359e+00,1.605910181999206543e+00,1.605777859687805176e+00,1.605645656585693359e+00,1.605513334274291992e+00,1.605381250381469727e+00,1.605248928070068359e+00,1.605116724967956543e+00,1.604984641075134277e+00,1.604852437973022461e+00,1.604720473289489746e+00,1.604588389396667480e+00,1.604456424713134766e+00,1.604325056076049805e+00,1.604193687438964844e+00,1.604062438011169434e+00,1.603931188583374023e+00,1.603799939155578613e+00,1.603668689727783203e+00,1.603537321090698242e+00,1.603406190872192383e+00,1.603274941444396973e+00,1.603143811225891113e+00,1.603012681007385254e+00,1.602881669998168945e+00,1.602750539779663086e+00,1.602619409561157227e+00,1.602488279342651367e+00,1.602357268333435059e+00,1.602226376533508301e+00,1.602095365524291992e+00,1.601964354515075684e+00,1.601833462715148926e+00,1.601702570915222168e+00,1.601571559906005859e+00,1.601440668106079102e+00,1.601309895515441895e+00,1.601179003715515137e+00,1.601048231124877930e+00,1.600917458534240723e+00,1.600786685943603516e+00,1.600655794143676758e+00,1.600525140762329102e+00,1.600394487380981445e+00,1.600263714790344238e+00,1.600133180618286133e+00,1.600002527236938477e+00,1.599871873855590820e+00,1.599741220474243164e+00,1.599610567092895508e+00,1.599480032920837402e+00,1.599349498748779297e+00,1.599218964576721191e+00,1.599088549613952637e+00,1.598958015441894531e+00,1.598827600479125977e+00,1.598697185516357422e+00,1.598566651344299316e+00,1.598436355590820312e+00,1.598305940628051758e+00,1.598175644874572754e+00,1.598045349121093750e+00,1.597915053367614746e+00,1.597784757614135742e+00,1.597654342651367188e+00,1.597524166107177734e+00,1.597393989562988281e+00,1.597263813018798828e+00,1.597133636474609375e+00,1.597003459930419922e+00
1.466950774192810059e+00,1.466840267181396484e+00,1.466729998588562012e+00,1.466619610786437988e+00,1.466509342193603516e+00,1.466398954391479492e+00,1.466288685798645020e+00,1.466178417205810547e+00,1.466068148612976074e+00,1.465957999229431152e+00,1.465847730636596680e+00,1.465737581253051758e+00,1.465627312660217285e+00,1.465517163276672363e+00,1.465407013893127441e+00,1.465296983718872070e+00,1.465186715126037598e+00,1.465076565742492676e+00,1.464966535568237305e+00,1.464856386184692383e+00,1.464746475219726562e+00,1.464636325836181641e+00,1.464526414871215820e+00,1.464416384696960449e+00,1.464306354522705078e+00,1.464196324348449707e+00,1.464086532592773438e+00,1.463976502418518066e+00,1.463866591453552246e+00,1.463756680488586426e+00,1.463647127151489258e+00,1.463537812232971191e+00,1.463428378105163574e+00,1.463319182395935059e+00,1.463209867477416992e+00,1.463100671768188477e+00,1.462991476058959961e+00,1.462882280349731445e+00,1.462773084640502930e+00,1.462663888931274414e+00,1.462554693222045898e+00,1.462445497512817383e+00,1.462336421012878418e+00,1.462227344512939453e+00,1.462118268013000488e+00,1.462009191513061523e+00,1.461900115013122559e+00,1.461791038513183594e+00,1.461681962013244629e+00,1.461573004722595215e+00,1.461463928222656250e+00,1.461354970932006836e+00,1.461246013641357422e+00,1.461137175559997559e+00,1.461028218269348145e+00,1.460919141769409180e+00,1.460810303688049316e+00,1.460701465606689453e+00,1.460592508316040039e+00,1.460483670234680176e+00,1.460374951362609863e+00,1.460266113281250000e+00,1.460157275199890137e+00,1.460048437118530273e+00,1.459939599037170410e+00,1.459830880165100098e+00,1.459722161293029785e+00,1.459613442420959473e+00,1.459504842758178711e+00,1.459396123886108398e+00,1.459287285804748535e+00,1.459178686141967773e+00,1.459070086479187012e+00,1.458961486816406250e+00,1.458852887153625488e+00,1.458744287490844727e+00,1.458635687828063965e+00,1.458527207374572754e+00,1.458418488502502441e+00,1.458310008049011230e+00
1.349096775054931641e+00,1.349003314971923828e+00,1.348910093307495117e+00,1.348816633224487305e+00,1.348723411560058594e+00,1.348630070686340332e+00,1.348536729812622070e+00,1.348443508148193359e+00,1.348350286483764648e+00,1.348257064819335938e+00,1.348163723945617676e+00,1.348070621490478516e+00,1.347977399826049805e+00,1.347884178161621094e+00,1.347790956497192383e+00,1.347697854042053223e+00,1.347604632377624512e+00,1.347511649131774902e+00,1.347418427467346191e+00,1.347325325012207031e+00,1.347232222557067871e+00,1.347139120101928711e+00,1.347046136856079102e+00,1.346952915191650391e+00,1.346859931945800781e+00,1.346766829490661621e+00,1.346673965454101562e+00,1.346580862998962402e+00,1.346487879753112793e+00,1.346394896507263184e+00,1.346301913261413574e+00,1.346208930015563965e+00,1.346115946769714355e+00,1.346023082733154297e+00,1.345930099487304688e+00,1.345837235450744629e+00,1.345744252204895020e+00,1.345651507377624512e+00,1.345559000968933105e+00,1.345466613769531250e+00,1.345374226570129395e+00,1.345281958580017090e+00,1.345189571380615234e+00,1.345097303390502930e+00,1.345004796981811523e+00,1.344912528991699219e+00,1.344820261001586914e+00,1.344727993011474609e+00,1.344635725021362305e+00,1.344543457031250000e+00,1.344451308250427246e+00,1.344358921051025391e+00,1.344266772270202637e+00,1.344174504280090332e+00,1.344082355499267578e+00,1.343990206718444824e+00,1.343898057937622070e+00,1.343805909156799316e+00,1.343713760375976562e+00,1.343621492385864258e+00,1.343529462814331055e+00,1.343437314033508301e+00,1.343345284461975098e+00,1.343253135681152344e+00,1.343161106109619141e+00,1.343069076538085938e+00,1.342977046966552734e+00,1.342884898185729980e+00,1.342792987823486328e+00,1.342700958251953125e+00,1.342608928680419922e+00,1.342517018318176270e+00,1.342424988746643066e+00,1.342333078384399414e+00,1.342241048812866211e+00,1.342149138450622559e+00,1.342057228088378906e+00,1.341965317726135254e+00,1.341873526573181152e+00,1.341781616210937500e+00
1.248771190643310547e+00,1.248691201210021973e+00,1.248611211776733398e+00,1.248531222343444824e+00,1.248451352119445801e+00,1.248371362686157227e+00,1.248291492462158203e+00,1.248211503028869629e+00,1.248131513595581055e+00,1.248051762580871582e+00,1.247971773147583008e+00,1.247891902923583984e+00,1.247812032699584961e+00,1.247732281684875488e+00,1.247652292251586914e+00,1.247572541236877441e+00,1.247492671012878418e+00,1.247412919998168945e+00,1.247333049774169922e+00,1.247253298759460449e+00,1.247173547744750977e+00,1.247093677520751953e+00,1.247013926506042480e+00,1.246934175491333008e+00,1.246854424476623535e+00,1.246774673461914062e+00,1.246695041656494141e+00,1.246615290641784668e+00,1.246535539627075195e+00,1.246455907821655273e+00,1.246376156806945801e+00,1.246296525001525879e+00,1.246216773986816406e+00,1.246137142181396484e+00,1.246057510375976562e+00,1.245977878570556641e+00,1.245898246765136719e+00,1.245818734169006348e+00,1.245738983154296875e+00,1.245659470558166504e+00,1.245579838752746582e+00,1.245500326156616211e+00,1.245420694351196289e+00,1.245341181755065918e+00,1.245261669158935547e+00,1.245182275772094727e+00,1.245103120803833008e+00,1.245024085044860840e+00,1.244944930076599121e+00,1.244865775108337402e+00,1.244786739349365234e+00,1.244707703590393066e+00,1.244628667831420898e+00,1.244549632072448730e+00,1.244470596313476562e+00,1.244391441345214844e+00,1.244312524795532227e+00,1.244233489036560059e+00,1.244154572486877441e+00,1.244075536727905273e+00,1.243996620178222656e+00,1.243917584419250488e+00,1.243838667869567871e+00,1.243759632110595703e+00,1.243680715560913086e+00,1.243601799011230469e+00,1.243522882461547852e+00,1.243444085121154785e+00,1.243365168571472168e+00,1.243286252021789551e+00,1.243207335472106934e+00,1.243128538131713867e+00,1.243049621582031250e+00,1.242970824241638184e+00,1.242892026901245117e+00,1.242813229560852051e+00,1.242734432220458984e+00,1.242655634880065918e+00,1.242576718330383301e+00,1.242497920989990234e+00
1.162334203720092773e+00,1.162264943122863770e+00,1.162195682525634766e+00,1.162126421928405762e+00,1.162057161331176758e+00,1.161987900733947754e+00,1.161918640136718750e+00,1.161849379539489746e+00,1.161780118942260742e+00,1.161710858345031738e+00,1.161641597747802734e+00,1.161572456359863281e+00,1.161503195762634277e+00,1.161434054374694824e+00,1.161364912986755371e+00,1.161295771598815918e+00,1.161226511001586914e+00,1.161157369613647461e+00,1.161088228225708008e+00,1.161019086837768555e+00,1.160949945449829102e+00,1.160880804061889648e+00,1.160811662673950195e+00,1.160742521286010742e+00,1.160673499107360840e+00,1.160604357719421387e+00,1.160535335540771484e+00,1.160466194152832031e+00,1.160397171974182129e+00,1.160328030586242676e+00,1.160259008407592773e+00,1.160189986228942871e+00,1.160120964050292969e+00,1.160051941871643066e+00,1.159982919692993164e+00,1.159913897514343262e+00,1.159844875335693359e+00,1.159775853157043457e+00,1.159706830978393555e+00,1.159637928009033203e+00,1.159568905830383301e+00,1.159500002861022949e+00,1.159430980682373047e+00,1.159362077713012695e+00,1.159293174743652344e+00,1.159224152565002441e+00,1.159155249595642090e+00,1.159086346626281738e+00,1.159017443656921387e+00,1.158948540687561035e+00,1.158879637718200684e+00,1.158810734748840332e+00,1.158741950988769531e+00,1.158673286437988281e+00,1.158604741096496582e+00,1.158536314964294434e+00,1.158467769622802734e+00,1.158399343490600586e+00,1.158330917358398438e+00,1.158262372016906738e+00,1.158193945884704590e+00,1.158125519752502441e+00,1.158057093620300293e+00,1.157988667488098145e+00,1.157920241355895996e+00,1.157851815223693848e+00,1.157783389091491699e+00,1.157714962959289551e+00,1.157646536827087402e+00,1.157578229904174805e+00,1.157509803771972656e+00,1.157441496849060059e+00,1.157373189926147461e+00,1.157304763793945312e+00,1.157236337661743164e+00,1.157168030738830566e+00,1.157099723815917969e+00,1.157031416893005371e+00,1.156963109970092773e+00,1.156894803047180176e+00
1.087088584899902344e+00,1.087027907371520996e+00,1.086967349052429199e+00,1.086906671524047852e+00,1.086846113204956055e+00,1.086785554885864258e+00,1.086724996566772461e+00,1.086664438247680664e+00,1.086603879928588867e+00,1.086543321609497070e+00,1.086482763290405273e+00,1.086422204971313477e+00,1.086361646652221680e+00,1.086301088333129883e+00,1.086240530014038086e+00,1.086180090904235840e+00,1.086119532585144043e+00,1.086059093475341797e+00,1.085998535156250000e+00,1.085938096046447754e+00,1.085877656936645508e+00,1.085817217826843262e+00,1.085756659507751465e+00,1.085696220397949219e+00,1.085635781288146973e+00,1.085575222969055176e+00,1.085514903068542480e+00,1.085454344749450684e+00,1.085394024848937988e+00,1.085333585739135742e+00,1.085273146629333496e+00,1.085212707519531250e+00,1.085152387619018555e+00,1.085091948509216309e+00,1.085031509399414062e+00,1.084971189498901367e+00,1.084910750389099121e+00,1.084850430488586426e+00,1.084790110588073730e+00,1.084729671478271484e+00,1.084669351577758789e+00,1.084609031677246094e+00,1.084548711776733398e+00,1.084488391876220703e+00,1.084428071975708008e+00,1.084367752075195312e+00,1.084307432174682617e+00,1.084247112274169922e+00,1.084186792373657227e+00,1.084126472473144531e+00,1.084066271781921387e+00,1.084005951881408691e+00,1.083945751190185547e+00,1.083885431289672852e+00,1.083825230598449707e+00,1.083764910697937012e+00,1.083704710006713867e+00,1.083644509315490723e+00,1.083584189414978027e+00,1.083523988723754883e+00,1.083463788032531738e+00,1.083403944969177246e+00,1.083344101905822754e+00,1.083284139633178711e+00,1.083224296569824219e+00,1.083164334297180176e+00,1.083104491233825684e+00,1.083044648170471191e+00,1.082984805107116699e+00,1.082924962043762207e+00,1.082865118980407715e+00,1.082805275917053223e+00,1.082745432853698730e+00,1.082685589790344238e+00,1.082625865936279297e+00,1.082566022872924805e+00,1.082506179809570312e+00,1.082446455955505371e+00,1.082386612892150879e+00,1.082326769828796387e+00
1.020992875099182129e+00,1.020939350128173828e+00,1.020885944366455078e+00,1.020832419395446777e+00,1.020779013633728027e+00,1.020725607872009277e+00,1.020672202110290527e+00,1.020618677139282227e+00,1.020565271377563477e+00,1.020511865615844727e+00,1.020458459854125977e+00,1.020405054092407227e+00,1.020351648330688477e+00,1.020298242568969727e+00,1.020244836807250977e+00,1.020191431045532227e+00,1.020138025283813477e+00,1.020084738731384277e+00,1.020031332969665527e+00,1.019978046417236328e+00,1.019924640655517578e+00,1.019871234893798828e+00,1.019817948341369629e+00,1.019764542579650879e+00,1.019711256027221680e+00,1.019657850265502930e+00,1.019604563713073730e+00,1.019551277160644531e+00,1.019497990608215332e+00,1.019444584846496582e+00,1.019391298294067383e+00,1.019338011741638184e+00,1.019284725189208984e+00,1.019231438636779785e+00,1.019178152084350586e+00,1.019124865531921387e+00,1.019071578979492188e+00,1.019018411636352539e+00,1.018965125083923340e+00,1.018911838531494141e+00,1.018858551979064941e+00,1.018805384635925293e+00,1.018752098083496094e+00,1.018698930740356445e+00,1.018645644187927246e+00,1.018592476844787598e+00,1.018539190292358398e+00,1.018486022949218750e+00,1.018432855606079102e+00,1.018379569053649902e+00,1.018326401710510254e+00,1.018273234367370605e+00,1.018220067024230957e+00,1.018166899681091309e+00,1.018113732337951660e+00,1.018060564994812012e+00,1.018007397651672363e+00,1.017954230308532715e+00,1.017901182174682617e+00,1.017848014831542969e+00,1.017794847488403320e+00,1.017741680145263672e+00,1.017688512802124023e+00,1.017635464668273926e+00,1.017582297325134277e+00,1.017529249191284180e+00,1.017476081848144531e+00,1.017423033714294434e+00,1.017369985580444336e+00,1.017317175865173340e+00,1.017264485359191895e+00,1.017211675643920898e+00,1.017158865928649902e+00,1.017106056213378906e+00,1.017053246498107910e+00,1.017000436782836914e+00,1.016947627067565918e+00,1.016894936561584473e+00,1.016842126846313477e+00,1.016789436340332031e+00
9.624738097190856934e-01,9.624263644218444824e-01,9.623788595199584961e-01,9.623312950134277344e-01,9.622837901115417480e-01,9.622363448143005371e-01,9.621888995170593262e-01,9.621413350105285645e-01,9.620938897132873535e-01,9.620464444160461426e-01,9.619989991188049316e-01,9.619514346122741699e-01,9.619039893150329590e-01,9.618566036224365234e-01,9.618090391159057617e-01,9.617616534233093262e-01,9.617142081260681152e-01,9.616668224334716797e-01,9.616193175315856934e-01,9.615719318389892578e-01,9.615244865417480469e-01,9.614771008491516113e-01,9.614296555519104004e-01,9.613822698593139648e-01,9.613348841667175293e-01,9.612874984741210938e-01,9.612400531768798828e-01,9.611926674842834473e-01,9.611453413963317871e-01,9.610978364944458008e-01,9.610505104064941406e-01,9.610031843185424805e-01,9.609558582305908203e-01,9.609084129333496094e-01,9.608610868453979492e-01,9.608137607574462891e-01,9.607664346694946289e-01,9.607189893722534180e-01,9.606716632843017578e-01,9.606243968009948730e-01,9.605769515037536621e-01,9.605296850204467773e-01,9.604823589324951172e-01,9.604350924491882324e-01,9.603877067565917969e-01,9.603404402732849121e-01,9.602931737899780273e-01,9.602459073066711426e-01,9.601985216140747070e-01,9.601512551307678223e-01,9.601039886474609375e-01,9.600566625595092773e-01,9.600093960762023926e-01,9.599621295928955078e-01,9.599149227142333984e-01,9.598675966262817383e-01,9.598203301429748535e-01,9.597731232643127441e-01,9.597259163856506348e-01,9.596785902976989746e-01,9.596313834190368652e-01,9.595841765403747559e-01,9.595368504524230957e-01,9.594897031784057617e-01,9.594424962997436523e-01,9.593952894210815430e-01,9.593480229377746582e-01,9.593008160591125488e-01,9.592536687850952148e-01,9.592065215110778809e-01,9.591592550277709961e-01,9.591120481491088867e-01,9.590649008750915527e-01,9.590176939964294434e-01,9.589705467224121094e-01,9.589233994483947754e-01,9.588764905929565430e-01,9.588295817375183105e-01,9.587825536727905273e-01,9.587356448173522949e-01
9.102992415428161621e-01,9.102568030357360840e-01,9.102143049240112305e-01,9.101718664169311523e-01,9.101293087005615234e-01,9.100868105888366699e-01,9.100443720817565918e-01,9.100018143653869629e-01,9.099593758583068848e-01,9.099169373512268066e-01,9.098744988441467285e-01,9.098319411277770996e-01,9.097895622253417969e-01,9.097471237182617188e-01,9.097046852111816406e-01,9.096621870994567871e-01,9.096197485923767090e-01,9.095773696899414062e-01,9.095348119735717773e-01,9.094924330711364746e-01,9.094500541687011719e-01,9.094076156616210938e-01,9.093651771545410156e-01,9.093227386474609375e-01,9.092803597450256348e-01,9.092379808425903320e-01,9.091955423355102539e-01,9.091531634330749512e-01,9.091107845306396484e-01,9.090683460235595703e-01,9.090259671211242676e-01,9.089835882186889648e-01,9.089412689208984375e-01,9.088988304138183594e-01,9.088564515113830566e-01,9.088141322135925293e-01,9.087718129158020020e-01,9.087293744087219238e-01,9.086870551109313965e-01,9.086447358131408691e-01,9.086022973060607910e-01,9.085599780082702637e-01,9.085176587104797363e-01,9.084753394126892090e-01,9.084329605102539062e-01,9.083906412124633789e-01,9.083483815193176270e-01,9.083060622215270996e-01,9.082636833190917969e-01,9.082214236259460449e-01,9.081791043281555176e-01,9.081367254257202148e-01,9.080944657325744629e-01,9.080522060394287109e-01,9.080099463462829590e-01,9.079675674438476562e-01,9.079253077507019043e-01,9.078831076622009277e-01,9.078408479690551758e-01,9.077984690666198730e-01,9.077562093734741211e-01,9.077140092849731445e-01,9.076716899871826172e-01,9.076294302940368652e-01,9.075872302055358887e-01,9.075449705123901367e-01,9.075026512145996094e-01,9.074604511260986328e-01,9.074182510375976562e-01,9.073760509490966797e-01,9.073337316513061523e-01,9.072915315628051758e-01,9.072493314743041992e-01,9.072071909904479980e-01,9.071648716926574707e-01,9.071227312088012695e-01,9.070805311203002930e-01,9.070382714271545410e-01,9.069960713386535645e-01,9.069539308547973633e-01
8.634904623031616211e-01,8.634522557258605957e-01,8.634140491485595703e-01,8.633758425712585449e-01,8.633375167846679688e-01,8.632993102073669434e-01,8.632611036300659180e-01,8.632228374481201172e-01,8.631846308708190918e-01,8.631464838981628418e-01,8.631082773208618164e-01,8.630700111389160156e-01,8.630318045616149902e-01,8.629936575889587402e-01,8.629554510116577148e-01,8.629171848297119141e-01,8.628790378570556641e-01,8.628408908843994141e-01,8.628026247024536133e-01,8.627644777297973633e-01,8.627263307571411133e-01,8.626881837844848633e-01,8.626499176025390625e-01,8.626117706298828125e-01,8.625736236572265625e-01,8.625354766845703125e-01,8.624972701072692871e-01,8.624591231346130371e-01,8.624210357666015625e-01,8.623828291893005371e-01,8.623446822166442871e-01,8.623065948486328125e-01,8.622684478759765625e-01,8.622302412986755371e-01,8.621921539306640625e-01,8.621540665626525879e-01,8.621159195899963379e-01,8.620777726173400879e-01,8.620396852493286133e-01,8.620015978813171387e-01,8.619633913040161133e-01,8.619253039360046387e-01,8.618872165679931641e-01,8.618491291999816895e-01,8.618109822273254395e-01,8.617728948593139648e-01,8.617348670959472656e-01,8.616967797279357910e-01,8.616586327552795410e-01,8.616206049919128418e-01,8.615825176239013672e-01,8.615444898605346680e-01,8.615063428878784180e-01,8.614683151245117188e-01,8.614302873611450195e-01,8.613921403884887695e-01,8.613541126251220703e-01,8.613160848617553711e-01,8.612780570983886719e-01,8.612399101257324219e-01,8.612019419670104980e-01,8.611639142036437988e-01,8.611258864402770996e-01,8.610877990722656250e-01,8.610497713088989258e-01,8.610118031501770020e-01,8.609737157821655273e-01,8.609356880187988281e-01,8.608977198600769043e-01,8.608596920967102051e-01,8.608216643333435059e-01,8.607836365699768066e-01,8.607456684112548828e-01,8.607077002525329590e-01,8.606696724891662598e-01,8.606317043304443359e-01,8.605937361717224121e-01,8.605556488037109375e-01,8.605176806449890137e-01,8.604797720909118652e-01
8.212602138519287109e-01,8.212256431579589844e-01,8.211910724639892578e-01,8.211565017700195312e-01,8.211218714714050293e-01,8.210873007774353027e-01,8.210527300834655762e-01,8.210180997848510742e-01,8.209835290908813477e-01,8.209490180015563965e-01,8.209144473075866699e-01,8.208798170089721680e-01,8.208453059196472168e-01,8.208107352256774902e-01,8.207762241363525391e-01,8.207415938377380371e-01,8.207070827484130859e-01,8.206725716590881348e-01,8.206379413604736328e-01,8.206034302711486816e-01,8.205689191818237305e-01,8.205344080924987793e-01,8.204998373985290527e-01,8.204653263092041016e-01,8.204308152198791504e-01,8.203963041305541992e-01,8.203617334365844727e-01,8.203272223472595215e-01,8.202927708625793457e-01,8.202582597732543945e-01,8.202236890792846680e-01,8.201892375946044922e-01,8.201547265052795410e-01,8.201201558113098145e-01,8.200857043266296387e-01,8.200511932373046875e-01,8.200167417526245117e-01,8.199822306632995605e-01,8.199477195739746094e-01,8.199132680892944336e-01,8.198788166046142578e-01,8.198443055152893066e-01,8.198098540306091309e-01,8.197754025459289551e-01,8.197408318519592285e-01,8.197063803672790527e-01,8.196719884872436523e-01,8.196375370025634766e-01,8.196030259132385254e-01,8.195685744285583496e-01,8.195341229438781738e-01,8.194997310638427734e-01,8.194652199745178223e-01,8.194308280944824219e-01,8.193963766098022461e-01,8.193618655204772949e-01,8.193274736404418945e-01,8.192930817604064941e-01,8.192586302757263184e-01,8.192241787910461426e-01,8.191897869110107422e-01,8.191553950309753418e-01,8.191210031509399414e-01,8.190864920616149902e-01,8.190521001815795898e-01,8.190177083015441895e-01,8.189832568168640137e-01,8.189488649368286133e-01,8.189145326614379883e-01,8.188801407814025879e-01,8.188456892967224121e-01,8.188112974166870117e-01,8.187769651412963867e-01,8.187425732612609863e-01,8.187081217765808105e-01,8.186737895011901855e-01,8.186394572257995605e-01,8.186050057411193848e-01,8.185706734657287598e-01,8.185362815856933594e-01
7.829680442810058594e-01,7.829365730285644531e-01,7.829051613807678223e-01,7.828737497329711914e-01,7.828422784805297852e-01,7.828108668327331543e-01,7.827794551849365234e-01,7.827480435371398926e-01,7.827165722846984863e-01,7.826851606369018555e-01,7.826537489891052246e-01,7.826222777366638184e-01,7.825908660888671875e-01,7.825595140457153320e-01,7.825281023979187012e-01,7.824966311454772949e-01,7.824652791023254395e-01,7.824338674545288086e-01,7.824025154113769531e-01,7.823710441589355469e-01,7.823396325111389160e-01,7.823082804679870605e-01,7.822768688201904297e-01,7.822454571723937988e-01,7.822141051292419434e-01,7.821827530860900879e-01,7.821513414382934570e-01,7.821199297904968262e-01,7.820885777473449707e-01,7.820572257041931152e-01,7.820258140563964844e-01,7.819944620132446289e-01,7.819631099700927734e-01,7.819316983222961426e-01,7.819003462791442871e-01,7.818690538406372070e-01,7.818377017974853516e-01,7.818062901496887207e-01,7.817749381065368652e-01,7.817436456680297852e-01,7.817122936248779297e-01,7.816809415817260742e-01,7.816495895385742188e-01,7.816182971000671387e-01,7.815868854522705078e-01,7.815555930137634277e-01,7.815242409706115723e-01,7.814929485321044922e-01,7.814615964889526367e-01,7.814303040504455566e-01,7.813989520072937012e-01,7.813676595687866211e-01,7.813363075256347656e-01,7.813050150871276855e-01,7.812737226486206055e-01,7.812423706054687500e-01,7.812110781669616699e-01,7.811797857284545898e-01,7.811484932899475098e-01,7.811172008514404297e-01,7.810859084129333496e-01,7.810546159744262695e-01,7.810233831405639648e-01,7.809920310974121094e-01,7.809607386589050293e-01,7.809295058250427246e-01,7.808982133865356445e-01,7.808669209480285645e-01,7.808356285095214844e-01,7.808043956756591797e-01,7.807730436325073242e-01,7.807418107986450195e-01,7.807105779647827148e-01,7.806793451309204102e-01,7.806479930877685547e-01,7.806167602539062500e-01,7.805855274200439453e-01,7.805542945861816406e-01,7.805230021476745605e-01,7.804917693138122559e-01
7.480875849723815918e-01,7.480588555335998535e-01,7.480301856994628906e-01,7.480015158653259277e-01,7.479727864265441895e-01,7.479441165924072266e-01,7.479154467582702637e-01,7.478867173194885254e-01,7.478579878807067871e-01,7.478293180465698242e-01,7.478006482124328613e-01,7.477719187736511230e-01,7.477433085441589355e-01,7.477146387100219727e-01,7.476859688758850098e-01,7.476572394371032715e-01,7.476285696029663086e-01,7.475999593734741211e-01,7.475712895393371582e-01,7.475425601005554199e-01,7.475139498710632324e-01,7.474852800369262695e-01,7.474566102027893066e-01,7.474279403686523438e-01,7.473993301391601562e-01,7.473706603050231934e-01,7.473419904708862305e-01,7.473133802413940430e-01,7.472847104072570801e-01,7.472561001777648926e-01,7.472274303436279297e-01,7.471988201141357422e-01,7.471701502799987793e-01,7.471414804458618164e-01,7.471128702163696289e-01,7.470842599868774414e-01,7.470556497573852539e-01,7.470269799232482910e-01,7.469983696937561035e-01,7.469697594642639160e-01,7.469411492347717285e-01,7.469125390052795410e-01,7.468839287757873535e-01,7.468553185462951660e-01,7.468267083168029785e-01,7.467980980873107910e-01,7.467694878578186035e-01,7.467408776283264160e-01,7.467122673988342285e-01,7.466836571693420410e-01,7.466551065444946289e-01,7.466264963150024414e-01,7.465978860855102539e-01,7.465693354606628418e-01,7.465407252311706543e-01,7.465121746063232422e-01,7.464835643768310547e-01,7.464549541473388672e-01,7.464264035224914551e-01,7.463977932929992676e-01,7.463692426681518555e-01,7.463406920433044434e-01,7.463121414184570312e-01,7.462835311889648438e-01,7.462549805641174316e-01,7.462264299392700195e-01,7.461978793144226074e-01,7.461692690849304199e-01,7.461407184600830078e-01,7.461121678352355957e-01,7.460836172103881836e-01,7.460550665855407715e-01,7.460265159606933594e-01,7.459980249404907227e-01,7.459694147109985352e-01,7.459408640861511230e-01,7.459123730659484863e-01,7.458838224411010742e-01,7.458552718162536621e-01,7.458267211914062500e-01
7.161823511123657227e-01,7.161560654640197754e-01,7.161297798156738281e-01,7.161034941673278809e-01,7.160771489143371582e-01,7.160508632659912109e-01,7.160245776176452637e-01,7.159982919692993164e-01,7.159719467163085938e-01,7.159456610679626465e-01,7.159193754196166992e-01,7.158930897712707520e-01,7.158668041229248047e-01,7.158405184745788574e-01,7.158142924308776855e-01,7.157879471778869629e-01,7.157616615295410156e-01,7.157354354858398438e-01,7.157091498374938965e-01,7.156828641891479492e-01,7.156565785408020020e-01,7.156303524971008301e-01,7.156040668487548828e-01,7.155777812004089355e-01,7.155515551567077637e-01,7.155252695083618164e-01,7.154989838600158691e-01,7.154727578163146973e-01,7.154464721679687500e-01,7.154202461242675781e-01,7.153939604759216309e-01,7.153677344322204590e-01,7.153415083885192871e-01,7.153152823448181152e-01,7.152889966964721680e-01,7.152627706527709961e-01,7.152365446090698242e-01,7.152102589607238770e-01,7.151840329170227051e-01,7.151578068733215332e-01,7.151315808296203613e-01,7.151053547859191895e-01,7.150791287422180176e-01,7.150529026985168457e-01,7.150266766548156738e-01,7.150004506111145020e-01,7.149742245674133301e-01,7.149479985237121582e-01,7.149217724800109863e-01,7.148955464363098145e-01,7.148693799972534180e-01,7.148431539535522461e-01,7.148169279098510742e-01,7.147907018661499023e-01,7.147645354270935059e-01,7.147383689880371094e-01,7.147120833396911621e-01,7.146859169006347656e-01,7.146597504615783691e-01,7.146335244178771973e-01,7.146072983741760254e-01,7.145811319351196289e-01,7.145549654960632324e-01,7.145287394523620605e-01,7.145025730133056641e-01,7.144764065742492676e-01,7.144502401351928711e-01,7.144240140914916992e-01,7.143978476524353027e-01,7.143716812133789062e-01,7.143454551696777344e-01,7.143192887306213379e-01,7.142931818962097168e-01,7.142670154571533203e-01,7.142407894134521484e-01,7.142146229743957520e-01,7.141885161399841309e-01,7.141623497009277344e-01,7.141361236572265625e-01,7.141100168228149414e-01
6.868873238563537598e-01,6.868630647659301758e-01,6.868389248847961426e-01,6.868147253990173340e-01,6.867904663085937500e-01,6.867663264274597168e-01,6.867421269416809082e-01,6.867179870605468750e-01,6.866937279701232910e-01,6.866695880889892578e-01,6.866453886032104492e-01,6.866212487220764160e-01,6.865969896316528320e-01,6.865728497505187988e-01,6.865487098693847656e-01,6.865244507789611816e-01,6.865003108978271484e-01,6.864761710166931152e-01,6.864519715309143066e-01,6.864277720451354980e-01,6.864036321640014648e-01,6.863794922828674316e-01,6.863553524017333984e-01,6.863311529159545898e-01,6.863070130348205566e-01,6.862828135490417480e-01,6.862586736679077148e-01,6.862344741821289062e-01,6.862103939056396484e-01,6.861862540245056152e-01,6.861620545387268066e-01,6.861379146575927734e-01,6.861137747764587402e-01,6.860896348953247070e-01,6.860654354095458984e-01,6.860413551330566406e-01,6.860172152519226074e-01,6.859930157661437988e-01,6.859688758850097656e-01,6.859447956085205078e-01,6.859206557273864746e-01,6.858965158462524414e-01,6.858723759651184082e-01,6.858482956886291504e-01,6.858241558074951172e-01,6.858000159263610840e-01,6.857758760452270508e-01,6.857517957687377930e-01,6.857275962829589844e-01,6.857035160064697266e-01,6.856794357299804688e-01,6.856552958488464355e-01,6.856311559677124023e-01,6.856070756912231445e-01,6.855829954147338867e-01,6.855588555335998535e-01,6.855347156524658203e-01,6.855106353759765625e-01,6.854865550994873047e-01,6.854624748229980469e-01,6.854383349418640137e-01,6.854142546653747559e-01,6.853901743888854980e-01,6.853660345077514648e-01,6.853419542312622070e-01,6.853178739547729492e-01,6.852937936782836914e-01,6.852696537971496582e-01,6.852455735206604004e-01,6.852215528488159180e-01,6.851974725723266602e-01,6.851733326911926270e-01,6.851493120193481445e-01,6.851252317428588867e-01,6.851010918617248535e-01,6.850770711898803711e-01,6.850529909133911133e-01,6.850289106369018555e-01,6.850048303604125977e-01,6.849807500839233398e-01
6.598946452140808105e-01,6.598722934722900391e-01,6.598500013351440430e-01,6.598276495933532715e-01,6.598052978515625000e-01,6.597830057144165039e-01,6.597606539726257324e-01,6.597383618354797363e-01,6.597160100936889648e-01,6.596936583518981934e-01,6.596713662147521973e-01,6.596490740776062012e-01,6.596267223358154297e-01,6.596044301986694336e-01,6.595821380615234375e-01,6.595597863197326660e-01,6.595374941825866699e-01,6.595151424407958984e-01,6.594928503036499023e-01,6.594705581665039062e-01,6.594482660293579102e-01,6.594259738922119141e-01,6.594036817550659180e-01,6.593813300132751465e-01,6.593590378761291504e-01,6.593367457389831543e-01,6.593143939971923828e-01,6.592921018600463867e-01,6.592698693275451660e-01,6.592475771903991699e-01,6.592252254486083984e-01,6.592029929161071777e-01,6.591807007789611816e-01,6.591584086418151855e-01,6.591361165046691895e-01,6.591138243675231934e-01,6.590915322303771973e-01,6.590692996978759766e-01,6.590469479560852051e-01,6.590247154235839844e-01,6.590024232864379883e-01,6.589801311492919922e-01,6.589578986167907715e-01,6.589356064796447754e-01,6.589133739471435547e-01,6.588910818099975586e-01,6.588687896728515625e-01,6.588465571403503418e-01,6.588243246078491211e-01,6.588020324707031250e-01,6.587797403335571289e-01,6.587575078010559082e-01,6.587352156639099121e-01,6.587129831314086914e-01,6.586907505989074707e-01,6.586685180664062500e-01,6.586462259292602539e-01,6.586239933967590332e-01,6.586017012596130371e-01,6.585794687271118164e-01,6.585572361946105957e-01,6.585350036621093750e-01,6.585127711296081543e-01,6.584904789924621582e-01,6.584682464599609375e-01,6.584460139274597168e-01,6.584237813949584961e-01,6.584015488624572754e-01,6.583793163299560547e-01,6.583570837974548340e-01,6.583348512649536133e-01,6.583126187324523926e-01,6.582903861999511719e-01,6.582681536674499512e-01,6.582459211349487305e-01,6.582236886024475098e-01,6.582015156745910645e-01,6.581792831420898438e-01,6.581570506095886230e-01,6.581348180770874023e-01
6.349432468414306641e-01,6.349225640296936035e-01,6.349018812179565430e-01,6.348811984062194824e-01,6.348605155944824219e-01,6.348398327827453613e-01,6.348192095756530762e-01,6.347985267639160156e-01,6.347778439521789551e-01,6.347571611404418945e-01,6.347365379333496094e-01,6.347158551216125488e-01,6.346951723098754883e-01,6.346744894981384277e-01,6.346538662910461426e-01,6.346332430839538574e-01,6.346125006675720215e-01,6.345918774604797363e-01,6.345712542533874512e-01,6.345505714416503906e-01,6.345298886299133301e-01,6.345092654228210449e-01,6.344886422157287598e-01,6.344679594039916992e-01,6.344473361968994141e-01,6.344267129898071289e-01,6.344060897827148438e-01,6.343854069709777832e-01,6.343647837638854980e-01,6.343441009521484375e-01,6.343234777450561523e-01,6.343028545379638672e-01,6.342822313308715820e-01,6.342616081237792969e-01,6.342409253120422363e-01,6.342203021049499512e-01,6.341996788978576660e-01,6.341790556907653809e-01,6.341583728790283203e-01,6.341378092765808105e-01,6.341171860694885254e-01,6.340965032577514648e-01,6.340758800506591797e-01,6.340553164482116699e-01,6.340346932411193848e-01,6.340140104293823242e-01,6.339934468269348145e-01,6.339728236198425293e-01,6.339522004127502441e-01,6.339315772056579590e-01,6.339109539985656738e-01,6.338903903961181641e-01,6.338697671890258789e-01,6.338491439819335938e-01,6.338285803794860840e-01,6.338079571723937988e-01,6.337873339653015137e-01,6.337667107582092285e-01,6.337461471557617188e-01,6.337255835533142090e-01,6.337049007415771484e-01,6.336843371391296387e-01,6.336637735366821289e-01,6.336430907249450684e-01,6.336225271224975586e-01,6.336019635200500488e-01,6.335813999176025391e-01,6.335607767105102539e-01,6.335401535034179688e-01,6.335195899009704590e-01,6.334990262985229492e-01,6.334784030914306641e-01,6.334578394889831543e-01,6.334372758865356445e-01,6.334166526794433594e-01,6.333960890769958496e-01,6.333755254745483398e-01,6.333549618721008301e-01,6.333343386650085449e-01,6.333137750625610352e-01
6.118099689483642578e-01,6.117907762527465820e-01,6.117715835571289062e-01,6.117523908615112305e-01,6.117331981658935547e-01,6.117140054702758789e-01,6.116948127746582031e-01,6.116756200790405273e-01,6.116564273834228516e-01,6.116372346878051758e-01,6.116180419921875000e-01,6.115988492965698242e-01,6.115796566009521484e-01,6.115604639053344727e-01,6.115413308143615723e-01,6.115221381187438965e-01,6.115029454231262207e-01,6.114837527275085449e-01,6.114646196365356445e-01,6.114453673362731934e-01,6.114262342453002930e-01,6.114070415496826172e-01,6.113879084587097168e-01,6.113687157630920410e-01,6.113495230674743652e-01,6.113303899765014648e-01,6.113111972808837891e-01,6.112920045852661133e-01,6.112728714942932129e-01,6.112537384033203125e-01,6.112345457077026367e-01,6.112153530120849609e-01,6.111962199211120605e-01,6.111770868301391602e-01,6.111578941345214844e-01,6.111387610435485840e-01,6.111195683479309082e-01,6.111004352569580078e-01,6.110812425613403320e-01,6.110621094703674316e-01,6.110429763793945312e-01,6.110237836837768555e-01,6.110046505928039551e-01,6.109855175018310547e-01,6.109663844108581543e-01,6.109471917152404785e-01,6.109280586242675781e-01,6.109089255332946777e-01,6.108897924423217773e-01,6.108706593513488770e-01,6.108515262603759766e-01,6.108323931694030762e-01,6.108132004737854004e-01,6.107940673828125000e-01,6.107749938964843750e-01,6.107558608055114746e-01,6.107366681098937988e-01,6.107175350189208984e-01,6.106984615325927734e-01,6.106793284416198730e-01,6.106601357460021973e-01,6.106410622596740723e-01,6.106219291687011719e-01,6.106027960777282715e-01,6.105836629867553711e-01,6.105645298957824707e-01,6.105454564094543457e-01,6.105263233184814453e-01,6.105071902275085449e-01,6.104880571365356445e-01,6.104689836502075195e-01,6.104498505592346191e-01,6.104307174682617188e-01,6.104116439819335938e-01,6.103925108909606934e-01,6.103733777999877930e-01,6.103543043136596680e-01,6.103351712226867676e-01,6.103160381317138672e-01,6.102969646453857422e-01
5.903031229972839355e-01,5.902851819992065430e-01,5.902673602104187012e-01,5.902494788169860840e-01,5.902315974235534668e-01,5.902137160301208496e-01,5.901958942413330078e-01,5.901780128479003906e-01,5.901601314544677734e-01,5.901422500610351562e-01,5.901244282722473145e-01,5.901065468788146973e-01,5.900886654853820801e-01,5.900708436965942383e-01,5.900529623031616211e-01,5.900351405143737793e-01,5.900172591209411621e-01,5.899993777275085449e-01,5.899815559387207031e-01,5.899636745452880859e-01,5.899458527565002441e-01,5.899279713630676270e-01,5.899101495742797852e-01,5.898922681808471680e-01,5.898744463920593262e-01,5.898566246032714844e-01,5.898388028144836426e-01,5.898209214210510254e-01,5.898030996322631836e-01,5.897852778434753418e-01,5.897673964500427246e-01,5.897495746612548828e-01,5.897317528724670410e-01,5.897138714790344238e-01,5.896960496902465820e-01,5.896782279014587402e-01,5.896604061126708984e-01,5.896425843238830566e-01,5.896247029304504395e-01,5.896068811416625977e-01,5.895890593528747559e-01,5.895712375640869141e-01,5.895533561706542969e-01,5.895355939865112305e-01,5.895177721977233887e-01,5.894998908042907715e-01,5.894820690155029297e-01,5.894642472267150879e-01,5.894464850425720215e-01,5.894286036491394043e-01,5.894107818603515625e-01,5.893930196762084961e-01,5.893751978874206543e-01,5.893573164939880371e-01,5.893395543098449707e-01,5.893217325210571289e-01,5.893039107322692871e-01,5.892860889434814453e-01,5.892682671546936035e-01,5.892505049705505371e-01,5.892326235771179199e-01,5.892148613929748535e-01,5.891970396041870117e-01,5.891792774200439453e-01,5.891614556312561035e-01,5.891436338424682617e-01,5.891258716583251953e-01,5.891079902648925781e-01,5.890902280807495117e-01,5.890724658966064453e-01,5.890546441078186035e-01,5.890368223190307617e-01,5.890190601348876953e-01,5.890012383460998535e-01,5.889834761619567871e-01,5.889656543731689453e-01,5.889478921890258789e-01,5.889300704002380371e-01,5.889122486114501953e-01,5.888944864273071289e-01
