1.932997107505798340e+00,1.959681272506713867e+00,1.987112402915954590e+00,2.015322446823120117e+00,2.044345140457153320e+00,2.074213743209838867e+00,2.104966402053833008e+00,2.136644601821899414e+00,2.169291019439697266e+00,2.202950477600097656e+00,2.237670898437500000e+00,2.273503541946411133e+00,2.310502052307128906e+00,2.348724842071533203e+00,2.388233661651611328e+00,2.429094314575195312e+00,2.471377611160278320e+00,2.515158891677856445e+00,2.560519456863403320e+00,2.607546091079711914e+00,2.656332492828369141e+00,2.706979274749755859e+00,2.759594917297363281e+00,2.814296483993530273e+00,2.871210575103759766e+00,2.930474042892456055e+00,2.992235422134399414e+00,3.056656599044799805e+00,3.123912096023559570e+00,3.194194555282592773e+00,3.267710924148559570e+00,3.344690322875976562e+00,3.425384521484375000e+00,3.510067939758300781e+00,3.599045038223266602e+00,3.692650318145751953e+00,3.791254758834838867e+00,3.895269393920898438e+00,4.005152702331542969e+00,4.121415615081787109e+00,4.244629859924316406e+00,4.375438213348388672e+00,4.514565467834472656e+00,4.662831306457519531e+00,4.821166038513183594e+00,4.990632534027099609e+00,5.000000000000000000e+00,5.000000000000000000e+00,5.000000000000000000e+00,5.000000000000000000e+00,5.000000000000000000e+00,5.000000000000000000e+00,5.000000000000000000e+00,5.000000000000000000e+00,5.000000000000000000e+00,5.000000000000000000e+00,5.000000000000000000e+00,5.000000000000000000e+00,5.000000000000000000e+00,5.000000000000000000e+00,5.000000000000000000e+00,5.000000000000000000e+00,5.000000000000000000e+00,5.000000000000000000e+00,5.000000000000000000e+00,5.000000000000000000e+00,5.000000000000000000e+00,5.000000000000000000e+00,5.000000000000000000e+00,5.000000000000000000e+00,5.000000000000000000e+00,5.000000000000000000e+00,5.000000000000000000e+00,5.000000000000000000e+00,5.000000000000000000e+00,5.000000000000000000e+00,5.000000000000000000e+00,5.000000000000000000e+00,5.000000000000000000e+00,5.000000000000000000e+00
1.932963848114013672e+00,1.959645152091979980e+00,1.987075209617614746e+00,2.015284061431884766e+00,2.044305801391601562e+00,2.074175119400024414e+00,2.104930639266967773e+00,2.136610269546508789e+00,2.169255495071411133e+00,2.202913761138916016e+00,2.237633228302001953e+00,2.273464441299438477e+00,2.310461759567260742e+00,2.348683118820190430e+00,2.388190746307373047e+00,2.429049730300903320e+00,2.471331357955932617e+00,2.515111207962036133e+00,2.560469865798950195e+00,2.607494831085205078e+00,2.656279087066650391e+00,2.706923961639404297e+00,2.759537458419799805e+00,2.814236640930175781e+00,2.871148347854614258e+00,2.930408954620361328e+00,2.992167949676513672e+00,3.056585788726806641e+00,3.123838663101196289e+00,3.194117307662963867e+00,3.267631053924560547e+00,3.344608068466186523e+00,3.425297737121582031e+00,3.509976863861083984e+00,3.598949193954467773e+00,3.692549705505371094e+00,3.791148424148559570e+00,3.895157337188720703e+00,4.005034446716308594e+00,4.121289730072021484e+00,4.244496822357177734e+00,4.375297069549560547e+00,4.514415264129638672e+00,4.662670612335205078e+00,4.820994853973388672e+00,4.990448474884033203e+00,5.000000000000000000e+00,5.000000000000000000e+00,5.000000000000000000e+00,5.000000000000000000e+00,5.000000000000000000e+00,5.000000000000000000e+00,5.000000000000000000e+00,5.000000000000000000e+00,5.000000000000000000e+00,5.000000000000000000e+00,5.000000000000000000e+00,5.000000000000000000e+00,5.000000000000000000e+00,5.000000000000000000e+00,5.000000000000000000e+00,5.000000000000000000e+00,5.000000000000000000e+00,5.000000000000000000e+00,5.000000000000000000e+00,5.000000000000000000e+00,5.000000000000000000e+00,5.000000000000000000e+00,5.000000000000000000e+00,5.000000000000000000e+00,5.000000000000000000e+00,5.000000000000000000e+00,5.000000000000000000e+00,5.000000000000000000e+00,5.000000000000000000e+00,5.000000000000000000e+00,5.000000000000000000e+00,5.000000000000000000e+00,5.000000000000000000e+00,5.000000000000000000e+00
1.932935595512390137e+00,1.959614753723144531e+00,1.987040638923645020e+00,2.015246152877807617e+00,2.044266462326049805e+00,2.074134826660156250e+00,2.104888916015625000e+00,2.136568784713745117e+00,2.169216871261596680e+00,2.202877044677734375e+00,2.237595319747924805e+00,2.273425340652465820e+00,2.310421466827392578e+00,2.348641633987426758e+00,2.388147592544555664e+00,2.429005146026611328e+00,2.471285343170166016e+00,2.515063285827636719e+00,2.560420274734497070e+00,2.607443332672119141e+00,2.656225919723510742e+00,2.706868648529052734e+00,2.759479999542236328e+00,2.814176797866821289e+00,2.871085882186889648e+00,2.930344343185424805e+00,2.992100238800048828e+00,3.056515455245971680e+00,3.123764753341674805e+00,3.194040298461914062e+00,3.267550230026245117e+00,3.344523668289184570e+00,3.425210952758789062e+00,3.509885787963867188e+00,3.598853826522827148e+00,3.692448854446411133e+00,3.791042327880859375e+00,3.895045280456542969e+00,4.004915714263916016e+00,4.121164321899414062e+00,4.244363784790039062e+00,4.375155925750732422e+00,4.514264583587646484e+00,4.662510395050048828e+00,4.820823192596435547e+00,4.990264415740966797e+00,5.000000000000000000e+00,5.000000000000000000e+00,5.000000000000000000e+00,5.000000000000000000e+00,5.000000000000000000e+00,5.000000000000000000e+00,5.000000000000000000e+00,5.000000000000000000e+00,5.000000000000000000e+00,5.000000000000000000e+00,5.000000000000000000e+00,5.000000000000000000e+00,5.000000000000000000e+00,5.000000000000000000e+00,5.000000000000000000e+00,5.000000000000000000e+00,5.000000000000000000e+00,5.000000000000000000e+00,5.000000000000000000e+00,5.000000000000000000e+00,5.000000000000000000e+00,5.000000000000000000e+00,5.000000000000000000e+00,5.000000000000000000e+00,5.000000000000000000e+00,5.000000000000000000e+00,5.000000000000000000e+00,5.000000000000000000e+00,5.000000000000000000e+00,5.000000000000000000e+00,5.000000000000000000e+00,5.000000000000000000e+00,5.000000000000000000e+00,5.000000000000000000e+00
1.932907581329345703e+00,1.959585905075073242e+00,1.987010955810546875e+00,2.015214443206787109e+00,2.044230222702026367e+00,2.074094295501708984e+00,2.104847431182861328e+00,2.136525869369506836e+00,2.169172525405883789e+00,2.202832221984863281e+00,2.237553358078002930e+00,2.273386478424072266e+00,2.310381174087524414e+00,2.348599910736083984e+00,2.388104200363159180e+00,2.428960561752319336e+00,2.471239089965820312e+00,2.515015602111816406e+00,2.560370683670043945e+00,2.607392072677612305e+00,2.656172513961791992e+00,2.706813335418701172e+00,2.759422302246093750e+00,2.814116716384887695e+00,2.871023654937744141e+00,2.930279254913330078e+00,2.992032766342163086e+00,3.056444644927978516e+00,3.123691082000732422e+00,3.193963289260864258e+00,3.267469406127929688e+00,3.344439506530761719e+00,3.425122499465942383e+00,3.509795188903808594e+00,3.598758220672607422e+00,3.692348003387451172e+00,3.790935993194580078e+00,3.894933462142944336e+00,4.004796981811523438e+00,4.121038913726806641e+00,4.244230270385742188e+00,4.375014305114746094e+00,4.514113903045654297e+00,4.662349700927734375e+00,4.820651531219482422e+00,4.990080356597900391e+00,5.000000000000000000e+00,5.000000000000000000e+00,5.000000000000000000e+00,5.000000000000000000e+00,5.000000000000000000e+00,5.000000000000000000e+00,5.000000000000000000e+00,5.000000000000000000e+00,5.000000000000000000e+00,5.000000000000000000e+00,5.000000000000000000e+00,5.000000000000000000e+00,5.000000000000000000e+00,5.000000000000000000e+00,5.000000000000000000e+00,5.000000000000000000e+00,5.000000000000000000e+00,5.000000000000000000e+00,5.000000000000000000e+00,5.000000000000000000e+00,5.000000000000000000e+00,5.000000000000000000e+00,5.000000000000000000e+00,5.000000000000000000e+00,5.000000000000000000e+00,5.000000000000000000e+00,5.000000000000000000e+00,5.000000000000000000e+00,5.000000000000000000e+00,5.000000000000000000e+00,5.000000000000000000e+00,5.000000000000000000e+00,5.000000000000000000e+00,5.000000000000000000e+00
1.932879447937011719e+00,1.959557056427001953e+00,1.986981272697448730e+00,2.015183925628662109e+00,2.044198989868164062e+00,2.074061632156372070e+00,2.104809522628784180e+00,2.136483192443847656e+00,2.169128417968750000e+00,2.202786684036254883e+00,2.237506389617919922e+00,2.273337841033935547e+00,2.310335636138916016e+00,2.348557472229003906e+00,2.388061285018920898e+00,2.428915977478027344e+00,2.471193075180053711e+00,2.514967679977416992e+00,2.560321331024169922e+00,2.607340574264526367e+00,2.656119346618652344e+00,2.706757783889770508e+00,2.759364604949951172e+00,2.814057111740112305e+00,2.870961427688598633e+00,2.930214643478393555e+00,2.991965055465698242e+00,3.056374311447143555e+00,3.123617410659790039e+00,3.193886041641235352e+00,3.267389059066772461e+00,3.344354629516601562e+00,3.425034046173095703e+00,3.509701967239379883e+00,3.598662376403808594e+00,3.692247390747070312e+00,3.790830373764038086e+00,3.894821405410766602e+00,4.004678726196289062e+00,4.120913505554199219e+00,4.244097709655761719e+00,4.374872684478759766e+00,4.513963699340820312e+00,4.662189006805419922e+00,4.820479869842529297e+00,4.989896774291992188e+00,5.000000000000000000e+00,5.000000000000000000e+00,5.000000000000000000e+00,5.000000000000000000e+00,5.000000000000000000e+00,5.000000000000000000e+00,5.000000000000000000e+00,5.000000000000000000e+00,5.000000000000000000e+00,5.000000000000000000e+00,5.000000000000000000e+00,5.000000000000000000e+00,5.000000000000000000e+00,5.000000000000000000e+00,5.000000000000000000e+00,5.000000000000000000e+00,5.000000000000000000e+00,5.000000000000000000e+00,5.000000000000000000e+00,5.000000000000000000e+00,5.000000000000000000e+00,5.000000000000000000e+00,5.000000000000000000e+00,5.000000000000000000e+00,5.000000000000000000e+00,5.000000000000000000e+00,5.000000000000000000e+00,5.000000000000000000e+00,5.000000000000000000e+00,5.000000000000000000e+00,5.000000000000000000e+00,5.000000000000000000e+00,5.000000000000000000e+00,5.000000000000000000e+00
1.932851195335388184e+00,1.959527969360351562e+00,1.986951470375061035e+00,2.015153408050537109e+00,2.044167518615722656e+00,2.074029207229614258e+00,2.104776382446289062e+00,2.136448860168457031e+00,2.169089078903198242e+00,2.202741861343383789e+00,2.237459421157836914e+00,2.273289442062377930e+00,2.310285568237304688e+00,2.348505735397338867e+00,2.388011932373046875e+00,2.428869962692260742e+00,2.471146821975708008e+00,2.514919996261596680e+00,2.560271739959716797e+00,2.607289075851440430e+00,2.656065940856933594e+00,2.706702470779418945e+00,2.759307384490966797e+00,2.813997268676757812e+00,2.870899200439453125e+00,2.930149555206298828e+00,2.991897583007812500e+00,3.056303501129150391e+00,3.123543500900268555e+00,3.193809032440185547e+00,3.267308235168457031e+00,3.344270467758178711e+00,3.424945354461669922e+00,3.509608983993530273e+00,3.598564386367797852e+00,3.692147016525268555e+00,3.790724039077758789e+00,3.894709348678588867e+00,4.004560470581054688e+00,4.120788574218750000e+00,4.243964672088623047e+00,4.374731540679931641e+00,4.513813018798828125e+00,4.662028789520263672e+00,4.820308208465576172e+00,4.989712715148925781e+00,5.000000000000000000e+00,5.000000000000000000e+00,5.000000000000000000e+00,5.000000000000000000e+00,5.000000000000000000e+00,5.000000000000000000e+00,5.000000000000000000e+00,5.000000000000000000e+00,5.000000000000000000e+00,5.000000000000000000e+00,5.000000000000000000e+00,5.000000000000000000e+00,5.000000000000000000e+00,5.000000000000000000e+00,5.000000000000000000e+00,5.000000000000000000e+00,5.000000000000000000e+00,5.000000000000000000e+00,5.000000000000000000e+00,5.000000000000000000e+00,5.000000000000000000e+00,5.000000000000000000e+00,5.000000000000000000e+00,5.000000000000000000e+00,5.000000000000000000e+00,5.000000000000000000e+00,5.000000000000000000e+00,5.000000000000000000e+00,5.000000000000000000e+00,5.000000000000000000e+00,5.000000000000000000e+00,5.000000000000000000e+00,5.000000000000000000e+00,5.000000000000000000e+00
1.932823181152343750e+00,1.959499120712280273e+00,1.986921787261962891e+00,2.015122652053833008e+00,2.044136047363281250e+00,2.073996782302856445e+00,2.104743003845214844e+00,2.136414289474487305e+00,2.169053554534912109e+00,2.202705621719360352e+00,2.237418174743652344e+00,2.273242473602294922e+00,2.310235261917114258e+00,2.348453760147094727e+00,2.387958288192749023e+00,2.428814411163330078e+00,2.471093177795410156e+00,2.514869689941406250e+00,2.560222148895263672e+00,2.607237815856933594e+00,2.656012535095214844e+00,2.706647157669067383e+00,2.759249687194824219e+00,2.813937425613403320e+00,2.870836734771728516e+00,2.930084943771362305e+00,2.991829633712768555e+00,3.056232929229736328e+00,3.123469829559326172e+00,3.193731784820556641e+00,3.267227649688720703e+00,3.344185829162597656e+00,3.424856901168823242e+00,3.509515762329101562e+00,3.598466396331787109e+00,3.692043304443359375e+00,3.790616989135742188e+00,3.894597291946411133e+00,4.004442214965820312e+00,4.120662689208984375e+00,4.243831634521484375e+00,4.374590396881103516e+00,4.513662815093994141e+00,4.661868095397949219e+00,4.820136547088623047e+00,4.989528656005859375e+00,5.000000000000000000e+00,5.000000000000000000e+00,5.000000000000000000e+00,5.000000000000000000e+00,5.000000000000000000e+00,5.000000000000000000e+00,5.000000000000000000e+00,5.000000000000000000e+00,5.000000000000000000e+00,5.000000000000000000e+00,5.000000000000000000e+00,5.000000000000000000e+00,5.000000000000000000e+00,5.000000000000000000e+00,5.000000000000000000e+00,5.000000000000000000e+00,5.000000000000000000e+00,5.000000000000000000e+00,5.000000000000000000e+00,5.000000000000000000e+00,5.000000000000000000e+00,5.000000000000000000e+00,5.000000000000000000e+00,5.000000000000000000e+00,5.000000000000000000e+00,5.000000000000000000e+00,5.000000000000000000e+00,5.000000000000000000e+00,5.000000000000000000e+00,5.000000000000000000e+00,5.000000000000000000e+00,5.000000000000000000e+00,5.000000000000000000e+00,5.000000000000000000e+00
1.932795047760009766e+00,1.959470272064208984e+00,1.986892104148864746e+00,2.015092134475708008e+00,2.044104576110839844e+00,2.073964357376098633e+00,2.104709625244140625e+00,2.136379957199096680e+00,2.169018030166625977e+00,2.202668905258178711e+00,2.237380504608154297e+00,2.273203372955322266e+00,2.310192108154296875e+00,2.348404645919799805e+00,2.387904882431030273e+00,2.428759098052978516e+00,2.471035718917846680e+00,2.514810323715209961e+00,2.560163736343383789e+00,2.607182979583740234e+00,2.655959367752075195e+00,2.706591844558715820e+00,2.759192228317260742e+00,2.813877582550048828e+00,2.870774745941162109e+00,2.930019855499267578e+00,2.991761922836303711e+00,3.056162357330322266e+00,3.123396158218383789e+00,3.193655014038085938e+00,3.267146825790405273e+00,3.344101428985595703e+00,3.424767971038818359e+00,3.509422540664672852e+00,3.598368883132934570e+00,3.691940307617187500e+00,3.790508747100830078e+00,3.894484281539916992e+00,4.004323482513427734e+00,4.120537281036376953e+00,4.243698596954345703e+00,4.374449253082275391e+00,4.513512134552001953e+00,4.661707878112792969e+00,4.819964885711669922e+00,4.989345073699951172e+00,5.000000000000000000e+00,5.000000000000000000e+00,5.000000000000000000e+00,5.000000000000000000e+00,5.000000000000000000e+00,5.000000000000000000e+00,5.000000000000000000e+00,5.000000000000000000e+00,5.000000000000000000e+00,5.000000000000000000e+00,5.000000000000000000e+00,5.000000000000000000e+00,5.000000000000000000e+00,4.198262691497802734e+00,4.204455375671386719e+00,5.000000000000000000e+00,5.000000000000000000e+00,5.000000000000000000e+00,5.000000000000000000e+00,5.000000000000000000e+00,5.000000000000000000e+00,5.000000000000000000e+00,5.000000000000000000e+00,5.000000000000000000e+00,5.000000000000000000e+00,5.000000000000000000e+00,5.000000000000000000e+00,5.000000000000000000e+00,5.000000000000000000e+00,5.000000000000000000e+00,5.000000000000000000e+00,5.000000000000000000e+00,5.000000000000000000e+00,5.000000000000000000e+00
1.932766795158386230e+00,1.959441184997558594e+00,1.986862301826477051e+00,2.015061616897583008e+00,2.044073104858398438e+00,2.073931932449340820e+00,2.104676246643066406e+00,2.136345624923706055e+00,2.168982744216918945e+00,2.202632427215576172e+00,2.237342596054077148e+00,2.273164510726928711e+00,2.310151815414428711e+00,2.348362922668457031e+00,2.387859344482421875e+00,2.428707122802734375e+00,2.470978498458862305e+00,2.514750957489013672e+00,2.560102224349975586e+00,2.607119321823120117e+00,2.655895471572875977e+00,2.706531763076782227e+00,2.759134531021118164e+00,2.813817739486694336e+00,2.870712280273437500e+00,2.929954767227172852e+00,2.991694450378417969e+00,3.056091785430908203e+00,3.123322486877441406e+00,3.193577766418457031e+00,3.267066478729248047e+00,3.344016790390014648e+00,3.424679279327392578e+00,3.509329795837402344e+00,3.598270654678344727e+00,3.691837549209594727e+00,3.790400028228759766e+00,3.894369840621948242e+00,4.004203796386718750e+00,4.120412349700927734e+00,4.243565559387207031e+00,4.374307632446289062e+00,4.513361930847167969e+00,4.661547183990478516e+00,4.819793701171875000e+00,4.989161491394042969e+00,5.000000000000000000e+00,5.000000000000000000e+00,5.000000000000000000e+00,5.000000000000000000e+00,5.000000000000000000e+00,5.000000000000000000e+00,5.000000000000000000e+00,5.000000000000000000e+00,5.000000000000000000e+00,5.000000000000000000e+00,5.000000000000000000e+00,5.000000000000000000e+00,5.000000000000000000e+00,4.205507755279541016e+00,4.208533763885498047e+00,5.000000000000000000e+00,5.000000000000000000e+00,5.000000000000000000e+00,5.000000000000000000e+00,5.000000000000000000e+00,5.000000000000000000e+00,5.000000000000000000e+00,5.000000000000000000e+00,5.000000000000000000e+00,5.000000000000000000e+00,5.000000000000000000e+00,5.000000000000000000e+00,5.000000000000000000e+00,5.000000000000000000e+00,5.000000000000000000e+00,5.000000000000000000e+00,5.000000000000000000e+00,5.000000000000000000e+00,5.000000000000000000e+00
1.932738780975341797e+00,1.959412336349487305e+00,1.986832618713378906e+00,2.015031099319458008e+00,2.044041633605957031e+00,2.073899507522583008e+00,2.104642868041992188e+00,2.136311292648315430e+00,2.168947219848632812e+00,2.202595949172973633e+00,2.237305164337158203e+00,2.273125648498535156e+00,2.310111761093139648e+00,2.348321437835693359e+00,2.387816429138183594e+00,2.428662538528442383e+00,2.470930576324462891e+00,2.514695882797241211e+00,2.560040473937988281e+00,2.607055187225341797e+00,2.655828952789306641e+00,2.706462621688842773e+00,2.759064435958862305e+00,2.813751459121704102e+00,2.870649814605712891e+00,2.929890155792236328e+00,2.991626739501953125e+00,3.056021213531494141e+00,3.123248577117919922e+00,3.193500757217407227e+00,3.266985654830932617e+00,3.343932151794433594e+00,3.424590826034545898e+00,3.509236574172973633e+00,3.598173141479492188e+00,3.691734313964843750e+00,3.790291547775268555e+00,3.894254922866821289e+00,4.004082679748535156e+00,4.120285034179687500e+00,4.243432521820068359e+00,4.374166011810302734e+00,4.513211250305175781e+00,4.661386489868164062e+00,4.819622039794921875e+00,4.988977432250976562e+00,5.000000000000000000e+00,5.000000000000000000e+00,5.000000000000000000e+00,5.000000000000000000e+00,5.000000000000000000e+00,5.000000000000000000e+00,5.000000000000000000e+00,5.000000000000000000e+00,5.000000000000000000e+00,5.000000000000000000e+00,5.000000000000000000e+00,5.000000000000000000e+00,5.000000000000000000e+00,4.318901062011718750e+00,4.252347946166992188e+00,5.000000000000000000e+00,4.148656368255615234e+00,5.000000000000000000e+00,5.000000000000000000e+00,5.000000000000000000e+00,5.000000000000000000e+00,5.000000000000000000e+00,5.000000000000000000e+00,5.000000000000000000e+00,5.000000000000000000e+00,5.000000000000000000e+00,5.000000000000000000e+00,5.000000000000000000e+00,5.000000000000000000e+00,5.000000000000000000e+00,5.000000000000000000e+00,5.000000000000000000e+00,5.000000000000000000e+00,5.000000000000000000e+00
1.932710647583007812e+00,1.959383606910705566e+00,1.986802935600280762e+00,2.015000581741333008e+00,2.044010162353515625e+00,2.073867321014404297e+00,2.104609489440917969e+00,2.136276960372924805e+00,2.168911933898925781e+00,2.202559232711791992e+00,2.237267255783081055e+00,2.273086786270141602e+00,2.310071468353271484e+00,2.348279953002929688e+00,2.387773513793945312e+00,2.428618192672729492e+00,2.470884561538696289e+00,2.514648199081420898e+00,2.559990167617797852e+00,2.606997013092041016e+00,2.655762910842895508e+00,2.706393957138061523e+00,2.758993148803710938e+00,2.813677310943603516e+00,2.870573043823242188e+00,2.929817199707031250e+00,2.991558551788330078e+00,3.055950641632080078e+00,3.123175144195556641e+00,3.193423509597778320e+00,3.266904830932617188e+00,3.343847751617431641e+00,3.424502134323120117e+00,3.509143590927124023e+00,3.598075151443481445e+00,3.691631555557250977e+00,3.790182828903198242e+00,3.894140243530273438e+00,4.003961563110351562e+00,4.120156764984130859e+00,4.243297576904296875e+00,4.374024868011474609e+00,4.513061046600341797e+00,4.661226272583007812e+00,4.819450378417968750e+00,4.988793849945068359e+00,5.000000000000000000e+00,5.000000000000000000e+00,5.000000000000000000e+00,5.000000000000000000e+00,5.000000000000000000e+00,5.000000000000000000e+00,5.000000000000000000e+00,5.000000000000000000e+00,5.000000000000000000e+00,5.000000000000000000e+00,5.000000000000000000e+00,5.000000000000000000e+00,4.281351566314697266e+00,4.244647502899169922e+00,4.175721645355224609e+00,4.137044429779052734e+00,4.130464076995849609e+00,4.114657878875732422e+00,5.000000000000000000e+00,5.000000000000000000e+00,5.000000000000000000e+00,5.000000000000000000e+00,5.000000000000000000e+00,5.000000000000000000e+00,5.000000000000000000e+00,5.000000000000000000e+00,5.000000000000000000e+00,5.000000000000000000e+00,5.000000000000000000e+00,5.000000000000000000e+00,5.000000000000000000e+00,5.000000000000000000e+00,5.000000000000000000e+00,5.000000000000000000e+00
1.932682394981384277e+00,1.959354519844055176e+00,1.986773133277893066e+00,2.014969825744628906e+00,2.043978691101074219e+00,2.073834896087646484e+00,2.104576110839843750e+00,2.136242628097534180e+00,2.168876409530639648e+00,2.202522754669189453e+00,2.237229585647583008e+00,2.273047685623168945e+00,2.310031414031982422e+00,2.348238468170166016e+00,2.387730598449707031e+00,2.428573846817016602e+00,2.470838785171508789e+00,2.514600753784179688e+00,2.559940576553344727e+00,2.606945753097534180e+00,2.655709505081176758e+00,2.706332206726074219e+00,2.758922338485717773e+00,2.813602924346923828e+00,2.870495557785034180e+00,2.929736614227294922e+00,2.991474151611328125e+00,3.055869817733764648e+00,3.123098850250244141e+00,3.193346500396728516e+00,3.266824245452880859e+00,3.343763113021850586e+00,3.424413681030273438e+00,3.509050369262695312e+00,3.597977638244628906e+00,3.691528320312500000e+00,3.790074110031127930e+00,3.894025802612304688e+00,4.003840446472167969e+00,4.120028495788574219e+00,4.243161201477050781e+00,4.373881340026855469e+00,4.512910842895507812e+00,4.661065578460693359e+00,4.819279193878173828e+00,4.988609790802001953e+00,5.000000000000000000e+00,5.000000000000000000e+00,5.000000000000000000e+00,5.000000000000000000e+00,5.000000000000000000e+00,5.000000000000000000e+00,5.000000000000000000e+00,5.000000000000000000e+00,5.000000000000000000e+00,5.000000000000000000e+00,5.000000000000000000e+00,4.344859600067138672e+00,4.237547874450683594e+00,4.176324367523193359e+00,4.142425060272216797e+00,4.135925769805908203e+00,4.150082588195800781e+00,4.128662109375000000e+00,5.000000000000000000e+00,5.000000000000000000e+00,5.000000000000000000e+00,5.000000000000000000e+00,5.000000000000000000e+00,5.000000000000000000e+00,5.000000000000000000e+00,5.000000000000000000e+00,5.000000000000000000e+00,5.000000000000000000e+00,5.000000000000000000e+00,5.000000000000000000e+00,5.000000000000000000e+00,5.000000000000000000e+00,5.000000000000000000e+00,5.000000000000000000e+00
1.932654380798339844e+00,1.959325671195983887e+00,1.986743450164794922e+00,2.014939308166503906e+00,2.043947219848632812e+00,2.073802471160888672e+00,2.104542732238769531e+00,2.136208295822143555e+00,2.168841123580932617e+00,2.202486276626586914e+00,2.237191915512084961e+00,2.273008823394775391e+00,2.309991121292114258e+00,2.348196744918823242e+00,2.387687683105468750e+00,2.428529500961303711e+00,2.470792770385742188e+00,2.514553070068359375e+00,2.559891462326049805e+00,2.606894731521606445e+00,2.655656576156616211e+00,2.706276893615722656e+00,2.758864879608154297e+00,2.813537120819091797e+00,2.870419979095458984e+00,2.929655790328979492e+00,2.991390228271484375e+00,3.055782318115234375e+00,3.123007297515869141e+00,3.193257093429565430e+00,3.266739845275878906e+00,3.343678951263427734e+00,3.424324989318847656e+00,3.508957624435424805e+00,3.597879648208618164e+00,3.691425323486328125e+00,3.789965867996215820e+00,3.893911123275756836e+00,4.003719329833984375e+00,4.119900226593017578e+00,4.243025302886962891e+00,4.373736381530761719e+00,4.512757301330566406e+00,4.660905361175537109e+00,4.819107532501220703e+00,4.988426208496093750e+00,5.000000000000000000e+00,5.000000000000000000e+00,5.000000000000000000e+00,5.000000000000000000e+00,5.000000000000000000e+00,5.000000000000000000e+00,5.000000000000000000e+00,5.000000000000000000e+00,5.000000000000000000e+00,5.000000000000000000e+00,5.000000000000000000e+00,4.374503135681152344e+00,4.237208843231201172e+00,4.176389694213867188e+00,4.147927284240722656e+00,4.139661788940429688e+00,4.152503013610839844e+00,4.139091968536376953e+00,5.000000000000000000e+00,5.000000000000000000e+00,5.000000000000000000e+00,5.000000000000000000e+00,5.000000000000000000e+00,5.000000000000000000e+00,5.000000000000000000e+00,5.000000000000000000e+00,5.000000000000000000e+00,5.000000000000000000e+00,5.000000000000000000e+00,5.000000000000000000e+00,5.000000000000000000e+00,5.000000000000000000e+00,5.000000000000000000e+00,5.000000000000000000e+00
1.932626366615295410e+00,1.959296822547912598e+00,1.986713767051696777e+00,2.014908790588378906e+00,2.043915748596191406e+00,2.073770046234130859e+00,2.104509353637695312e+00,2.136173725128173828e+00,2.168805599212646484e+00,2.202449798583984375e+00,2.237154245376586914e+00,2.272969961166381836e+00,2.309951066970825195e+00,2.348155498504638672e+00,2.387644767761230469e+00,2.428484916687011719e+00,2.470746755599975586e+00,2.514505386352539062e+00,2.559842109680175781e+00,2.606843471527099609e+00,2.655603408813476562e+00,2.706222057342529297e+00,2.758807659149169922e+00,2.813477516174316406e+00,2.870357990264892578e+00,2.929585695266723633e+00,2.991309404373168945e+00,3.055694580078125000e+00,3.122915744781494141e+00,3.193161249160766602e+00,3.266639471054077148e+00,3.343579292297363281e+00,3.424230575561523438e+00,3.508864402770996094e+00,3.597781658172607422e+00,3.691322565078735352e+00,3.789857149124145508e+00,3.893796682357788086e+00,4.003598213195800781e+00,4.119771957397460938e+00,4.242889404296875000e+00,4.373591899871826172e+00,4.512602806091308594e+00,4.660740852355957031e+00,4.818935871124267578e+00,4.988242149353027344e+00,5.000000000000000000e+00,5.000000000000000000e+00,5.000000000000000000e+00,5.000000000000000000e+00,5.000000000000000000e+00,5.000000000000000000e+00,5.000000000000000000e+00,5.000000000000000000e+00,5.000000000000000000e+00,5.000000000000000000e+00,5.000000000000000000e+00,4.376585006713867188e+00,4.234744548797607422e+00,4.172226428985595703e+00,4.142059326171875000e+00,4.151834487915039062e+00,4.172272682189941406e+00,4.152352809906005859e+00,5.000000000000000000e+00,5.000000000000000000e+00,5.000000000000000000e+00,5.000000000000000000e+00,5.000000000000000000e+00,5.000000000000000000e+00,5.000000000000000000e+00,5.000000000000000000e+00,5.000000000000000000e+00,5.000000000000000000e+00,5.000000000000000000e+00,5.000000000000000000e+00,5.000000000000000000e+00,5.000000000000000000e+00,5.000000000000000000e+00,5.000000000000000000e+00
1.932597994804382324e+00,1.959267735481262207e+00,1.986683964729309082e+00,2.014878273010253906e+00,2.043884277343750000e+00,2.073737621307373047e+00,2.104476213455200195e+00,2.136139631271362305e+00,2.168770313262939453e+00,2.202413082122802734e+00,2.237116575241088867e+00,2.272931098937988281e+00,2.309910774230957031e+00,2.348113775253295898e+00,2.387601852416992188e+00,2.428440570831298828e+00,2.470700740814208984e+00,2.514457941055297852e+00,2.559792518615722656e+00,2.606792211532592773e+00,2.655550003051757812e+00,2.706166744232177734e+00,2.758750438690185547e+00,2.813417911529541016e+00,2.870296001434326172e+00,2.929521322250366211e+00,2.991242170333862305e+00,3.055619478225708008e+00,3.122828960418701172e+00,3.193065404891967773e+00,3.266539096832275391e+00,3.343473911285400391e+00,3.424120187759399414e+00,3.508752822875976562e+00,3.597675561904907227e+00,3.691219329833984375e+00,3.789748668670654297e+00,3.893682003021240234e+00,4.003477096557617188e+00,4.119643688201904297e+00,4.242753505706787109e+00,4.373447418212890625e+00,4.512449264526367188e+00,4.660576820373535156e+00,4.818759918212890625e+00,4.988058567047119141e+00,5.000000000000000000e+00,5.000000000000000000e+00,5.000000000000000000e+00,5.000000000000000000e+00,5.000000000000000000e+00,5.000000000000000000e+00,5.000000000000000000e+00,5.000000000000000000e+00,5.000000000000000000e+00,5.000000000000000000e+00,5.000000000000000000e+00,4.373682975769042969e+00,4.230015277862548828e+00,4.169070243835449219e+00,4.130353927612304688e+00,4.139752864837646484e+00,4.212492465972900391e+00,4.165893554687500000e+00,5.000000000000000000e+00,5.000000000000000000e+00,5.000000000000000000e+00,5.000000000000000000e+00,5.000000000000000000e+00,5.000000000000000000e+00,5.000000000000000000e+00,5.000000000000000000e+00,5.000000000000000000e+00,5.000000000000000000e+00,5.000000000000000000e+00,5.000000000000000000e+00,5.000000000000000000e+00,5.000000000000000000e+00,5.000000000000000000e+00,5.000000000000000000e+00
1.932569980621337891e+00,1.959238886833190918e+00,1.986654281616210938e+00,2.014847517013549805e+00,2.043852806091308594e+00,2.073705196380615234e+00,2.104442834854125977e+00,2.136105060577392578e+00,2.168734788894653320e+00,2.202376842498779297e+00,2.237078905105590820e+00,2.272892236709594727e+00,2.309870481491088867e+00,2.348072290420532227e+00,2.387558937072753906e+00,2.428396224975585938e+00,2.470654726028442383e+00,2.514410257339477539e+00,2.559743404388427734e+00,2.606741189956665039e+00,2.655497074127197266e+00,2.706111431121826172e+00,2.758692979812622070e+00,2.813358306884765625e+00,2.870234012603759766e+00,2.929456472396850586e+00,2.991174697875976562e+00,3.055549383163452148e+00,3.122755765914916992e+00,3.192985057830810547e+00,3.266445636749267578e+00,3.343369007110595703e+00,3.424010038375854492e+00,3.508637189865112305e+00,3.597553968429565430e+00,3.691094160079956055e+00,3.789628982543945312e+00,3.893567800521850586e+00,4.003355979919433594e+00,4.119515419006347656e+00,4.242617130279541016e+00,4.373302936553955078e+00,4.512295246124267578e+00,4.660412788391113281e+00,4.818584442138671875e+00,4.987869739532470703e+00,5.000000000000000000e+00,5.000000000000000000e+00,5.000000000000000000e+00,5.000000000000000000e+00,5.000000000000000000e+00,5.000000000000000000e+00,5.000000000000000000e+00,5.000000000000000000e+00,5.000000000000000000e+00,5.000000000000000000e+00,5.000000000000000000e+00,4.385202884674072266e+00,4.238034248352050781e+00,4.169051170349121094e+00,4.136905670166015625e+00,4.132970809936523438e+00,4.204498767852783203e+00,4.150282859802246094e+00,5.000000000000000000e+00,5.000000000000000000e+00,5.000000000000000000e+00,5.000000000000000000e+00,5.000000000000000000e+00,5.000000000000000000e+00,5.000000000000000000e+00,5.000000000000000000e+00,5.000000000000000000e+00,5.000000000000000000e+00,5.000000000000000000e+00,5.000000000000000000e+00,5.000000000000000000e+00,5.000000000000000000e+00,5.000000000000000000e+00,5.000000000000000000e+00
1.932541966438293457e+00,1.959210157394409180e+00,1.986624598503112793e+00,2.014816999435424805e+00,2.043821334838867188e+00,2.073673009872436523e+00,2.104409456253051758e+00,2.136070728302001953e+00,2.168699264526367188e+00,2.202340126037597656e+00,2.237041234970092773e+00,2.272853374481201172e+00,2.309830427169799805e+00,2.348030805587768555e+00,2.387516021728515625e+00,2.428351640701293945e+00,2.470608711242675781e+00,2.514362573623657227e+00,2.559694051742553711e+00,2.606689929962158203e+00,2.655443906784057617e+00,2.706056594848632812e+00,2.758635759353637695e+00,2.813298702239990234e+00,2.870171785354614258e+00,2.929391860961914062e+00,2.991107225418090820e+00,3.055478811264038086e+00,3.122682094573974609e+00,3.192908287048339844e+00,3.266365528106689453e+00,3.343282461166381836e+00,3.423909187316894531e+00,3.508521795272827148e+00,3.597432374954223633e+00,3.690966367721557617e+00,3.789494037628173828e+00,3.893426418304443359e+00,4.003220081329345703e+00,4.119386196136474609e+00,4.242481231689453125e+00,4.373158454895019531e+00,4.512141704559326172e+00,4.660248756408691406e+00,4.818408966064453125e+00,4.987681865692138672e+00,5.000000000000000000e+00,5.000000000000000000e+00,5.000000000000000000e+00,5.000000000000000000e+00,5.000000000000000000e+00,5.000000000000000000e+00,5.000000000000000000e+00,5.000000000000000000e+00,5.000000000000000000e+00,5.000000000000000000e+00,5.000000000000000000e+00,4.333968639373779297e+00,4.244163990020751953e+00,4.188790321350097656e+00,4.121422767639160156e+00,4.102994441986083984e+00,5.000000000000000000e+00,4.140063762664794922e+00,5.000000000000000000e+00,5.000000000000000000e+00,5.000000000000000000e+00,5.000000000000000000e+00,5.000000000000000000e+00,5.000000000000000000e+00,5.000000000000000000e+00,5.000000000000000000e+00,5.000000000000000000e+00,5.000000000000000000e+00,5.000000000000000000e+00,5.000000000000000000e+00,5.000000000000000000e+00,5.000000000000000000e+00,5.000000000000000000e+00,5.000000000000000000e+00
1.932513713836669922e+00,1.959181070327758789e+00,1.986594796180725098e+00,2.014786481857299805e+00,2.043789863586425781e+00,2.073640584945678711e+00,2.104376077651977539e+00,2.136036396026611328e+00,2.168663978576660156e+00,2.202303647994995117e+00,2.237003564834594727e+00,2.272814273834228516e+00,2.309790372848510742e+00,2.347989320755004883e+00,2.387473106384277344e+00,2.428307533264160156e+00,2.470562934875488281e+00,2.514315128326416016e+00,2.559644699096679688e+00,2.606638908386230469e+00,2.655390739440917969e+00,2.706001281738281250e+00,2.758578300476074219e+00,2.813239097595214844e+00,2.870110034942626953e+00,2.929327487945556641e+00,2.991039991378784180e+00,3.055408477783203125e+00,3.122608661651611328e+00,3.192831277847290039e+00,3.266284942626953125e+00,3.343198060989379883e+00,3.423820734024047852e+00,3.508427858352661133e+00,3.597322463989257812e+00,3.690838813781738281e+00,3.789358854293823242e+00,3.893283605575561523e+00,4.003069400787353516e+00,4.119226455688476562e+00,4.242326259613037109e+00,4.373009681701660156e+00,4.511987686157226562e+00,4.660084724426269531e+00,4.818233489990234375e+00,4.987493515014648438e+00,5.000000000000000000e+00,5.000000000000000000e+00,5.000000000000000000e+00,5.000000000000000000e+00,5.000000000000000000e+00,5.000000000000000000e+00,5.000000000000000000e+00,5.000000000000000000e+00,5.000000000000000000e+00,5.000000000000000000e+00,5.000000000000000000e+00,4.321809291839599609e+00,4.238816738128662109e+00,4.153553962707519531e+00,4.082852840423583984e+00,4.075338840484619141e+00,5.000000000000000000e+00,4.139742851257324219e+00,5.000000000000000000e+00,5.000000000000000000e+00,5.000000000000000000e+00,5.000000000000000000e+00,5.000000000000000000e+00,5.000000000000000000e+00,5.000000000000000000e+00,5.000000000000000000e+00,5.000000000000000000e+00,5.000000000000000000e+00,5.000000000000000000e+00,5.000000000000000000e+00,5.000000000000000000e+00,5.000000000000000000e+00,5.000000000000000000e+00,5.000000000000000000e+00
1.932485580444335938e+00,1.959152221679687500e+00,1.986565113067626953e+00,2.014755964279174805e+00,2.043758392333984375e+00,2.073608160018920898e+00,2.104342699050903320e+00,2.136002063751220703e+00,2.168628454208374023e+00,2.202267169952392578e+00,2.236965894699096680e+00,2.272775411605834961e+00,2.309750080108642578e+00,2.347947835922241211e+00,2.387430191040039062e+00,2.428262948989868164e+00,2.470516920089721680e+00,2.514267444610595703e+00,2.559595346450805664e+00,2.606587886810302734e+00,2.655337810516357422e+00,2.705946207046508789e+00,2.758521080017089844e+00,2.813179492950439453e+00,2.870047807693481445e+00,2.929262638092041016e+00,2.990972518920898438e+00,3.055338382720947266e+00,3.122535467147827148e+00,3.192754745483398438e+00,3.266204595565795898e+00,3.343113899230957031e+00,3.423732280731201172e+00,3.508335113525390625e+00,3.597224950790405273e+00,3.690736293792724609e+00,3.789239168167114258e+00,3.893143892288208008e+00,4.002918720245361328e+00,4.119066715240478516e+00,4.242156982421875000e+00,4.372829914093017578e+00,4.511809349060058594e+00,4.659913063049316406e+00,4.818058013916015625e+00,4.987305641174316406e+00,5.000000000000000000e+00,5.000000000000000000e+00,5.000000000000000000e+00,5.000000000000000000e+00,5.000000000000000000e+00,5.000000000000000000e+00,5.000000000000000000e+00,5.000000000000000000e+00,5.000000000000000000e+00,5.000000000000000000e+00,4.281342029571533203e+00,4.314890861511230469e+00,4.225347518920898438e+00,4.124535560607910156e+00,4.067605972290039062e+00,4.084642887115478516e+00,5.000000000000000000e+00,4.121756076812744141e+00,5.000000000000000000e+00,5.000000000000000000e+00,5.000000000000000000e+00,5.000000000000000000e+00,5.000000000000000000e+00,5.000000000000000000e+00,5.000000000000000000e+00,5.000000000000000000e+00,5.000000000000000000e+00,5.000000000000000000e+00,5.000000000000000000e+00,5.000000000000000000e+00,5.000000000000000000e+00,5.000000000000000000e+00,5.000000000000000000e+00,5.000000000000000000e+00
1.932457566261291504e+00,1.959123373031616211e+00,1.986535429954528809e+00,2.014725446701049805e+00,2.043727159500122070e+00,2.073575735092163086e+00,2.104309320449829102e+00,2.135967731475830078e+00,2.168593168258666992e+00,2.202230691909790039e+00,2.236928224563598633e+00,2.272736549377441406e+00,2.309710025787353516e+00,2.347906351089477539e+00,2.387387275695800781e+00,2.428218603134155273e+00,2.470470905303955078e+00,2.514219760894775391e+00,2.559545993804931641e+00,2.606536626815795898e+00,2.655284643173217773e+00,2.705891132354736328e+00,2.758463859558105469e+00,2.813120126724243164e+00,2.869985818862915039e+00,2.929198026657104492e+00,2.990905046463012695e+00,3.055268049240112305e+00,3.122461795806884766e+00,3.192677974700927734e+00,3.266124486923217773e+00,3.343029975891113281e+00,3.423644304275512695e+00,3.508242130279541016e+00,3.597127437591552734e+00,3.690633535385131836e+00,3.789130926132202148e+00,3.893029689788818359e+00,4.002787113189697266e+00,4.118912696838378906e+00,4.241987705230712891e+00,4.372650623321533203e+00,4.511618137359619141e+00,4.659708976745605469e+00,4.817851543426513672e+00,4.987105369567871094e+00,5.000000000000000000e+00,5.000000000000000000e+00,5.000000000000000000e+00,5.000000000000000000e+00,5.000000000000000000e+00,5.000000000000000000e+00,5.000000000000000000e+00,5.000000000000000000e+00,5.000000000000000000e+00,5.000000000000000000e+00,4.335032939910888672e+00,5.000000000000000000e+00,4.228214740753173828e+00,4.096591472625732422e+00,4.054782390594482422e+00,4.113526821136474609e+00,5.000000000000000000e+00,4.114974021911621094e+00,5.000000000000000000e+00,5.000000000000000000e+00,5.000000000000000000e+00,5.000000000000000000e+00,5.000000000000000000e+00,5.000000000000000000e+00,5.000000000000000000e+00,5.000000000000000000e+00,5.000000000000000000e+00,5.000000000000000000e+00,5.000000000000000000e+00,5.000000000000000000e+00,5.000000000000000000e+00,5.000000000000000000e+00,5.000000000000000000e+00,5.000000000000000000e+00
1.932429313659667969e+00,1.959094405174255371e+00,1.986505627632141113e+00,2.014694690704345703e+00,2.043695688247680664e+00,2.073543310165405273e+00,2.104276180267333984e+00,2.135933399200439453e+00,2.168557882308959961e+00,2.202193975448608398e+00,2.236890554428100586e+00,2.272697687149047852e+00,2.309669733047485352e+00,2.347864866256713867e+00,2.387344360351562500e+00,2.428174257278442383e+00,2.470425128936767578e+00,2.514172315597534180e+00,2.559496641159057617e+00,2.606485366821289062e+00,2.655231475830078125e+00,2.705835819244384766e+00,2.758406400680541992e+00,2.813060283660888672e+00,2.869923830032348633e+00,2.929133653640747070e+00,2.990838050842285156e+00,3.055197715759277344e+00,3.122388362884521484e+00,3.192601203918457031e+00,3.266044139862060547e+00,3.342945575714111328e+00,3.423555850982666016e+00,3.508149862289428711e+00,3.597030162811279297e+00,3.690531253814697266e+00,3.789022684097290039e+00,3.892915487289428711e+00,4.002666473388671875e+00,4.118784904479980469e+00,4.241842269897460938e+00,4.372478961944580078e+00,4.511426925659179688e+00,4.659504890441894531e+00,4.817633628845214844e+00,4.986871719360351562e+00,5.000000000000000000e+00,5.000000000000000000e+00,5.000000000000000000e+00,5.000000000000000000e+00,5.000000000000000000e+00,5.000000000000000000e+00,5.000000000000000000e+00,5.000000000000000000e+00,5.000000000000000000e+00,5.000000000000000000e+00,5.000000000000000000e+00,5.000000000000000000e+00,4.229277133941650391e+00,4.071009159088134766e+00,4.043029785156250000e+00,5.000000000000000000e+00,5.000000000000000000e+00,5.000000000000000000e+00,5.000000000000000000e+00,5.000000000000000000e+00,5.000000000000000000e+00,5.000000000000000000e+00,5.000000000000000000e+00,5.000000000000000000e+00,5.000000000000000000e+00,5.000000000000000000e+00,5.000000000000000000e+00,5.000000000000000000e+00,5.000000000000000000e+00,5.000000000000000000e+00,5.000000000000000000e+00,5.000000000000000000e+00,5.000000000000000000e+00,5.000000000000000000e+00
1.932401299476623535e+00,1.959065556526184082e+00,1.986475944519042969e+00,2.014664173126220703e+00,2.043663978576660156e+00,2.073510885238647461e+00,2.104242801666259766e+00,2.135899066925048828e+00,2.168522357940673828e+00,2.202157497406005859e+00,2.236852884292602539e+00,2.272658824920654297e+00,2.309629440307617188e+00,2.347823143005371094e+00,2.387301206588745117e+00,2.428129673004150391e+00,2.470379114151000977e+00,2.514124631881713867e+00,2.559447526931762695e+00,2.606434345245361328e+00,2.655178546905517578e+00,2.705780744552612305e+00,2.758349180221557617e+00,2.813000679016113281e+00,2.869861841201782227e+00,2.929068803787231445e+00,2.990770578384399414e+00,3.055127620697021484e+00,3.122315168380737305e+00,3.192524671554565430e+00,3.265963554382324219e+00,3.342861413955688477e+00,3.423467636108398438e+00,3.508056879043579102e+00,3.596932649612426758e+00,3.690428495407104492e+00,3.788914680480957031e+00,3.892801523208618164e+00,4.002545833587646484e+00,4.118657112121582031e+00,4.241706848144531250e+00,4.372334957122802734e+00,4.511264801025390625e+00,4.659313201904296875e+00,4.817415237426757812e+00,4.986638069152832031e+00,5.000000000000000000e+00,5.000000000000000000e+00,5.000000000000000000e+00,5.000000000000000000e+00,5.000000000000000000e+00,5.000000000000000000e+00,5.000000000000000000e+00,5.000000000000000000e+00,5.000000000000000000e+00,5.000000000000000000e+00,5.000000000000000000e+00,5.000000000000000000e+00,4.230220317840576172e+00,4.048076152801513672e+00,4.060218334197998047e+00,5.000000000000000000e+00,5.000000000000000000e+00,5.000000000000000000e+00,5.000000000000000000e+00,5.000000000000000000e+00,5.000000000000000000e+00,5.000000000000000000e+00,5.000000000000000000e+00,5.000000000000000000e+00,5.000000000000000000e+00,5.000000000000000000e+00,5.000000000000000000e+00,5.000000000000000000e+00,5.000000000000000000e+00,5.000000000000000000e+00,5.000000000000000000e+00,5.000000000000000000e+00,5.000000000000000000e+00,5.000000000000000000e+00
1.932373166084289551e+00,1.959036707878112793e+00,1.986446380615234375e+00,2.014633655548095703e+00,2.043632745742797852e+00,2.073478698730468750e+00,2.104209184646606445e+00,2.135864496231079102e+00,2.168486833572387695e+00,2.202121019363403320e+00,2.236815214157104492e+00,2.272619962692260742e+00,2.309589385986328125e+00,2.347781896591186523e+00,2.387258529663085938e+00,2.428085327148437500e+00,2.470333099365234375e+00,2.514076948165893555e+00,2.559397935867309570e+00,2.606383085250854492e+00,2.655125379562377930e+00,2.705725669860839844e+00,2.758291959762573242e+00,2.812941312789916992e+00,2.869799613952636719e+00,2.929004192352294922e+00,2.990703105926513672e+00,3.055057048797607422e+00,3.122241735458374023e+00,3.192447662353515625e+00,3.265883445739746094e+00,3.342777490615844727e+00,3.423379421234130859e+00,3.507964134216308594e+00,3.596835136413574219e+00,3.690325736999511719e+00,3.788806438446044922e+00,3.892687320709228516e+00,4.002425193786621094e+00,4.118529319763183594e+00,4.241571426391601562e+00,4.372191429138183594e+00,4.511111259460449219e+00,4.659149646759033203e+00,4.817234039306640625e+00,4.986422061920166016e+00,5.000000000000000000e+00,5.000000000000000000e+00,5.000000000000000000e+00,5.000000000000000000e+00,5.000000000000000000e+00,5.000000000000000000e+00,5.000000000000000000e+00,5.000000000000000000e+00,5.000000000000000000e+00,5.000000000000000000e+00,5.000000000000000000e+00,5.000000000000000000e+00,4.234861373901367188e+00,4.073370456695556641e+00,4.063014030456542969e+00,5.000000000000000000e+00,5.000000000000000000e+00,5.000000000000000000e+00,5.000000000000000000e+00,5.000000000000000000e+00,5.000000000000000000e+00,5.000000000000000000e+00,5.000000000000000000e+00,5.000000000000000000e+00,5.000000000000000000e+00,5.000000000000000000e+00,5.000000000000000000e+00,5.000000000000000000e+00,5.000000000000000000e+00,5.000000000000000000e+00,5.000000000000000000e+00,5.000000000000000000e+00,5.000000000000000000e+00,5.000000000000000000e+00
1.932344913482666016e+00,1.959007620811462402e+00,1.986416459083557129e+00,2.014603137969970703e+00,2.043601274490356445e+00,2.073446273803710938e+00,2.104176044464111328e+00,2.135830402374267578e+00,2.168451547622680664e+00,2.202084541320800781e+00,2.236777305603027344e+00,2.272580862045288086e+00,2.309549331665039062e+00,2.347740173339843750e+00,2.387215614318847656e+00,2.428040981292724609e+00,2.470287322998046875e+00,2.514029502868652344e+00,2.559348583221435547e+00,2.606331825256347656e+00,2.655072212219238281e+00,2.705670595169067383e+00,2.758234739303588867e+00,2.812881708145141602e+00,2.869737863540649414e+00,2.928939819335937500e+00,2.990635871887207031e+00,3.054986715316772461e+00,3.122168064117431641e+00,3.192370891571044922e+00,3.265803098678588867e+00,3.342693328857421875e+00,3.423291206359863281e+00,3.507871866226196289e+00,3.596737861633300781e+00,3.690223455429077148e+00,3.788698196411132812e+00,3.892573118209838867e+00,4.002304553985595703e+00,4.118402004241943359e+00,4.241436004638671875e+00,4.372047424316406250e+00,4.510958194732666016e+00,4.658986568450927734e+00,4.817059040069580078e+00,4.986234664916992188e+00,5.000000000000000000e+00,5.000000000000000000e+00,5.000000000000000000e+00,5.000000000000000000e+00,5.000000000000000000e+00,5.000000000000000000e+00,5.000000000000000000e+00,5.000000000000000000e+00,5.000000000000000000e+00,5.000000000000000000e+00,5.000000000000000000e+00,5.000000000000000000e+00,4.305878162384033203e+00,4.120657444000244141e+00,4.077979087829589844e+00,5.000000000000000000e+00,5.000000000000000000e+00,5.000000000000000000e+00,5.000000000000000000e+00,5.000000000000000000e+00,5.000000000000000000e+00,5.000000000000000000e+00,5.000000000000000000e+00,5.000000000000000000e+00,5.000000000000000000e+00,5.000000000000000000e+00,5.000000000000000000e+00,5.000000000000000000e+00,5.000000000000000000e+00,5.000000000000000000e+00,5.000000000000000000e+00,5.000000000000000000e+00,5.000000000000000000e+00,5.000000000000000000e+00
1.932316899299621582e+00,1.958978891372680664e+00,1.986386895179748535e+00,2.014572381973266602e+00,2.043569803237915039e+00,2.073413848876953125e+00,2.104142665863037109e+00,2.135795831680297852e+00,2.168416023254394531e+00,2.202048063278198242e+00,2.236739873886108398e+00,2.272542238235473633e+00,2.309509038925170898e+00,2.347698688507080078e+00,2.387172698974609375e+00,2.427996635437011719e+00,2.470241308212280273e+00,2.513981819152832031e+00,2.559299468994140625e+00,2.606280803680419922e+00,2.655019283294677734e+00,2.705615282058715820e+00,2.758177280426025391e+00,2.812821865081787109e+00,2.869675636291503906e+00,2.928874969482421875e+00,2.990568399429321289e+00,3.054916620254516602e+00,3.122094869613647461e+00,3.192294359207153320e+00,3.265722751617431641e+00,3.342608928680419922e+00,3.423202753067016602e+00,3.507779121398925781e+00,3.596640348434448242e+00,3.690120935440063477e+00,3.788590431213378906e+00,3.892459392547607422e+00,4.002183914184570312e+00,4.118273735046386719e+00,4.241300106048583984e+00,4.371903419494628906e+00,4.510805130004882812e+00,4.658823013305664062e+00,4.816884040832519531e+00,4.986047744750976562e+00,5.000000000000000000e+00,5.000000000000000000e+00,5.000000000000000000e+00,5.000000000000000000e+00,5.000000000000000000e+00,5.000000000000000000e+00,5.000000000000000000e+00,5.000000000000000000e+00,5.000000000000000000e+00,5.000000000000000000e+00,5.000000000000000000e+00,5.000000000000000000e+00,5.000000000000000000e+00,4.125443935394287109e+00,4.091658115386962891e+00,5.000000000000000000e+00,5.000000000000000000e+00,5.000000000000000000e+00,5.000000000000000000e+00,5.000000000000000000e+00,5.000000000000000000e+00,5.000000000000000000e+00,5.000000000000000000e+00,5.000000000000000000e+00,5.000000000000000000e+00,5.000000000000000000e+00,5.000000000000000000e+00,5.000000000000000000e+00,5.000000000000000000e+00,5.000000000000000000e+00,5.000000000000000000e+00,5.000000000000000000e+00,5.000000000000000000e+00,5.000000000000000000e+00
1.932288885116577148e+00,1.958950042724609375e+00,1.986357212066650391e+00,2.014542102813720703e+00,2.043538331985473633e+00,2.073381423950195312e+00,2.104109287261962891e+00,2.135761499404907227e+00,2.168380737304687500e+00,2.202011585235595703e+00,2.236702203750610352e+00,2.272503137588500977e+00,2.309468984603881836e+00,2.347657203674316406e+00,2.387129783630371094e+00,2.427952051162719727e+00,2.470195293426513672e+00,2.513934135437011719e+00,2.559250116348266602e+00,2.606229543685913086e+00,2.654966115951538086e+00,2.705560445785522461e+00,2.758120059967041016e+00,2.812762498855590820e+00,2.869613647460937500e+00,2.928810358047485352e+00,2.990500926971435547e+00,3.054846286773681641e+00,3.122021436691284180e+00,3.192217588424682617e+00,3.265642642974853516e+00,3.342525005340576172e+00,3.423114776611328125e+00,3.507686138153076172e+00,3.596542835235595703e+00,3.690018177032470703e+00,3.788482189178466797e+00,3.892345190048217773e+00,4.002063274383544922e+00,4.118146419525146484e+00,4.241164684295654297e+00,4.371759414672851562e+00,4.510651588439941406e+00,4.658659458160400391e+00,4.816709518432617188e+00,4.985860347747802734e+00,5.000000000000000000e+00,5.000000000000000000e+00,5.000000000000000000e+00,5.000000000000000000e+00,5.000000000000000000e+00,5.000000000000000000e+00,5.000000000000000000e+00,5.000000000000000000e+00,5.000000000000000000e+00,5.000000000000000000e+00,5.000000000000000000e+00,5.000000000000000000e+00,5.000000000000000000e+00,4.129757404327392578e+00,4.105696678161621094e+00,4.538809299468994141e+00,5.000000000000000000e+00,5.000000000000000000e+00,5.000000000000000000e+00,5.000000000000000000e+00,5.000000000000000000e+00,5.000000000000000000e+00,5.000000000000000000e+00,5.000000000000000000e+00,5.000000000000000000e+00,5.000000000000000000e+00,5.000000000000000000e+00,5.000000000000000000e+00,5.000000000000000000e+00,5.000000000000000000e+00,5.000000000000000000e+00,5.000000000000000000e+00,5.000000000000000000e+00,5.000000000000000000e+00
1.932260632514953613e+00,1.958920955657958984e+00,1.986327290534973145e+00,2.014511346817016602e+00,2.043506860733032227e+00,2.073349237442016602e+00,2.104076147079467773e+00,2.135727167129516602e+00,2.168345212936401367e+00,2.201974868774414062e+00,2.236664295196533203e+00,2.272464275360107422e+00,2.309428691864013672e+00,2.347615718841552734e+00,2.387086868286132812e+00,2.427907943725585938e+00,2.470149278640747070e+00,2.513886690139770508e+00,2.559200763702392578e+00,2.606178522109985352e+00,2.654912948608398438e+00,2.705505132675170898e+00,2.758062839508056641e+00,2.812702894210815430e+00,2.869551658630371094e+00,2.928745985031127930e+00,2.990433931350708008e+00,3.054775953292846680e+00,3.121948003768920898e+00,3.192140579223632812e+00,3.265562057495117188e+00,3.342440843582153320e+00,3.423026323318481445e+00,3.507593870162963867e+00,3.596445798873901367e+00,3.689915895462036133e+00,3.788373947143554688e+00,3.892230749130249023e+00,4.001942634582519531e+00,4.118018627166748047e+00,4.241029739379882812e+00,4.371615409851074219e+00,4.510498523712158203e+00,4.658495903015136719e+00,4.816534996032714844e+00,4.985672950744628906e+00,5.000000000000000000e+00,5.000000000000000000e+00,5.000000000000000000e+00,5.000000000000000000e+00,5.000000000000000000e+00,5.000000000000000000e+00,5.000000000000000000e+00,5.000000000000000000e+00,5.000000000000000000e+00,5.000000000000000000e+00,5.000000000000000000e+00,5.000000000000000000e+00,5.000000000000000000e+00,4.136455059051513672e+00,4.121603488922119141e+00,4.526331424713134766e+00,5.000000000000000000e+00,5.000000000000000000e+00,5.000000000000000000e+00,5.000000000000000000e+00,5.000000000000000000e+00,5.000000000000000000e+00,5.000000000000000000e+00,5.000000000000000000e+00,5.000000000000000000e+00,5.000000000000000000e+00,5.000000000000000000e+00,5.000000000000000000e+00,5.000000000000000000e+00,5.000000000000000000e+00,5.000000000000000000e+00,5.000000000000000000e+00,5.000000000000000000e+00,5.000000000000000000e+00
1.932232618331909180e+00,1.958892107009887695e+00,1.986297726631164551e+00,2.014480829238891602e+00,2.043475389480590820e+00,2.073316812515258789e+00,2.104042530059814453e+00,2.135692834854125977e+00,2.168309926986694336e+00,2.201938629150390625e+00,2.236626863479614258e+00,2.272425413131713867e+00,2.309388637542724609e+00,2.347574234008789062e+00,2.387043952941894531e+00,2.427863359451293945e+00,2.470103263854980469e+00,2.513839006423950195e+00,2.559151411056518555e+00,2.606127500534057617e+00,2.654860019683837891e+00,2.705450057983398438e+00,2.758005380630493164e+00,2.812643289566040039e+00,2.869489669799804688e+00,2.928681373596191406e+00,2.990366458892822266e+00,3.054705858230590820e+00,3.121874809265136719e+00,3.192064046859741211e+00,3.265481710433959961e+00,3.342356681823730469e+00,3.422938108444213867e+00,3.507501125335693359e+00,3.596348285675048828e+00,3.689813375473022461e+00,3.788266181945800781e+00,3.892117023468017578e+00,4.001821994781494141e+00,4.117890834808349609e+00,4.240893840789794922e+00,4.371471405029296875e+00,4.510345458984375000e+00,4.658332824707031250e+00,4.816359996795654297e+00,4.985486030578613281e+00,5.000000000000000000e+00,5.000000000000000000e+00,5.000000000000000000e+00,5.000000000000000000e+00,5.000000000000000000e+00,5.000000000000000000e+00,5.000000000000000000e+00,5.000000000000000000e+00,5.000000000000000000e+00,5.000000000000000000e+00,5.000000000000000000e+00,5.000000000000000000e+00,5.000000000000000000e+00,5.000000000000000000e+00,4.158872127532958984e+00,4.519024848937988281e+00,5.000000000000000000e+00,5.000000000000000000e+00,5.000000000000000000e+00,5.000000000000000000e+00,5.000000000000000000e+00,5.000000000000000000e+00,5.000000000000000000e+00,5.000000000000000000e+00,5.000000000000000000e+00,5.000000000000000000e+00,5.000000000000000000e+00,5.000000000000000000e+00,5.000000000000000000e+00,5.000000000000000000e+00,5.000000000000000000e+00,5.000000000000000000e+00,5.000000000000000000e+00,5.000000000000000000e+00
1.932204484939575195e+00,1.958863377571105957e+00,1.986268043518066406e+00,2.014450311660766602e+00,2.043444156646728516e+00,2.073284387588500977e+00,2.104009151458740234e+00,2.135658502578735352e+00,2.168274402618408203e+00,2.201901912689208984e+00,2.236589193344116211e+00,2.272386550903320312e+00,2.309348583221435547e+00,2.347532749176025391e+00,2.387001037597656250e+00,2.427819013595581055e+00,2.470057487487792969e+00,2.513791322708129883e+00,2.559102058410644531e+00,2.606076240539550781e+00,2.654807090759277344e+00,2.705394983291625977e+00,2.757948398590087891e+00,2.812583923339843750e+00,2.869427680969238281e+00,2.928616762161254883e+00,2.990298986434936523e+00,3.054635524749755859e+00,3.121801376342773438e+00,3.191987276077270508e+00,3.265401601791381836e+00,3.342272758483886719e+00,3.422850131988525391e+00,3.507408380508422852e+00,3.596250772476196289e+00,3.689710617065429688e+00,3.788158178329467773e+00,3.892002820968627930e+00,4.001701354980468750e+00,4.117763042449951172e+00,4.240758419036865234e+00,4.371327877044677734e+00,4.510192394256591797e+00,4.658169269561767578e+00,4.816185474395751953e+00,4.820077896118164062e+00,4.818896770477294922e+00,4.817716121673583984e+00,4.816535472869873047e+00,4.815355777740478516e+00,4.814177036285400391e+00,4.812998294830322266e+00,4.811820507049560547e+00,4.810643196105957031e+00,4.809466361999511719e+00,4.808290004730224609e+00,4.807114601135253906e+00,4.805939674377441406e+00,4.097770690917968750e+00,4.088984489440917969e+00,4.161732196807861328e+00,4.801245212554931641e+00,4.800072669982910156e+00,4.798901557922363281e+00,4.797730445861816406e+00,4.796559810638427734e+00,4.795390129089355469e+00,4.794220447540283203e+00,4.793052196502685547e+00,4.791883945465087891e+00,4.790716648101806641e+00,4.789549350738525391e+00,4.788383007049560547e+00,4.787217140197753906e+00,4.786051750183105469e+00,4.784886837005615234e+00,4.783722877502441406e+00,4.782558917999267578e+00,4.781395912170410156e+00,4.780233860015869141e+00
1.932176232337951660e+00,1.958834290504455566e+00,1.986238241195678711e+00,2.014419794082641602e+00,2.043412446975708008e+00,2.073251962661743164e+00,2.103976011276245117e+00,2.135624170303344727e+00,2.168238878250122070e+00,2.201865434646606445e+00,2.236551284790039062e+00,2.272347688674926758e+00,2.309308290481567383e+00,2.347491264343261719e+00,2.386958122253417969e+00,2.427774667739868164e+00,2.470011472702026367e+00,2.513743877410888672e+00,2.559052705764770508e+00,2.606024980545043945e+00,2.654753923416137695e+00,2.705339908599853516e+00,2.757890939712524414e+00,2.812524080276489258e+00,2.869365692138671875e+00,2.928552150726318359e+00,2.990231990814208984e+00,3.054565191268920898e+00,3.121727943420410156e+00,3.191910505294799805e+00,3.265321254730224609e+00,3.342188596725463867e+00,3.422761678695678711e+00,3.507315874099731445e+00,3.596153497695922852e+00,3.689608335494995117e+00,3.751494884490966797e+00,3.750778913497924805e+00,3.750063419342041016e+00,3.749348163604736328e+00,3.748633623123168945e+00,3.747918844223022461e+00,3.747204303741455078e+00,3.746490478515625000e+00,3.745776176452636719e+00,3.745063066482543945e+00,3.744349718093872070e+00,3.743636846542358398e+00,3.742924213409423828e+00,3.742211580276489258e+00,3.741499662399291992e+00,3.740787744522094727e+00,3.740076303482055664e+00,3.739364862442016602e+00,3.738653659820556641e+00,3.737943172454833984e+00,3.737232685089111328e+00,3.736522436141967773e+00,3.735812425613403320e+00,3.735102653503417969e+00,3.734393358230590820e+00,3.733684062957763672e+00,3.732975006103515625e+00,3.732266664505004883e+00,3.731558084487915039e+00,3.730850219726562500e+00,3.730142354965209961e+00,3.729434728622436523e+00,3.728727579116821289e+00,3.728020429611206055e+00,3.727313995361328125e+00,3.726607322692871094e+00,3.725900888442993164e+00,3.725195169448852539e+00,3.724489450454711914e+00,3.723784208297729492e+00,3.723078966140747070e+00,3.722373962402343750e+00,3.721669673919677734e+00,3.720965147018432617e+00
1.932148218154907227e+00,1.958805441856384277e+00,1.986208558082580566e+00,2.014389038085937500e+00,2.043380975723266602e+00,2.073219537734985352e+00,2.103942632675170898e+00,2.135589838027954102e+00,2.168203592300415039e+00,2.201828956604003906e+00,2.236513853073120117e+00,2.272308826446533203e+00,2.309267997741699219e+00,2.347449779510498047e+00,2.386915206909179688e+00,2.427730321884155273e+00,2.469965457916259766e+00,2.513696193695068359e+00,2.559003591537475586e+00,2.605973958969116211e+00,2.654700994491577148e+00,2.705284595489501953e+00,2.757833719253540039e+00,2.812464475631713867e+00,2.869303703308105469e+00,2.928487539291381836e+00,2.990164518356323242e+00,3.054495096206665039e+00,3.070252180099487305e+00,3.069772720336914062e+00,3.069293260574340820e+00,3.068814039230346680e+00,3.068335294723510742e+00,3.067856550216674805e+00,3.067377805709838867e+00,3.066899538040161133e+00,3.066421031951904297e+00,3.065942764282226562e+00,3.065464735031127930e+00,3.064986944198608398e+00,3.064509153366088867e+00,3.064031600952148438e+00,3.063554286956787109e+00,3.063076972961425781e+00,3.062599658966064453e+00,3.062122583389282227e+00,3.061645984649658203e+00,3.061169147491455078e+00,3.060692310333251953e+00,3.060215950012207031e+00,3.059739589691162109e+00,3.059263706207275391e+00,3.058787584304809570e+00,3.058311700820922852e+00,3.057836294174194336e+00,3.057360649108886719e+00,3.056885480880737305e+00,3.056410074234008789e+00,3.055934906005859375e+00,3.055460214614868164e+00,3.054985284805297852e+00,3.054511070251464844e+00,3.054036378860473633e+00,3.053561925888061523e+00,3.053087949752807617e+00,3.052613735198974609e+00,3.052140235900878906e+00,3.051666259765625000e+00,3.051192522048950195e+00,3.050719261169433594e+00,3.050246000289916992e+00,3.049772977828979492e+00,3.049299955368041992e+00,3.048826932907104492e+00,3.048354387283325195e+00,3.047881841659545898e+00,3.047409534454345703e+00,3.046937227249145508e+00,3.046464920043945312e+00,3.045993089675903320e+00
1.932120203971862793e+00,1.958776593208312988e+00,1.986178994178771973e+00,2.014358758926391602e+00,2.043349742889404297e+00,2.073187112808227539e+00,2.103909254074096680e+00,2.135555505752563477e+00,2.168168306350708008e+00,2.201792478561401367e+00,2.236476182937622070e+00,2.272269964218139648e+00,2.309227943420410156e+00,2.347408294677734375e+00,2.386872291564941406e+00,2.427685737609863281e+00,2.469919443130493164e+00,2.513648748397827148e+00,2.558954238891601562e+00,2.598745346069335938e+00,2.598402023315429688e+00,2.598058700561523438e+00,2.597715377807617188e+00,2.597372293472290039e+00,2.597029209136962891e+00,2.596686124801635742e+00,2.596343040466308594e+00,2.596000432968139648e+00,2.595657587051391602e+00,2.595314979553222656e+00,2.594972372055053711e+00,2.594630002975463867e+00,2.594287395477294922e+00,2.593945264816284180e+00,2.593603134155273438e+00,2.593261003494262695e+00,2.592918872833251953e+00,2.592576980590820312e+00,2.592235088348388672e+00,2.591893434524536133e+00,2.591551780700683594e+00,2.591210126876831055e+00,2.590868711471557617e+00,2.590527296066284180e+00,2.590185880661010742e+00,2.589844942092895508e+00,2.589503765106201172e+00,2.589162588119506836e+00,2.588821649551391602e+00,2.588480949401855469e+00,2.588140010833740234e+00,2.587799310684204102e+00,2.587458848953247070e+00,2.587118148803710938e+00,2.586777687072753906e+00,2.586437702178955078e+00,2.586097240447998047e+00,2.585757255554199219e+00,2.585417270660400391e+00,2.585077285766601562e+00,2.584737539291381836e+00,2.584397792816162109e+00,2.584058046340942383e+00,2.583718538284301758e+00,2.583379030227661133e+00,2.583039760589599609e+00,2.582700252532958984e+00,2.582360982894897461e+00,2.582021951675415039e+00,2.581682920455932617e+00,2.581344127655029297e+00,2.581005096435546875e+00,2.580666303634643555e+00,2.580327749252319336e+00,2.579989194869995117e+00,2.579650640487670898e+00,2.579312324523925781e+00,2.578973770141601562e+00,2.578635692596435547e+00,2.578297376632690430e+00
1.932091951370239258e+00,1.958747625350952148e+00,1.986149072647094727e+00,2.014328002929687500e+00,2.043318271636962891e+00,2.073154926300048828e+00,2.103876113891601562e+00,2.135521173477172852e+00,2.168132781982421875e+00,2.201756000518798828e+00,2.236438512802124023e+00,2.252522230148315430e+00,2.252264261245727539e+00,2.252006292343139648e+00,2.251748323440551758e+00,2.251490354537963867e+00,2.251232624053955078e+00,2.250974893569946289e+00,2.250717163085937500e+00,2.250459432601928711e+00,2.250201940536499023e+00,2.249944448471069336e+00,2.249686956405639648e+00,2.249429464340209961e+00,2.249172210693359375e+00,2.248914957046508789e+00,2.248657703399658203e+00,2.248400449752807617e+00,2.248143434524536133e+00,2.247886419296264648e+00,2.247629404067993164e+00,2.247372388839721680e+00,2.247115612030029297e+00,2.246858835220336914e+00,2.246602058410644531e+00,2.246345281600952148e+00,2.246088743209838867e+00,2.245832204818725586e+00,2.245575666427612305e+00,2.245319128036499023e+00,2.245062589645385742e+00,2.244806528091430664e+00,2.244549989700317383e+00,2.244293928146362305e+00,2.244037866592407227e+00,2.243781566619873047e+00,2.243525505065917969e+00,2.243269443511962891e+00,2.243013620376586914e+00,2.242757797241210938e+00,2.242501974105834961e+00,2.242246150970458984e+00,2.241990566253662109e+00,2.241734743118286133e+00,2.241479158401489258e+00,2.241223812103271484e+00,2.240968227386474609e+00,2.240712642669677734e+00,2.240457296371459961e+00,2.240202188491821289e+00,2.239946842193603516e+00,2.239691734313964844e+00,2.239436626434326172e+00,2.239181518554687500e+00,2.238926649093627930e+00,2.238671541213989258e+00,2.238416910171508789e+00,2.238162040710449219e+00,2.237907171249389648e+00,2.237652540206909180e+00,2.237397909164428711e+00,2.237143278121948242e+00,2.236888885498046875e+00,2.236634254455566406e+00,2.236379861831665039e+00,2.236125469207763672e+00,2.235871315002441406e+00,2.235616922378540039e+00,2.235362768173217773e+00,2.235108852386474609e+00
1.932063937187194824e+00,1.958718776702880859e+00,1.986119508743286133e+00,1.987705945968627930e+00,1.987505078315734863e+00,1.987303972244262695e+00,1.987103223800659180e+00,1.986902475357055664e+00,1.986701607704162598e+00,1.986500859260559082e+00,1.986300110816955566e+00,1.986099481582641602e+00,1.985898971557617188e+00,1.985698223114013672e+00,1.985497832298278809e+00,1.985297441482543945e+00,1.985096812248229980e+00,1.984896421432495117e+00,1.984696149826049805e+00,1.984495639801025391e+00,1.984295487403869629e+00,1.984095096588134766e+00,1.983894944190979004e+00,1.983694791793823242e+00,1.983494520187377930e+00,1.983294606208801270e+00,1.983094573020935059e+00,1.982894420623779297e+00,1.982694506645202637e+00,1.982494711875915527e+00,1.982294678688049316e+00,1.982094883918762207e+00,1.981895208358764648e+00,1.981695294380187988e+00,1.981495618820190430e+00,1.981295824050903320e+00,1.981096148490905762e+00,1.980896711349487305e+00,1.980696916580200195e+00,1.980497479438781738e+00,1.980298161506652832e+00,1.980098485946655273e+00,1.979899168014526367e+00,1.979699850082397461e+00,1.979500412940979004e+00,1.979301214218139648e+00,1.979101777076721191e+00,1.978902697563171387e+00,1.978703618049621582e+00,1.978504300117492676e+00,1.978305339813232422e+00,1.978106379508972168e+00,1.977907180786132812e+00,1.977708339691162109e+00,1.977509498596191406e+00,1.977310419082641602e+00,1.977111697196960449e+00,1.976912736892700195e+00,1.976714015007019043e+00,1.976515412330627441e+00,1.976316571235656738e+00,1.976117730140686035e+00,1.975919246673583984e+00,1.975720763206481934e+00,1.975522041320800781e+00,1.975323677062988281e+00,1.975125312805175781e+00,1.974926710128784180e+00,1.974728465080261230e+00,1.974530220031738281e+00,1.974331974983215332e+00,1.974133610725402832e+00,1.973935484886169434e+00,1.973737359046936035e+00,1.973539113998413086e+00,1.973341107368469238e+00,1.973143100738525391e+00,1.972944974899291992e+00,1.972747087478637695e+00,1.972549200057983398e+00
1.777801156044006348e+00,1.777640461921691895e+00,1.777479767799377441e+00,1.777318954467773438e+00,1.777158379554748535e+00,1.776997685432434082e+00,1.776837110519409180e+00,1.776676654815673828e+00,1.776515960693359375e+00,1.776355504989624023e+00,1.776195168495178223e+00,1.776034593582153320e+00,1.775874137878417969e+00,1.775713801383972168e+00,1.775553345680236816e+00,1.775393128395080566e+00,1.775232672691345215e+00,1.775072455406188965e+00,1.774912238121032715e+00,1.774751901626586914e+00,1.774591803550720215e+00,1.774431705474853516e+00,1.774271488189697266e+00,1.774111390113830566e+00,1.773951411247253418e+00,1.773791193962097168e+00,1.773631215095520020e+00,1.773471117019653320e+00,1.773311257362365723e+00,1.773151397705078125e+00,1.772991299629211426e+00,1.772831559181213379e+00,1.772671699523925781e+00,1.772511839866638184e+00,1.772352099418640137e+00,1.772192358970642090e+00,1.772032499313354492e+00,1.771872878074645996e+00,1.771713137626647949e+00,1.771553516387939453e+00,1.771394014358520508e+00,1.771234273910522461e+00,1.771074771881103516e+00,1.770915269851684570e+00,1.770755648612976074e+00,1.770596265792846680e+00,1.770436882972717285e+00,1.770277380943298340e+00,1.770117998123168945e+00,1.769958496093750000e+00,1.769799232482910156e+00,1.769640088081359863e+00,1.769480586051940918e+00,1.769321441650390625e+00,1.769162297248840332e+00,1.769003033638000488e+00,1.768843889236450195e+00,1.768684864044189453e+00,1.768525600433349609e+00,1.768366575241088867e+00,1.768207430839538574e+00,1.768048524856567383e+00,1.767889618873596191e+00,1.767730474472045898e+00,1.767571449279785156e+00,1.767412662506103516e+00,1.767253756523132324e+00,1.767094850540161133e+00,1.766936063766479492e+00,1.766777396202087402e+00,1.766618490219116211e+00,1.766459822654724121e+00,1.766301155090332031e+00,1.766142368316650391e+00,1.765983819961547852e+00,1.765825271606445312e+00,1.765666723251342773e+00,1.765508174896240234e+00,1.765349626541137695e+00,1.765191197395324707e+00
1.607600092887878418e+00,1.607468605041503906e+00,1.607337236404418945e+00,1.607205748558044434e+00,1.607074499130249023e+00,1.606943130493164062e+00,1.606811761856079102e+00,1.606680512428283691e+00,1.606549143791198730e+00,1.606417894363403320e+00,1.606286644935607910e+00,1.606155395507812500e+00,1.606024265289306641e+00,1.605893135070800781e+00,1.605761766433715820e+00,1.605630755424499512e+00,1.605499625205993652e+00,1.605368494987487793e+00,1.605237483978271484e+00,1.605106234550476074e+00,1.604975342750549316e+00,1.604844331741333008e+00,1.604713320732116699e+00,1.604582309722900391e+00,1.604451417922973633e+00,1.604320406913757324e+00,1.604189634323120117e+00,1.604058742523193359e+00,1.603927850723266602e+00,1.603796958923339844e+00,1.603666067123413086e+00,1.603535294532775879e+00,1.603404641151428223e+00,1.603273749351501465e+00,1.603143095970153809e+00,1.603012442588806152e+00,1.602881669998168945e+00,1.602751016616821289e+00,1.602620482444763184e+00,1.602489709854125977e+00,1.602359175682067871e+00,1.602228522300720215e+00,1.602097988128662109e+00,1.601967453956604004e+00,1.601836800575256348e+00,1.601706385612487793e+00,1.601575970649719238e+00,1.601445436477661133e+00,1.601315021514892578e+00,1.601184725761413574e+00,1.601054191589355469e+00,1.600923895835876465e+00,1.600793600082397461e+00,1.600663185119628906e+00,1.600532889366149902e+00,1.600402474403381348e+00,1.600272297859191895e+00,1.600142121315002441e+00,1.600011825561523438e+00,1.599881649017333984e+00,1.599751472473144531e+00,1.599621176719665527e+00,1.599491119384765625e+00,1.599361062049865723e+00,1.599230885505676270e+00,1.599100828170776367e+00,1.598970651626586914e+00,1.598840713500976562e+00,1.598710775375366211e+00,1.598580479621887207e+00,1.598450660705566406e+00,1.598320722579956055e+00,1.598190665245056152e+00,1.598060846328735352e+00,1.597931027412414551e+00,1.597801208496093750e+00,1.597671270370483398e+00,1.597541451454162598e+00,1.597411751747131348e+00,1.597281813621520996e+00
1.467140555381774902e+00,1.467031121253967285e+00,1.466921806335449219e+00,1.466812252998352051e+00,1.466702818870544434e+00,1.466593503952026367e+00,1.466483950614929199e+00,1.466374635696411133e+00,1.466265320777893066e+00,1.466155886650085449e+00,1.466046571731567383e+00,1.465937256813049316e+00,1.465827941894531250e+00,1.465718746185302734e+00,1.465609431266784668e+00,1.465500235557556152e+00,1.465391039848327637e+00,1.465281724929809570e+00,1.465172529220581055e+00,1.465063452720642090e+00,1.464954137802124023e+00,1.464845061302185059e+00,1.464735984802246094e+00,1.464626789093017578e+00,1.464517712593078613e+00,1.464408516883850098e+00,1.464299559593200684e+00,1.464190483093261719e+00,1.464081406593322754e+00,1.463972449302673340e+00,1.463863492012023926e+00,1.463754415512084961e+00,1.463645458221435547e+00,1.463536500930786133e+00,1.463427543640136719e+00,1.463318586349487305e+00,1.463209629058837891e+00,1.463100790977478027e+00,1.462991952896118164e+00,1.462882995605468750e+00,1.462774276733398438e+00,1.462665438652038574e+00,1.462556600570678711e+00,1.462447762489318848e+00,1.462339043617248535e+00,1.462230205535888672e+00,1.462121605873107910e+00,1.462012767791748047e+00,1.461904048919677734e+00,1.461795449256896973e+00,1.461686611175537109e+00,1.461578011512756348e+00,1.461469411849975586e+00,1.461360692977905273e+00,1.461252212524414062e+00,1.461143612861633301e+00,1.461034893989562988e+00,1.460926413536071777e+00,1.460817813873291016e+00,1.460709333419799805e+00,1.460600852966308594e+00,1.460492253303527832e+00,1.460383772850036621e+00,1.460275411605834961e+00,1.460166811943054199e+00,1.460058450698852539e+00,1.459950089454650879e+00,1.459841609001159668e+00,1.459733247756958008e+00,1.459624767303466797e+00,1.459516525268554688e+00,1.459408164024353027e+00,1.459299802780151367e+00,1.459191322326660156e+00,1.459083080291748047e+00,1.458974719047546387e+00,1.458866596221923828e+00,1.458758354187011719e+00,1.458649992942810059e+00,1.458541870117187500e+00
1.349253535270690918e+00,1.349160790443420410e+00,1.349068284034729004e+00,1.348975777626037598e+00,1.348883152008056641e+00,1.348790645599365234e+00,1.348698019981384277e+00,1.348605632781982422e+00,1.348513126373291016e+00,1.348420619964599609e+00,1.348328113555908203e+00,1.348235726356506348e+00,1.348143219947814941e+00,1.348050832748413086e+00,1.347958445549011230e+00,1.347865939140319824e+00,1.347773551940917969e+00,1.347681045532226562e+00,1.347588777542114258e+00,1.347496390342712402e+00,1.347404003143310547e+00,1.347311735153198242e+00,1.347219467163085938e+00,1.347127079963684082e+00,1.347034811973571777e+00,1.346942543983459473e+00,1.346850275993347168e+00,1.346758008003234863e+00,1.346665740013122559e+00,1.346573472023010254e+00,1.346481323242187500e+00,1.346389055252075195e+00,1.346296906471252441e+00,1.346204757690429688e+00,1.346112489700317383e+00,1.346020340919494629e+00,1.345928311347961426e+00,1.345836043357849121e+00,1.345744013786315918e+00,1.345651745796203613e+00,1.345559716224670410e+00,1.345467686653137207e+00,1.345375537872314453e+00,1.345283508300781250e+00,1.345191478729248047e+00,1.345099449157714844e+00,1.345007419586181641e+00,1.344915509223937988e+00,1.344823360443115234e+00,1.344731450080871582e+00,1.344639420509338379e+00,1.344547510147094727e+00,1.344455599784851074e+00,1.344363570213317871e+00,1.344271659851074219e+00,1.344179868698120117e+00,1.344087839126586914e+00,1.343996047973632812e+00,1.343904137611389160e+00,1.343812227249145508e+00,1.343720436096191406e+00,1.343628525733947754e+00,1.343536734580993652e+00,1.343444943428039551e+00,1.343353152275085449e+00,1.343261361122131348e+00,1.343169689178466797e+00,1.343077778816223145e+00,1.342986106872558594e+00,1.342894434928894043e+00,1.342802643775939941e+00,1.342710971832275391e+00,1.342619299888610840e+00,1.342527508735656738e+00,1.342435956001281738e+00,1.342344164848327637e+00,1.342252612113952637e+00,1.342160701751708984e+00,1.342069149017333984e+00,1.341977596282958984e+00
1.248902201652526855e+00,1.248822808265686035e+00,1.248743534088134766e+00,1.248664259910583496e+00,1.248584866523742676e+00,1.248505592346191406e+00,1.248426318168640137e+00,1.248347043991088867e+00,1.248267769813537598e+00,1.248188495635986328e+00,1.248109340667724609e+00,1.248030066490173340e+00,1.247950792312622070e+00,1.247871637344360352e+00,1.247792482376098633e+00,1.247713208198547363e+00,1.247634053230285645e+00,1.247554898262023926e+00,1.247475743293762207e+00,1.247396588325500488e+00,1.247317433357238770e+00,1.247238278388977051e+00,1.247159242630004883e+00,1.247080087661743164e+00,1.247000932693481445e+00,1.246921896934509277e+00,1.246842741966247559e+00,1.246763706207275391e+00,1.246684670448303223e+00,1.246605634689331055e+00,1.246526598930358887e+00,1.246447563171386719e+00,1.246368527412414551e+00,1.246289610862731934e+00,1.246210455894470215e+00,1.246131539344787598e+00,1.246052622795104980e+00,1.245973587036132812e+00,1.245894670486450195e+00,1.245815753936767578e+00,1.245736718177795410e+00,1.245657801628112793e+00,1.245578885078430176e+00,1.245499968528747559e+00,1.245421051979064941e+00,1.245342135429382324e+00,1.245263338088989258e+00,1.245184421539306641e+00,1.245105504989624023e+00,1.245026707649230957e+00,1.244947910308837891e+00,1.244868993759155273e+00,1.244790315628051758e+00,1.244711518287658691e+00,1.244632601737976074e+00,1.244553923606872559e+00,1.244475007057189941e+00,1.244396328926086426e+00,1.244317531585693359e+00,1.244238734245300293e+00,1.244160056114196777e+00,1.244081377983093262e+00,1.244002580642700195e+00,1.243923902511596680e+00,1.243845224380493164e+00,1.243766546249389648e+00,1.243687868118286133e+00,1.243609070777893066e+00,1.243530511856079102e+00,1.243451833724975586e+00,1.243373155593872070e+00,1.243294596672058105e+00,1.243216037750244141e+00,1.243137359619140625e+00,1.243058800697326660e+00,1.242980241775512695e+00,1.242901563644409180e+00,1.242823004722595215e+00,1.242744445800781250e+00,1.242665886878967285e+00
1.162444829940795898e+00,1.162376046180725098e+00,1.162307381629943848e+00,1.162238717079162598e+00,1.162169933319091797e+00,1.162101268768310547e+00,1.162032604217529297e+00,1.161963820457458496e+00,1.161895275115966797e+00,1.161826610565185547e+00,1.161757946014404297e+00,1.161689281463623047e+00,1.161620616912841797e+00,1.161551952362060547e+00,1.161483407020568848e+00,1.161414742469787598e+00,1.161346197128295898e+00,1.161277532577514648e+00,1.161208987236022949e+00,1.161140322685241699e+00,1.161071777343750000e+00,1.161003232002258301e+00,1.160934686660766602e+00,1.160866141319274902e+00,1.160797595977783203e+00,1.160729050636291504e+00,1.160660505294799805e+00,1.160591959953308105e+00,1.160523533821105957e+00,1.160454988479614258e+00,1.160386443138122559e+00,1.160318017005920410e+00,1.160249471664428711e+00,1.160181045532226562e+00,1.160112619400024414e+00,1.160044193267822266e+00,1.159975767135620117e+00,1.159907221794128418e+00,1.159838795661926270e+00,1.159770488739013672e+00,1.159701943397521973e+00,1.159633636474609375e+00,1.159565210342407227e+00,1.159496784210205078e+00,1.159428477287292480e+00,1.159360051155090332e+00,1.159291625022888184e+00,1.159223318099975586e+00,1.159154891967773438e+00,1.159086585044860840e+00,1.159018278121948242e+00,1.158949971199035645e+00,1.158881664276123047e+00,1.158813357353210449e+00,1.158745050430297852e+00,1.158676743507385254e+00,1.158608555793762207e+00,1.158540248870849609e+00,1.158471941947937012e+00,1.158403635025024414e+00,1.158335447311401367e+00,1.158267259597778320e+00,1.158198952674865723e+00,1.158130764961242676e+00,1.158062577247619629e+00,1.157994270324707031e+00,1.157926082611083984e+00,1.157858014106750488e+00,1.157789707183837891e+00,1.157721638679504395e+00,1.157653331756591797e+00,1.157585263252258301e+00,1.157517075538635254e+00,1.157448887825012207e+00,1.157380819320678711e+00,1.157312750816345215e+00,1.157244563102722168e+00,1.157176494598388672e+00,1.157108306884765625e+00,1.157040238380432129e+00
1.087182760238647461e+00,1.087122678756713867e+00,1.087062478065490723e+00,1.087002396583557129e+00,1.086942315101623535e+00,1.086882233619689941e+00,1.086822152137756348e+00,1.086762070655822754e+00,1.086701989173889160e+00,1.086641907691955566e+00,1.086581826210021973e+00,1.086521863937377930e+00,1.086461782455444336e+00,1.086401700973510742e+00,1.086341738700866699e+00,1.086281776428222656e+00,1.086221694946289062e+00,1.086161732673645020e+00,1.086101651191711426e+00,1.086041688919067383e+00,1.085981726646423340e+00,1.085921645164489746e+00,1.085861682891845703e+00,1.085801720619201660e+00,1.085741758346557617e+00,1.085681796073913574e+00,1.085621953010559082e+00,1.085561871528625488e+00,1.085502028465270996e+00,1.085442066192626953e+00,1.085382103919982910e+00,1.085322260856628418e+00,1.085262298583984375e+00,1.085202455520629883e+00,1.085142493247985840e+00,1.085082650184631348e+00,1.085022807121276855e+00,1.084962964057922363e+00,1.084903001785278320e+00,1.084843158721923828e+00,1.084783196449279785e+00,1.084723353385925293e+00,1.084663629531860352e+00,1.084603667259216309e+00,1.084543943405151367e+00,1.084484100341796875e+00,1.084424257278442383e+00,1.084364414215087891e+00,1.084304690361022949e+00,1.084244847297668457e+00,1.084185004234313965e+00,1.084125280380249023e+00,1.084065437316894531e+00,1.084005713462829590e+00,1.083945870399475098e+00,1.083886146545410156e+00,1.083826422691345215e+00,1.083766698837280273e+00,1.083706974983215332e+00,1.083647251129150391e+00,1.083587527275085449e+00,1.083527803421020508e+00,1.083468079566955566e+00,1.083408355712890625e+00,1.083348631858825684e+00,1.083288908004760742e+00,1.083229303359985352e+00,1.083169579505920410e+00,1.083109855651855469e+00,1.083050251007080078e+00,1.082990646362304688e+00,1.082930922508239746e+00,1.082871317863464355e+00,1.082811713218688965e+00,1.082751989364624023e+00,1.082692384719848633e+00,1.082632780075073242e+00,1.082573175430297852e+00,1.082513570785522461e+00,1.082453966140747070e+00
1.021073698997497559e+00,1.021020650863647461e+00,1.020967602729797363e+00,1.020914673805236816e+00,1.020861625671386719e+00,1.020808577537536621e+00,1.020755648612976074e+00,1.020702600479125977e+00,1.020649671554565430e+00,1.020596623420715332e+00,1.020543694496154785e+00,1.020490646362304688e+00,1.020437717437744141e+00,1.020384788513183594e+00,1.020331859588623047e+00,1.020278930664062500e+00,1.020225882530212402e+00,1.020172953605651855e+00,1.020120024681091309e+00,1.020067095756530762e+00,1.020014166831970215e+00,1.019961237907409668e+00,1.019908308982849121e+00,1.019855499267578125e+00,1.019802570343017578e+00,1.019749641418457031e+00,1.019696831703186035e+00,1.019643902778625488e+00,1.019590973854064941e+00,1.019538164138793945e+00,1.019485235214233398e+00,1.019432425498962402e+00,1.019379615783691406e+00,1.019326686859130859e+00,1.019273877143859863e+00,1.019220948219299316e+00,1.019168138504028320e+00,1.019115328788757324e+00,1.019062519073486328e+00,1.019009709358215332e+00,1.018956899642944336e+00,1.018904089927673340e+00,1.018851280212402344e+00,1.018798470497131348e+00,1.018745660781860352e+00,1.018692970275878906e+00,1.018640041351318359e+00,1.018587350845336914e+00,1.018534541130065918e+00,1.018481850624084473e+00,1.018429040908813477e+00,1.018376350402832031e+00,1.018323540687561035e+00,1.018270850181579590e+00,1.018218159675598145e+00,1.018165349960327148e+00,1.018112659454345703e+00,1.018059849739074707e+00,1.018007159233093262e+00,1.017954468727111816e+00,1.017901778221130371e+00,1.017849087715148926e+00,1.017796397209167480e+00,1.017743706703186035e+00,1.017691016197204590e+00,1.017638325691223145e+00,1.017585635185241699e+00,1.017532944679260254e+00,1.017480254173278809e+00,1.017427682876586914e+00,1.017374992370605469e+00,1.017322301864624023e+00,1.017269730567932129e+00,1.017217159271240234e+00,1.017164468765258789e+00,1.017111897468566895e+00,1.017059206962585449e+00,1.017006635665893555e+00,1.016954064369201660e+00,1.016901373863220215e+00
9.625437259674072266e-01,9.624965786933898926e-01,9.624495506286621094e-01,9.624023437500000000e-01,9.623551964759826660e-01,9.623081088066101074e-01,9.622610807418823242e-01,9.622139334678649902e-01,9.621667861938476562e-01,9.621198177337646484e-01,9.620726704597473145e-01,9.620255827903747559e-01,9.619785547256469727e-01,9.619314670562744141e-01,9.618843793869018555e-01,9.618374109268188477e-01,9.617903232574462891e-01,9.617432355880737305e-01,9.616962671279907227e-01,9.616491794586181641e-01,9.616020917892456055e-01,9.615551829338073730e-01,9.615080952644348145e-01,9.614610671997070312e-01,9.614140987396240234e-01,9.613670706748962402e-01,9.613199830055236816e-01,9.612729549407958984e-01,9.612260460853576660e-01,9.611790180206298828e-01,9.611319899559020996e-01,9.610850811004638672e-01,9.610380530357360840e-01,9.609910845756530762e-01,9.609441757202148438e-01,9.608971476554870605e-01,9.608501791954040527e-01,9.608032703399658203e-01,9.607563018798828125e-01,9.607093334197998047e-01,9.606624245643615723e-01,9.606154561042785645e-01,9.605684876441955566e-01,9.605216383934020996e-01,9.604746699333190918e-01,9.604277014732360840e-01,9.603809118270874023e-01,9.603339433670043945e-01,9.602869749069213867e-01,9.602400660514831543e-01,9.601932168006896973e-01,9.601463079452514648e-01,9.600993990898132324e-01,9.600525498390197754e-01,9.600056409835815430e-01,9.599587321281433105e-01,9.599119424819946289e-01,9.598650336265563965e-01,9.598181843757629395e-01,9.597713947296142578e-01,9.597244858741760254e-01,9.596776366233825684e-01,9.596308469772338867e-01,9.595839381217956543e-01,9.595370888710021973e-01,9.594903588294982910e-01,9.594435095787048340e-01,9.593966007232666016e-01,9.593498706817626953e-01,9.593030214309692383e-01,9.592561721801757812e-01,9.592093825340270996e-01,9.591626524925231934e-01,9.591158032417297363e-01,9.590689539909362793e-01,9.590222835540771484e-01,9.589754343032836914e-01,9.589286446571350098e-01,9.588819742202758789e-01,9.588351249694824219e-01
9.103600382804870605e-01,9.103178381919860840e-01,9.102757573127746582e-01,9.102335572242736816e-01,9.101914167404174805e-01,9.101493358612060547e-01,9.101071953773498535e-01,9.100649952888488770e-01,9.100228548049926758e-01,9.099808335304260254e-01,9.099386334419250488e-01,9.098964929580688477e-01,9.098544716835021973e-01,9.098123311996459961e-01,9.097701907157897949e-01,9.097281694412231445e-01,9.096860289573669434e-01,9.096439480781555176e-01,9.096019268035888672e-01,9.095597863197326660e-01,9.095177054405212402e-01,9.094756841659545898e-01,9.094335436820983887e-01,9.093914628028869629e-01,9.093495011329650879e-01,9.093073606491088867e-01,9.092652797698974609e-01,9.092233180999755859e-01,9.091812372207641602e-01,9.091391563415527344e-01,9.090970754623413086e-01,9.090551137924194336e-01,9.090130329132080078e-01,9.089710116386413574e-01,9.089290499687194824e-01,9.088869690895080566e-01,9.088449478149414062e-01,9.088029861450195312e-01,9.087609648704528809e-01,9.087189435958862305e-01,9.086769819259643555e-01,9.086349606513977051e-01,9.085929393768310547e-01,9.085510373115539551e-01,9.085090160369873047e-01,9.084669947624206543e-01,9.084250926971435547e-01,9.083830714225769043e-01,9.083411097526550293e-01,9.082992076873779297e-01,9.082571864128112793e-01,9.082152247428894043e-01,9.081733226776123047e-01,9.081313610076904297e-01,9.080893397331237793e-01,9.080473780632019043e-01,9.080055356025695801e-01,9.079635739326477051e-01,9.079216122627258301e-01,9.078797101974487305e-01,9.078378081321716309e-01,9.077958464622497559e-01,9.077539443969726562e-01,9.077120423316955566e-01,9.076700806617736816e-01,9.076282382011413574e-01,9.075863361358642578e-01,9.075443744659423828e-01,9.075025916099548340e-01,9.074606895446777344e-01,9.074187278747558594e-01,9.073769450187683105e-01,9.073350429534912109e-01,9.072931408882141113e-01,9.072512984275817871e-01,9.072094559669494629e-01,9.071675539016723633e-01,9.071256518363952637e-01,9.070838689804077148e-01,9.070419669151306152e-01
8.635435700416564941e-01,8.635056018829345703e-01,8.634677529335021973e-01,8.634297847747802734e-01,8.633918166160583496e-01,8.633539676666259766e-01,8.633160591125488281e-01,8.632780909538269043e-01,8.632402420043945312e-01,8.632023334503173828e-01,8.631644248962402344e-01,8.631264567375183105e-01,8.630886673927307129e-01,8.630507588386535645e-01,8.630127906799316406e-01,8.629750013351440430e-01,8.629370927810668945e-01,8.628991842269897461e-01,8.628613948822021484e-01,8.628234863281250000e-01,8.627855777740478516e-01,8.627477884292602539e-01,8.627098798751831055e-01,8.626720309257507324e-01,8.626342415809631348e-01,8.625963330268859863e-01,8.625584840774536133e-01,8.625206947326660156e-01,8.624828457832336426e-01,8.624449372291564941e-01,8.624072074890136719e-01,8.623693585395812988e-01,8.623314499855041504e-01,8.622937202453613281e-01,8.622558712959289551e-01,8.622180223464965820e-01,8.621801733970642090e-01,8.621424436569213867e-01,8.621045947074890137e-01,8.620667457580566406e-01,8.620290160179138184e-01,8.619912266731262207e-01,8.619533777236938477e-01,8.619156479835510254e-01,8.618778586387634277e-01,8.618400096893310547e-01,8.618023395538330078e-01,8.617644906044006348e-01,8.617267012596130371e-01,8.616890311241149902e-01,8.616511821746826172e-01,8.616133928298950195e-01,8.615757226943969727e-01,8.615379333496093750e-01,8.615001440048217773e-01,8.614624738693237305e-01,8.614246845245361328e-01,8.613868951797485352e-01,8.613491654396057129e-01,8.613114953041076660e-01,8.612737059593200684e-01,8.612359762191772461e-01,8.611983060836791992e-01,8.611605167388916016e-01,8.611227869987487793e-01,8.610851168632507324e-01,8.610473871231079102e-01,8.610096573829650879e-01,8.609719872474670410e-01,8.609342575073242188e-01,8.608965873718261719e-01,8.608589172363281250e-01,8.608211874961853027e-01,8.607834577560424805e-01,8.607458472251892090e-01,8.607081770896911621e-01,8.606704473495483398e-01,8.606328368186950684e-01,8.605951070785522461e-01,8.605574369430541992e-01
8.213067650794982910e-01,8.212724328041076660e-01,8.212381601333618164e-01,8.212038278579711914e-01,8.211694955825805664e-01,8.211352825164794922e-01,8.211009502410888672e-01,8.210666179656982422e-01,8.210324048995971680e-01,8.209980726242065430e-01,8.209637999534606934e-01,8.209295868873596191e-01,8.208952546119689941e-01,8.208609819412231445e-01,8.208267688751220703e-01,8.207924365997314453e-01,8.207581639289855957e-01,8.207238912582397461e-01,8.206896781921386719e-01,8.206554055213928223e-01,8.206211328506469727e-01,8.205869197845458984e-01,8.205526471138000488e-01,8.205183744430541992e-01,8.204841613769531250e-01,8.204499483108520508e-01,8.204156756401062012e-01,8.203814625740051270e-01,8.203472495079040527e-01,8.203129768371582031e-01,8.202787637710571289e-01,8.202445507049560547e-01,8.202102780342102051e-01,8.201761245727539062e-01,8.201419115066528320e-01,8.201076388359069824e-01,8.200734853744506836e-01,8.200392723083496094e-01,8.200050592422485352e-01,8.199708461761474609e-01,8.199366927146911621e-01,8.199024796485900879e-01,8.198682665824890137e-01,8.198341131210327148e-01,8.197999000549316406e-01,8.197656869888305664e-01,8.197315335273742676e-01,8.196973800659179688e-01,8.196631669998168945e-01,8.196290135383605957e-01,8.195948600769042969e-01,8.195606470108032227e-01,8.195265531539916992e-01,8.194923400878906250e-01,8.194581866264343262e-01,8.194240927696228027e-01,8.193898797035217285e-01,8.193557262420654297e-01,8.193216323852539062e-01,8.192874789237976074e-01,8.192533254623413086e-01,8.192191123962402344e-01,8.191850781440734863e-01,8.191509246826171875e-01,8.191167712211608887e-01,8.190826773643493652e-01,8.190485239028930664e-01,8.190143704414367676e-01,8.189803361892700195e-01,8.189461827278137207e-01,8.189120292663574219e-01,8.188779950141906738e-01,8.188438415527343750e-01,8.188097476959228516e-01,8.187756538391113281e-01,8.187415599822998047e-01,8.187074065208435059e-01,8.186733722686767578e-01,8.186392784118652344e-01,8.186051845550537109e-01
7.830089926719665527e-01,7.829778194427490234e-01,7.829467058181762695e-01,7.829154729843139648e-01,7.828842997550964355e-01,7.828531265258789062e-01,7.828219532966613770e-01,7.827907800674438477e-01,7.827596664428710938e-01,7.827284336090087891e-01,7.826972603797912598e-01,7.826661467552185059e-01,7.826349735260009766e-01,7.826038002967834473e-01,7.825726866722106934e-01,7.825415134429931641e-01,7.825103402137756348e-01,7.824792861938476562e-01,7.824481129646301270e-01,7.824169397354125977e-01,7.823857665061950684e-01,7.823547124862670898e-01,7.823235392570495605e-01,7.822923660278320312e-01,7.822613120079040527e-01,7.822301387786865234e-01,7.821990251541137695e-01,7.821679711341857910e-01,7.821367979049682617e-01,7.821056842803955078e-01,7.820745706558227539e-01,7.820434570312500000e-01,7.820123434066772461e-01,7.819812893867492676e-01,7.819501757621765137e-01,7.819190025329589844e-01,7.818880081176757812e-01,7.818568944931030273e-01,7.818257212638854980e-01,7.817947268486022949e-01,7.817636132240295410e-01,7.817324995994567871e-01,7.817014455795288086e-01,7.816703319549560547e-01,7.816392779350280762e-01,7.816081643104553223e-01,7.815771102905273438e-01,7.815460562705993652e-01,7.815149426460266113e-01,7.814839482307434082e-01,7.814528346061706543e-01,7.814217805862426758e-01,7.813907265663146973e-01,7.813596725463867188e-01,7.813286185264587402e-01,7.812976241111755371e-01,7.812665104866027832e-01,7.812354564666748047e-01,7.812044620513916016e-01,7.811734080314636230e-01,7.811423540115356445e-01,7.811113595962524414e-01,7.810803055763244629e-01,7.810492515563964844e-01,7.810182571411132812e-01,7.809872031211853027e-01,7.809561491012573242e-01,7.809250950813293457e-01,7.808941602706909180e-01,7.808631062507629395e-01,7.808320522308349609e-01,7.808011174201965332e-01,7.807700634002685547e-01,7.807390689849853516e-01,7.807080745697021484e-01,7.806770801544189453e-01,7.806460857391357422e-01,7.806150913238525391e-01,7.805840969085693359e-01,7.805531024932861328e-01
