3.786478757858276367e+00,3.745912790298461914e+00,3.706207513809204102e+00,3.667334318161010742e+00,3.629268884658813477e+00,3.591985225677490234e+00,3.555459499359130859e+00,3.519669771194458008e+00,3.484592676162719727e+00,3.450208425521850586e+00,3.416495800018310547e+00,3.383435964584350586e+00,3.351009130477905273e+00,3.319198608398437500e+00,3.287985801696777344e+00,3.257355213165283203e+00,3.227289438247680664e+00,3.197774171829223633e+00,3.168793439865112305e+00,3.140333652496337891e+00,3.112380027770996094e+00,3.084920167922973633e+00,6.408537626266479492e-01,6.329031586647033691e-01,6.251474022865295410e-01,6.209604740142822266e-01,6.173868179321289062e-01,6.138540506362915039e-01,6.103615164756774902e-01,6.077989935874938965e-01,6.059384346008300781e-01,6.040891408920288086e-01,6.021867990493774414e-01,6.001147031784057617e-01,5.999268293380737305e-01,6.010999083518981934e-01,6.033139824867248535e-01,6.058167219161987305e-01,6.268681287765502930e-01,2.662141799926757812e+00,2.642026185989379883e+00,2.622212409973144531e+00,2.602693319320678711e+00,2.583462953567504883e+00,2.564514398574829102e+00,2.545841932296752930e+00,2.527439355850219727e+00,2.509301185607910156e+00,2.491420984268188477e+00,2.473794221878051758e+00,2.456414937973022461e+00,2.439278364181518555e+00,2.422379016876220703e+00,2.405712127685546875e+00,2.389273405075073242e+00,2.373057365417480469e+00,2.357060432434082031e+00,2.341277122497558594e+00,2.325704336166381836e+00,2.310337066650390625e+00,2.295171499252319336e+00,2.280203819274902344e+00,2.265430212020874023e+00,2.250846624374389648e+00,2.236449718475341797e+00,2.222235679626464844e+00,2.208201408386230469e+00,2.194343090057373047e+00,2.180657863616943359e+00,2.167142152786254883e+00,2.153792858123779297e+00,2.140607118606567383e+00,2.127581596374511719e+00,2.114713907241821289e+00,2.102000951766967773e+00,2.089439868927001953e+00,2.077027797698974609e+00,2.064762592315673828e+00,2.052641391754150391e+00,2.040661573410034180e+00
3.786473512649536133e+00,3.745907783508300781e+00,3.706202507019042969e+00,3.667329549789428711e+00,3.629264116287231445e+00,3.591980218887329102e+00,3.555454969406127930e+00,3.519665002822875977e+00,3.484588384628295898e+00,3.450203895568847656e+00,3.416491508483886719e+00,3.383431673049926758e+00,3.351005077362060547e+00,3.319194793701171875e+00,3.287981986999511719e+00,3.257351398468017578e+00,3.227285861968994141e+00,3.197770595550537109e+00,3.168789863586425781e+00,3.140330076217651367e+00,6.521681547164916992e-01,6.417881250381469727e-01,6.338144540786743164e-01,6.260364651679992676e-01,6.218873858451843262e-01,6.183030605316162109e-01,6.147598624229431152e-01,6.126812696456909180e-01,6.107906699180603027e-01,6.089117527008056641e-01,6.070442795753479004e-01,6.051883101463317871e-01,6.035788059234619141e-01,6.031343936920166016e-01,6.031609773635864258e-01,6.043466925621032715e-01,6.061798334121704102e-01,6.129494905471801758e-01,6.442109942436218262e-01,2.662138938903808594e+00,2.642023563385009766e+00,2.622209548950195312e+00,2.602690935134887695e+00,2.583460569381713867e+00,2.564512014389038086e+00,2.545839786529541016e+00,2.527436971664428711e+00,2.509298801422119141e+00,2.491418838500976562e+00,2.473792076110839844e+00,2.456412792205810547e+00,2.439276218414306641e+00,2.422376871109008789e+00,2.405710220336914062e+00,2.389271020889282227e+00,2.373055458068847656e+00,2.357058286666870117e+00,2.341275215148925781e+00,2.325702428817749023e+00,2.310335159301757812e+00,2.295169591903686523e+00,2.280201911926269531e+00,2.265428543090820312e+00,2.250844955444335938e+00,2.236448049545288086e+00,2.222234010696411133e+00,2.208199739456176758e+00,2.194341421127319336e+00,2.180656194686889648e+00,2.167140245437622070e+00,2.153791189193725586e+00,2.140605211257934570e+00,2.127579927444458008e+00,2.114712238311767578e+00,2.101999282836914062e+00,2.089438199996948242e+00,2.077026367187500000e+00,2.064761161804199219e+00,2.052639722824096680e+00,2.040660142898559570e+00
3.786468505859375000e+00,3.745902776718139648e+00,3.706197500228881836e+00,3.667324781417846680e+00,3.629259347915649414e+00,3.591975688934326172e+00,3.555450677871704102e+00,3.519660472869873047e+00,3.484584093093872070e+00,3.450199604034423828e+00,3.416487455368041992e+00,3.383427381515502930e+00,3.351001262664794922e+00,3.319190502166748047e+00,3.287978172302246094e+00,3.257347583770751953e+00,3.227282047271728516e+00,3.197766780853271484e+00,3.168786287307739258e+00,3.140326499938964844e+00,6.461168527603149414e-01,6.347283720970153809e-01,6.269281506538391113e-01,6.228170990943908691e-01,6.195758581161499023e-01,6.176425814628601074e-01,6.157212853431701660e-01,6.139069795608520508e-01,6.125254034996032715e-01,6.111500263214111328e-01,6.097807288169860840e-01,6.084176301956176758e-01,6.097903251647949219e-01,6.094852685928344727e-01,6.085860133171081543e-01,6.076894402503967285e-01,6.090731620788574219e-01,6.297650337219238281e-01,6.644839644432067871e-01,8.277916312217712402e-01,2.642021179199218750e+00,2.622207164764404297e+00,2.602688312530517578e+00,2.583457946777343750e+00,2.564509630203247070e+00,2.545837163925170898e+00,2.527434825897216797e+00,2.509296655654907227e+00,2.491416692733764648e+00,2.473789930343627930e+00,2.456410646438598633e+00,2.439274072647094727e+00,2.422374725341796875e+00,2.405708074569702148e+00,2.389269113540649414e+00,2.373053312301635742e+00,2.357056140899658203e+00,2.341273307800292969e+00,2.325700283050537109e+00,2.310333251953125000e+00,2.295167684555053711e+00,2.280200242996215820e+00,2.265426635742187500e+00,2.250843048095703125e+00,2.236446142196655273e+00,2.222232341766357422e+00,2.208197832107543945e+00,2.194339513778686523e+00,2.180654287338256836e+00,2.167138576507568359e+00,2.153789520263671875e+00,2.140603780746459961e+00,2.127578496932983398e+00,2.114710569381713867e+00,2.101997613906860352e+00,2.089436531066894531e+00,2.077024698257446289e+00,2.064759492874145508e+00,2.052638292312622070e+00,2.040658473968505859e+00
3.786462783813476562e+00,3.745897769927978516e+00,3.706192731857299805e+00,3.667320013046264648e+00,3.629254579544067383e+00,3.591971158981323242e+00,3.555446147918701172e+00,3.519656181335449219e+00,3.484579563140869141e+00,3.450195312500000000e+00,3.416483163833618164e+00,3.383423328399658203e+00,3.350997209548950195e+00,3.319186449050903320e+00,3.287974357604980469e+00,3.257343530654907227e+00,3.227278470993041992e+00,3.197762966156005859e+00,3.168782711029052734e+00,6.543993353843688965e-01,6.401769518852233887e-01,6.278223395347595215e-01,6.246498823165893555e-01,6.231646537780761719e-01,6.217411160469055176e-01,6.203240752220153809e-01,6.189134716987609863e-01,6.175092458724975586e-01,6.161113977432250977e-01,6.147198677062988281e-01,6.143022179603576660e-01,6.162112355232238770e-01,6.168924570083618164e-01,6.159712672233581543e-01,6.150528192520141602e-01,6.141371726989746094e-01,6.226410865783691406e-01,6.491728425025939941e-01,8.044757246971130371e-01,2.662133932113647461e+00,2.642018556594848633e+00,2.622204780578613281e+00,2.602685928344726562e+00,2.583455562591552734e+00,2.564507246017456055e+00,2.545834779739379883e+00,2.527432441711425781e+00,2.509294033050537109e+00,2.491414308547973633e+00,2.473787546157836914e+00,2.456408500671386719e+00,2.439271926879882812e+00,2.422372579574584961e+00,2.405705928802490234e+00,2.389266967773437500e+00,2.373051404953002930e+00,2.357054233551025391e+00,2.341271400451660156e+00,2.325698375701904297e+00,2.310331344604492188e+00,2.295165777206420898e+00,2.280198335647583008e+00,2.265424489974975586e+00,2.250841140747070312e+00,2.236444234848022461e+00,2.222230434417724609e+00,2.208196163177490234e+00,2.194337844848632812e+00,2.180652618408203125e+00,2.167136907577514648e+00,2.153787851333618164e+00,2.140602111816406250e+00,2.127576828002929688e+00,2.114708900451660156e+00,2.101996183395385742e+00,2.089434862136840820e+00,2.077023267745971680e+00,2.064758062362670898e+00,2.052636861801147461e+00,2.040657043457031250e+00
3.786457777023315430e+00,3.745892763137817383e+00,3.706187248229980469e+00,3.667315006256103516e+00,3.629249572753906250e+00,3.591966390609741211e+00,3.555441141128540039e+00,3.519651651382446289e+00,3.484575271606445312e+00,3.450191020965576172e+00,3.416479110717773438e+00,3.383419036865234375e+00,3.350993156433105469e+00,3.319182634353637695e+00,3.287970542907714844e+00,3.257339715957641602e+00,3.227274656295776367e+00,3.197759151458740234e+00,6.616545915603637695e-01,6.483068466186523438e-01,6.343451738357543945e-01,6.298146843910217285e-01,6.283239126205444336e-01,6.268767118453979492e-01,6.254361867904663086e-01,6.240022778511047363e-01,6.225749254226684570e-01,6.211540699005126953e-01,6.197397112846374512e-01,6.208190321922302246e-01,6.227688789367675781e-01,6.244819164276123047e-01,6.235379576683044434e-01,6.225968003273010254e-01,6.216585636138916016e-01,6.389420032501220703e-01,6.637527942657470703e-01,7.921364903450012207e-01,8.124766349792480469e-01,2.662131547927856445e+00,2.642016172409057617e+00,2.622202396392822266e+00,2.602683544158935547e+00,2.583453178405761719e+00,2.564504861831665039e+00,2.545832633972167969e+00,2.527430295944213867e+00,2.509291887283325195e+00,2.491412162780761719e+00,2.473785400390625000e+00,2.456406354904174805e+00,2.439269542694091797e+00,2.422370672225952148e+00,2.405703783035278320e+00,2.389265060424804688e+00,2.373049259185791016e+00,2.357052326202392578e+00,2.341269254684448242e+00,2.325696468353271484e+00,2.310329437255859375e+00,2.295163869857788086e+00,2.280196428298950195e+00,2.265422821044921875e+00,2.250839471817016602e+00,2.236442565917968750e+00,2.222228765487670898e+00,2.208194255828857422e+00,2.194336175918579102e+00,2.180650949478149414e+00,2.167135238647460938e+00,2.153785943984985352e+00,2.140600442886352539e+00,2.127575159072875977e+00,2.114707469940185547e+00,2.101994514465332031e+00,2.089433431625366211e+00,2.077021598815917969e+00,2.064756393432617188e+00,2.052635192871093750e+00,2.040655374526977539e+00
3.786452770233154297e+00,3.745887756347656250e+00,3.706182479858398438e+00,3.667310237884521484e+00,3.629244804382324219e+00,3.591961860656738281e+00,3.555436611175537109e+00,3.519647359848022461e+00,3.484570503234863281e+00,3.450186729431152344e+00,3.416474580764770508e+00,3.383414983749389648e+00,3.350989103317260742e+00,3.319178581237792969e+00,3.287966489791870117e+00,3.257335901260375977e+00,3.227270841598510742e+00,6.684875488281250000e-01,6.566459536552429199e-01,6.423267722129821777e-01,6.352028846740722656e-01,6.336700916290283203e-01,6.321446895599365234e-01,6.306332945823669434e-01,6.291754841804504395e-01,6.277244091033935547e-01,6.262799501419067383e-01,6.254962682723999023e-01,6.274756193161010742e-01,6.294675469398498535e-01,6.314721703529357910e-01,6.312928199768066406e-01,6.303281784057617188e-01,6.318653821945190430e-01,6.561192274093627930e-01,7.747479677200317383e-01,7.849873304367065430e-01,8.030579090118408203e-01,8.219801187515258789e-01,2.662128925323486328e+00,2.642013311386108398e+00,2.622199773788452148e+00,2.602680921554565430e+00,2.583450794219970703e+00,2.564502477645874023e+00,2.545830249786376953e+00,2.527427911758422852e+00,2.509289741516113281e+00,2.491410017013549805e+00,2.473783016204833984e+00,2.456404209136962891e+00,2.439267396926879883e+00,2.422368526458740234e+00,2.405701637268066406e+00,2.389262914657592773e+00,2.373047113418579102e+00,2.357050180435180664e+00,2.341267347335815430e+00,2.325694561004638672e+00,2.310327529907226562e+00,2.295161962509155273e+00,2.280194520950317383e+00,2.265420913696289062e+00,2.250837564468383789e+00,2.236440658569335938e+00,2.222226858139038086e+00,2.208192586898803711e+00,2.194334506988525391e+00,2.180649042129516602e+00,2.167133569717407227e+00,2.153784275054931641e+00,2.140598773956298828e+00,2.127573490142822266e+00,2.114705801010131836e+00,2.101992845535278320e+00,2.089431762695312500e+00,2.077020168304443359e+00,2.064754962921142578e+00,2.052633762359619141e+00,2.040653944015502930e+00
3.786447525024414062e+00,3.745882749557495117e+00,3.706177473068237305e+00,3.667305469512939453e+00,3.629240274429321289e+00,3.591957092285156250e+00,3.555432081222534180e+00,3.519642829895019531e+00,3.484566211700439453e+00,3.450182437896728516e+00,3.416470289230346680e+00,3.383410930633544922e+00,3.350984811782836914e+00,3.319174766540527344e+00,3.287962436676025391e+00,3.257332086563110352e+00,6.754629611968994141e-01,6.643832921981811523e-01,6.505117416381835938e-01,6.406840085983276367e-01,6.391247510910034180e-01,6.375730037689208984e-01,6.360288262367248535e-01,6.344920396804809570e-01,6.329627037048339844e-01,6.314911842346191406e-01,6.322540640830993652e-01,6.342765092849731445e-01,6.363118886947631836e-01,6.383603811264038086e-01,6.392430663108825684e-01,6.382539868354797363e-01,6.486593484878540039e-01,7.747271060943603516e-01,7.753890156745910645e-01,7.828701734542846680e-01,7.958736419677734375e-01,8.144548535346984863e-01,2.682550430297851562e+00,2.662126302719116211e+00,2.642010927200317383e+00,2.622197389602661133e+00,2.602678537368774414e+00,2.583448410034179688e+00,2.564500093460083008e+00,2.545827865600585938e+00,2.527425527572631836e+00,2.509287357330322266e+00,2.491407632827758789e+00,2.473780870437622070e+00,2.456402063369750977e+00,2.439265251159667969e+00,2.422366380691528320e+00,2.405699491500854492e+00,2.389261007308959961e+00,2.373045206069946289e+00,2.357048273086547852e+00,2.341265201568603516e+00,2.325692653656005859e+00,2.310325384140014648e+00,2.295160055160522461e+00,2.280192613601684570e+00,2.265419006347656250e+00,2.250835895538330078e+00,2.236438989639282227e+00,2.222225189208984375e+00,2.208190679550170898e+00,2.194332599639892578e+00,2.180647373199462891e+00,2.167131900787353516e+00,2.153782606124877930e+00,2.140597105026245117e+00,2.127571821212768555e+00,2.114704132080078125e+00,2.101991176605224609e+00,2.089430332183837891e+00,2.077018499374389648e+00,2.064753293991088867e+00,2.052632093429565430e+00,2.040652513504028320e+00
3.786442518234252930e+00,3.745877265930175781e+00,3.706172704696655273e+00,3.667300224304199219e+00,3.629235506057739258e+00,3.591952562332153320e+00,3.555427551269531250e+00,3.519638299942016602e+00,3.484561920166015625e+00,3.450178384780883789e+00,3.416466236114501953e+00,3.383406877517700195e+00,3.350980758666992188e+00,3.319170713424682617e+00,3.287958621978759766e+00,6.825855970382690430e-01,6.712729930877685547e-01,6.589080691337585449e-01,6.462606787681579590e-01,6.446740627288818359e-01,6.430953145027160645e-01,6.415242552757263184e-01,6.399608850479125977e-01,6.384051442146301270e-01,6.368918418884277344e-01,6.387023925781250000e-01,6.412264108657836914e-01,6.433066725730895996e-01,6.454005837440490723e-01,6.473960876464843750e-01,6.463816761970520020e-01,7.747891545295715332e-01,7.754511833190917969e-01,7.761142849922180176e-01,7.823274731636047363e-01,7.911643385887145996e-01,8.070662021636962891e-01,2.703287839889526367e+00,2.682547807693481445e+00,2.662123918533325195e+00,2.642008543014526367e+00,2.622195005416870117e+00,2.602676153182983398e+00,2.583446025848388672e+00,2.564497709274291992e+00,2.545825481414794922e+00,2.527423143386840820e+00,2.509285211563110352e+00,2.491405248641967773e+00,2.473778724670410156e+00,2.456399679183959961e+00,2.439263105392456055e+00,2.422364234924316406e+00,2.405697584152221680e+00,2.389258861541748047e+00,2.373043060302734375e+00,2.357046365737915039e+00,2.341263294219970703e+00,2.325690507888793945e+00,2.310323476791381836e+00,2.295158147811889648e+00,2.280190706253051758e+00,2.265417337417602539e+00,2.250833749771118164e+00,2.236437082290649414e+00,2.222223281860351562e+00,2.208189010620117188e+00,2.194330930709838867e+00,2.180645704269409180e+00,2.167130231857299805e+00,2.153780937194824219e+00,2.140595436096191406e+00,2.127570152282714844e+00,2.114702701568603516e+00,2.101989746093750000e+00,2.089428663253784180e+00,2.077016830444335938e+00,2.064751863479614258e+00,2.052630662918090820e+00,2.040651082992553711e+00
3.786437273025512695e+00,3.745872259140014648e+00,3.706167697906494141e+00,3.667295455932617188e+00,3.629230737686157227e+00,3.591947555541992188e+00,3.555423021316528320e+00,3.519633531570434570e+00,3.484557628631591797e+00,3.450174093246459961e+00,3.416461944580078125e+00,3.383402824401855469e+00,3.350976705551147461e+00,3.319166898727416992e+00,3.287954568862915039e+00,6.783070564270019531e-01,6.671346426010131836e-01,6.527316570281982422e-01,6.503206491470336914e-01,6.487141847610473633e-01,6.471155881881713867e-01,6.455248594284057617e-01,6.439739465713500977e-01,6.425007581710815430e-01,6.425262093544006348e-01,6.459634900093078613e-01,6.494377255439758301e-01,6.525977849960327148e-01,6.547526717185974121e-01,6.586768627166748047e-01,7.755132913589477539e-01,7.761765122413635254e-01,7.768409252166748047e-01,7.817856073379516602e-01,7.906101942062377930e-01,7.998103499412536621e-01,8.185780048370361328e-01,2.703284978866577148e+00,2.682545185089111328e+00,2.662121057510375977e+00,2.642005920410156250e+00,2.622192382812500000e+00,2.602673768997192383e+00,2.583443641662597656e+00,2.564495325088500977e+00,2.545823335647583008e+00,2.527420759201049805e+00,2.509282827377319336e+00,2.491403102874755859e+00,2.473776578903198242e+00,2.456397533416748047e+00,2.439260959625244141e+00,2.422362089157104492e+00,2.405695438385009766e+00,2.389256715774536133e+00,2.373041152954101562e+00,2.357044219970703125e+00,2.341261386871337891e+00,2.325688600540161133e+00,2.310321569442749023e+00,2.295156240463256836e+00,2.280188798904418945e+00,2.265415430068969727e+00,2.250832080841064453e+00,2.236435413360595703e+00,2.222221374511718750e+00,2.208187341690063477e+00,2.194329023361206055e+00,2.180644035339355469e+00,2.167128324508666992e+00,2.153779268264770508e+00,2.140593767166137695e+00,2.127568483352661133e+00,2.114701032638549805e+00,2.101988077163696289e+00,2.089427232742309570e+00,2.077015399932861328e+00,2.064750432968139648e+00,2.052629232406616211e+00,2.040649414062500000e+00
3.786432027816772461e+00,3.745867252349853516e+00,3.706162691116333008e+00,3.667290687561035156e+00,3.629225969314575195e+00,3.591943025588989258e+00,3.555418491363525391e+00,3.519629240036010742e+00,3.484553337097167969e+00,3.450169324874877930e+00,3.416457891464233398e+00,3.383398294448852539e+00,3.350972652435302734e+00,3.319162845611572266e+00,6.854901313781738281e-01,6.740817427635192871e-01,6.611857414245605469e-01,6.560670137405395508e-01,6.544320583343505859e-01,6.528052091598510742e-01,6.512153148651123047e-01,6.497088670730590820e-01,6.482093334197998047e-01,6.474879980087280273e-01,6.498749852180480957e-01,6.533915996551513672e-01,6.569464206695556641e-01,6.605401635169982910e-01,7.755754590034484863e-01,7.762387990951538086e-01,7.769032716751098633e-01,7.775689363479614258e-01,7.812445163726806641e-01,7.900567650794982910e-01,7.990701794624328613e-01,8.111146092414855957e-01,2.724345445632934570e+00,2.703282356262207031e+00,2.682542562484741211e+00,2.662118673324584961e+00,2.642003536224365234e+00,2.622189760208129883e+00,2.602671146392822266e+00,2.583441019058227539e+00,2.564492940902709961e+00,2.545820951461791992e+00,2.527418613433837891e+00,2.509280681610107422e+00,2.491400957107543945e+00,2.473774433135986328e+00,2.456395387649536133e+00,2.439258813858032227e+00,2.422359943389892578e+00,2.405693292617797852e+00,2.389254570007324219e+00,2.373039007186889648e+00,2.357042074203491211e+00,2.341259479522705078e+00,2.325686454772949219e+00,2.310319662094116211e+00,2.295154571533203125e+00,2.280186891555786133e+00,2.265413522720336914e+00,2.250830173492431641e+00,2.236433506011962891e+00,2.222219705581665039e+00,2.208185434341430664e+00,2.194327354431152344e+00,2.180642366409301758e+00,2.167126655578613281e+00,2.153777599334716797e+00,2.140592098236083984e+00,2.127567052841186523e+00,2.114699363708496094e+00,2.101986408233642578e+00,2.089425325393676758e+00,2.077013731002807617e+00,2.064748525619506836e+00,2.052627325057983398e+00,2.040647745132446289e+00
3.786427021026611328e+00,3.745862245559692383e+00,3.706157922744750977e+00,3.667285919189453125e+00,3.629221200942993164e+00,3.591938257217407227e+00,3.555413961410522461e+00,3.519624710083007812e+00,3.484548807144165039e+00,3.450165271759033203e+00,3.416453599929809570e+00,3.383394241333007812e+00,3.350968599319458008e+00,6.941522955894470215e-01,6.811751723289489746e-01,6.698617339134216309e-01,6.619158983230590820e-01,6.602516174316406250e-01,6.586214303970336914e-01,6.570805311203002930e-01,6.555468440055847168e-01,6.540203094482421875e-01,6.525387167930603027e-01,6.540998220443725586e-01,6.573938727378845215e-01,6.609925031661987305e-01,6.646307706832885742e-01,7.757631540298461914e-01,7.765637040138244629e-01,7.773658037185668945e-01,7.781696319580078125e-01,7.807041406631469727e-01,7.895041704177856445e-01,7.985048890113830566e-01,8.077132105827331543e-01,8.227429389953613281e-01,2.724342584609985352e+00,2.703279733657836914e+00,2.682539939880371094e+00,2.662116050720214844e+00,2.642000913619995117e+00,2.622187376022338867e+00,2.602668762207031250e+00,2.583438634872436523e+00,2.564490556716918945e+00,2.545818328857421875e+00,2.527416229248046875e+00,2.509278297424316406e+00,2.491398572921752930e+00,2.473772048950195312e+00,2.456393241882324219e+00,2.439256906509399414e+00,2.422357797622680664e+00,2.405691385269165039e+00,2.389252424240112305e+00,2.373036861419677734e+00,2.357039928436279297e+00,2.341257095336914062e+00,2.325684309005737305e+00,2.310317516326904297e+00,2.295152187347412109e+00,2.280184984207153320e+00,2.265411376953125000e+00,2.250828266143798828e+00,2.236431598663330078e+00,2.222217798233032227e+00,2.208183526992797852e+00,2.194325447082519531e+00,2.180640459060668945e+00,2.167124748229980469e+00,2.153775691986083984e+00,2.140590190887451172e+00,2.127565145492553711e+00,2.114697456359863281e+00,2.101984739303588867e+00,2.089423656463623047e+00,2.077012062072753906e+00,2.064746856689453125e+00,2.052625894546508789e+00,2.040646076202392578e+00
3.786421537399291992e+00,3.745857238769531250e+00,3.706152439117431641e+00,3.667281150817871094e+00,3.629216194152832031e+00,3.591933727264404297e+00,3.555409431457519531e+00,3.519620418548583984e+00,3.484544515609741211e+00,3.450160980224609375e+00,3.416449546813964844e+00,3.383390188217163086e+00,7.034102678298950195e-01,6.900986433029174805e-01,6.769141554832458496e-01,6.678698658943176270e-01,6.661978960037231445e-01,6.646214127540588379e-01,6.630523800849914551e-01,6.614906787872314453e-01,6.599363684654235840e-01,6.583893299102783203e-01,6.592546105384826660e-01,6.614454388618469238e-01,6.650886535644531250e-01,6.687723398208618164e-01,7.840999960899353027e-01,7.754803895950317383e-01,7.762802243232727051e-01,7.770818471908569336e-01,7.778850793838500977e-01,7.835775017738342285e-01,7.955684661865234375e-01,8.071355819702148438e-01,8.165452480316162109e-01,2.745733261108398438e+00,2.724339485168457031e+00,2.703276872634887695e+00,2.682537317276000977e+00,2.662113189697265625e+00,2.641998291015625000e+00,2.622184514999389648e+00,2.602666139602661133e+00,2.583436012268066406e+00,2.564487934112548828e+00,2.545815944671630859e+00,2.527413845062255859e+00,2.509275674819946289e+00,2.491396188735961914e+00,2.473769426345825195e+00,2.456390857696533203e+00,2.439254283905029297e+00,2.422355413436889648e+00,2.405689001083374023e+00,2.389250278472900391e+00,2.373034954071044922e+00,2.357038021087646484e+00,2.341255187988281250e+00,2.325682401657104492e+00,2.310315608978271484e+00,2.295150279998779297e+00,2.280183076858520508e+00,2.265409469604492188e+00,2.250826358795166016e+00,2.236429691314697266e+00,2.222215890884399414e+00,2.208181619644165039e+00,2.194323778152465820e+00,2.180638551712036133e+00,2.167123079299926758e+00,2.153774023056030273e+00,2.140588521957397461e+00,2.127563476562500000e+00,2.114695787429809570e+00,2.101983070373535156e+00,2.089421987533569336e+00,2.077010393142700195e+00,2.064745426177978516e+00,2.052624464035034180e+00,2.040644645690917969e+00
3.786416292190551758e+00,3.745852231979370117e+00,3.706147670745849609e+00,3.667276144027709961e+00,3.629211425781250000e+00,3.591929197311401367e+00,3.555404663085937500e+00,3.519615888595581055e+00,3.484539508819580078e+00,3.450156450271606445e+00,3.416445016860961914e+00,3.383385896682739258e+00,7.002353668212890625e-01,6.860921382904052734e-01,6.739507317543029785e-01,6.723373532295227051e-01,6.707317233085632324e-01,6.691337227821350098e-01,6.675432920455932617e-01,6.659604310989379883e-01,6.643850207328796387e-01,6.644911766052246094e-01,6.661101579666137695e-01,6.692360639572143555e-01,6.729658842086791992e-01,7.934281826019287109e-01,7.824938893318176270e-01,7.751978039741516113e-01,7.759971022605895996e-01,7.767981290817260742e-01,7.778214812278747559e-01,7.858120799064636230e-01,7.979702353477478027e-01,8.104092478752136230e-01,2.767462968826293945e+00,2.745730638504028320e+00,2.724336862564086914e+00,2.703274250030517578e+00,2.682534456253051758e+00,2.662110805511474609e+00,2.641995429992675781e+00,2.622182130813598633e+00,2.602663755416870117e+00,2.583433628082275391e+00,2.564485788345336914e+00,2.545813560485839844e+00,2.527411460876464844e+00,2.509273529052734375e+00,2.491394042968750000e+00,2.473767280578613281e+00,2.456388711929321289e+00,2.439252138137817383e+00,2.422353267669677734e+00,2.405686855316162109e+00,2.389248132705688477e+00,2.373032569885253906e+00,2.357035875320434570e+00,2.341253280639648438e+00,2.325680494308471680e+00,2.310313701629638672e+00,2.295148372650146484e+00,2.280181169509887695e+00,2.265407800674438477e+00,2.250824451446533203e+00,2.236427783966064453e+00,2.222214221954345703e+00,2.208179950714111328e+00,2.194322109222412109e+00,2.180636882781982422e+00,2.167121410369873047e+00,2.153772354125976562e+00,2.140586853027343750e+00,2.127561807632446289e+00,2.114694356918334961e+00,2.101981401443481445e+00,2.089420557022094727e+00,2.077008962631225586e+00,2.064743757247924805e+00,2.052622795104980469e+00,2.040643215179443359e+00
3.786411046981811523e+00,3.745846986770629883e+00,3.706142425537109375e+00,3.667271137237548828e+00,3.629206657409667969e+00,3.591924190521240234e+00,3.555399894714355469e+00,3.519611120223999023e+00,3.484535217285156250e+00,3.450152158737182617e+00,3.416440486907958984e+00,7.095289230346679688e-01,6.961106061935424805e-01,6.821317672729492188e-01,6.789638400077819824e-01,6.770775318145751953e-01,6.753276586532592773e-01,6.737076640129089355e-01,6.720955371856689453e-01,6.704909801483154297e-01,6.698116660118103027e-01,6.714566946029663086e-01,6.734353899955749512e-01,6.772122979164123535e-01,3.005329608917236328e+00,7.917876243591308594e-01,7.808942198753356934e-01,7.749153971672058105e-01,7.757141590118408203e-01,7.765145897865295410e-01,7.779223322868347168e-01,7.879578471183776855e-01,8.003866076469421387e-01,8.129016757011413574e-01,2.767460107803344727e+00,2.745728015899658203e+00,2.724334239959716797e+00,2.703271627426147461e+00,2.682531833648681641e+00,2.662108182907104492e+00,2.641993045806884766e+00,2.622179746627807617e+00,2.602661132812500000e+00,2.583431243896484375e+00,2.564483165740966797e+00,2.545811176300048828e+00,2.527409315109252930e+00,2.509271144866943359e+00,2.491391658782958984e+00,2.473765134811401367e+00,2.456386566162109375e+00,2.439249992370605469e+00,2.422351360321044922e+00,2.405684709548950195e+00,2.389246225357055664e+00,2.373030662536621094e+00,2.357033967971801758e+00,2.341251134872436523e+00,2.325678586959838867e+00,2.310311555862426758e+00,2.295146465301513672e+00,2.280179262161254883e+00,2.265405893325805664e+00,2.250822782516479492e+00,2.236426115036010742e+00,2.222212314605712891e+00,2.208178281784057617e+00,2.194320201873779297e+00,2.180635213851928711e+00,2.167119741439819336e+00,2.153770685195922852e+00,2.140585184097290039e+00,2.127560138702392578e+00,2.114692687988281250e+00,2.101979732513427734e+00,2.089418888092041016e+00,2.077007293701171875e+00,2.064742326736450195e+00,2.052621364593505859e+00,2.040641784667968750e+00
3.786405801773071289e+00,3.745841503143310547e+00,3.706137657165527344e+00,3.667266368865966797e+00,3.629201889038085938e+00,3.591919660568237305e+00,3.555395364761352539e+00,3.519606828689575195e+00,3.484530925750732422e+00,3.450147867202758789e+00,7.186676263809204102e-01,7.064260244369506836e-01,6.920341253280639648e-01,6.859885454177856445e-01,6.840630769729614258e-01,6.821483969688415527e-01,6.802443861961364746e-01,6.783510446548461914e-01,6.767102479934692383e-01,6.752180457115173340e-01,6.768897771835327148e-01,6.785697937011718750e-01,6.815125942230224609e-01,3.031381607055664062e+00,8.013730049133300781e-01,7.901589870452880859e-01,7.793011665344238281e-01,7.746332287788391113e-01,7.754314541816711426e-01,7.765223979949951172e-01,7.780231833457946777e-01,7.901154160499572754e-01,8.028175234794616699e-01,8.154093623161315918e-01,2.767457485198974609e+00,2.745725154876708984e+00,2.724331617355346680e+00,2.703269004821777344e+00,2.682529211044311523e+00,2.662105560302734375e+00,2.641990423202514648e+00,2.622177362442016602e+00,2.602658748626708984e+00,2.583428859710693359e+00,2.564480781555175781e+00,2.545808792114257812e+00,2.527406692504882812e+00,2.509268999099731445e+00,2.491389274597167969e+00,2.473762989044189453e+00,2.456384181976318359e+00,2.439247846603393555e+00,2.422349214553833008e+00,2.405682563781738281e+00,2.389244079589843750e+00,2.373028755187988281e+00,2.357032060623168945e+00,2.341249227523803711e+00,2.325676679611206055e+00,2.310309648513793945e+00,2.295144557952880859e+00,2.280177354812622070e+00,2.265403985977172852e+00,2.250820875167846680e+00,2.236424207687377930e+00,2.222210407257080078e+00,2.208176374435424805e+00,2.194318532943725586e+00,2.180633544921875000e+00,2.167118072509765625e+00,2.153769016265869141e+00,2.140583515167236328e+00,2.127558469772338867e+00,2.114691019058227539e+00,2.101978302001953125e+00,2.089417457580566406e+00,2.077005863189697266e+00,2.064740896224975586e+00,2.052619695663452148e+00,2.040640115737915039e+00
3.786400794982910156e+00,3.745836496353149414e+00,3.706132650375366211e+00,3.667261123657226562e+00,3.629197120666503906e+00,3.591914653778076172e+00,3.555390834808349609e+00,3.519602298736572266e+00,3.484526634216308594e+00,7.367653846740722656e-01,7.157550454139709473e-01,7.022281885147094727e-01,6.931601166725158691e-01,6.911942958831787109e-01,6.892395019531250000e-01,6.872957944869995117e-01,6.853630542755126953e-01,6.834411025047302246e-01,6.815348863601684570e-01,6.824114918708801270e-01,6.841190457344055176e-01,6.858680248260498047e-01,3.057889461517333984e+00,3.031378269195556641e+00,7.997047901153564453e-01,7.885370254516601562e-01,7.777146100997924805e-01,7.743512988090515137e-01,7.751488685607910156e-01,7.766230106353759766e-01,7.789674401283264160e-01,7.922847867012023926e-01,8.052634000778198242e-01,8.179326653480529785e-01,2.767454624176025391e+00,2.745722293853759766e+00,2.724328994750976562e+00,2.703266143798828125e+00,2.682526826858520508e+00,2.662103176116943359e+00,2.641988039016723633e+00,2.622174739837646484e+00,2.602656364440917969e+00,2.583426475524902344e+00,2.564478397369384766e+00,2.545806646347045898e+00,2.527404546737670898e+00,2.509266614913940430e+00,2.491387128829956055e+00,2.473760843276977539e+00,2.456382036209106445e+00,2.439245700836181641e+00,2.422346830368041992e+00,2.405680656433105469e+00,2.389242172241210938e+00,2.373026609420776367e+00,2.357029914855957031e+00,2.341247320175170898e+00,2.325674772262573242e+00,2.310307741165161133e+00,2.295142889022827148e+00,2.280175447463989258e+00,2.265402078628540039e+00,2.250818967819213867e+00,2.236422300338745117e+00,2.222208738327026367e+00,2.208174705505371094e+00,2.194316625595092773e+00,2.180631875991821289e+00,2.167116165161132812e+00,2.153767347335815430e+00,2.140582084655761719e+00,2.127556800842285156e+00,2.114689350128173828e+00,2.101976633071899414e+00,2.089415788650512695e+00,2.077004194259643555e+00,2.064739227294921875e+00,2.052618265151977539e+00,2.040638685226440430e+00
3.786395549774169922e+00,3.745831489562988281e+00,3.706127643585205078e+00,3.667256355285644531e+00,3.629192352294921875e+00,3.591910123825073242e+00,3.555386304855346680e+00,3.519597530364990234e+00,3.484522342681884766e+00,7.250558137893676758e-01,7.127270698547363281e-01,7.004832625389099121e-01,6.984757184982299805e-01,6.964796185493469238e-01,6.944949030876159668e-01,6.925215125083923340e-01,6.906018853187561035e-01,6.887483596801757812e-01,6.909466981887817383e-01,6.912489533424377441e-01,6.915515661239624023e-01,3.084864854812622070e+00,3.057885885238647461e+00,3.031374931335449219e+00,7.980434894561767578e-01,7.869217395782470703e-01,7.761344313621520996e-01,7.740695476531982422e-01,7.752277851104736328e-01,7.767235040664672852e-01,7.810759544372558594e-01,7.944661378860473633e-01,8.077241182327270508e-01,8.204715251922607422e-01,2.767452001571655273e+00,2.745719671249389648e+00,2.724326372146606445e+00,2.703263521194458008e+00,2.682524204254150391e+00,2.662100315093994141e+00,2.641985416412353516e+00,2.622172117233276367e+00,2.602653741836547852e+00,2.583424091339111328e+00,2.564476013183593750e+00,2.545804262161254883e+00,2.527402162551879883e+00,2.509264469146728516e+00,2.491384983062744141e+00,2.473758697509765625e+00,2.456379890441894531e+00,2.439243555068969727e+00,2.422344684600830078e+00,2.405678510665893555e+00,2.389239788055419922e+00,2.373024702072143555e+00,2.357027769088745117e+00,2.341245174407958984e+00,2.325672864913940430e+00,2.310305833816528320e+00,2.295140981674194336e+00,2.280173778533935547e+00,2.265400648117065430e+00,2.250817537307739258e+00,2.236421108245849609e+00,2.222207784652709961e+00,2.208173751831054688e+00,2.194315910339355469e+00,2.180630922317504883e+00,2.167115688323974609e+00,2.153766870498657227e+00,2.140581369400024414e+00,2.127556562423706055e+00,2.114689111709594727e+00,2.101976394653320312e+00,2.089415788650512695e+00,2.077004194259643555e+00,2.064739465713500977e+00,2.052618503570556641e+00,2.040638923645019531e+00
3.786390542984008789e+00,3.745826244354248047e+00,3.706122875213623047e+00,3.667251586914062500e+00,3.629187822341918945e+00,3.591905355453491211e+00,3.555381774902343750e+00,3.519593000411987305e+00,3.484517812728881836e+00,7.220913171768188477e-01,7.084542512893676758e-01,7.059122323989868164e-01,7.038733959197998047e-01,7.018464207649230957e-01,6.999134421348571777e-01,6.980096101760864258e-01,6.961162090301513672e-01,6.990945339202880859e-01,7.006731629371643066e-01,7.009840011596679688e-01,3.112320423126220703e+00,3.084861516952514648e+00,3.057882547378540039e+00,3.031371831893920898e+00,7.963891029357910156e-01,7.853130698204040527e-01,7.745607495307922363e-01,7.738375663757324219e-01,7.753279805183410645e-01,7.768240571022033691e-01,7.831959724426269531e-01,7.966595292091369629e-01,8.102000355720520020e-01,2.789527654647827148e+00,2.767449140548706055e+00,2.745717048645019531e+00,2.724323749542236328e+00,2.703260898590087891e+00,2.682521581649780273e+00,2.662097930908203125e+00,2.641983270645141602e+00,2.622169971466064453e+00,2.602651834487915039e+00,2.583422183990478516e+00,2.564474582672119141e+00,2.545802831649780273e+00,2.527400732040405273e+00,2.509263038635253906e+00,2.491384029388427734e+00,2.473757743835449219e+00,2.456379175186157227e+00,2.439242839813232422e+00,2.422344446182250977e+00,2.405678272247314453e+00,2.389239788055419922e+00,2.373024463653564453e+00,2.357028007507324219e+00,2.341245412826538086e+00,2.325672864913940430e+00,2.310306072235107422e+00,2.295141458511352539e+00,2.280174255371093750e+00,2.265400886535644531e+00,2.250818014144897461e+00,2.236421585083007812e+00,2.222208023071289062e+00,2.208173990249633789e+00,2.194316148757934570e+00,2.180631399154663086e+00,2.167115926742553711e+00,2.153767108917236328e+00,2.140581607818603516e+00,2.127556800842285156e+00,2.114689350128173828e+00,2.101976871490478516e+00,2.089416027069091797e+00,2.077004671096801758e+00,2.064739704132080078e+00,2.052618741989135742e+00,2.040639162063598633e+00
3.786384820938110352e+00,3.745821237564086914e+00,3.706117630004882812e+00,3.667246818542480469e+00,3.629183053970336914e+00,3.591900825500488281e+00,3.555377244949340820e+00,3.519588708877563477e+00,3.484513521194458008e+00,7.191416025161743164e-01,7.135087251663208008e-01,7.114464044570922852e-01,7.094795107841491699e-01,7.075234055519104004e-01,7.055780291557312012e-01,7.036433219909667969e-01,7.049346566200256348e-01,7.103577852249145508e-01,7.106772661209106445e-01,3.140269279479980469e+00,3.112317085266113281e+00,3.084858417510986328e+00,3.057880163192749023e+00,3.031369209289550781e+00,7.947415113449096680e-01,7.837110161781311035e-01,7.729933857917785645e-01,7.739374637603759766e-01,7.754282355308532715e-01,7.769247293472290039e-01,7.853274345397949219e-01,7.988650202751159668e-01,8.126910924911499023e-01,2.789527177810668945e+00,2.767448902130126953e+00,2.745717048645019531e+00,2.724323749542236328e+00,2.703261137008666992e+00,2.682522058486938477e+00,2.662098407745361328e+00,2.641983747482299805e+00,2.622170448303222656e+00,2.602652549743652344e+00,2.583422660827636719e+00,2.564474821090698242e+00,2.545803070068359375e+00,2.527401447296142578e+00,2.509263753890991211e+00,2.491384267807006836e+00,2.473757982254028320e+00,2.456379652023315430e+00,2.439243316650390625e+00,2.422344684600830078e+00,2.405678510665893555e+00,2.389240264892578125e+00,2.373024940490722656e+00,2.357028245925903320e+00,2.341245651245117188e+00,2.325673341751098633e+00,2.310306549072265625e+00,2.295141696929931641e+00,2.280174493789672852e+00,2.265401363372802734e+00,2.250818252563476562e+00,2.236421823501586914e+00,2.222208261489868164e+00,2.208174467086791992e+00,2.194316625595092773e+00,2.180631637573242188e+00,2.167116165161132812e+00,2.153767585754394531e+00,2.140582084655761719e+00,2.127557039260864258e+00,2.114689826965332031e+00,2.101977109909057617e+00,2.089416265487670898e+00,2.077004909515380859e+00,2.064739942550659180e+00,2.052618980407714844e+00,2.040639638900756836e+00
3.786380290985107422e+00,3.745817184448242188e+00,3.706113815307617188e+00,3.667243242263793945e+00,3.629179477691650391e+00,3.591898202896118164e+00,3.555374622344970703e+00,7.826811671257019043e-01,7.660995721817016602e-01,7.213326692581176758e-01,7.193106412887573242e-01,7.173000574111938477e-01,7.153006196022033691e-01,7.133123278617858887e-01,7.113350629806518555e-01,7.108730673789978027e-01,7.196506857872009277e-01,7.206424474716186523e-01,3.168728590011596680e+00,3.140269756317138672e+00,3.112317800521850586e+00,3.084859132766723633e+00,3.057880640029907227e+00,3.031369924545288086e+00,7.931188941001892090e-01,7.821526527404785156e-01,7.727079391479492188e-01,7.740373015403747559e-01,7.755284309387207031e-01,7.770253419876098633e-01,7.874705791473388672e-01,8.010828495025634766e-01,8.151739239692687988e-01,2.789527893066406250e+00,2.767449378967285156e+00,2.745717287063598633e+00,2.724323987960815430e+00,2.703261852264404297e+00,2.682522535324096680e+00,2.662098884582519531e+00,2.641983985900878906e+00,2.622171163558959961e+00,2.602652788162231445e+00,2.583423137664794922e+00,2.564475297927856445e+00,2.545803785324096680e+00,2.527401685714721680e+00,2.509263992309570312e+00,2.491384744644165039e+00,2.473758697509765625e+00,2.456379890441894531e+00,2.439243793487548828e+00,2.422345161437988281e+00,2.405678987503051758e+00,2.389240503311157227e+00,2.373025178909301758e+00,2.357028722763061523e+00,2.341246366500854492e+00,2.325673818588256836e+00,2.310307025909423828e+00,2.295141935348510742e+00,2.280174970626831055e+00,2.265401840209960938e+00,2.250818729400634766e+00,2.236422061920166016e+00,2.222208738327026367e+00,2.208174705505371094e+00,2.194316864013671875e+00,2.180631875991821289e+00,2.167116641998291016e+00,2.153767824172973633e+00,2.140582323074340820e+00,2.127557516098022461e+00,2.114690065383911133e+00,2.101977348327636719e+00,2.089416503906250000e+00,2.077005147933959961e+00,2.064740419387817383e+00,2.052619218826293945e+00,2.040639877319335938e+00
3.786381483078002930e+00,3.745817899703979492e+00,3.706114530563354492e+00,3.667244434356689453e+00,3.629180669784545898e+00,3.591898918151855469e+00,7.778670787811279297e-01,7.669827342033386230e-01,7.506089210510253906e-01,7.394679188728332520e-01,7.252949476242065430e-01,7.232507467269897461e-01,7.212181091308593750e-01,7.191967964172363281e-01,7.171868085861206055e-01,7.258407473564147949e-01,7.308911085128784180e-01,3.197708368301391602e+00,3.168729066848754883e+00,3.140270709991455078e+00,3.112318515777587891e+00,3.084859848022460938e+00,3.057881116867065430e+00,8.066216707229614258e-01,7.917762994766235352e-01,7.808468937873840332e-01,7.736821174621582031e-01,7.749540805816650391e-01,7.762302756309509277e-01,7.774949073791503906e-01,7.896611690521240234e-01,8.033129572868347168e-01,8.174832463264465332e-01,2.789528369903564453e+00,2.767449855804443359e+00,2.745718002319335938e+00,2.724324703216552734e+00,2.703262329101562500e+00,2.682522773742675781e+00,2.662099599838256836e+00,2.641984701156616211e+00,2.622171401977539062e+00,2.602653264999389648e+00,2.583423614501953125e+00,2.564475774765014648e+00,2.545804023742675781e+00,2.527402162551879883e+00,2.509264707565307617e+00,2.491385221481323242e+00,2.473758935928344727e+00,2.456380367279052734e+00,2.439244270324707031e+00,2.422345638275146484e+00,2.405679464340209961e+00,2.389240980148315430e+00,2.373025894165039062e+00,2.357029199600219727e+00,2.341246604919433594e+00,2.325674057006835938e+00,2.310307502746582031e+00,2.295142412185668945e+00,2.280175209045410156e+00,2.265402078628540039e+00,2.250819206237792969e+00,2.236422538757324219e+00,2.222208976745605469e+00,2.208174943923950195e+00,2.194317340850830078e+00,2.180632352828979492e+00,2.167116880416870117e+00,2.153768062591552734e+00,2.140582799911499023e+00,2.127557754516601562e+00,2.114690303802490234e+00,2.101977586746215820e+00,2.089416980743408203e+00,2.077005386352539062e+00,2.064740657806396484e+00,2.052619695663452148e+00,2.040640115737915039e+00
3.786382436752319336e+00,3.745818853378295898e+00,3.706115961074829102e+00,3.667245149612426758e+00,3.629181385040283203e+00,3.591899633407592773e+00,7.691922187805175781e-01,7.573852539062500000e-01,7.458691000938415527e-01,7.416232228279113770e-01,7.392765283584594727e-01,7.408986687660217285e-01,7.272343039512634277e-01,7.251791954040527344e-01,7.321382164955139160e-01,7.414353489875793457e-01,3.227223157882690430e+00,3.197709083557128906e+00,3.168730020523071289e+00,3.140271425247192383e+00,3.112319231033325195e+00,3.084860324859619141e+00,3.057882070541381836e+00,8.026701211929321289e-01,7.904384136199951172e-01,7.795456051826477051e-01,7.746587395668029785e-01,7.759338617324829102e-01,7.772133350372314453e-01,7.794421315193176270e-01,7.923293709754943848e-01,8.059135675430297852e-01,8.199717998504638672e-01,2.789528846740722656e+00,2.767450571060180664e+00,2.745718479156494141e+00,2.724325180053710938e+00,2.703262567520141602e+00,2.682523488998413086e+00,2.662099838256835938e+00,2.641985177993774414e+00,2.622171878814697266e+00,2.602653741836547852e+00,2.583424091339111328e+00,2.564476251602172852e+00,2.545804500579833984e+00,2.527402639389038086e+00,2.509264945983886719e+00,2.491385698318481445e+00,2.473759412765502930e+00,2.456380844116210938e+00,2.439244747161865234e+00,2.422346115112304688e+00,2.405679702758789062e+00,2.389241456985473633e+00,2.373026132583618164e+00,2.357029438018798828e+00,2.341246843338012695e+00,2.325674533843994141e+00,2.310307741165161133e+00,2.295142889022827148e+00,2.280175685882568359e+00,2.265402555465698242e+00,2.250819444656372070e+00,2.236422777175903320e+00,2.222209215164184570e+00,2.208175420761108398e+00,2.194317579269409180e+00,2.180632591247558594e+00,2.167117357254028320e+00,2.153768539428710938e+00,2.140583038330078125e+00,2.127557992935180664e+00,2.114690542221069336e+00,2.101978063583374023e+00,2.089417219161987305e+00,2.077005863189697266e+00,2.064740896224975586e+00,2.052619934082031250e+00,2.040640354156494141e+00
3.786383628845214844e+00,3.745820045471191406e+00,3.706116676330566406e+00,3.667245864868164062e+00,3.629182577133178711e+00,7.727532982826232910e-01,7.624539732933044434e-01,7.521609067916870117e-01,7.469213604927062988e-01,7.427701950073242188e-01,7.448471784591674805e-01,7.469325065612792969e-01,7.492169141769409180e-01,7.385459542274475098e-01,7.480247020721435547e-01,3.257287979125976562e+00,3.227224111557006836e+00,3.197710037231445312e+00,3.168730497360229492e+00,3.140271902084350586e+00,3.112319946289062500e+00,3.084861278533935547e+00,3.057882547378540039e+00,8.014708757400512695e-01,7.891048789024353027e-01,7.782486081123352051e-01,7.756377458572387695e-01,7.769162058830261230e-01,7.781764268875122070e-01,7.818527817726135254e-01,7.950155735015869141e-01,8.086928725242614746e-01,2.811963558197021484e+00,2.789529561996459961e+00,2.767451047897338867e+00,2.745718955993652344e+00,2.724325895309448242e+00,2.703263282775878906e+00,2.682523965835571289e+00,2.662100315093994141e+00,2.641985654830932617e+00,2.622172594070434570e+00,2.602654218673706055e+00,2.583424568176269531e+00,2.564476966857910156e+00,2.545804977416992188e+00,2.527403116226196289e+00,2.509265422821044922e+00,2.491386175155639648e+00,2.473759889602661133e+00,2.456381320953369141e+00,2.439244985580444336e+00,2.422346591949462891e+00,2.405680179595947266e+00,2.389241695404052734e+00,2.373026371002197266e+00,2.357029914855957031e+00,2.341247320175170898e+00,2.325674772262573242e+00,2.310307979583740234e+00,2.295143365859985352e+00,2.280175924301147461e+00,2.265402793884277344e+00,2.250819683074951172e+00,2.236423254013061523e+00,2.222209692001342773e+00,2.208175659179687500e+00,2.194317817687988281e+00,2.180633068084716797e+00,2.167117595672607422e+00,2.153768777847290039e+00,2.140583276748657227e+00,2.127558469772338867e+00,2.114691019058227539e+00,2.101978302001953125e+00,2.089417457580566406e+00,2.077006101608276367e+00,2.064741134643554688e+00,2.052620172500610352e+00,2.040640592575073242e+00
3.777551174163818359e+00,3.745820999145507812e+00,3.706117630004882812e+00,3.667247056961059570e+00,3.629183292388916016e+00,3.591901540756225586e+00,7.571383714675903320e-01,7.496008872985839844e-01,7.463527917861938477e-01,7.464596629142761230e-01,7.489420771598815918e-01,7.524799108505249023e-01,7.577052712440490723e-01,3.319129228591918945e+00,3.287918090820312500e+00,3.257288932800292969e+00,3.227224826812744141e+00,3.197710514068603516e+00,3.168731212615966797e+00,3.140272855758666992e+00,3.112320661544799805e+00,3.084861755371093750e+00,3.057883262634277344e+00,8.002752065658569336e-01,7.877758741378784180e-01,7.769559025764465332e-01,7.766192555427551270e-01,7.779009938240051270e-01,7.790553569793701172e-01,7.844082117080688477e-01,7.977200150489807129e-01,8.114913702011108398e-01,2.811964035034179688e+00,2.789530038833618164e+00,2.767451524734497070e+00,2.745719671249389648e+00,2.724326372146606445e+00,2.703263759613037109e+00,2.682524442672729492e+00,2.662101030349731445e+00,2.641986131668090820e+00,2.622172832489013672e+00,2.602654695510864258e+00,2.583425045013427734e+00,2.564477205276489258e+00,2.545805454254150391e+00,2.527403593063354492e+00,2.509265899658203125e+00,2.491386651992797852e+00,2.473760128021240234e+00,2.456381559371948242e+00,2.439245462417602539e+00,2.422346830368041992e+00,2.405680656433105469e+00,2.389242172241210938e+00,2.373027086257934570e+00,2.357030391693115234e+00,2.341247797012329102e+00,2.325675249099731445e+00,2.310308456420898438e+00,2.295143604278564453e+00,2.280176401138305664e+00,2.265403032302856445e+00,2.250820159912109375e+00,2.236423492431640625e+00,2.222210168838500977e+00,2.208175897598266602e+00,2.194318294525146484e+00,2.180633306503295898e+00,2.167117834091186523e+00,2.153769016265869141e+00,2.140583753585815430e+00,2.127558708190917969e+00,2.114691257476806641e+00,2.101978540420532227e+00,2.089417934417724609e+00,2.077006340026855469e+00,2.064741373062133789e+00,2.052620410919189453e+00,2.040641069412231445e+00
3.083801031112670898e+00,3.083315372467041016e+00,3.082829952239990234e+00,3.082344532012939453e+00,3.081859588623046875e+00,3.081374406814575195e+00,7.520002722740173340e-01,7.471575736999511719e-01,7.447875738143920898e-01,7.456590533256530762e-01,7.490766048431396484e-01,7.533230185508728027e-01,7.632049322128295898e-01,3.077499389648437500e+00,3.077015876770019531e+00,3.076532125473022461e+00,3.076048851013183594e+00,3.075565576553344727e+00,3.075082302093505859e+00,3.074599504470825195e+00,3.074116945266723633e+00,3.073634386062622070e+00,3.057883977890014648e+00,7.990830540657043457e-01,7.864514589309692383e-01,7.763226032257080078e-01,7.776033282279968262e-01,7.788591384887695312e-01,7.799363136291503906e-01,7.870408296585083008e-01,8.004429340362548828e-01,8.143092989921569824e-01,2.811964511871337891e+00,2.789530754089355469e+00,2.767452239990234375e+00,2.745720148086547852e+00,2.724326848983764648e+00,2.703264474868774414e+00,2.682524919509887695e+00,2.662101507186889648e+00,2.641986608505249023e+00,2.622173547744750977e+00,2.602655172348022461e+00,2.583425521850585938e+00,2.564477682113647461e+00,2.545805931091308594e+00,2.527404069900512695e+00,2.509266376495361328e+00,2.491386890411376953e+00,2.473760843276977539e+00,2.456382036209106445e+00,2.439245939254760742e+00,2.422347307205200195e+00,2.405681133270263672e+00,2.389242649078369141e+00,2.373027324676513672e+00,2.357030630111694336e+00,2.341248273849487305e+00,2.325675725936889648e+00,2.310308933258056641e+00,2.295143842697143555e+00,2.280176877975463867e+00,2.265403509140014648e+00,2.250820398330688477e+00,2.236423969268798828e+00,2.222210407257080078e+00,2.208176374435424805e+00,2.194318532943725586e+00,2.180633544921875000e+00,2.167118310928344727e+00,2.153769493103027344e+00,2.140583992004394531e+00,2.127558946609497070e+00,2.114691734313964844e+00,2.101979017257690430e+00,2.089418172836303711e+00,2.077006578445434570e+00,2.064741849899291992e+00,2.052620887756347656e+00,2.040641307830810547e+00
2.605330228805541992e+00,2.604983329772949219e+00,2.604636907577514648e+00,2.604290485382080078e+00,2.603944063186645508e+00,2.603597879409790039e+00,7.469851374626159668e-01,7.425514459609985352e-01,7.435225844383239746e-01,7.442599534988403320e-01,7.477930784225463867e-01,7.522647380828857422e-01,7.634190320968627930e-01,2.600830793380737305e+00,2.600485324859619141e+00,2.600140094757080078e+00,2.599794626235961914e+00,2.599449396133422852e+00,2.599104404449462891e+00,2.598759412765502930e+00,2.598414659500122070e+00,2.598069667816162109e+00,8.164829015731811523e-01,7.978945374488830566e-01,7.851313948631286621e-01,7.773058414459228516e-01,7.785898447036743164e-01,7.797396183013916016e-01,7.808192372322082520e-01,7.896912097930908203e-01,8.031845092773437500e-01,2.594626426696777344e+00,2.594282627105712891e+00,2.593939065933227539e+00,2.593595266342163086e+00,2.593251705169677734e+00,2.592908382415771484e+00,2.592565059661865234e+00,2.592221736907958984e+00,2.591878652572631836e+00,2.591535568237304688e+00,2.591192483901977539e+00,2.590849637985229492e+00,2.583425760269165039e+00,2.564478158950805664e+00,2.545806407928466797e+00,2.527404546737670898e+00,2.509266614913940430e+00,2.491387605667114258e+00,2.473761081695556641e+00,2.456382513046264648e+00,2.439246177673339844e+00,2.422347784042358398e+00,2.405681371688842773e+00,2.389242887496948242e+00,2.373027563095092773e+00,2.357031106948852539e+00,2.341248512268066406e+00,2.325675964355468750e+00,2.310309171676635742e+00,2.295144319534301758e+00,2.280177116394042969e+00,2.265403985977172852e+00,2.250820875167846680e+00,2.236424446105957031e+00,2.222210884094238281e+00,2.208176851272583008e+00,2.194318771362304688e+00,2.180634021759033203e+00,2.167118549346923828e+00,2.153769731521606445e+00,2.140584230422973633e+00,2.127559423446655273e+00,2.114691972732543945e+00,2.101979255676269531e+00,2.089418411254882812e+00,2.077007055282592773e+00,2.064742088317871094e+00,2.052621126174926758e+00,2.040641546249389648e+00
2.255392074584960938e+00,2.255132198333740234e+00,2.254872560501098633e+00,2.254612922668457031e+00,2.254353284835815430e+00,2.254093647003173828e+00,7.431959509849548340e-01,7.386760115623474121e-01,7.412160634994506836e-01,7.433384656906127930e-01,7.469278573989868164e-01,7.522965073585510254e-01,7.627888321876525879e-01,2.252019405364990234e+00,2.251760482788085938e+00,2.251501560211181641e+00,2.251242637634277344e+00,2.250983715057373047e+00,2.250725030899047852e+00,2.250466346740722656e+00,2.250207662582397461e+00,2.249948978424072266e+00,8.112999796867370605e-01,7.967094779014587402e-01,7.838156819343566895e-01,7.782916426658630371e-01,7.795430421829223633e-01,7.806221246719360352e-01,7.823825478553771973e-01,7.923595905303955078e-01,8.059449195861816406e-01,2.247366428375244141e+00,2.247108459472656250e+00,2.246850490570068359e+00,2.246592521667480469e+00,2.246335029602050781e+00,2.246077299118041992e+00,2.245819568634033203e+00,2.245561838150024414e+00,2.245304346084594727e+00,2.245046854019165039e+00,2.244789361953735352e+00,2.244532108306884766e+00,2.244274854660034180e+00,2.244017601013183594e+00,2.243760585784912109e+00,2.243503332138061523e+00,2.243246316909790039e+00,2.242989301681518555e+00,2.242732286453247070e+00,2.242475271224975586e+00,2.242218494415283203e+00,2.241961956024169922e+00,2.241705179214477539e+00,2.241448402404785156e+00,2.241191864013671875e+00,2.240935325622558594e+00,2.240678787231445312e+00,2.240422487258911133e+00,2.240165948867797852e+00,2.239909887313842773e+00,2.239653587341308594e+00,2.239397525787353516e+00,2.239141225814819336e+00,2.236424684524536133e+00,2.222211122512817383e+00,2.208177089691162109e+00,2.194319248199462891e+00,2.180634260177612305e+00,2.167119026184082031e+00,2.153770208358764648e+00,2.140584707260131836e+00,2.127559661865234375e+00,2.114692211151123047e+00,2.101979732513427734e+00,2.089418888092041016e+00,2.077007293701171875e+00,2.064742326736450195e+00,2.052621364593505859e+00,2.040642023086547852e+00
1.988327383995056152e+00,1.988125681877136230e+00,1.987923741340637207e+00,1.987721920013427734e+00,1.987520098686218262e+00,1.987318396568298340e+00,7.394524812698364258e-01,7.357428669929504395e-01,7.385143637657165527e-01,7.421343922615051270e-01,7.464914917945861816e-01,7.526175379753112793e-01,7.631215453147888184e-01,1.985705733299255371e+00,1.985504388809204102e+00,1.985303044319152832e+00,1.985101699829101562e+00,1.984900712966918945e+00,1.984699487686157227e+00,1.984498262405395508e+00,1.984297037124633789e+00,1.984095931053161621e+00,8.100748062133789062e-01,7.955279350280761719e-01,7.825043797492980957e-01,7.792799472808837891e-01,7.804250717163085938e-01,7.815065979957580566e-01,7.848114967346191406e-01,7.950459718704223633e-01,1.982287883758544922e+00,1.982087135314941406e+00,1.981886506080627441e+00,1.981685876846313477e+00,1.981485486030578613e+00,1.981284976005554199e+00,1.981084465980529785e+00,1.980884075164794922e+00,1.980683684349060059e+00,1.980483293533325195e+00,1.980282902717590332e+00,1.980082631111145020e+00,1.979882359504699707e+00,1.979682207107543945e+00,1.979481935501098633e+00,1.979281783103942871e+00,1.979081749916076660e+00,1.978881716728210449e+00,1.978681683540344238e+00,1.978481650352478027e+00,1.978281736373901367e+00,1.978082060813903809e+00,1.977882266044616699e+00,1.977682471275329590e+00,1.977482676506042480e+00,1.977282881736755371e+00,1.977083206176757812e+00,1.976883530616760254e+00,1.976683974266052246e+00,1.976484417915344238e+00,1.976284861564636230e+00,1.976085424423217773e+00,1.975885868072509766e+00,1.975686550140380859e+00,1.975487112998962402e+00,1.975287795066833496e+00,1.975088477134704590e+00,1.974889516830444336e+00,1.974690318107604980e+00,1.974491119384765625e+00,1.974292039871215820e+00,1.974092960357666016e+00,1.973893880844116211e+00,1.973694920539855957e+00,1.973495960235595703e+00,1.973296999931335449e+00,1.973098039627075195e+00,1.972899198532104492e+00,1.972700476646423340e+00,1.972501635551452637e+00
1.777813792228698730e+00,1.777652263641357422e+00,1.777490854263305664e+00,1.777329564094543457e+00,1.777168154716491699e+00,1.777006864547729492e+00,7.343755960464477539e-01,7.319154739379882812e-01,7.352825403213500977e-01,7.404812574386596680e-01,7.460736632347106934e-01,7.526054978370666504e-01,7.627400755882263184e-01,7.798852324485778809e-01,1.775556325912475586e+00,1.775395393371582031e+00,1.775234580039978027e+00,1.775073528289794922e+00,1.774912595748901367e+00,1.774751782417297363e+00,1.774590849876403809e+00,1.774430036544799805e+00,8.088533282279968262e-01,7.943499088287353516e-01,7.811975479125976562e-01,7.802280783653259277e-01,7.813091278076171875e-01,7.823931574821472168e-01,7.872554659843444824e-01,7.977506518363952637e-01,1.772983670234680176e+00,1.772823095321655273e+00,1.772662639617919922e+00,1.772502303123474121e+00,1.772341847419738770e+00,1.772181391716003418e+00,1.772020936012268066e+00,1.771860599517822266e+00,1.771700143814086914e+00,1.771539926528930664e+00,1.771379590034484863e+00,1.771219253540039062e+00,1.771059036254882812e+00,1.770898818969726562e+00,1.770738720893859863e+00,1.770578503608703613e+00,1.770418405532836914e+00,1.770258307456970215e+00,1.770098209381103516e+00,1.769938349723815918e+00,1.769778370857238770e+00,1.769618391990661621e+00,1.769458413124084473e+00,1.769298553466796875e+00,1.769138574600219727e+00,1.768978714942932129e+00,1.768818974494934082e+00,1.768659114837646484e+00,1.768499374389648438e+00,1.768339633941650391e+00,1.768179893493652344e+00,1.768020153045654297e+00,1.767860531806945801e+00,1.767700910568237305e+00,1.767541289329528809e+00,1.767381668090820312e+00,1.767222404479980469e+00,1.767062783241271973e+00,1.766903400421142578e+00,1.766743898391723633e+00,1.766584515571594238e+00,1.766425013542175293e+00,1.766265749931335449e+00,1.766106367111206055e+00,1.765946984291076660e+00,1.765787720680236816e+00,1.765628457069396973e+00,1.765469312667846680e+00,1.765310168266296387e+00,1.765150904655456543e+00
1.607608556747436523e+00,1.607476472854614258e+00,1.607344508171081543e+00,1.607212543487548828e+00,1.607080578804016113e+00,1.606948733329772949e+00,7.278361916542053223e-01,7.274295091629028320e-01,7.315689325332641602e-01,7.381997108459472656e-01,7.447791099548339844e-01,7.516508102416992188e-01,7.617754936218261719e-01,7.749111056327819824e-01,1.605762481689453125e+00,1.605630874633789062e+00,1.605499148368835449e+00,1.605367541313171387e+00,1.605235934257507324e+00,1.605104327201843262e+00,1.604972720146179199e+00,1.604841113090515137e+00,1.604709625244140625e+00,7.931754589080810547e-01,7.799711823463439941e-01,7.811116576194763184e-01,7.821952104568481445e-01,7.832816839218139648e-01,7.897147536277770996e-01,8.004738092422485352e-01,1.603657960891723633e+00,1.603526592254638672e+00,1.603395462036132812e+00,1.603264093399047852e+00,1.603132843971252441e+00,1.603001594543457031e+00,1.602870345115661621e+00,1.602739095687866211e+00,1.602607846260070801e+00,1.602476716041564941e+00,1.602345585823059082e+00,1.602214336395263672e+00,1.602083325386047363e+00,1.601952195167541504e+00,1.601821064949035645e+00,1.601690053939819336e+00,1.601559042930603027e+00,1.601428031921386719e+00,1.601297140121459961e+00,1.601166248321533203e+00,1.601035237312316895e+00,1.600904345512390137e+00,1.600773453712463379e+00,1.600642561912536621e+00,1.600511670112609863e+00,1.600380897521972656e+00,1.600250005722045898e+00,1.600119233131408691e+00,1.599988460540771484e+00,1.599857687950134277e+00,1.599726915359497070e+00,1.599596261978149414e+00,1.599465489387512207e+00,1.599334836006164551e+00,1.599204182624816895e+00,1.599073767662048340e+00,1.598943114280700684e+00,1.598812580108642578e+00,1.598681926727294922e+00,1.598551392555236816e+00,1.598420977592468262e+00,1.598290324211120605e+00,1.598159432411193848e+00,1.598028898239135742e+00,1.597898244857788086e+00,1.597767710685729980e+00,1.597637176513671875e+00,1.597506642341613770e+00,1.597376108169555664e+00,1.597245693206787109e+00
1.467146158218383789e+00,1.467036128044128418e+00,1.466926217079162598e+00,1.466816306114196777e+00,1.466706395149230957e+00,1.466596603393554688e+00,7.276775836944580078e-01,7.233993411064147949e-01,7.277025580406188965e-01,7.355055809020996094e-01,7.427239418029785156e-01,7.504332065582275391e-01,7.609049081802368164e-01,7.724303603172302246e-01,1.465608477592468262e+00,1.465498805046081543e+00,1.465389132499694824e+00,1.465279340744018555e+00,1.465169787406921387e+00,1.465060114860534668e+00,1.464950442314147949e+00,1.464840769767761230e+00,8.270291090011596680e-01,8.052599430084228516e-01,7.918996214866638184e-01,7.914026379585266113e-01,7.932893633842468262e-01,8.008639216423034668e-01,7.921895980834960938e-01,1.463964462280273438e+00,1.463855028152465820e+00,1.463745713233947754e+00,1.463636279106140137e+00,1.463526844978332520e+00,1.463417410850524902e+00,1.463308095932006836e+00,1.463198661804199219e+00,1.463089346885681152e+00,1.462979912757873535e+00,1.462870597839355469e+00,1.462761402130126953e+00,1.462652087211608887e+00,1.462542772293090820e+00,1.462433576583862305e+00,1.462324261665344238e+00,1.462215065956115723e+00,1.462105870246887207e+00,1.461996793746948242e+00,1.461887598037719727e+00,1.461778521537780762e+00,1.461669325828552246e+00,1.461560249328613281e+00,1.461451172828674316e+00,1.461341977119445801e+00,1.461232900619506836e+00,1.461123943328857422e+00,1.461014866828918457e+00,1.460905790328979492e+00,1.460796833038330078e+00,1.460687756538391113e+00,1.460578680038452148e+00,1.460469603538513184e+00,1.460360527038574219e+00,1.460251450538635254e+00,1.460142493247985840e+00,1.460033416748046875e+00,1.459924459457397461e+00,1.459815382957458496e+00,1.459706425666809082e+00,1.459597468376159668e+00,1.459488511085510254e+00,1.459379673004150391e+00,1.459270715713500977e+00,1.459161758422851562e+00,1.459052920341491699e+00,1.458944082260131836e+00,1.458835244178771973e+00,1.458726286888122559e+00,1.458617448806762695e+00,1.458508610725402832e+00
1.349256753921508789e+00,1.349163770675659180e+00,1.349070787429809570e+00,1.348977804183959961e+00,1.348884940147399902e+00,1.348791956901550293e+00,1.348699092864990234e+00,7.200890183448791504e-01,7.225613594055175781e-01,7.312456369400024414e-01,7.392173409461975098e-01,7.482362985610961914e-01,7.592582106590270996e-01,7.705209255218505859e-01,1.347956180572509766e+00,1.347863435745239258e+00,1.347770690917968750e+00,1.347677826881408691e+00,1.347585082054138184e+00,1.347492337226867676e+00,1.347399592399597168e+00,1.347306847572326660e+00,8.155240416526794434e-01,7.969353795051574707e-01,7.888091802597045898e-01,7.896428704261779785e-01,7.937996983528137207e-01,7.982775568962097168e-01,1.346658110618591309e+00,1.346565485000610352e+00,1.346472978591918945e+00,1.346380352973937988e+00,1.346287846565246582e+00,1.346195220947265625e+00,1.346102714538574219e+00,1.346010088920593262e+00,1.345917582511901855e+00,1.345825076103210449e+00,1.345732569694519043e+00,1.345640063285827637e+00,1.345547556877136230e+00,1.345455050468444824e+00,1.345362663269042969e+00,1.345270156860351562e+00,1.345177769660949707e+00,1.345085263252258301e+00,1.344992995262145996e+00,1.344900608062744141e+00,1.344808220863342285e+00,1.344715714454650879e+00,1.344623208045959473e+00,1.344530820846557617e+00,1.344438314437866211e+00,1.344345927238464355e+00,1.344253540039062500e+00,1.344161033630371094e+00,1.344068646430969238e+00,1.343976259231567383e+00,1.343883872032165527e+00,1.343791484832763672e+00,1.343699097633361816e+00,1.343606829643249512e+00,1.343514442443847656e+00,1.343422174453735352e+00,1.343329906463623047e+00,1.343237638473510742e+00,1.343145370483398438e+00,1.343053102493286133e+00,1.342960834503173828e+00,1.342868566513061523e+00,1.342776417732238770e+00,1.342684149742126465e+00,1.342592000961303711e+00,1.342499852180480957e+00,1.342407703399658203e+00,1.342315435409545898e+00,1.342223405838012695e+00,1.342131257057189941e+00,1.342039108276367188e+00,1.341946959495544434e+00
1.248903870582580566e+00,1.248824119567871094e+00,1.248744487762451172e+00,1.248664855957031250e+00,1.248585224151611328e+00,1.248505592346191406e+00,1.248425960540771484e+00,1.248346328735351562e+00,7.187796831130981445e-01,7.313681840896606445e-01,7.324410676956176758e-01,7.443544268608093262e-01,7.551176548004150391e-01,7.698830366134643555e-01,7.770050764083862305e-01,1.247709989547729492e+00,1.247630476951599121e+00,1.247550964355468750e+00,1.247471451759338379e+00,1.247391939163208008e+00,1.247312426567077637e+00,1.247233033180236816e+00,8.057363629341125488e-01,7.947975993156433105e-01,7.869597077369689941e-01,7.879328727722167969e-01,7.902683019638061523e-01,7.942809462547302246e-01,1.246677041053771973e+00,1.246597766876220703e+00,1.246518373489379883e+00,1.246438980102539062e+00,1.246359586715698242e+00,1.246280312538146973e+00,1.246200919151306152e+00,1.246121644973754883e+00,1.246042370796203613e+00,1.245962977409362793e+00,1.245883703231811523e+00,1.245804309844970703e+00,1.245724916458129883e+00,1.245645523071289062e+00,1.245566129684448242e+00,1.245486855506896973e+00,1.245407462120056152e+00,1.245328187942504883e+00,1.245248913764953613e+00,1.245169639587402344e+00,1.245090365409851074e+00,1.245011091232299805e+00,1.244931817054748535e+00,1.244852542877197266e+00,1.244773268699645996e+00,1.244693994522094727e+00,1.244614839553833008e+00,1.244535565376281738e+00,1.244456410408020020e+00,1.244377136230468750e+00,1.244297981262207031e+00,1.244218826293945312e+00,1.244139671325683594e+00,1.244060516357421875e+00,1.243981242179870605e+00,1.243902087211608887e+00,1.243823051452636719e+00,1.243743896484375000e+00,1.243664741516113281e+00,1.243585705757141113e+00,1.243506669998168945e+00,1.243427515029907227e+00,1.243348479270935059e+00,1.243269443511962891e+00,1.243190407752990723e+00,1.243111371994018555e+00,1.243032336235046387e+00,1.242953300476074219e+00,1.242874264717102051e+00,1.242795348167419434e+00,1.242716312408447266e+00,1.242637395858764648e+00
1.162445306777954102e+00,1.162376284599304199e+00,1.162307262420654297e+00,1.162238240242004395e+00,1.162169337272644043e+00,1.162100315093994141e+00,1.162031292915344238e+00,1.161962389945983887e+00,7.181783914566040039e-01,1.161824464797973633e+00,7.300597429275512695e-01,7.383761405944824219e-01,7.502925992012023926e-01,7.670499682426452637e-01,7.732127308845520020e-01,1.161410927772521973e+00,1.161342024803161621e+00,1.161273121833801270e+00,1.161204218864440918e+00,1.161135435104370117e+00,1.161066532135009766e+00,8.184475898742675781e-01,8.055816292762756348e-01,7.938152551651000977e-01,7.838591933250427246e-01,7.834048867225646973e-01,7.858871817588806152e-01,7.872711420059204102e-01,7.979118227958679199e-01,1.160446882247924805e+00,1.160378098487854004e+00,1.160309195518493652e+00,1.160240411758422852e+00,1.160171508789062500e+00,1.160102725028991699e+00,1.160033822059631348e+00,1.159965038299560547e+00,1.159896254539489746e+00,1.159827470779418945e+00,1.159758687019348145e+00,1.159689903259277344e+00,1.159621119499206543e+00,1.159552335739135742e+00,1.159483551979064941e+00,1.159414768218994141e+00,1.159345984458923340e+00,1.159277200698852539e+00,1.159208536148071289e+00,1.159139871597290039e+00,1.159071087837219238e+00,1.159002423286437988e+00,1.158933758735656738e+00,1.158864974975585938e+00,1.158796310424804688e+00,1.158727645874023438e+00,1.158658981323242188e+00,1.158590316772460938e+00,1.158521652221679688e+00,1.158453106880187988e+00,1.158384442329406738e+00,1.158315896987915039e+00,1.158247232437133789e+00,1.158178687095642090e+00,1.158110022544860840e+00,1.158041477203369141e+00,1.157972931861877441e+00,1.157904267311096191e+00,1.157835721969604492e+00,1.157767176628112793e+00,1.157698631286621094e+00,1.157630085945129395e+00,1.157561540603637695e+00,1.157492995262145996e+00,1.157424449920654297e+00,1.157356023788452148e+00,1.157287478446960449e+00,1.157218933105468750e+00,1.157150506973266602e+00,1.157082080841064453e+00,1.157013535499572754e+00
1.087182283401489258e+00,1.087121963500976562e+00,1.087061524391174316e+00,1.087001204490661621e+00,1.086940884590148926e+00,1.086880564689636230e+00,1.086820244789123535e+00,1.086759805679321289e+00,7.218800187110900879e-01,7.288587093353271484e-01,7.318590283393859863e-01,7.372516989707946777e-01,7.492331266403198242e-01,7.644287943840026855e-01,7.728149294853210449e-01,1.086277484893798828e+00,1.086217284202575684e+00,1.086156845092773438e+00,1.086096525192260742e+00,1.086036205291748047e+00,1.085975885391235352e+00,8.092857003211975098e-01,8.002719283103942871e-01,7.903067469596862793e-01,7.822407484054565430e-01,7.789270877838134766e-01,7.779244780540466309e-01,7.756262421607971191e-01,7.787099480628967285e-01,7.901016473770141602e-01,1.085373044013977051e+00,1.085312843322753906e+00,1.085252642631530762e+00,1.085192322731018066e+00,1.085132122039794922e+00,1.085071921348571777e+00,1.085011720657348633e+00,1.084951519966125488e+00,1.084891319274902344e+00,1.084831118583679199e+00,1.084771037101745605e+00,1.084710717201232910e+00,1.084650635719299316e+00,1.084590435028076172e+00,1.084530353546142578e+00,1.084470152854919434e+00,1.084409952163696289e+00,1.084349870681762695e+00,1.084289669990539551e+00,1.084229588508605957e+00,1.084169387817382812e+00,1.084109306335449219e+00,1.084049224853515625e+00,1.083989143371582031e+00,1.083929061889648438e+00,1.083868980407714844e+00,1.083808898925781250e+00,1.083748817443847656e+00,1.083688735961914062e+00,1.083628654479980469e+00,1.083568692207336426e+00,1.083508610725402832e+00,1.083448529243469238e+00,1.083388566970825195e+00,1.083328485488891602e+00,1.083268523216247559e+00,1.083208560943603516e+00,1.083148479461669922e+00,1.083088517189025879e+00,1.083028554916381836e+00,1.082968592643737793e+00,1.082908511161804199e+00,1.082848548889160156e+00,1.082788586616516113e+00,1.082728624343872070e+00,1.082668662071228027e+00,1.082608699798583984e+00,1.082548737525939941e+00,1.082488894462585449e+00,1.082428932189941406e+00
1.021072626113891602e+00,1.021019339561462402e+00,1.020966053009033203e+00,1.020912885665893555e+00,1.020859599113464355e+00,1.020806312561035156e+00,1.020753026008605957e+00,1.020699739456176758e+00,1.020646572113037109e+00,1.020593285560607910e+00,1.020539999008178711e+00,7.398815751075744629e-01,7.491215467453002930e-01,7.624282240867614746e-01,7.672596573829650879e-01,1.020273685455322266e+00,1.020220518112182617e+00,1.020167231559753418e+00,1.020114064216613770e+00,1.020060896873474121e+00,1.020007610321044922e+00,8.043183088302612305e-01,7.963624000549316406e-01,7.893778085708618164e-01,7.821412682533264160e-01,7.739621996879577637e-01,7.720839381217956543e-01,7.676408290863037109e-01,7.669165134429931641e-01,7.706265449523925781e-01,7.868996262550354004e-01,1.019422650337219238e+00,1.019369482994079590e+00,1.019316315650939941e+00,1.019263267517089844e+00,1.019210100173950195e+00,1.019156932830810547e+00,1.019103884696960449e+00,1.019050717353820801e+00,1.018997669219970703e+00,1.018944501876831055e+00,1.018891453742980957e+00,1.018838405609130859e+00,1.018785238265991211e+00,1.018732190132141113e+00,1.018679141998291016e+00,1.018626093864440918e+00,1.018573045730590820e+00,1.018519997596740723e+00,1.018466949462890625e+00,1.018413901329040527e+00,1.018360853195190430e+00,1.018307685852050781e+00,1.018254637718200684e+00,1.018201708793640137e+00,1.018148660659790039e+00,1.018095612525939941e+00,1.018042683601379395e+00,1.017989635467529297e+00,1.017936587333679199e+00,1.017883658409118652e+00,1.017830610275268555e+00,1.017777681350708008e+00,1.017724752426147461e+00,1.017671704292297363e+00,1.017618775367736816e+00,1.017565846443176270e+00,1.017512917518615723e+00,1.017459988594055176e+00,1.017406940460205078e+00,1.017354011535644531e+00,1.017301082611083984e+00,1.017248153686523438e+00,1.017195343971252441e+00,1.017142415046691895e+00,1.017089366912841797e+00,1.017036557197570801e+00,1.016983628273010254e+00,1.016930699348449707e+00,1.016877889633178711e+00
9.625417590141296387e-01,9.624943733215332031e-01,9.624469876289367676e-01,9.623996019363403320e-01,9.623522162437438965e-01,9.623048901557922363e-01,9.622575044631958008e-01,9.622101783752441406e-01,9.621628522872924805e-01,9.621155261993408203e-01,9.620681405067443848e-01,9.620206952095031738e-01,9.619733691215515137e-01,9.619260430335998535e-01,9.618787765502929688e-01,9.618314504623413086e-01,9.617841243743896484e-01,9.617367982864379883e-01,9.616895318031311035e-01,9.616422653198242188e-01,9.615949392318725586e-01,8.024939298629760742e-01,7.944193482398986816e-01,7.885937094688415527e-01,7.842569947242736816e-01,7.773854732513427734e-01,7.701979279518127441e-01,7.625977993011474609e-01,7.585649490356445312e-01,7.571802735328674316e-01,7.599544525146484375e-01,7.774341702461242676e-01,9.610278606414794922e-01,9.609805941581726074e-01,9.609333872795104980e-01,9.608861804008483887e-01,9.608389139175415039e-01,9.607917070388793945e-01,9.607445001602172852e-01,9.606972932815551758e-01,9.606501460075378418e-01,9.606029391288757324e-01,9.605557322502136230e-01,9.605085849761962891e-01,9.604613780975341797e-01,9.604142308235168457e-01,9.603670239448547363e-01,9.603198766708374023e-01,9.602727293968200684e-01,9.602255225181579590e-01,9.601783752441406250e-01,9.601312279701232910e-01,9.600841403007507324e-01,9.600369930267333984e-01,9.599898457527160645e-01,9.599426984786987305e-01,9.598956108093261719e-01,9.598483443260192871e-01,9.598012566566467285e-01,9.597541093826293945e-01,9.597070217132568359e-01,9.596599340438842773e-01,9.596128463745117188e-01,9.595657587051391602e-01,9.595186710357666016e-01,9.594715833663940430e-01,9.594244956970214844e-01,9.593774080276489258e-01,9.593303799629211426e-01,9.592832922935485840e-01,9.592362046241760254e-01,9.591891765594482422e-01,9.591421484947204590e-01,9.590950608253479004e-01,9.590480327606201172e-01,9.590010046958923340e-01,9.589539766311645508e-01,9.589069485664367676e-01,9.588599205017089844e-01,9.588128924369812012e-01
9.103570580482482910e-01,9.103146791458129883e-01,9.102723002433776855e-01,9.102299213409423828e-01,9.101875424385070801e-01,9.101452231407165527e-01,9.101028442382812500e-01,9.100604653358459473e-01,9.100181460380554199e-01,9.099757671356201172e-01,9.099334478378295898e-01,9.098910689353942871e-01,9.098487496376037598e-01,9.098064303398132324e-01,9.097641110420227051e-01,9.097216725349426270e-01,9.096793532371520996e-01,9.096370339393615723e-01,9.095947146415710449e-01,9.095523953437805176e-01,9.095100760459899902e-01,9.094677567481994629e-01,7.934299111366271973e-01,7.897864580154418945e-01,7.858960628509521484e-01,7.796169519424438477e-01,7.731530070304870605e-01,7.643423080444335938e-01,7.516730427742004395e-01,7.481172084808349609e-01,7.460941672325134277e-01,7.480876445770263672e-01,7.695053219795227051e-01,8.113538026809692383e-01,9.089182019233703613e-01,9.088759422302246094e-01,9.088337421417236328e-01,9.087914824485778809e-01,9.087492227554321289e-01,9.087070226669311523e-01,9.086647629737854004e-01,9.086225628852844238e-01,9.085803627967834473e-01,9.085381627082824707e-01,9.084959030151367188e-01,9.084537029266357422e-01,9.084115028381347656e-01,9.083693027496337891e-01,9.083271026611328125e-01,9.082849025726318359e-01,9.082427620887756348e-01,9.082005620002746582e-01,9.081583619117736816e-01,9.081162214279174805e-01,9.080740213394165039e-01,9.080318808555603027e-01,9.079896807670593262e-01,9.079475402832031250e-01,9.079053997993469238e-01,9.078631997108459473e-01,9.078210592269897461e-01,9.077787995338439941e-01,9.077366590499877930e-01,9.076945781707763672e-01,9.076524376869201660e-01,9.076102972030639648e-01,9.075681567192077637e-01,9.075260162353515625e-01,9.074839353561401367e-01,9.074417948722839355e-01,9.073997139930725098e-01,9.073575735092163086e-01,9.073154926300048828e-01,9.072734117507934570e-01,9.072313308715820312e-01,9.071891903877258301e-01,9.071471095085144043e-01,9.071050286293029785e-01,9.070629477500915527e-01,9.070208668708801270e-01
8.635398149490356445e-01,8.635016679763793945e-01,8.634635210037231445e-01,8.634254336357116699e-01,8.633872866630554199e-01,8.633491992950439453e-01,8.633110523223876953e-01,8.632729649543762207e-01,8.632348179817199707e-01,8.631967306137084961e-01,8.631586432456970215e-01,8.631205558776855469e-01,8.630824089050292969e-01,8.630443215370178223e-01,8.630062341690063477e-01,8.629681468009948730e-01,8.629300594329833984e-01,8.628919720649719238e-01,8.628539443016052246e-01,8.628158569335937500e-01,8.627777099609375000e-01,8.627396225929260254e-01,8.627015352249145508e-01,8.626635074615478516e-01,8.626254200935363770e-01,8.625873923301696777e-01,8.625493049621582031e-01,8.625112771987915039e-01,7.482674121856689453e-01,7.403879761695861816e-01,7.376850843429565430e-01,7.367816567420959473e-01,7.356004118919372559e-01,7.362521290779113770e-01,7.548657655715942383e-01,8.622070550918579102e-01,8.621690273284912109e-01,8.621309995651245117e-01,8.620929718017578125e-01,8.620550036430358887e-01,8.620169758796691895e-01,8.619790077209472656e-01,8.619409799575805664e-01,8.619030117988586426e-01,8.618649840354919434e-01,8.618270158767700195e-01,8.617890477180480957e-01,8.617510795593261719e-01,8.617131114006042480e-01,8.616750836372375488e-01,8.616371154785156250e-01,8.615991473197937012e-01,8.615612387657165527e-01,8.615232706069946289e-01,8.614853024482727051e-01,8.614473342895507812e-01,8.614093661308288574e-01,8.613714575767517090e-01,8.613334894180297852e-01,8.612955808639526367e-01,8.612576127052307129e-01,8.612197041511535645e-01,8.611817359924316406e-01,8.611438274383544922e-01,8.611059188842773438e-01,8.610678911209106445e-01,8.610299825668334961e-01,8.609920740127563477e-01,8.609541654586791992e-01,8.609162569046020508e-01,8.608783483505249023e-01,8.608404397964477539e-01,8.608025908470153809e-01,8.607646822929382324e-01,8.607267737388610840e-01,8.606889247894287109e-01,8.606510162353515625e-01,8.606131076812744141e-01,8.605752587318420410e-01,8.605374097824096680e-01
8.213024139404296875e-01,8.212679028511047363e-01,8.212334513664245605e-01,8.211989402770996094e-01,8.211644291877746582e-01,8.211299777030944824e-01,8.210954666137695312e-01,8.210610151290893555e-01,8.210265636444091797e-01,8.209920525550842285e-01,8.209576010704040527e-01,8.209231495857238770e-01,8.208886981010437012e-01,8.208541870117187500e-01,8.208197355270385742e-01,8.207852840423583984e-01,8.207508325576782227e-01,8.207163810729980469e-01,8.206819891929626465e-01,8.206475377082824707e-01,8.206130862236022949e-01,8.205786347389221191e-01,8.205441832542419434e-01,8.205097913742065430e-01,8.204752802848815918e-01,8.204408288002014160e-01,8.204064369201660156e-01,8.203719854354858398e-01,8.203375935554504395e-01,7.374787926673889160e-01,7.327256798744201660e-01,7.301832437515258789e-01,7.270534038543701172e-01,7.242183089256286621e-01,7.281014323234558105e-01,7.286716699600219727e-01,8.200623393058776855e-01,8.200279474258422852e-01,8.199935555458068848e-01,8.199592232704162598e-01,8.199248313903808594e-01,8.198904395103454590e-01,8.198560476303100586e-01,8.198217153549194336e-01,8.197873234748840332e-01,8.197529315948486328e-01,8.197185993194580078e-01,8.196842074394226074e-01,8.196498751640319824e-01,8.196154832839965820e-01,8.195811510086059570e-01,8.195468187332153320e-01,8.195124864578247070e-01,8.194780945777893066e-01,8.194437623023986816e-01,8.194094300270080566e-01,8.193750977516174316e-01,8.193407654762268066e-01,8.193064332008361816e-01,8.192721009254455566e-01,8.192377686500549316e-01,8.192034363746643066e-01,8.191691637039184570e-01,8.191348314285278320e-01,8.191004991531372070e-01,8.190662264823913574e-01,8.190318942070007324e-01,8.189975619316101074e-01,8.189632892608642578e-01,8.189289569854736328e-01,8.188946247100830078e-01,8.188602924346923828e-01,8.188260197639465332e-01,8.187917470932006836e-01,8.187574744224548340e-01,8.187231421470642090e-01,8.186888694763183594e-01,8.186545968055725098e-01,8.186203241348266602e-01,8.185860514640808105e-01
7.830041646957397461e-01,7.829728126525878906e-01,7.829414606094360352e-01,7.829101681709289551e-01,7.828788161277770996e-01,7.828474640846252441e-01,7.828161120414733887e-01,7.827847599983215332e-01,7.827534079551696777e-01,7.827221155166625977e-01,7.826907634735107422e-01,7.826594710350036621e-01,7.826281189918518066e-01,7.825967669486999512e-01,7.825654745101928711e-01,7.825341820716857910e-01,7.825028300285339355e-01,7.824715375900268555e-01,7.824402451515197754e-01,7.824088931083679199e-01,7.823776006698608398e-01,7.823463082313537598e-01,7.823150157928466797e-01,7.822837233543395996e-01,7.822524309158325195e-01,7.822211384773254395e-01,7.821898460388183594e-01,7.821585536003112793e-01,7.821272015571594238e-01,7.820959091186523438e-01,7.331752181053161621e-01,7.328125834465026855e-01,7.247776985168457031e-01,7.187110781669616699e-01,7.174162864685058594e-01,7.185494899749755859e-01,7.818769812583923340e-01,7.818456888198852539e-01,7.818144559860229492e-01,7.817832231521606445e-01,7.817519307136535645e-01,7.817206978797912598e-01,7.816894650459289551e-01,7.816581726074218750e-01,7.816269397735595703e-01,7.815957069396972656e-01,7.815644741058349609e-01,7.815332412719726562e-01,7.815020084381103516e-01,7.814707756042480469e-01,7.814395427703857422e-01,7.814083099365234375e-01,7.813770771026611328e-01,7.813458442687988281e-01,7.813146114349365234e-01,7.812833786010742188e-01,7.812522053718566895e-01,7.812209725379943848e-01,7.811897397041320801e-01,7.811585664749145508e-01,7.811273336410522461e-01,7.810961604118347168e-01,7.810649275779724121e-01,7.810337543487548828e-01,7.810025811195373535e-01,7.809713482856750488e-01,7.809401750564575195e-01,7.809090018272399902e-01,7.808778285980224609e-01,7.808465957641601562e-01,7.808154225349426270e-01,7.807842493057250977e-01,7.807530760765075684e-01,7.807219028472900391e-01,7.806906700134277344e-01,7.806594967842102051e-01,7.806283235549926758e-01,7.805971503257751465e-01,7.805660367012023926e-01,7.805348634719848633e-01
7.481185793876647949e-01,7.480899691581726074e-01,7.480613589286804199e-01,7.480327486991882324e-01,7.480041384696960449e-01,7.479755282402038574e-01,7.479469180107116699e-01,7.479183077812194824e-01,7.478896975517272949e-01,7.478610873222351074e-01,7.478324770927429199e-01,7.478038668632507324e-01,7.477752566337585449e-01,7.477467060089111328e-01,7.477180957794189453e-01,7.476894855499267578e-01,7.476609349250793457e-01,7.476323246955871582e-01,7.476037144660949707e-01,7.475751638412475586e-01,7.475465536117553711e-01,7.475180029869079590e-01,7.474894523620605469e-01,7.474608421325683594e-01,7.474322915077209473e-01,7.474036812782287598e-01,7.473751306533813477e-01,7.473465800285339355e-01,7.473180294036865234e-01,7.472894787788391113e-01,7.472608685493469238e-01,7.472323179244995117e-01,7.472037076950073242e-01,7.471751570701599121e-01,7.471466064453125000e-01,7.471180558204650879e-01,7.470895051956176758e-01,7.470609545707702637e-01,7.470324635505676270e-01,7.470039129257202148e-01,7.469753623008728027e-01,7.469468116760253906e-01,7.469183206558227539e-01,7.468897700309753418e-01,7.468612194061279297e-01,7.468327283859252930e-01,7.468041777610778809e-01,7.467756867408752441e-01,7.467471361160278320e-01,7.467186450958251953e-01,7.466900944709777832e-01,7.466616034507751465e-01,7.466331124305725098e-01,7.466045618057250977e-01,7.465760707855224609e-01,7.465475797653198242e-01,7.465190887451171875e-01,7.464905977249145508e-01,7.464621067047119141e-01,7.464335560798645020e-01,7.464050650596618652e-01,7.463765740394592285e-01,7.463481426239013672e-01,7.463196516036987305e-01,7.462911605834960938e-01,7.462626695632934570e-01,7.462341785430908203e-01,7.462056875228881836e-01,7.461772561073303223e-01,7.461487650871276855e-01,7.461202740669250488e-01,7.460918426513671875e-01,7.460633516311645508e-01,7.460348606109619141e-01,7.460064291954040527e-01,7.459779381752014160e-01,7.459495067596435547e-01,7.459210753440856934e-01,7.458925247192382812e-01,7.458640933036804199e-01
7.162089347839355469e-01,7.161827087402343750e-01,7.161564826965332031e-01,7.161302566528320312e-01,7.161040306091308594e-01,7.160778045654296875e-01,7.160515785217285156e-01,7.160253524780273438e-01,7.159991264343261719e-01,7.159729599952697754e-01,7.159467339515686035e-01,7.159205079078674316e-01,7.158942818641662598e-01,7.158680558204650879e-01,7.158418893814086914e-01,7.158156633377075195e-01,7.157894968986511230e-01,7.157632708549499512e-01,7.157370448112487793e-01,7.157108783721923828e-01,7.156846523284912109e-01,7.156584858894348145e-01,7.156323194503784180e-01,7.156060934066772461e-01,7.155799269676208496e-01,7.155537009239196777e-01,7.155275344848632812e-01,7.155013680458068848e-01,7.154752016067504883e-01,7.154489755630493164e-01,7.154228091239929199e-01,7.153966426849365234e-01,7.153704762458801270e-01,7.153443098068237305e-01,7.153181433677673340e-01,7.152919769287109375e-01,7.152657508850097656e-01,7.152395844459533691e-01,7.152134180068969727e-01,7.151872515678405762e-01,7.151610851287841797e-01,7.151349782943725586e-01,7.151088118553161621e-01,7.150826454162597656e-01,7.150564789772033691e-01,7.150303721427917480e-01,7.150042057037353516e-01,7.149780392646789551e-01,7.149519324302673340e-01,7.149257659912109375e-01,7.148996591567993164e-01,7.148734927177429199e-01,7.148473858833312988e-01,7.148212194442749023e-01,7.147951126098632812e-01,7.147690057754516602e-01,7.147428393363952637e-01,7.147167325019836426e-01,7.146906256675720215e-01,7.146645188331604004e-01,7.146383523941040039e-01,7.146122455596923828e-01,7.145861387252807617e-01,7.145600318908691406e-01,7.145339250564575195e-01,7.145078182220458984e-01,7.144817113876342773e-01,7.144556045532226562e-01,7.144294977188110352e-01,7.144033908843994141e-01,7.143772840499877930e-01,7.143511772155761719e-01,7.143250703811645508e-01,7.142990231513977051e-01,7.142729163169860840e-01,7.142468094825744629e-01,7.142207026481628418e-01,7.141946554183959961e-01,7.141685485839843750e-01,7.141425013542175293e-01
6.869100332260131836e-01,6.868859529495239258e-01,6.868618130683898926e-01,6.868376731872558594e-01,6.868135333061218262e-01,6.867894530296325684e-01,6.867653131484985352e-01,6.867411732673645020e-01,6.867170929908752441e-01,6.866929531097412109e-01,6.866688132286071777e-01,6.866447329521179199e-01,6.866205930709838867e-01,6.865965127944946289e-01,6.865723729133605957e-01,6.865482926368713379e-01,6.865242123603820801e-01,6.865000724792480469e-01,6.864759922027587891e-01,6.864518523216247559e-01,6.864277720451354980e-01,6.864036917686462402e-01,6.863796114921569824e-01,6.863555312156677246e-01,6.863313913345336914e-01,6.863073110580444336e-01,6.862832307815551758e-01,6.862591505050659180e-01,6.862350702285766602e-01,6.862109899520874023e-01,6.861869096755981445e-01,6.861628293991088867e-01,6.861387491226196289e-01,6.861146688461303711e-01,6.860905885696411133e-01,6.860665082931518555e-01,6.860424280166625977e-01,6.860184073448181152e-01,6.859943270683288574e-01,6.859702467918395996e-01,6.859461665153503418e-01,6.859220862388610840e-01,6.858980059623718262e-01,6.858739256858825684e-01,6.858499050140380859e-01,6.858258247375488281e-01,6.858018040657043457e-01,6.857777237892150879e-01,6.857537031173706055e-01,6.857296228408813477e-01,6.857056021690368652e-01,6.856815218925476074e-01,6.856575012207031250e-01,6.856334805488586426e-01,6.856094002723693848e-01,6.855853796005249023e-01,6.855613589286804199e-01,6.855372786521911621e-01,6.855132579803466797e-01,6.854892373085021973e-01,6.854652166366577148e-01,6.854411959648132324e-01,6.854171752929687500e-01,6.853931546211242676e-01,6.853691339492797852e-01,6.853451132774353027e-01,6.853210926055908203e-01,6.852970719337463379e-01,6.852730512619018555e-01,6.852490305900573730e-01,6.852250099182128906e-01,6.852009892463684082e-01,6.851769685745239258e-01,6.851529479026794434e-01,6.851289868354797363e-01,6.851049661636352539e-01,6.850809454917907715e-01,6.850569844245910645e-01,6.850329637527465820e-01,6.850089430809020996e-01
6.599140763282775879e-01,6.598918437957763672e-01,6.598695516586303711e-01,6.598472595214843750e-01,6.598250269889831543e-01,6.598027348518371582e-01,6.597805023193359375e-01,6.597582101821899414e-01,6.597359776496887207e-01,6.597136855125427246e-01,6.596914529800415039e-01,6.596692204475402832e-01,6.596469283103942871e-01,6.596246957778930664e-01,6.596024632453918457e-01,6.595801711082458496e-01,6.595579385757446289e-01,6.595357060432434082e-01,6.595134735107421875e-01,6.594912409782409668e-01,6.594689488410949707e-01,6.594467163085937500e-01,6.594244837760925293e-01,6.594022512435913086e-01,6.593800187110900879e-01,6.593577861785888672e-01,6.593355536460876465e-01,6.593133211135864258e-01,6.592910885810852051e-01,6.592688560485839844e-01,6.592466235160827637e-01,6.592243909835815430e-01,6.592022180557250977e-01,6.591799855232238770e-01,6.591577529907226562e-01,6.591355204582214355e-01,6.591132879257202148e-01,6.590911149978637695e-01,6.590688824653625488e-01,6.590466499328613281e-01,6.590244770050048828e-01,6.590022444725036621e-01,6.589800119400024414e-01,6.589578390121459961e-01,6.589356064796447754e-01,6.589133739471435547e-01,6.588911414146423340e-01,6.588689684867858887e-01,6.588467359542846680e-01,6.588245630264282227e-01,6.588023900985717773e-01,6.587801575660705566e-01,6.587579846382141113e-01,6.587358117103576660e-01,6.587135791778564453e-01,6.586914062500000000e-01,6.586692333221435547e-01,6.586470007896423340e-01,6.586248278617858887e-01,6.586026549339294434e-01,6.585804820060729980e-01,6.585583090782165527e-01,6.585361361503601074e-01,6.585139632225036621e-01,6.584917902946472168e-01,6.584696173667907715e-01,6.584474444389343262e-01,6.584252715110778809e-01,6.584030985832214355e-01,6.583809256553649902e-01,6.583587527275085449e-01,6.583365797996520996e-01,6.583144068717956543e-01,6.582922339439392090e-01,6.582700610160827637e-01,6.582479476928710938e-01,6.582257747650146484e-01,6.582036018371582031e-01,6.581814289093017578e-01,6.581593155860900879e-01
6.349598169326782227e-01,6.349391937255859375e-01,6.349185705184936523e-01,6.348980069160461426e-01,6.348773241043090820e-01,6.348567008972167969e-01,6.348360776901245117e-01,6.348154544830322266e-01,6.347948908805847168e-01,6.347742676734924316e-01,6.347536444664001465e-01,6.347330808639526367e-01,6.347124576568603516e-01,6.346918344497680664e-01,6.346712708473205566e-01,6.346506476402282715e-01,6.346300244331359863e-01,6.346094608306884766e-01,6.345888376235961914e-01,6.345682740211486816e-01,6.345476508140563965e-01,6.345270872116088867e-01,6.345065236091613770e-01,6.344859004020690918e-01,6.344653367996215820e-01,6.344447135925292969e-01,6.344241499900817871e-01,6.344035863876342773e-01,6.343829631805419922e-01,6.343623995780944824e-01,6.343418359756469727e-01,6.343212723731994629e-01,6.343006491661071777e-01,6.342800855636596680e-01,6.342595219612121582e-01,6.342389583587646484e-01,6.342183947563171387e-01,6.341978311538696289e-01,6.341772675514221191e-01,6.341566443443298340e-01,6.341360807418823242e-01,6.341155171394348145e-01,6.340949535369873047e-01,6.340743899345397949e-01,6.340538859367370605e-01,6.340333223342895508e-01,6.340127587318420410e-01,6.339921951293945312e-01,6.339716315269470215e-01,6.339510679244995117e-01,6.339305043220520020e-01,6.339099407196044922e-01,6.338893771171569824e-01,6.338688135147094727e-01,6.338483095169067383e-01,6.338277459144592285e-01,6.338071823120117188e-01,6.337866783142089844e-01,6.337661147117614746e-01,6.337455511093139648e-01,6.337250471115112305e-01,6.337044835090637207e-01,6.336839795112609863e-01,6.336634159088134766e-01,6.336428523063659668e-01,6.336223483085632324e-01,6.336017847061157227e-01,6.335812807083129883e-01,6.335607767105102539e-01,6.335402131080627441e-01,6.335197091102600098e-01,6.334992051124572754e-01,6.334786415100097656e-01,6.334581375122070312e-01,6.334376335144042969e-01,6.334170699119567871e-01,6.333965659141540527e-01,6.333760619163513184e-01,6.333555579185485840e-01,6.333350539207458496e-01
6.118240356445312500e-01,6.118049025535583496e-01,6.117857694625854492e-01,6.117666363716125488e-01,6.117475032806396484e-01,6.117283701896667480e-01,6.117092370986938477e-01,6.116901040077209473e-01,6.116709113121032715e-01,6.116517782211303711e-01,6.116326451301574707e-01,6.116135120391845703e-01,6.115943789482116699e-01,6.115752458572387695e-01,6.115561127662658691e-01,6.115369796752929688e-01,6.115178465843200684e-01,6.114987134933471680e-01,6.114796400070190430e-01,6.114605069160461426e-01,6.114413738250732422e-01,6.114222407341003418e-01,6.114031672477722168e-01,6.113840341567993164e-01,6.113649010658264160e-01,6.113457679748535156e-01,6.113266944885253906e-01,6.113075613975524902e-01,6.112884283065795898e-01,6.112693548202514648e-01,6.112502217292785645e-01,6.112311482429504395e-01,6.112120151519775391e-01,6.111929416656494141e-01,6.111738085746765137e-01,6.111547350883483887e-01,6.111356019973754883e-01,6.111165285110473633e-01,6.110973954200744629e-01,6.110783219337463379e-01,6.110592484474182129e-01,6.110401153564453125e-01,6.110210418701171875e-01,6.110019683837890625e-01,6.109828352928161621e-01,6.109637618064880371e-01,6.109446883201599121e-01,6.109255552291870117e-01,6.109064817428588867e-01,6.108874082565307617e-01,6.108683347702026367e-01,6.108492612838745117e-01,6.108301877975463867e-01,6.108110547065734863e-01,6.107919812202453613e-01,6.107728481292724609e-01,6.107537746429443359e-01,6.107347011566162109e-01,6.107156276702880859e-01,6.106965541839599609e-01,6.106774806976318359e-01,6.106584072113037109e-01,6.106393337249755859e-01,6.106202602386474609e-01,6.106012463569641113e-01,6.105821728706359863e-01,6.105630993843078613e-01,6.105440258979797363e-01,6.105249524116516113e-01,6.105058789253234863e-01,6.104868650436401367e-01,6.104677915573120117e-01,6.104487180709838867e-01,6.104296445846557617e-01,6.104106307029724121e-01,6.103915572166442871e-01,6.103724837303161621e-01,6.103534698486328125e-01,6.103343963623046875e-01,6.103153228759765625e-01
