2.878704786300659180e+00,2.934201955795288086e+00,2.991880655288696289e+00,3.051872491836547852e+00,3.114319562911987305e+00,3.179375410079956055e+00,3.247207403182983398e+00,3.317996740341186523e+00,3.391944646835327148e+00,3.469264984130859375e+00,3.550192594528198242e+00,3.634985923767089844e+00,3.723928928375244141e+00,3.817333698272705078e+00,3.915544509887695312e+00,4.018941879272460938e+00,4.127948760986328125e+00,4.243033409118652344e+00,4.364719867706298828e+00,4.493591308593750000e+00,4.630304336547851562e+00,4.775597095489501953e+00,4.930304050445556641e+00,5.000000000000000000e+00,5.000000000000000000e+00,5.000000000000000000e+00,5.000000000000000000e+00,5.000000000000000000e+00,5.000000000000000000e+00,5.000000000000000000e+00,5.000000000000000000e+00,5.000000000000000000e+00,5.000000000000000000e+00,5.000000000000000000e+00,5.000000000000000000e+00,5.000000000000000000e+00,5.000000000000000000e+00,5.000000000000000000e+00,5.000000000000000000e+00,5.000000000000000000e+00,5.000000000000000000e+00,5.000000000000000000e+00,5.000000000000000000e+00,5.000000000000000000e+00,5.000000000000000000e+00,5.000000000000000000e+00,5.000000000000000000e+00,5.000000000000000000e+00,5.000000000000000000e+00,5.000000000000000000e+00,5.000000000000000000e+00,5.000000000000000000e+00,5.000000000000000000e+00,5.000000000000000000e+00,5.000000000000000000e+00,5.000000000000000000e+00,5.000000000000000000e+00,5.000000000000000000e+00,5.000000000000000000e+00,5.000000000000000000e+00,5.000000000000000000e+00,5.000000000000000000e+00,5.000000000000000000e+00,5.000000000000000000e+00,5.000000000000000000e+00,5.000000000000000000e+00,5.000000000000000000e+00,5.000000000000000000e+00,5.000000000000000000e+00,5.000000000000000000e+00,5.000000000000000000e+00,5.000000000000000000e+00,5.000000000000000000e+00,5.000000000000000000e+00,5.000000000000000000e+00,5.000000000000000000e+00,5.000000000000000000e+00,5.000000000000000000e+00,4.917303562164306641e+00,4.729115486145019531e+00
2.878653526306152344e+00,2.934148550033569336e+00,2.991825103759765625e+00,3.051814794540405273e+00,3.114259481430053711e+00,3.179312705993652344e+00,3.247141838073730469e+00,3.317928314208984375e+00,3.391869783401489258e+00,3.469184875488281250e+00,3.550108432769775391e+00,3.634897708892822266e+00,3.723836421966552734e+00,3.817236423492431641e+00,3.915442228317260742e+00,4.018834590911865234e+00,4.127835273742675781e+00,4.242913722991943359e+00,4.364593029022216797e+00,4.493456840515136719e+00,4.630161762237548828e+00,4.775445461273193359e+00,4.930141925811767578e+00,5.000000000000000000e+00,5.000000000000000000e+00,5.000000000000000000e+00,5.000000000000000000e+00,5.000000000000000000e+00,5.000000000000000000e+00,5.000000000000000000e+00,5.000000000000000000e+00,5.000000000000000000e+00,5.000000000000000000e+00,5.000000000000000000e+00,5.000000000000000000e+00,5.000000000000000000e+00,5.000000000000000000e+00,5.000000000000000000e+00,5.000000000000000000e+00,5.000000000000000000e+00,5.000000000000000000e+00,5.000000000000000000e+00,5.000000000000000000e+00,5.000000000000000000e+00,5.000000000000000000e+00,5.000000000000000000e+00,5.000000000000000000e+00,5.000000000000000000e+00,5.000000000000000000e+00,5.000000000000000000e+00,5.000000000000000000e+00,5.000000000000000000e+00,5.000000000000000000e+00,5.000000000000000000e+00,5.000000000000000000e+00,5.000000000000000000e+00,5.000000000000000000e+00,5.000000000000000000e+00,5.000000000000000000e+00,5.000000000000000000e+00,5.000000000000000000e+00,5.000000000000000000e+00,5.000000000000000000e+00,5.000000000000000000e+00,5.000000000000000000e+00,5.000000000000000000e+00,5.000000000000000000e+00,5.000000000000000000e+00,5.000000000000000000e+00,5.000000000000000000e+00,5.000000000000000000e+00,5.000000000000000000e+00,5.000000000000000000e+00,5.000000000000000000e+00,5.000000000000000000e+00,5.000000000000000000e+00,5.000000000000000000e+00,5.000000000000000000e+00,4.917489528656005859e+00,4.729287147521972656e+00
2.878602266311645508e+00,2.934095144271850586e+00,2.991769790649414062e+00,3.051757097244262695e+00,3.114199161529541016e+00,3.179250240325927734e+00,3.247076511383056641e+00,3.317860126495361328e+00,3.391798496246337891e+00,3.469107389450073242e+00,3.550024747848510742e+00,3.634809970855712891e+00,3.723744153976440430e+00,3.817139625549316406e+00,3.915340423583984375e+00,4.018727302551269531e+00,4.127722263336181641e+00,4.242794036865234375e+00,4.364465713500976562e+00,4.493322372436523438e+00,4.630018711090087891e+00,4.775293827056884766e+00,4.929980278015136719e+00,5.000000000000000000e+00,5.000000000000000000e+00,5.000000000000000000e+00,5.000000000000000000e+00,5.000000000000000000e+00,5.000000000000000000e+00,5.000000000000000000e+00,5.000000000000000000e+00,5.000000000000000000e+00,5.000000000000000000e+00,5.000000000000000000e+00,5.000000000000000000e+00,5.000000000000000000e+00,5.000000000000000000e+00,5.000000000000000000e+00,5.000000000000000000e+00,5.000000000000000000e+00,5.000000000000000000e+00,5.000000000000000000e+00,5.000000000000000000e+00,5.000000000000000000e+00,5.000000000000000000e+00,5.000000000000000000e+00,5.000000000000000000e+00,5.000000000000000000e+00,5.000000000000000000e+00,5.000000000000000000e+00,5.000000000000000000e+00,5.000000000000000000e+00,5.000000000000000000e+00,5.000000000000000000e+00,5.000000000000000000e+00,5.000000000000000000e+00,5.000000000000000000e+00,5.000000000000000000e+00,5.000000000000000000e+00,5.000000000000000000e+00,5.000000000000000000e+00,5.000000000000000000e+00,5.000000000000000000e+00,5.000000000000000000e+00,5.000000000000000000e+00,5.000000000000000000e+00,5.000000000000000000e+00,5.000000000000000000e+00,5.000000000000000000e+00,5.000000000000000000e+00,5.000000000000000000e+00,5.000000000000000000e+00,5.000000000000000000e+00,5.000000000000000000e+00,5.000000000000000000e+00,5.000000000000000000e+00,5.000000000000000000e+00,5.000000000000000000e+00,4.917675018310546875e+00,4.729459285736083984e+00
2.878551006317138672e+00,2.934041738510131836e+00,2.991714239120483398e+00,3.051699399948120117e+00,3.114139080047607422e+00,3.179187536239624023e+00,3.247011184692382812e+00,3.317791938781738281e+00,3.391727209091186523e+00,3.469032764434814453e+00,3.549944639205932617e+00,3.634722232818603516e+00,3.723651647567749023e+00,3.817042350769042969e+00,3.915237903594970703e+00,4.018619537353515625e+00,4.127608776092529297e+00,4.242674350738525391e+00,4.364338874816894531e+00,4.493187904357910156e+00,4.629876136779785156e+00,4.775141716003417969e+00,4.929818630218505859e+00,5.000000000000000000e+00,5.000000000000000000e+00,5.000000000000000000e+00,5.000000000000000000e+00,5.000000000000000000e+00,5.000000000000000000e+00,5.000000000000000000e+00,5.000000000000000000e+00,5.000000000000000000e+00,5.000000000000000000e+00,5.000000000000000000e+00,5.000000000000000000e+00,5.000000000000000000e+00,5.000000000000000000e+00,5.000000000000000000e+00,5.000000000000000000e+00,5.000000000000000000e+00,5.000000000000000000e+00,5.000000000000000000e+00,5.000000000000000000e+00,5.000000000000000000e+00,5.000000000000000000e+00,5.000000000000000000e+00,5.000000000000000000e+00,5.000000000000000000e+00,5.000000000000000000e+00,5.000000000000000000e+00,5.000000000000000000e+00,5.000000000000000000e+00,5.000000000000000000e+00,5.000000000000000000e+00,5.000000000000000000e+00,5.000000000000000000e+00,5.000000000000000000e+00,5.000000000000000000e+00,5.000000000000000000e+00,5.000000000000000000e+00,5.000000000000000000e+00,5.000000000000000000e+00,5.000000000000000000e+00,5.000000000000000000e+00,5.000000000000000000e+00,5.000000000000000000e+00,5.000000000000000000e+00,5.000000000000000000e+00,5.000000000000000000e+00,5.000000000000000000e+00,5.000000000000000000e+00,5.000000000000000000e+00,5.000000000000000000e+00,5.000000000000000000e+00,5.000000000000000000e+00,5.000000000000000000e+00,5.000000000000000000e+00,5.000000000000000000e+00,4.917860984802246094e+00,4.729630947113037109e+00
2.878499746322631836e+00,2.933988809585571289e+00,2.991658926010131836e+00,3.051641464233398438e+00,3.114078998565673828e+00,3.179124832153320312e+00,3.246945858001708984e+00,3.317723751068115234e+00,3.391655921936035156e+00,3.468958377838134766e+00,3.549866676330566406e+00,3.634639024734497070e+00,3.723559379577636719e+00,3.816945552825927734e+00,3.915136098861694336e+00,4.018511772155761719e+00,4.127495288848876953e+00,4.242554187774658203e+00,4.364212036132812500e+00,4.493053436279296875e+00,4.629733562469482422e+00,4.774990081787109375e+00,4.929656505584716797e+00,5.000000000000000000e+00,5.000000000000000000e+00,5.000000000000000000e+00,5.000000000000000000e+00,5.000000000000000000e+00,5.000000000000000000e+00,5.000000000000000000e+00,5.000000000000000000e+00,5.000000000000000000e+00,5.000000000000000000e+00,5.000000000000000000e+00,5.000000000000000000e+00,5.000000000000000000e+00,5.000000000000000000e+00,5.000000000000000000e+00,5.000000000000000000e+00,5.000000000000000000e+00,5.000000000000000000e+00,5.000000000000000000e+00,5.000000000000000000e+00,5.000000000000000000e+00,5.000000000000000000e+00,5.000000000000000000e+00,5.000000000000000000e+00,5.000000000000000000e+00,5.000000000000000000e+00,5.000000000000000000e+00,5.000000000000000000e+00,5.000000000000000000e+00,5.000000000000000000e+00,5.000000000000000000e+00,5.000000000000000000e+00,5.000000000000000000e+00,5.000000000000000000e+00,5.000000000000000000e+00,5.000000000000000000e+00,5.000000000000000000e+00,5.000000000000000000e+00,5.000000000000000000e+00,5.000000000000000000e+00,5.000000000000000000e+00,5.000000000000000000e+00,5.000000000000000000e+00,5.000000000000000000e+00,5.000000000000000000e+00,5.000000000000000000e+00,5.000000000000000000e+00,5.000000000000000000e+00,5.000000000000000000e+00,5.000000000000000000e+00,5.000000000000000000e+00,5.000000000000000000e+00,5.000000000000000000e+00,5.000000000000000000e+00,5.000000000000000000e+00,4.918046474456787109e+00,4.729802131652832031e+00
2.878448247909545898e+00,2.933935403823852539e+00,2.991603612899780273e+00,3.051584243774414062e+00,3.114018917083740234e+00,3.179062128067016602e+00,3.246880531311035156e+00,3.317655563354492188e+00,3.391584634780883789e+00,3.468883752822875977e+00,3.549788475036621094e+00,3.634557247161865234e+00,3.723473548889160156e+00,3.816849708557128906e+00,3.915033817291259766e+00,4.018404483795166016e+00,4.127381801605224609e+00,4.242434501647949219e+00,4.364085674285888672e+00,4.492918968200683594e+00,4.629590511322021484e+00,4.774837970733642578e+00,4.929494857788085938e+00,5.000000000000000000e+00,5.000000000000000000e+00,5.000000000000000000e+00,5.000000000000000000e+00,5.000000000000000000e+00,5.000000000000000000e+00,5.000000000000000000e+00,5.000000000000000000e+00,5.000000000000000000e+00,5.000000000000000000e+00,5.000000000000000000e+00,5.000000000000000000e+00,5.000000000000000000e+00,5.000000000000000000e+00,5.000000000000000000e+00,5.000000000000000000e+00,5.000000000000000000e+00,5.000000000000000000e+00,5.000000000000000000e+00,5.000000000000000000e+00,5.000000000000000000e+00,5.000000000000000000e+00,5.000000000000000000e+00,5.000000000000000000e+00,5.000000000000000000e+00,5.000000000000000000e+00,5.000000000000000000e+00,5.000000000000000000e+00,5.000000000000000000e+00,5.000000000000000000e+00,5.000000000000000000e+00,5.000000000000000000e+00,5.000000000000000000e+00,5.000000000000000000e+00,5.000000000000000000e+00,5.000000000000000000e+00,5.000000000000000000e+00,5.000000000000000000e+00,5.000000000000000000e+00,5.000000000000000000e+00,5.000000000000000000e+00,5.000000000000000000e+00,5.000000000000000000e+00,5.000000000000000000e+00,5.000000000000000000e+00,5.000000000000000000e+00,5.000000000000000000e+00,5.000000000000000000e+00,5.000000000000000000e+00,5.000000000000000000e+00,5.000000000000000000e+00,5.000000000000000000e+00,5.000000000000000000e+00,5.000000000000000000e+00,5.000000000000000000e+00,4.918231487274169922e+00,4.729973316192626953e+00
2.878396987915039062e+00,2.933881998062133789e+00,2.991548061370849609e+00,3.051526308059692383e+00,3.113959074020385742e+00,3.178999900817871094e+00,3.246815204620361328e+00,3.317587137222290039e+00,3.391513347625732422e+00,3.468809127807617188e+00,3.549710273742675781e+00,3.634475231170654297e+00,3.723387479782104492e+00,3.816759347915649414e+00,3.914934158325195312e+00,4.018296718597412109e+00,4.127268314361572266e+00,4.242314338684082031e+00,4.363958835601806641e+00,4.492784976959228516e+00,4.629447937011718750e+00,4.774686336517333984e+00,4.929333209991455078e+00,5.000000000000000000e+00,5.000000000000000000e+00,5.000000000000000000e+00,5.000000000000000000e+00,5.000000000000000000e+00,5.000000000000000000e+00,5.000000000000000000e+00,5.000000000000000000e+00,5.000000000000000000e+00,5.000000000000000000e+00,5.000000000000000000e+00,5.000000000000000000e+00,5.000000000000000000e+00,5.000000000000000000e+00,5.000000000000000000e+00,5.000000000000000000e+00,5.000000000000000000e+00,5.000000000000000000e+00,5.000000000000000000e+00,5.000000000000000000e+00,5.000000000000000000e+00,5.000000000000000000e+00,5.000000000000000000e+00,5.000000000000000000e+00,5.000000000000000000e+00,5.000000000000000000e+00,5.000000000000000000e+00,5.000000000000000000e+00,5.000000000000000000e+00,5.000000000000000000e+00,5.000000000000000000e+00,5.000000000000000000e+00,5.000000000000000000e+00,5.000000000000000000e+00,5.000000000000000000e+00,5.000000000000000000e+00,5.000000000000000000e+00,5.000000000000000000e+00,5.000000000000000000e+00,5.000000000000000000e+00,5.000000000000000000e+00,5.000000000000000000e+00,5.000000000000000000e+00,5.000000000000000000e+00,5.000000000000000000e+00,5.000000000000000000e+00,5.000000000000000000e+00,5.000000000000000000e+00,5.000000000000000000e+00,5.000000000000000000e+00,5.000000000000000000e+00,5.000000000000000000e+00,5.000000000000000000e+00,5.000000000000000000e+00,5.000000000000000000e+00,4.918416500091552734e+00,4.730144500732421875e+00
2.878345489501953125e+00,2.933828592300415039e+00,2.991492509841918945e+00,3.051468610763549805e+00,3.113898992538452148e+00,3.178937196731567383e+00,3.246750116348266602e+00,3.317518949508666992e+00,3.391442060470581055e+00,3.468734502792358398e+00,3.549632310867309570e+00,3.634393453598022461e+00,3.723301649093627930e+00,3.816668987274169922e+00,3.914839267730712891e+00,4.018193244934082031e+00,4.127154827117919922e+00,4.242194652557373047e+00,4.363831996917724609e+00,4.492650508880615234e+00,4.629305362701416016e+00,4.774534225463867188e+00,4.929171085357666016e+00,5.000000000000000000e+00,5.000000000000000000e+00,5.000000000000000000e+00,5.000000000000000000e+00,5.000000000000000000e+00,5.000000000000000000e+00,5.000000000000000000e+00,5.000000000000000000e+00,5.000000000000000000e+00,5.000000000000000000e+00,5.000000000000000000e+00,5.000000000000000000e+00,5.000000000000000000e+00,5.000000000000000000e+00,5.000000000000000000e+00,5.000000000000000000e+00,5.000000000000000000e+00,5.000000000000000000e+00,5.000000000000000000e+00,5.000000000000000000e+00,5.000000000000000000e+00,5.000000000000000000e+00,5.000000000000000000e+00,5.000000000000000000e+00,5.000000000000000000e+00,5.000000000000000000e+00,5.000000000000000000e+00,5.000000000000000000e+00,5.000000000000000000e+00,5.000000000000000000e+00,5.000000000000000000e+00,5.000000000000000000e+00,5.000000000000000000e+00,5.000000000000000000e+00,5.000000000000000000e+00,5.000000000000000000e+00,5.000000000000000000e+00,5.000000000000000000e+00,5.000000000000000000e+00,5.000000000000000000e+00,5.000000000000000000e+00,5.000000000000000000e+00,5.000000000000000000e+00,5.000000000000000000e+00,5.000000000000000000e+00,5.000000000000000000e+00,5.000000000000000000e+00,5.000000000000000000e+00,5.000000000000000000e+00,5.000000000000000000e+00,5.000000000000000000e+00,5.000000000000000000e+00,5.000000000000000000e+00,5.000000000000000000e+00,5.000000000000000000e+00,4.918601036071777344e+00,4.730315685272216797e+00
2.878294229507446289e+00,2.933775186538696289e+00,2.991437196731567383e+00,3.051410913467407227e+00,3.113838911056518555e+00,3.178874492645263672e+00,3.246684789657592773e+00,3.317451000213623047e+00,3.391371011734008789e+00,3.468659877777099609e+00,3.549554109573364258e+00,3.634311676025390625e+00,3.723215818405151367e+00,3.816578626632690430e+00,3.914744138717651367e+00,4.018093109130859375e+00,4.127046585083007812e+00,4.242074966430664062e+00,4.363705158233642578e+00,4.492516040802001953e+00,4.629162788391113281e+00,4.774383068084716797e+00,4.929009437561035156e+00,5.000000000000000000e+00,5.000000000000000000e+00,5.000000000000000000e+00,5.000000000000000000e+00,5.000000000000000000e+00,5.000000000000000000e+00,5.000000000000000000e+00,5.000000000000000000e+00,5.000000000000000000e+00,5.000000000000000000e+00,5.000000000000000000e+00,5.000000000000000000e+00,5.000000000000000000e+00,5.000000000000000000e+00,5.000000000000000000e+00,5.000000000000000000e+00,5.000000000000000000e+00,5.000000000000000000e+00,5.000000000000000000e+00,5.000000000000000000e+00,5.000000000000000000e+00,5.000000000000000000e+00,5.000000000000000000e+00,5.000000000000000000e+00,5.000000000000000000e+00,5.000000000000000000e+00,5.000000000000000000e+00,5.000000000000000000e+00,5.000000000000000000e+00,5.000000000000000000e+00,5.000000000000000000e+00,5.000000000000000000e+00,5.000000000000000000e+00,5.000000000000000000e+00,5.000000000000000000e+00,5.000000000000000000e+00,5.000000000000000000e+00,5.000000000000000000e+00,5.000000000000000000e+00,5.000000000000000000e+00,5.000000000000000000e+00,5.000000000000000000e+00,5.000000000000000000e+00,5.000000000000000000e+00,5.000000000000000000e+00,5.000000000000000000e+00,5.000000000000000000e+00,5.000000000000000000e+00,5.000000000000000000e+00,5.000000000000000000e+00,5.000000000000000000e+00,5.000000000000000000e+00,5.000000000000000000e+00,5.000000000000000000e+00,5.000000000000000000e+00,4.918786525726318359e+00,4.730486392974853516e+00
2.878242969512939453e+00,2.933722019195556641e+00,2.991381645202636719e+00,3.051353216171264648e+00,3.113778829574584961e+00,3.178812026977539062e+00,3.246619462966918945e+00,3.317382812500000000e+00,3.391299724578857422e+00,3.468585729598999023e+00,3.549476385116577148e+00,3.634229660034179688e+00,3.723129749298095703e+00,3.816488504409790039e+00,3.914649248123168945e+00,4.017992973327636719e+00,4.126941204071044922e+00,4.241961956024169922e+00,4.363578319549560547e+00,4.492381572723388672e+00,4.629019737243652344e+00,4.774230957031250000e+00,4.928847789764404297e+00,5.000000000000000000e+00,5.000000000000000000e+00,5.000000000000000000e+00,5.000000000000000000e+00,5.000000000000000000e+00,5.000000000000000000e+00,5.000000000000000000e+00,5.000000000000000000e+00,5.000000000000000000e+00,5.000000000000000000e+00,5.000000000000000000e+00,5.000000000000000000e+00,5.000000000000000000e+00,5.000000000000000000e+00,5.000000000000000000e+00,5.000000000000000000e+00,5.000000000000000000e+00,5.000000000000000000e+00,5.000000000000000000e+00,5.000000000000000000e+00,5.000000000000000000e+00,5.000000000000000000e+00,5.000000000000000000e+00,5.000000000000000000e+00,5.000000000000000000e+00,5.000000000000000000e+00,5.000000000000000000e+00,5.000000000000000000e+00,5.000000000000000000e+00,5.000000000000000000e+00,5.000000000000000000e+00,5.000000000000000000e+00,5.000000000000000000e+00,5.000000000000000000e+00,5.000000000000000000e+00,5.000000000000000000e+00,5.000000000000000000e+00,5.000000000000000000e+00,5.000000000000000000e+00,5.000000000000000000e+00,5.000000000000000000e+00,5.000000000000000000e+00,5.000000000000000000e+00,5.000000000000000000e+00,5.000000000000000000e+00,5.000000000000000000e+00,5.000000000000000000e+00,5.000000000000000000e+00,5.000000000000000000e+00,5.000000000000000000e+00,5.000000000000000000e+00,5.000000000000000000e+00,5.000000000000000000e+00,5.000000000000000000e+00,5.000000000000000000e+00,4.918971538543701172e+00,4.730657577514648438e+00
2.878191471099853516e+00,2.933668613433837891e+00,2.991326093673706055e+00,3.051295518875122070e+00,3.113718748092651367e+00,3.178749322891235352e+00,3.246554136276245117e+00,3.317314624786376953e+00,3.391228437423706055e+00,3.468511104583740234e+00,3.549398422241210938e+00,3.634148120880126953e+00,3.723043918609619141e+00,3.816398143768310547e+00,3.914554119110107422e+00,4.017892837524414062e+00,4.126835346221923828e+00,4.241850376129150391e+00,4.363460063934326172e+00,4.492248535156250000e+00,4.628877162933349609e+00,4.774079322814941406e+00,4.928686141967773438e+00,5.000000000000000000e+00,5.000000000000000000e+00,5.000000000000000000e+00,5.000000000000000000e+00,5.000000000000000000e+00,5.000000000000000000e+00,5.000000000000000000e+00,5.000000000000000000e+00,5.000000000000000000e+00,5.000000000000000000e+00,5.000000000000000000e+00,5.000000000000000000e+00,5.000000000000000000e+00,5.000000000000000000e+00,5.000000000000000000e+00,5.000000000000000000e+00,5.000000000000000000e+00,5.000000000000000000e+00,5.000000000000000000e+00,5.000000000000000000e+00,5.000000000000000000e+00,5.000000000000000000e+00,5.000000000000000000e+00,5.000000000000000000e+00,5.000000000000000000e+00,5.000000000000000000e+00,5.000000000000000000e+00,5.000000000000000000e+00,5.000000000000000000e+00,5.000000000000000000e+00,5.000000000000000000e+00,5.000000000000000000e+00,5.000000000000000000e+00,5.000000000000000000e+00,5.000000000000000000e+00,5.000000000000000000e+00,5.000000000000000000e+00,5.000000000000000000e+00,5.000000000000000000e+00,5.000000000000000000e+00,5.000000000000000000e+00,5.000000000000000000e+00,5.000000000000000000e+00,5.000000000000000000e+00,5.000000000000000000e+00,5.000000000000000000e+00,5.000000000000000000e+00,5.000000000000000000e+00,5.000000000000000000e+00,5.000000000000000000e+00,5.000000000000000000e+00,5.000000000000000000e+00,5.000000000000000000e+00,5.000000000000000000e+00,5.000000000000000000e+00,4.919156551361083984e+00,4.730828762054443359e+00
2.878171443939208984e+00,2.933629274368286133e+00,2.991270780563354492e+00,3.051237821578979492e+00,3.113658666610717773e+00,3.178686618804931641e+00,3.246488809585571289e+00,3.317246437072753906e+00,3.391157150268554688e+00,3.468436479568481445e+00,3.549320220947265625e+00,3.634066343307495117e+00,3.722958326339721680e+00,3.816308259963989258e+00,3.914459228515625000e+00,4.017792701721191406e+00,4.126729965209960938e+00,4.241738796234130859e+00,4.363342285156250000e+00,4.492123603820800781e+00,4.628737449645996094e+00,4.773927211761474609e+00,4.928524017333984375e+00,5.000000000000000000e+00,5.000000000000000000e+00,5.000000000000000000e+00,5.000000000000000000e+00,5.000000000000000000e+00,5.000000000000000000e+00,5.000000000000000000e+00,5.000000000000000000e+00,5.000000000000000000e+00,5.000000000000000000e+00,5.000000000000000000e+00,5.000000000000000000e+00,5.000000000000000000e+00,5.000000000000000000e+00,5.000000000000000000e+00,5.000000000000000000e+00,5.000000000000000000e+00,5.000000000000000000e+00,5.000000000000000000e+00,5.000000000000000000e+00,5.000000000000000000e+00,5.000000000000000000e+00,5.000000000000000000e+00,5.000000000000000000e+00,5.000000000000000000e+00,5.000000000000000000e+00,5.000000000000000000e+00,5.000000000000000000e+00,5.000000000000000000e+00,5.000000000000000000e+00,5.000000000000000000e+00,5.000000000000000000e+00,5.000000000000000000e+00,5.000000000000000000e+00,5.000000000000000000e+00,5.000000000000000000e+00,5.000000000000000000e+00,5.000000000000000000e+00,5.000000000000000000e+00,5.000000000000000000e+00,5.000000000000000000e+00,5.000000000000000000e+00,5.000000000000000000e+00,5.000000000000000000e+00,5.000000000000000000e+00,5.000000000000000000e+00,5.000000000000000000e+00,5.000000000000000000e+00,5.000000000000000000e+00,5.000000000000000000e+00,5.000000000000000000e+00,5.000000000000000000e+00,5.000000000000000000e+00,5.000000000000000000e+00,5.000000000000000000e+00,4.919341564178466797e+00,4.730999946594238281e+00
2.878171205520629883e+00,2.933628797531127930e+00,2.991265296936035156e+00,3.051212310791015625e+00,3.113610982894897461e+00,3.178623914718627930e+00,3.246423482894897461e+00,3.317178249359130859e+00,3.391085863113403320e+00,3.468362092971801758e+00,3.549242258071899414e+00,3.633984565734863281e+00,3.722872495651245117e+00,3.816218137741088867e+00,3.914364814758300781e+00,4.017693042755126953e+00,4.126624107360839844e+00,4.241627216339111328e+00,4.363224029541015625e+00,4.491998195648193359e+00,4.628604888916015625e+00,4.773780822753906250e+00,4.928362369537353516e+00,5.000000000000000000e+00,5.000000000000000000e+00,5.000000000000000000e+00,5.000000000000000000e+00,5.000000000000000000e+00,5.000000000000000000e+00,5.000000000000000000e+00,5.000000000000000000e+00,5.000000000000000000e+00,5.000000000000000000e+00,5.000000000000000000e+00,5.000000000000000000e+00,5.000000000000000000e+00,5.000000000000000000e+00,5.000000000000000000e+00,5.000000000000000000e+00,5.000000000000000000e+00,5.000000000000000000e+00,5.000000000000000000e+00,5.000000000000000000e+00,5.000000000000000000e+00,5.000000000000000000e+00,5.000000000000000000e+00,5.000000000000000000e+00,5.000000000000000000e+00,5.000000000000000000e+00,5.000000000000000000e+00,5.000000000000000000e+00,5.000000000000000000e+00,5.000000000000000000e+00,5.000000000000000000e+00,5.000000000000000000e+00,5.000000000000000000e+00,5.000000000000000000e+00,5.000000000000000000e+00,5.000000000000000000e+00,5.000000000000000000e+00,5.000000000000000000e+00,5.000000000000000000e+00,5.000000000000000000e+00,5.000000000000000000e+00,5.000000000000000000e+00,5.000000000000000000e+00,5.000000000000000000e+00,5.000000000000000000e+00,5.000000000000000000e+00,5.000000000000000000e+00,5.000000000000000000e+00,5.000000000000000000e+00,5.000000000000000000e+00,5.000000000000000000e+00,5.000000000000000000e+00,5.000000000000000000e+00,5.000000000000000000e+00,5.000000000000000000e+00,4.919526576995849609e+00,4.731171131134033203e+00
2.878152608871459961e+00,2.933628082275390625e+00,2.991265058517456055e+00,3.051211833953857422e+00,3.113610267639160156e+00,3.178614377975463867e+00,3.246390819549560547e+00,3.317120313644409180e+00,3.391014575958251953e+00,3.468287467956542969e+00,3.549164056777954102e+00,3.633902549743652344e+00,3.722786426544189453e+00,3.816127777099609375e+00,3.914269685745239258e+00,4.017592906951904297e+00,4.126519203186035156e+00,4.241515636444091797e+00,4.363106250762939453e+00,4.491873264312744141e+00,4.628471851348876953e+00,4.773639678955078125e+00,4.928207874298095703e+00,5.000000000000000000e+00,5.000000000000000000e+00,5.000000000000000000e+00,5.000000000000000000e+00,5.000000000000000000e+00,5.000000000000000000e+00,5.000000000000000000e+00,5.000000000000000000e+00,5.000000000000000000e+00,5.000000000000000000e+00,5.000000000000000000e+00,5.000000000000000000e+00,5.000000000000000000e+00,5.000000000000000000e+00,5.000000000000000000e+00,5.000000000000000000e+00,5.000000000000000000e+00,5.000000000000000000e+00,5.000000000000000000e+00,5.000000000000000000e+00,5.000000000000000000e+00,5.000000000000000000e+00,5.000000000000000000e+00,5.000000000000000000e+00,5.000000000000000000e+00,5.000000000000000000e+00,5.000000000000000000e+00,5.000000000000000000e+00,5.000000000000000000e+00,5.000000000000000000e+00,5.000000000000000000e+00,5.000000000000000000e+00,5.000000000000000000e+00,5.000000000000000000e+00,5.000000000000000000e+00,5.000000000000000000e+00,5.000000000000000000e+00,5.000000000000000000e+00,5.000000000000000000e+00,5.000000000000000000e+00,5.000000000000000000e+00,5.000000000000000000e+00,5.000000000000000000e+00,5.000000000000000000e+00,5.000000000000000000e+00,5.000000000000000000e+00,5.000000000000000000e+00,5.000000000000000000e+00,5.000000000000000000e+00,5.000000000000000000e+00,5.000000000000000000e+00,5.000000000000000000e+00,5.000000000000000000e+00,5.000000000000000000e+00,5.000000000000000000e+00,4.919711589813232422e+00,4.731342315673828125e+00
2.878101110458374023e+00,2.933574676513671875e+00,2.991228580474853516e+00,3.051194190979003906e+00,3.113610029220581055e+00,3.178614139556884766e+00,3.246390104293823242e+00,3.317119598388671875e+00,3.390999555587768555e+00,3.468245744705200195e+00,3.549093246459960938e+00,3.633820772171020508e+00,3.722700595855712891e+00,3.816037416458129883e+00,3.914174795150756836e+00,4.017492771148681641e+00,4.126413345336914062e+00,4.241404533386230469e+00,4.362988471984863281e+00,4.491748332977294922e+00,4.628339290618896484e+00,4.773498058319091797e+00,4.928057193756103516e+00,5.000000000000000000e+00,5.000000000000000000e+00,5.000000000000000000e+00,5.000000000000000000e+00,5.000000000000000000e+00,5.000000000000000000e+00,5.000000000000000000e+00,5.000000000000000000e+00,5.000000000000000000e+00,5.000000000000000000e+00,5.000000000000000000e+00,5.000000000000000000e+00,5.000000000000000000e+00,5.000000000000000000e+00,5.000000000000000000e+00,5.000000000000000000e+00,5.000000000000000000e+00,5.000000000000000000e+00,5.000000000000000000e+00,5.000000000000000000e+00,5.000000000000000000e+00,5.000000000000000000e+00,5.000000000000000000e+00,5.000000000000000000e+00,5.000000000000000000e+00,5.000000000000000000e+00,5.000000000000000000e+00,5.000000000000000000e+00,5.000000000000000000e+00,5.000000000000000000e+00,5.000000000000000000e+00,5.000000000000000000e+00,5.000000000000000000e+00,5.000000000000000000e+00,5.000000000000000000e+00,5.000000000000000000e+00,5.000000000000000000e+00,5.000000000000000000e+00,5.000000000000000000e+00,5.000000000000000000e+00,5.000000000000000000e+00,5.000000000000000000e+00,5.000000000000000000e+00,5.000000000000000000e+00,5.000000000000000000e+00,5.000000000000000000e+00,5.000000000000000000e+00,5.000000000000000000e+00,5.000000000000000000e+00,5.000000000000000000e+00,5.000000000000000000e+00,5.000000000000000000e+00,5.000000000000000000e+00,5.000000000000000000e+00,5.000000000000000000e+00,4.919896602630615234e+00,4.731513500213623047e+00
2.878049850463867188e+00,2.933521270751953125e+00,2.991173267364501953e+00,3.051136493682861328e+00,3.113553047180175781e+00,3.178576707839965820e+00,3.246374368667602539e+00,3.317119121551513672e+00,3.390999317169189453e+00,3.468245029449462891e+00,3.549092292785644531e+00,3.633798837661743164e+00,3.722647666931152344e+00,3.815950155258178711e+00,3.914079666137695312e+00,4.017393112182617188e+00,4.126307964324951172e+00,4.241292953491210938e+00,4.362870216369628906e+00,4.491623401641845703e+00,4.628206729888916016e+00,4.773356914520263672e+00,4.927906990051269531e+00,5.000000000000000000e+00,5.000000000000000000e+00,5.000000000000000000e+00,5.000000000000000000e+00,5.000000000000000000e+00,5.000000000000000000e+00,5.000000000000000000e+00,5.000000000000000000e+00,5.000000000000000000e+00,5.000000000000000000e+00,5.000000000000000000e+00,5.000000000000000000e+00,5.000000000000000000e+00,5.000000000000000000e+00,5.000000000000000000e+00,5.000000000000000000e+00,5.000000000000000000e+00,5.000000000000000000e+00,5.000000000000000000e+00,5.000000000000000000e+00,5.000000000000000000e+00,5.000000000000000000e+00,5.000000000000000000e+00,5.000000000000000000e+00,5.000000000000000000e+00,5.000000000000000000e+00,5.000000000000000000e+00,5.000000000000000000e+00,5.000000000000000000e+00,5.000000000000000000e+00,5.000000000000000000e+00,5.000000000000000000e+00,5.000000000000000000e+00,5.000000000000000000e+00,5.000000000000000000e+00,5.000000000000000000e+00,5.000000000000000000e+00,5.000000000000000000e+00,5.000000000000000000e+00,5.000000000000000000e+00,5.000000000000000000e+00,5.000000000000000000e+00,5.000000000000000000e+00,5.000000000000000000e+00,5.000000000000000000e+00,5.000000000000000000e+00,5.000000000000000000e+00,5.000000000000000000e+00,5.000000000000000000e+00,5.000000000000000000e+00,5.000000000000000000e+00,5.000000000000000000e+00,5.000000000000000000e+00,5.000000000000000000e+00,5.000000000000000000e+00,4.920082092285156250e+00,4.731684684753417969e+00
2.877998590469360352e+00,2.933468341827392578e+00,2.991117954254150391e+00,3.051078796386718750e+00,3.113492965698242188e+00,3.178514480590820312e+00,3.246309041976928711e+00,3.317058801651000977e+00,3.390961170196533203e+00,3.468231439590454102e+00,3.549092054367065430e+00,3.633798360824584961e+00,3.722646951675415039e+00,3.815949440002441406e+00,3.914048671722412109e+00,4.017325401306152344e+00,4.126202583312988281e+00,4.241181373596191406e+00,4.362752437591552734e+00,4.491498470306396484e+00,4.628074169158935547e+00,4.773216247558593750e+00,4.927756309509277344e+00,5.000000000000000000e+00,5.000000000000000000e+00,5.000000000000000000e+00,5.000000000000000000e+00,5.000000000000000000e+00,5.000000000000000000e+00,5.000000000000000000e+00,5.000000000000000000e+00,5.000000000000000000e+00,5.000000000000000000e+00,5.000000000000000000e+00,5.000000000000000000e+00,5.000000000000000000e+00,5.000000000000000000e+00,5.000000000000000000e+00,5.000000000000000000e+00,5.000000000000000000e+00,5.000000000000000000e+00,5.000000000000000000e+00,5.000000000000000000e+00,5.000000000000000000e+00,5.000000000000000000e+00,5.000000000000000000e+00,5.000000000000000000e+00,5.000000000000000000e+00,5.000000000000000000e+00,5.000000000000000000e+00,5.000000000000000000e+00,5.000000000000000000e+00,5.000000000000000000e+00,5.000000000000000000e+00,5.000000000000000000e+00,5.000000000000000000e+00,5.000000000000000000e+00,5.000000000000000000e+00,5.000000000000000000e+00,5.000000000000000000e+00,5.000000000000000000e+00,5.000000000000000000e+00,5.000000000000000000e+00,5.000000000000000000e+00,5.000000000000000000e+00,5.000000000000000000e+00,5.000000000000000000e+00,5.000000000000000000e+00,5.000000000000000000e+00,5.000000000000000000e+00,5.000000000000000000e+00,5.000000000000000000e+00,5.000000000000000000e+00,5.000000000000000000e+00,5.000000000000000000e+00,5.000000000000000000e+00,5.000000000000000000e+00,5.000000000000000000e+00,4.920267105102539062e+00,4.731855869293212891e+00
2.877947330474853516e+00,2.933414936065673828e+00,2.991062402725219727e+00,3.051021099090576172e+00,3.113433122634887695e+00,3.178451776504516602e+00,3.246243715286254883e+00,3.316990613937377930e+00,3.390889883041381836e+00,3.468157291412353516e+00,3.549027919769287109e+00,3.633759737014770508e+00,3.722636699676513672e+00,3.815948963165283203e+00,3.914048194885253906e+00,4.017324924468994141e+00,4.126199245452880859e+00,4.241138935089111328e+00,4.362666130065917969e+00,4.491373538970947266e+00,4.627941131591796875e+00,4.773074626922607422e+00,4.927606105804443359e+00,5.000000000000000000e+00,5.000000000000000000e+00,5.000000000000000000e+00,5.000000000000000000e+00,5.000000000000000000e+00,5.000000000000000000e+00,5.000000000000000000e+00,5.000000000000000000e+00,5.000000000000000000e+00,5.000000000000000000e+00,5.000000000000000000e+00,5.000000000000000000e+00,5.000000000000000000e+00,5.000000000000000000e+00,5.000000000000000000e+00,5.000000000000000000e+00,5.000000000000000000e+00,5.000000000000000000e+00,5.000000000000000000e+00,5.000000000000000000e+00,5.000000000000000000e+00,5.000000000000000000e+00,5.000000000000000000e+00,5.000000000000000000e+00,5.000000000000000000e+00,5.000000000000000000e+00,5.000000000000000000e+00,5.000000000000000000e+00,5.000000000000000000e+00,5.000000000000000000e+00,5.000000000000000000e+00,5.000000000000000000e+00,5.000000000000000000e+00,5.000000000000000000e+00,5.000000000000000000e+00,5.000000000000000000e+00,5.000000000000000000e+00,5.000000000000000000e+00,5.000000000000000000e+00,5.000000000000000000e+00,5.000000000000000000e+00,5.000000000000000000e+00,5.000000000000000000e+00,5.000000000000000000e+00,5.000000000000000000e+00,5.000000000000000000e+00,5.000000000000000000e+00,5.000000000000000000e+00,5.000000000000000000e+00,5.000000000000000000e+00,5.000000000000000000e+00,5.000000000000000000e+00,5.000000000000000000e+00,5.000000000000000000e+00,5.000000000000000000e+00,4.920452117919921875e+00,4.732027053833007812e+00
2.877896070480346680e+00,2.933361530303955078e+00,2.991007089614868164e+00,3.050963640213012695e+00,3.113373041152954102e+00,3.178389072418212891e+00,3.246178388595581055e+00,3.316922426223754883e+00,3.390819072723388672e+00,3.468082666397094727e+00,3.548949718475341797e+00,3.633677959442138672e+00,3.722550630569458008e+00,3.815880298614501953e+00,3.914009571075439453e+00,4.017319202423095703e+00,4.126198768615722656e+00,4.241138458251953125e+00,4.362665176391601562e+00,4.491362094879150391e+00,4.627882957458496094e+00,4.772963523864746094e+00,4.927455425262451172e+00,5.000000000000000000e+00,5.000000000000000000e+00,5.000000000000000000e+00,5.000000000000000000e+00,5.000000000000000000e+00,5.000000000000000000e+00,5.000000000000000000e+00,5.000000000000000000e+00,5.000000000000000000e+00,5.000000000000000000e+00,5.000000000000000000e+00,5.000000000000000000e+00,5.000000000000000000e+00,5.000000000000000000e+00,5.000000000000000000e+00,5.000000000000000000e+00,5.000000000000000000e+00,5.000000000000000000e+00,5.000000000000000000e+00,5.000000000000000000e+00,5.000000000000000000e+00,5.000000000000000000e+00,5.000000000000000000e+00,5.000000000000000000e+00,5.000000000000000000e+00,5.000000000000000000e+00,5.000000000000000000e+00,5.000000000000000000e+00,5.000000000000000000e+00,5.000000000000000000e+00,5.000000000000000000e+00,5.000000000000000000e+00,5.000000000000000000e+00,5.000000000000000000e+00,5.000000000000000000e+00,5.000000000000000000e+00,5.000000000000000000e+00,5.000000000000000000e+00,5.000000000000000000e+00,5.000000000000000000e+00,5.000000000000000000e+00,5.000000000000000000e+00,5.000000000000000000e+00,5.000000000000000000e+00,5.000000000000000000e+00,5.000000000000000000e+00,5.000000000000000000e+00,5.000000000000000000e+00,5.000000000000000000e+00,5.000000000000000000e+00,5.000000000000000000e+00,5.000000000000000000e+00,5.000000000000000000e+00,5.000000000000000000e+00,5.000000000000000000e+00,4.920637130737304688e+00,4.732198238372802734e+00
2.877844810485839844e+00,2.933308124542236328e+00,2.990951776504516602e+00,3.050905942916870117e+00,3.113312959671020508e+00,3.178326606750488281e+00,3.246113061904907227e+00,3.316854715347290039e+00,3.390747785568237305e+00,3.468008279800415039e+00,3.548871755599975586e+00,3.633596420288085938e+00,3.722465276718139648e+00,3.815790176391601562e+00,3.913914442062377930e+00,4.017219066619873047e+00,4.126124858856201172e+00,4.241099357604980469e+00,4.362664699554443359e+00,4.491361618041992188e+00,4.627882003784179688e+00,4.772962570190429688e+00,4.927433490753173828e+00,5.000000000000000000e+00,5.000000000000000000e+00,5.000000000000000000e+00,5.000000000000000000e+00,5.000000000000000000e+00,5.000000000000000000e+00,5.000000000000000000e+00,5.000000000000000000e+00,5.000000000000000000e+00,5.000000000000000000e+00,5.000000000000000000e+00,5.000000000000000000e+00,5.000000000000000000e+00,5.000000000000000000e+00,5.000000000000000000e+00,5.000000000000000000e+00,5.000000000000000000e+00,5.000000000000000000e+00,5.000000000000000000e+00,5.000000000000000000e+00,5.000000000000000000e+00,5.000000000000000000e+00,5.000000000000000000e+00,5.000000000000000000e+00,5.000000000000000000e+00,5.000000000000000000e+00,5.000000000000000000e+00,5.000000000000000000e+00,5.000000000000000000e+00,5.000000000000000000e+00,5.000000000000000000e+00,5.000000000000000000e+00,5.000000000000000000e+00,5.000000000000000000e+00,5.000000000000000000e+00,5.000000000000000000e+00,5.000000000000000000e+00,5.000000000000000000e+00,5.000000000000000000e+00,5.000000000000000000e+00,5.000000000000000000e+00,5.000000000000000000e+00,5.000000000000000000e+00,5.000000000000000000e+00,5.000000000000000000e+00,5.000000000000000000e+00,5.000000000000000000e+00,5.000000000000000000e+00,5.000000000000000000e+00,5.000000000000000000e+00,5.000000000000000000e+00,5.000000000000000000e+00,5.000000000000000000e+00,5.000000000000000000e+00,5.000000000000000000e+00,4.920822143554687500e+00,4.732369422912597656e+00
2.877793312072753906e+00,2.933255195617675781e+00,2.990896463394165039e+00,3.050848245620727539e+00,3.113252878189086914e+00,3.178263902664184570e+00,3.246048212051391602e+00,3.316786527633666992e+00,3.390676498413085938e+00,3.467933654785156250e+00,3.548794031143188477e+00,3.633514642715454102e+00,3.722379207611083984e+00,3.815699815750122070e+00,3.913819551467895508e+00,4.017119407653808594e+00,4.126019001007080078e+00,4.240988254547119141e+00,4.362547874450683594e+00,4.491281509399414062e+00,4.627844333648681641e+00,4.772961616516113281e+00,4.927433013916015625e+00,5.000000000000000000e+00,5.000000000000000000e+00,5.000000000000000000e+00,5.000000000000000000e+00,5.000000000000000000e+00,5.000000000000000000e+00,5.000000000000000000e+00,5.000000000000000000e+00,5.000000000000000000e+00,5.000000000000000000e+00,5.000000000000000000e+00,5.000000000000000000e+00,5.000000000000000000e+00,5.000000000000000000e+00,5.000000000000000000e+00,5.000000000000000000e+00,5.000000000000000000e+00,5.000000000000000000e+00,5.000000000000000000e+00,5.000000000000000000e+00,5.000000000000000000e+00,5.000000000000000000e+00,5.000000000000000000e+00,5.000000000000000000e+00,5.000000000000000000e+00,5.000000000000000000e+00,5.000000000000000000e+00,5.000000000000000000e+00,5.000000000000000000e+00,5.000000000000000000e+00,5.000000000000000000e+00,5.000000000000000000e+00,5.000000000000000000e+00,5.000000000000000000e+00,5.000000000000000000e+00,5.000000000000000000e+00,5.000000000000000000e+00,5.000000000000000000e+00,5.000000000000000000e+00,5.000000000000000000e+00,5.000000000000000000e+00,5.000000000000000000e+00,5.000000000000000000e+00,5.000000000000000000e+00,5.000000000000000000e+00,5.000000000000000000e+00,5.000000000000000000e+00,5.000000000000000000e+00,5.000000000000000000e+00,5.000000000000000000e+00,5.000000000000000000e+00,5.000000000000000000e+00,5.000000000000000000e+00,5.000000000000000000e+00,5.000000000000000000e+00,4.921007156372070312e+00,4.732540130615234375e+00
2.877742290496826172e+00,2.933201789855957031e+00,2.990840911865234375e+00,3.050790548324584961e+00,3.113192796707153320e+00,3.178201675415039062e+00,3.245982885360717773e+00,3.316718339920043945e+00,3.390605211257934570e+00,3.467859506607055664e+00,3.548715829849243164e+00,3.633432865142822266e+00,3.722293376922607422e+00,3.815609693527221680e+00,3.913725137710571289e+00,4.017019271850585938e+00,4.125914096832275391e+00,4.240876674652099609e+00,4.362430095672607422e+00,4.491157054901123047e+00,4.627711296081542969e+00,4.772830963134765625e+00,4.927346229553222656e+00,5.000000000000000000e+00,5.000000000000000000e+00,5.000000000000000000e+00,5.000000000000000000e+00,5.000000000000000000e+00,5.000000000000000000e+00,5.000000000000000000e+00,5.000000000000000000e+00,5.000000000000000000e+00,5.000000000000000000e+00,5.000000000000000000e+00,5.000000000000000000e+00,5.000000000000000000e+00,5.000000000000000000e+00,5.000000000000000000e+00,5.000000000000000000e+00,5.000000000000000000e+00,5.000000000000000000e+00,5.000000000000000000e+00,5.000000000000000000e+00,5.000000000000000000e+00,5.000000000000000000e+00,5.000000000000000000e+00,5.000000000000000000e+00,5.000000000000000000e+00,5.000000000000000000e+00,5.000000000000000000e+00,5.000000000000000000e+00,5.000000000000000000e+00,5.000000000000000000e+00,5.000000000000000000e+00,5.000000000000000000e+00,5.000000000000000000e+00,5.000000000000000000e+00,5.000000000000000000e+00,5.000000000000000000e+00,5.000000000000000000e+00,5.000000000000000000e+00,5.000000000000000000e+00,5.000000000000000000e+00,5.000000000000000000e+00,5.000000000000000000e+00,5.000000000000000000e+00,5.000000000000000000e+00,5.000000000000000000e+00,5.000000000000000000e+00,5.000000000000000000e+00,5.000000000000000000e+00,5.000000000000000000e+00,5.000000000000000000e+00,5.000000000000000000e+00,5.000000000000000000e+00,5.000000000000000000e+00,5.000000000000000000e+00,5.000000000000000000e+00,4.921191692352294922e+00,4.732711315155029297e+00
2.877691030502319336e+00,2.933148384094238281e+00,2.990785360336303711e+00,3.050732851028442383e+00,3.113133192062377930e+00,3.178138971328735352e+00,3.245917558670043945e+00,3.316649913787841797e+00,3.390534162521362305e+00,3.467784881591796875e+00,3.548637866973876953e+00,3.633351087570190430e+00,3.722207546234130859e+00,3.815519809722900391e+00,3.913630008697509766e+00,4.016919612884521484e+00,4.125808238983154297e+00,4.240765094757080078e+00,4.362312316894531250e+00,4.491031646728515625e+00,4.627579212188720703e+00,4.772689342498779297e+00,4.927196025848388672e+00,5.000000000000000000e+00,5.000000000000000000e+00,5.000000000000000000e+00,5.000000000000000000e+00,5.000000000000000000e+00,5.000000000000000000e+00,5.000000000000000000e+00,5.000000000000000000e+00,5.000000000000000000e+00,5.000000000000000000e+00,5.000000000000000000e+00,5.000000000000000000e+00,5.000000000000000000e+00,5.000000000000000000e+00,5.000000000000000000e+00,5.000000000000000000e+00,5.000000000000000000e+00,5.000000000000000000e+00,5.000000000000000000e+00,5.000000000000000000e+00,5.000000000000000000e+00,5.000000000000000000e+00,5.000000000000000000e+00,5.000000000000000000e+00,5.000000000000000000e+00,5.000000000000000000e+00,5.000000000000000000e+00,5.000000000000000000e+00,5.000000000000000000e+00,5.000000000000000000e+00,5.000000000000000000e+00,5.000000000000000000e+00,5.000000000000000000e+00,5.000000000000000000e+00,5.000000000000000000e+00,5.000000000000000000e+00,5.000000000000000000e+00,5.000000000000000000e+00,5.000000000000000000e+00,5.000000000000000000e+00,5.000000000000000000e+00,5.000000000000000000e+00,5.000000000000000000e+00,5.000000000000000000e+00,5.000000000000000000e+00,5.000000000000000000e+00,5.000000000000000000e+00,5.000000000000000000e+00,5.000000000000000000e+00,5.000000000000000000e+00,5.000000000000000000e+00,5.000000000000000000e+00,5.000000000000000000e+00,5.000000000000000000e+00,5.000000000000000000e+00,4.921376705169677734e+00,4.732882499694824219e+00
2.877639532089233398e+00,2.933095216751098633e+00,2.990730047225952148e+00,3.050675392150878906e+00,3.113073110580444336e+00,3.178076267242431641e+00,3.245852231979370117e+00,3.316582202911376953e+00,3.390462875366210938e+00,3.467710256576538086e+00,3.548559665679931641e+00,3.633269071578979492e+00,3.722121953964233398e+00,3.815429687500000000e+00,3.913535118103027344e+00,4.016819477081298828e+00,4.125702857971191406e+00,4.240653991699218750e+00,4.362194538116455078e+00,4.490907192230224609e+00,4.627446174621582031e+00,4.772548675537109375e+00,4.927045345306396484e+00,5.000000000000000000e+00,5.000000000000000000e+00,5.000000000000000000e+00,5.000000000000000000e+00,5.000000000000000000e+00,5.000000000000000000e+00,5.000000000000000000e+00,5.000000000000000000e+00,5.000000000000000000e+00,5.000000000000000000e+00,5.000000000000000000e+00,5.000000000000000000e+00,5.000000000000000000e+00,5.000000000000000000e+00,5.000000000000000000e+00,5.000000000000000000e+00,5.000000000000000000e+00,5.000000000000000000e+00,5.000000000000000000e+00,5.000000000000000000e+00,5.000000000000000000e+00,5.000000000000000000e+00,5.000000000000000000e+00,5.000000000000000000e+00,5.000000000000000000e+00,5.000000000000000000e+00,5.000000000000000000e+00,5.000000000000000000e+00,5.000000000000000000e+00,5.000000000000000000e+00,5.000000000000000000e+00,5.000000000000000000e+00,5.000000000000000000e+00,5.000000000000000000e+00,5.000000000000000000e+00,5.000000000000000000e+00,5.000000000000000000e+00,5.000000000000000000e+00,5.000000000000000000e+00,5.000000000000000000e+00,5.000000000000000000e+00,5.000000000000000000e+00,5.000000000000000000e+00,5.000000000000000000e+00,5.000000000000000000e+00,5.000000000000000000e+00,5.000000000000000000e+00,5.000000000000000000e+00,5.000000000000000000e+00,5.000000000000000000e+00,5.000000000000000000e+00,5.000000000000000000e+00,5.000000000000000000e+00,5.000000000000000000e+00,5.000000000000000000e+00,4.921561717987060547e+00,4.733053207397460938e+00
2.877588272094726562e+00,2.933041810989379883e+00,2.990674734115600586e+00,3.050617933273315430e+00,3.113013029098510742e+00,3.178013801574707031e+00,3.245787143707275391e+00,3.316514015197753906e+00,3.390391588211059570e+00,3.467635869979858398e+00,3.548481702804565430e+00,3.633187770843505859e+00,3.722036123275756836e+00,3.815339326858520508e+00,3.913440227508544922e+00,4.016719818115234375e+00,4.125597476959228516e+00,4.240542411804199219e+00,4.362076759338378906e+00,4.490782260894775391e+00,4.627314090728759766e+00,4.772407531738281250e+00,4.926895141601562500e+00,5.000000000000000000e+00,5.000000000000000000e+00,5.000000000000000000e+00,5.000000000000000000e+00,5.000000000000000000e+00,5.000000000000000000e+00,5.000000000000000000e+00,5.000000000000000000e+00,5.000000000000000000e+00,5.000000000000000000e+00,5.000000000000000000e+00,5.000000000000000000e+00,5.000000000000000000e+00,5.000000000000000000e+00,5.000000000000000000e+00,5.000000000000000000e+00,5.000000000000000000e+00,5.000000000000000000e+00,5.000000000000000000e+00,5.000000000000000000e+00,5.000000000000000000e+00,5.000000000000000000e+00,5.000000000000000000e+00,5.000000000000000000e+00,5.000000000000000000e+00,5.000000000000000000e+00,5.000000000000000000e+00,5.000000000000000000e+00,5.000000000000000000e+00,5.000000000000000000e+00,5.000000000000000000e+00,5.000000000000000000e+00,5.000000000000000000e+00,5.000000000000000000e+00,5.000000000000000000e+00,5.000000000000000000e+00,5.000000000000000000e+00,5.000000000000000000e+00,5.000000000000000000e+00,5.000000000000000000e+00,5.000000000000000000e+00,5.000000000000000000e+00,5.000000000000000000e+00,5.000000000000000000e+00,5.000000000000000000e+00,5.000000000000000000e+00,5.000000000000000000e+00,5.000000000000000000e+00,5.000000000000000000e+00,5.000000000000000000e+00,5.000000000000000000e+00,5.000000000000000000e+00,5.000000000000000000e+00,5.000000000000000000e+00,5.000000000000000000e+00,4.921746730804443359e+00,4.733224391937255859e+00
2.877537012100219727e+00,2.932988643646240234e+00,2.990619421005249023e+00,3.050560235977172852e+00,3.112952947616577148e+00,3.177951574325561523e+00,3.245721817016601562e+00,3.316445827484130859e+00,3.390320539474487305e+00,3.467561244964599609e+00,3.548403978347778320e+00,3.633105754852294922e+00,3.721950292587280273e+00,3.815249204635620117e+00,3.913345813751220703e+00,4.016619682312011719e+00,4.125492095947265625e+00,4.240431308746337891e+00,4.361958503723144531e+00,4.490657329559326172e+00,4.627181053161621094e+00,4.772266864776611328e+00,4.926744937896728516e+00,5.000000000000000000e+00,5.000000000000000000e+00,5.000000000000000000e+00,5.000000000000000000e+00,5.000000000000000000e+00,5.000000000000000000e+00,5.000000000000000000e+00,5.000000000000000000e+00,5.000000000000000000e+00,5.000000000000000000e+00,5.000000000000000000e+00,5.000000000000000000e+00,5.000000000000000000e+00,5.000000000000000000e+00,5.000000000000000000e+00,5.000000000000000000e+00,5.000000000000000000e+00,5.000000000000000000e+00,5.000000000000000000e+00,5.000000000000000000e+00,5.000000000000000000e+00,5.000000000000000000e+00,5.000000000000000000e+00,5.000000000000000000e+00,5.000000000000000000e+00,5.000000000000000000e+00,5.000000000000000000e+00,5.000000000000000000e+00,5.000000000000000000e+00,5.000000000000000000e+00,5.000000000000000000e+00,5.000000000000000000e+00,5.000000000000000000e+00,5.000000000000000000e+00,5.000000000000000000e+00,5.000000000000000000e+00,5.000000000000000000e+00,5.000000000000000000e+00,5.000000000000000000e+00,5.000000000000000000e+00,5.000000000000000000e+00,5.000000000000000000e+00,5.000000000000000000e+00,5.000000000000000000e+00,5.000000000000000000e+00,5.000000000000000000e+00,5.000000000000000000e+00,5.000000000000000000e+00,5.000000000000000000e+00,5.000000000000000000e+00,5.000000000000000000e+00,5.000000000000000000e+00,5.000000000000000000e+00,5.000000000000000000e+00,5.000000000000000000e+00,4.921931743621826172e+00,4.733395576477050781e+00
2.877485752105712891e+00,2.932935476303100586e+00,2.990563869476318359e+00,3.050502538681030273e+00,3.112893104553222656e+00,3.177888870239257812e+00,3.245656490325927734e+00,3.316377639770507812e+00,3.390249252319335938e+00,3.467487096786499023e+00,3.548326015472412109e+00,3.633023977279663086e+00,3.721864461898803711e+00,3.815159320831298828e+00,3.913250923156738281e+00,4.016519546508789062e+00,4.125386714935302734e+00,4.240319728851318359e+00,4.361841201782226562e+00,4.490532398223876953e+00,4.627048969268798828e+00,4.772125720977783203e+00,4.847350597381591797e+00,4.846146583557128906e+00,4.844943046569824219e+00,4.843740463256835938e+00,4.842538356781005859e+00,4.841337203979492188e+00,4.840136051177978516e+00,4.838935375213623047e+00,4.837736129760742188e+00,4.836536407470703125e+00,4.835338115692138672e+00,4.834140300750732422e+00,4.832942485809326172e+00,4.831746101379394531e+00,4.830549716949462891e+00,4.829354286193847656e+00,4.828159332275390625e+00,4.826964855194091797e+00,4.825771331787109375e+00,4.824577808380126953e+00,4.823385238647460938e+00,4.822193622589111328e+00,4.821001529693603516e+00,4.819810867309570312e+00,4.818620681762695312e+00,4.817431449890136719e+00,4.816241741180419922e+00,4.815053462982177734e+00,4.813865661621093750e+00,4.812678337097167969e+00,4.811491489410400391e+00,4.810305595397949219e+00,4.809119701385498047e+00,4.807934761047363281e+00,4.806750297546386719e+00,4.805566787719726562e+00,4.804383277893066406e+00,4.803200721740722656e+00,4.802018642425537109e+00,4.800837039947509766e+00,4.799655914306640625e+00,4.798475742340087891e+00,4.797296047210693359e+00,4.796116828918457031e+00,4.794938087463378906e+00,4.793760299682617188e+00,4.792582988739013672e+00,4.791406154632568359e+00,4.790229797363281250e+00,4.789053916931152344e+00,4.787878990173339844e+00,4.786704540252685547e+00,4.785530567169189453e+00,4.784357070922851562e+00,4.783184051513671875e+00,4.782011985778808594e+00,4.780840396881103516e+00,4.733566761016845703e+00
2.877434492111206055e+00,2.932882070541381836e+00,2.990508556365966797e+00,3.050445079803466797e+00,3.112833023071289062e+00,3.177826166152954102e+00,3.245591402053833008e+00,3.316309452056884766e+00,3.390178203582763672e+00,3.467412471771240234e+00,3.548248052597045898e+00,3.632942199707031250e+00,3.721778869628906250e+00,3.768030405044555664e+00,3.767303228378295898e+00,3.766575813293457031e+00,3.765848875045776367e+00,3.765122413635253906e+00,3.764395713806152344e+00,3.763669490814208984e+00,3.762943983078002930e+00,3.762218236923217773e+00,3.761493444442749023e+00,3.760768175125122070e+00,3.760043382644653320e+00,3.759319305419921875e+00,3.758594989776611328e+00,3.757870912551879883e+00,3.757147550582885742e+00,3.756424188613891602e+00,3.755701065063476562e+00,3.754978418350219727e+00,3.754256010055541992e+00,3.753533601760864258e+00,3.752811908721923828e+00,3.752090215682983398e+00,3.751368522644042969e+00,3.750647783279418945e+00,3.749926805496215820e+00,3.749206066131591797e+00,3.748486280441284180e+00,3.747766017913818359e+00,3.747046709060668945e+00,3.746326923370361328e+00,3.745607852935791016e+00,3.744889259338378906e+00,3.744170427322387695e+00,3.743451833724975586e+00,3.742734193801879883e+00,3.742016315460205078e+00,3.741298675537109375e+00,3.740581750869750977e+00,3.739864587783813477e+00,3.739147901535034180e+00,3.738431692123413086e+00,3.737715482711791992e+00,3.736999511718750000e+00,3.736284017562866211e+00,3.735568761825561523e+00,3.734853506088256836e+00,3.734138965606689453e+00,3.733424425125122070e+00,3.732710599899291992e+00,3.731996536254882812e+00,3.731282711029052734e+00,3.730569601058959961e+00,3.729856252670288086e+00,3.729143381118774414e+00,3.728430986404418945e+00,3.727718591690063477e+00,3.727006435394287109e+00,3.726294755935668945e+00,3.725583314895629883e+00,3.724871873855590820e+00,3.724161148071289062e+00,3.723450422286987305e+00,3.722739934921264648e+00,3.722029924392700195e+00,3.721319913864135742e+00,3.720610618591308594e+00
2.877383232116699219e+00,2.932828664779663086e+00,2.990453243255615234e+00,3.050387382507324219e+00,3.081825733184814453e+00,3.081339120864868164e+00,3.080852746963500977e+00,3.080366134643554688e+00,3.079879999160766602e+00,3.079394102096557617e+00,3.078907966613769531e+00,3.078422307968139648e+00,3.077936887741088867e+00,3.077451229095458984e+00,3.076965808868408203e+00,3.076480865478515625e+00,3.075995683670043945e+00,3.075511217117309570e+00,3.075026273727416992e+00,3.074541807174682617e+00,3.074057579040527344e+00,3.073573112487792969e+00,3.073089122772216797e+00,3.072605371475219727e+00,3.072121381759643555e+00,3.071637630462646484e+00,3.071154356002807617e+00,3.070671081542968750e+00,3.070187807083129883e+00,3.069705009460449219e+00,3.069221973419189453e+00,3.068739175796508789e+00,3.068256855010986328e+00,3.067774295806884766e+00,3.067291975021362305e+00,3.066810131072998047e+00,3.066328048706054688e+00,3.065846443176269531e+00,3.065364837646484375e+00,3.064883232116699219e+00,3.064402103424072266e+00,3.063920736312866211e+00,3.063439607620239258e+00,3.062958955764770508e+00,3.062478065490722656e+00,3.061997413635253906e+00,3.061517238616943359e+00,3.061036825180053711e+00,3.060556411743164062e+00,3.060076713562011719e+00,3.059596776962280273e+00,3.059117078781127930e+00,3.058637619018554688e+00,3.058158159255981445e+00,3.057678937911987305e+00,3.057199954986572266e+00,3.056720972061157227e+00,3.056242227554321289e+00,3.055763483047485352e+00,3.055284976959228516e+00,3.054806947708129883e+00,3.054328441619873047e+00,3.053850412368774414e+00,3.053372621536254883e+00,3.052894830703735352e+00,3.052417278289794922e+00,3.051939964294433594e+00,3.051462650299072266e+00,3.050985336303710938e+00,3.050508499145507812e+00,3.050031661987304688e+00,3.049554824829101562e+00,3.049078464508056641e+00,3.048602104187011719e+00,3.048125743865966797e+00,3.047649860382080078e+00,3.047173738479614258e+00,3.046698093414306641e+00,3.046222448348999023e+00,3.045746803283691406e+00
2.605309247970581055e+00,2.604961633682250977e+00,2.604613780975341797e+00,2.604266166687011719e+00,2.603918790817260742e+00,2.603571176528930664e+00,2.603223800659179688e+00,2.602876663208007812e+00,2.602529287338256836e+00,2.602182149887084961e+00,2.601835489273071289e+00,2.601488351821899414e+00,2.601141452789306641e+00,2.600795030593872070e+00,2.600448369979858398e+00,2.600101947784423828e+00,2.599755525588989258e+00,2.599409103393554688e+00,2.599062919616699219e+00,2.598716735839843750e+00,2.598370552062988281e+00,2.598024606704711914e+00,2.597678661346435547e+00,2.597332954406738281e+00,2.596987247467041016e+00,2.596641540527343750e+00,2.596296072006225586e+00,2.595950841903686523e+00,2.595605373382568359e+00,2.595260143280029297e+00,2.594915151596069336e+00,2.594569921493530273e+00,2.594225168228149414e+00,2.593880176544189453e+00,2.593535423278808594e+00,2.593190908432006836e+00,2.592846155166625977e+00,2.592501640319824219e+00,2.592157363891601562e+00,2.591812849044799805e+00,2.591468572616577148e+00,2.591124534606933594e+00,2.590780496597290039e+00,2.590436458587646484e+00,2.590092658996582031e+00,2.589748859405517578e+00,2.589405298233032227e+00,2.589061737060546875e+00,2.588718175888061523e+00,2.588374614715576172e+00,2.588031530380249023e+00,2.587688207626342773e+00,2.587345361709594727e+00,2.587002038955688477e+00,2.586659193038940430e+00,2.586316347122192383e+00,2.585973501205444336e+00,2.585630893707275391e+00,2.585288286209106445e+00,2.584945917129516602e+00,2.584603309631347656e+00,2.584261178970336914e+00,2.583918809890747070e+00,2.583576679229736328e+00,2.583234786987304688e+00,2.582892894744873047e+00,2.582550764083862305e+00,2.582209110260009766e+00,2.581867456436157227e+00,2.581526041030883789e+00,2.581184387207031250e+00,2.580842971801757812e+00,2.580501794815063477e+00,2.580160379409790039e+00,2.579819202423095703e+00,2.579478263854980469e+00,2.579137325286865234e+00,2.578796386718750000e+00,2.578455686569213867e+00,2.578114986419677734e+00
2.255375385284423828e+00,2.255114555358886719e+00,2.254854202270507812e+00,2.254593610763549805e+00,2.254333019256591797e+00,2.254072666168212891e+00,2.253812313079833984e+00,2.253551959991455078e+00,2.253291845321655273e+00,2.253031492233276367e+00,2.252771615982055664e+00,2.252511501312255859e+00,2.252251386642456055e+00,2.251991510391235352e+00,2.251731634140014648e+00,2.251471757888793945e+00,2.251212120056152344e+00,2.250952243804931641e+00,2.250692605972290039e+00,2.250433206558227539e+00,2.250173568725585938e+00,2.249914169311523438e+00,2.249654769897460938e+00,2.249395370483398438e+00,2.249135971069335938e+00,2.248876810073852539e+00,2.248617649078369141e+00,2.248358726501464844e+00,2.248099565505981445e+00,2.247840642929077148e+00,2.247581720352172852e+00,2.247322797775268555e+00,2.247063875198364258e+00,2.246805429458618164e+00,2.246546506881713867e+00,2.246287822723388672e+00,2.246029376983642578e+00,2.245770931243896484e+00,2.245512247085571289e+00,2.245254039764404297e+00,2.244995594024658203e+00,2.244737386703491211e+00,2.244479179382324219e+00,2.244220972061157227e+00,2.243963003158569336e+00,2.243705034255981445e+00,2.243446826934814453e+00,2.243189096450805664e+00,2.242931127548217773e+00,2.242673397064208984e+00,2.242415666580200195e+00,2.242157936096191406e+00,2.241900444030761719e+00,2.241642951965332031e+00,2.241385221481323242e+00,2.241127729415893555e+00,2.240870475769042969e+00,2.240613222122192383e+00,2.240355968475341797e+00,2.240098714828491211e+00,2.239841461181640625e+00,2.239584445953369141e+00,2.239327430725097656e+00,2.239070415496826172e+00,2.238813400268554688e+00,2.238556861877441406e+00,2.238299846649169922e+00,2.238043308258056641e+00,2.237786531448364258e+00,2.237529993057250977e+00,2.237273454666137695e+00,2.237016916275024414e+00,2.236760377883911133e+00,2.236504077911376953e+00,2.236247777938842773e+00,2.235991477966308594e+00,2.235735416412353516e+00,2.235479116439819336e+00,2.235223054885864258e+00,2.234966993331909180e+00
1.988313674926757812e+00,1.988111019134521484e+00,1.987908482551574707e+00,1.987705945968627930e+00,1.987503409385681152e+00,1.987301111221313477e+00,1.987098693847656250e+00,1.986896395683288574e+00,1.986693978309631348e+00,1.986491680145263672e+00,1.986289501190185547e+00,1.986087441444396973e+00,1.985885381698608398e+00,1.985683202743530273e+00,1.985481142997741699e+00,1.985279083251953125e+00,1.985077023506164551e+00,1.984875321388244629e+00,1.984673380851745605e+00,1.984471440315246582e+00,1.984269618988037109e+00,1.984067797660827637e+00,1.983866333961486816e+00,1.983664631843566895e+00,1.983462929725646973e+00,1.983261227607727051e+00,1.983059644699096680e+00,1.982858061790466309e+00,1.982656836509704590e+00,1.982455372810363770e+00,1.982253909111022949e+00,1.982052564620971680e+00,1.981851100921630859e+00,1.981649875640869141e+00,1.981448769569396973e+00,1.981247544288635254e+00,1.981046319007873535e+00,1.980845212936401367e+00,1.980644106864929199e+00,1.980443000793457031e+00,1.980242252349853516e+00,1.980041265487670898e+00,1.979840278625488281e+00,1.979639410972595215e+00,1.979438543319702148e+00,1.979237914085388184e+00,1.979037165641784668e+00,1.978836417198181152e+00,1.978635668754577637e+00,1.978435039520263672e+00,1.978234410285949707e+00,1.978034019470214844e+00,1.977833509445190430e+00,1.977632999420166016e+00,1.977432489395141602e+00,1.977232098579406738e+00,1.977031707763671875e+00,1.976831674575805664e+00,1.976631283760070801e+00,1.976431131362915039e+00,1.976230859756469727e+00,1.976030707359313965e+00,1.975830793380737305e+00,1.975630640983581543e+00,1.975430607795715332e+00,1.975230574607849121e+00,1.975030660629272461e+00,1.974830746650695801e+00,1.974631071090698242e+00,1.974431157112121582e+00,1.974231362342834473e+00,1.974031567573547363e+00,1.973831892013549805e+00,1.973632216453552246e+00,1.973432779312133789e+00,1.973233103752136230e+00,1.973033547401428223e+00,1.972834110260009766e+00,1.972634553909301758e+00,1.972435355186462402e+00
1.777801871299743652e+00,1.777639865875244141e+00,1.777477979660034180e+00,1.777316212654113770e+00,1.777154326438903809e+00,1.776992440223693848e+00,1.776830554008483887e+00,1.776668787002563477e+00,1.776506900787353516e+00,1.776345372200012207e+00,1.776183605194091797e+00,1.776021957397460938e+00,1.775860309600830078e+00,1.775698661804199219e+00,1.775537014007568359e+00,1.775375604629516602e+00,1.775214076042175293e+00,1.775052547454833984e+00,1.774891018867492676e+00,1.774729609489440918e+00,1.774568319320678711e+00,1.774406909942626953e+00,1.774245500564575195e+00,1.774084210395812988e+00,1.773922920227050781e+00,1.773761630058288574e+00,1.773600459098815918e+00,1.773439288139343262e+00,1.773278117179870605e+00,1.773116946220397949e+00,1.772955775260925293e+00,1.772794604301452637e+00,1.772633790969848633e+00,1.772472620010375977e+00,1.772311687469482422e+00,1.772150635719299316e+00,1.771989703178405762e+00,1.771828889846801758e+00,1.771667957305908203e+00,1.771507143974304199e+00,1.771346330642700195e+00,1.771185398101806641e+00,1.771024703979492188e+00,1.770864129066467285e+00,1.770703315734863281e+00,1.770542621612548828e+00,1.770381927490234375e+00,1.770221352577209473e+00,1.770060658454895020e+00,1.769900321960449219e+00,1.769739747047424316e+00,1.769579172134399414e+00,1.769418716430664062e+00,1.769258260726928711e+00,1.769097805023193359e+00,1.768937587738037109e+00,1.768777132034301758e+00,1.768616795539855957e+00,1.768456459045410156e+00,1.768296122550964355e+00,1.768136024475097656e+00,1.767975807189941406e+00,1.767815589904785156e+00,1.767655491828918457e+00,1.767495274543762207e+00,1.767335176467895508e+00,1.767175316810607910e+00,1.767015218734741211e+00,1.766855120658874512e+00,1.766695141792297363e+00,1.766535162925720215e+00,1.766375184059143066e+00,1.766215443611145020e+00,1.766055583953857422e+00,1.765895724296569824e+00,1.765735864639282227e+00,1.765576124191284180e+00,1.765416502952575684e+00,1.765256762504577637e+00,1.765097141265869141e+00
1.607598185539245605e+00,1.607465863227844238e+00,1.607333421707153320e+00,1.607200980186462402e+00,1.607068657875061035e+00,1.606936216354370117e+00,1.606803894042968750e+00,1.606671690940856934e+00,1.606539368629455566e+00,1.606407165527343750e+00,1.606274843215942383e+00,1.606142640113830566e+00,1.606010317802429199e+00,1.605878353118896484e+00,1.605746150016784668e+00,1.605613946914672852e+00,1.605481863021850586e+00,1.605349779129028320e+00,1.605217814445495605e+00,1.605085730552673340e+00,1.604953646659851074e+00,1.604821681976318359e+00,1.604689598083496094e+00,1.604557633399963379e+00,1.604425787925720215e+00,1.604293942451477051e+00,1.604161977767944336e+00,1.604030132293701172e+00,1.603898167610168457e+00,1.603766322135925293e+00,1.603634715080261230e+00,1.603502869606018066e+00,1.603371024131774902e+00,1.603239297866821289e+00,1.603107571601867676e+00,1.602975964546203613e+00,1.602844238281250000e+00,1.602712631225585938e+00,1.602580904960632324e+00,1.602449297904968262e+00,1.602317690849304199e+00,1.602186203002929688e+00,1.602054715156555176e+00,1.601923108100891113e+00,1.601791620254516602e+00,1.601660132408142090e+00,1.601528644561767578e+00,1.601397275924682617e+00,1.601265788078308105e+00,1.601134419441223145e+00,1.601003050804138184e+00,1.600871682167053223e+00,1.600740432739257812e+00,1.600609064102172852e+00,1.600477814674377441e+00,1.600346446037292480e+00,1.600215196609497070e+00,1.600083947181701660e+00,1.599952816963195801e+00,1.599821686744689941e+00,1.599690437316894531e+00,1.599559307098388672e+00,1.599428176879882812e+00,1.599297046661376953e+00,1.599166154861450195e+00,1.599035024642944336e+00,1.598904013633728027e+00,1.598772883415222168e+00,1.598641872406005859e+00,1.598511099815368652e+00,1.598380088806152344e+00,1.598249197006225586e+00,1.598118185997009277e+00,1.597987294197082520e+00,1.597856402397155762e+00,1.597725749015808105e+00,1.597594857215881348e+00,1.597464084625244141e+00,1.597333312034606934e+00,1.597202539443969727e+00
1.467137098312377930e+00,1.467026829719543457e+00,1.466916441917419434e+00,1.466806173324584961e+00,1.466695904731750488e+00,1.466585755348205566e+00,1.466475486755371094e+00,1.466365337371826172e+00,1.466255068778991699e+00,1.466144919395446777e+00,1.466034889221191406e+00,1.465924620628356934e+00,1.465814471244812012e+00,1.465704441070556641e+00,1.465594291687011719e+00,1.465484142303466797e+00,1.465374231338500977e+00,1.465264201164245605e+00,1.465154170989990234e+00,1.465044140815734863e+00,1.464934110641479492e+00,1.464824080467224121e+00,1.464714169502258301e+00,1.464604258537292480e+00,1.464494347572326660e+00,1.464384317398071289e+00,1.464274406433105469e+00,1.464164733886718750e+00,1.464054822921752930e+00,1.463944911956787109e+00,1.463835120201110840e+00,1.463725209236145020e+00,1.463615417480468750e+00,1.463505744934082031e+00,1.463395953178405762e+00,1.463286161422729492e+00,1.463176488876342773e+00,1.463066697120666504e+00,1.462957024574279785e+00,1.462847471237182617e+00,1.462737798690795898e+00,1.462628126144409180e+00,1.462518453598022461e+00,1.462408781051635742e+00,1.462299227714538574e+00,1.462189674377441406e+00,1.462080121040344238e+00,1.461970567703247070e+00,1.461861014366149902e+00,1.461751461029052734e+00,1.461642146110534668e+00,1.461532592773437500e+00,1.461423158645629883e+00,1.461313605308532715e+00,1.461204171180725098e+00,1.461094737052917480e+00,1.460985422134399414e+00,1.460876107215881348e+00,1.460766673088073730e+00,1.460657238960266113e+00,1.460547924041748047e+00,1.460438609123229980e+00,1.460329413414001465e+00,1.460220098495483398e+00,1.460110783576965332e+00,1.460001587867736816e+00,1.459892272949218750e+00,1.459783196449279785e+00,1.459673881530761719e+00,1.459564685821533203e+00,1.459455490112304688e+00,1.459346294403076172e+00,1.459237217903137207e+00,1.459128141403198242e+00,1.459019064903259277e+00,1.458909988403320312e+00,1.458800792694091797e+00,1.458691716194152832e+00,1.458582758903503418e+00,1.458473801612854004e+00
1.349248766899108887e+00,1.349155426025390625e+00,1.349062085151672363e+00,1.348968982696533203e+00,1.348875641822814941e+00,1.348782420158386230e+00,1.348689198493957520e+00,1.348595976829528809e+00,1.348502874374389648e+00,1.348409652709960938e+00,1.348316431045532227e+00,1.348223209381103516e+00,1.348130106925964355e+00,1.348036885261535645e+00,1.347943902015686035e+00,1.347850799560546875e+00,1.347757697105407715e+00,1.347664594650268555e+00,1.347571492195129395e+00,1.347478389739990234e+00,1.347385406494140625e+00,1.347292423248291016e+00,1.347199320793151855e+00,1.347106337547302246e+00,1.347013354301452637e+00,1.346920371055603027e+00,1.346827387809753418e+00,1.346734404563903809e+00,1.346641540527343750e+00,1.346548557281494141e+00,1.346455574035644531e+00,1.346362829208374023e+00,1.346269845962524414e+00,1.346176981925964355e+00,1.346084117889404297e+00,1.345991253852844238e+00,1.345898389816284180e+00,1.345805644989013672e+00,1.345712780952453613e+00,1.345619916915893555e+00,1.345527172088623047e+00,1.345434308052062988e+00,1.345341682434082031e+00,1.345248937606811523e+00,1.345156192779541016e+00,1.345063447952270508e+00,1.344970703125000000e+00,1.344877958297729492e+00,1.344785332679748535e+00,1.344692707061767578e+00,1.344599962234497070e+00,1.344507336616516113e+00,1.344414591789245605e+00,1.344321966171264648e+00,1.344229459762573242e+00,1.344136834144592285e+00,1.344044208526611328e+00,1.343951702117919922e+00,1.343859076499938965e+00,1.343766450881958008e+00,1.343674063682556152e+00,1.343581557273864746e+00,1.343488931655883789e+00,1.343396425247192383e+00,1.343303918838500977e+00,1.343211531639099121e+00,1.343119144439697266e+00,1.343026638031005859e+00,1.342934131622314453e+00,1.342841744422912598e+00,1.342749357223510742e+00,1.342656970024108887e+00,1.342564582824707031e+00,1.342472195625305176e+00,1.342379808425903320e+00,1.342287421226501465e+00,1.342195153236389160e+00,1.342102885246276855e+00,1.342010498046875000e+00,1.341918230056762695e+00
1.248896718025207520e+00,1.248816728591918945e+00,1.248736858367919922e+00,1.248656868934631348e+00,1.248576998710632324e+00,1.248497009277343750e+00,1.248417258262634277e+00,1.248337388038635254e+00,1.248257517814636230e+00,1.248177647590637207e+00,1.248097777366638184e+00,1.248017907142639160e+00,1.247938156127929688e+00,1.247858405113220215e+00,1.247778534889221191e+00,1.247698783874511719e+00,1.247618913650512695e+00,1.247539281845092773e+00,1.247459530830383301e+00,1.247379660606384277e+00,1.247299909591674805e+00,1.247220277786254883e+00,1.247140526771545410e+00,1.247060894966125488e+00,1.246981143951416016e+00,1.246901392936706543e+00,1.246821761131286621e+00,1.246742010116577148e+00,1.246662378311157227e+00,1.246582865715026855e+00,1.246503114700317383e+00,1.246423482894897461e+00,1.246343851089477539e+00,1.246264338493347168e+00,1.246184706687927246e+00,1.246105194091796875e+00,1.246025562286376953e+00,1.245945930480957031e+00,1.245866417884826660e+00,1.245786905288696289e+00,1.245707392692565918e+00,1.245627880096435547e+00,1.245548367500305176e+00,1.245468854904174805e+00,1.245389342308044434e+00,1.245309829711914062e+00,1.245230436325073242e+00,1.245150923728942871e+00,1.245071411132812500e+00,1.244992017745971680e+00,1.244912505149841309e+00,1.244833111763000488e+00,1.244753837585449219e+00,1.244674324989318848e+00,1.244594931602478027e+00,1.244515538215637207e+00,1.244436144828796387e+00,1.244356870651245117e+00,1.244277477264404297e+00,1.244198203086853027e+00,1.244118809700012207e+00,1.244039535522460938e+00,1.243960142135620117e+00,1.243880987167358398e+00,1.243801593780517578e+00,1.243722319602966309e+00,1.243643045425415039e+00,1.243563771247863770e+00,1.243484497070312500e+00,1.243405342102050781e+00,1.243326067924499512e+00,1.243246912956237793e+00,1.243167638778686523e+00,1.243088364601135254e+00,1.243009209632873535e+00,1.242930173873901367e+00,1.242850899696350098e+00,1.242771744728088379e+00,1.242692589759826660e+00,1.242613434791564941e+00
1.162438750267028809e+00,1.162369489669799805e+00,1.162300229072570801e+00,1.162231087684631348e+00,1.162161827087402344e+00,1.162092685699462891e+00,1.162023425102233887e+00,1.161954164505004883e+00,1.161885023117065430e+00,1.161815762519836426e+00,1.161746740341186523e+00,1.161677479743957520e+00,1.161608338356018066e+00,1.161539196968078613e+00,1.161470055580139160e+00,1.161400914192199707e+00,1.161331892013549805e+00,1.161262750625610352e+00,1.161193609237670898e+00,1.161124467849731445e+00,1.161055326461791992e+00,1.160986304283142090e+00,1.160917282104492188e+00,1.160848140716552734e+00,1.160779118537902832e+00,1.160709977149963379e+00,1.160640954971313477e+00,1.160572052001953125e+00,1.160503029823303223e+00,1.160433888435363770e+00,1.160364866256713867e+00,1.160295844078063965e+00,1.160226941108703613e+00,1.160157918930053711e+00,1.160089015960693359e+00,1.160019993782043457e+00,1.159950971603393555e+00,1.159882068634033203e+00,1.159813165664672852e+00,1.159744262695312500e+00,1.159675240516662598e+00,1.159606337547302246e+00,1.159537434577941895e+00,1.159468531608581543e+00,1.159399628639221191e+00,1.159330725669860840e+00,1.159261822700500488e+00,1.159193038940429688e+00,1.159124135971069336e+00,1.159055233001708984e+00,1.158986449241638184e+00,1.158917665481567383e+00,1.158848762512207031e+00,1.158779978752136230e+00,1.158711075782775879e+00,1.158642411231994629e+00,1.158573508262634277e+00,1.158504724502563477e+00,1.158435940742492676e+00,1.158367156982421875e+00,1.158298373222351074e+00,1.158229708671569824e+00,1.158160924911499023e+00,1.158092260360717773e+00,1.158023476600646973e+00,1.157954692840576172e+00,1.157886028289794922e+00,1.157817363739013672e+00,1.157748699188232422e+00,1.157679915428161621e+00,1.157611250877380371e+00,1.157542586326599121e+00,1.157473921775817871e+00,1.157405257225036621e+00,1.157336592674255371e+00,1.157268047332763672e+00,1.157199382781982422e+00,1.157130718231201172e+00,1.157062172889709473e+00,1.156993508338928223e+00
1.087176322937011719e+00,1.087115764617919922e+00,1.087055206298828125e+00,1.086994647979736328e+00,1.086934089660644531e+00,1.086873531341552734e+00,1.086812973022460938e+00,1.086752533912658691e+00,1.086691975593566895e+00,1.086631417274475098e+00,1.086570978164672852e+00,1.086510419845581055e+00,1.086449980735778809e+00,1.086389541625976562e+00,1.086328983306884766e+00,1.086268544197082520e+00,1.086207985877990723e+00,1.086147546768188477e+00,1.086087107658386230e+00,1.086026668548583984e+00,1.085966229438781738e+00,1.085905790328979492e+00,1.085845351219177246e+00,1.085784912109375000e+00,1.085724472999572754e+00,1.085664153099060059e+00,1.085603713989257812e+00,1.085543274879455566e+00,1.085482954978942871e+00,1.085422515869140625e+00,1.085362195968627930e+00,1.085301876068115234e+00,1.085241436958312988e+00,1.085181117057800293e+00,1.085120677947998047e+00,1.085060358047485352e+00,1.085000038146972656e+00,1.084939718246459961e+00,1.084879398345947266e+00,1.084819078445434570e+00,1.084758758544921875e+00,1.084698438644409180e+00,1.084638237953186035e+00,1.084577918052673340e+00,1.084517598152160645e+00,1.084457278251647949e+00,1.084397077560424805e+00,1.084336876869201660e+00,1.084276556968688965e+00,1.084216356277465820e+00,1.084156036376953125e+00,1.084095835685729980e+00,1.084035515785217285e+00,1.083975434303283691e+00,1.083915233612060547e+00,1.083854913711547852e+00,1.083794713020324707e+00,1.083734512329101562e+00,1.083674311637878418e+00,1.083614230155944824e+00,1.083554029464721680e+00,1.083493828773498535e+00,1.083433628082275391e+00,1.083373546600341797e+00,1.083313345909118652e+00,1.083253264427185059e+00,1.083193063735961914e+00,1.083132982254028320e+00,1.083072900772094727e+00,1.083012700080871582e+00,1.082952618598937988e+00,1.082892537117004395e+00,1.082832455635070801e+00,1.082772374153137207e+00,1.082712292671203613e+00,1.082652211189270020e+00,1.082592129707336426e+00,1.082532048225402832e+00,1.082471966743469238e+00,1.082412004470825195e+00
1.021067142486572266e+00,1.021013617515563965e+00,1.020960211753845215e+00,1.020906805992126465e+00,1.020853400230407715e+00,1.020799994468688965e+00,1.020746588706970215e+00,1.020693182945251465e+00,1.020639777183532715e+00,1.020586371421813965e+00,1.020533084869384766e+00,1.020479679107666016e+00,1.020426273345947266e+00,1.020372986793518066e+00,1.020319581031799316e+00,1.020266175270080566e+00,1.020212888717651367e+00,1.020159602165222168e+00,1.020106196403503418e+00,1.020052909851074219e+00,1.019999623298645020e+00,1.019946217536926270e+00,1.019892930984497070e+00,1.019839644432067871e+00,1.019786357879638672e+00,1.019733071327209473e+00,1.019679784774780273e+00,1.019626498222351074e+00,1.019573211669921875e+00,1.019519925117492676e+00,1.019466638565063477e+00,1.019413352012634277e+00,1.019360184669494629e+00,1.019306898117065430e+00,1.019253730773925781e+00,1.019200444221496582e+00,1.019147157669067383e+00,1.019093990325927734e+00,1.019040703773498535e+00,1.018987536430358887e+00,1.018934369087219238e+00,1.018881082534790039e+00,1.018827915191650391e+00,1.018774747848510742e+00,1.018721461296081543e+00,1.018668413162231445e+00,1.018615126609802246e+00,1.018561959266662598e+00,1.018508791923522949e+00,1.018455624580383301e+00,1.018402457237243652e+00,1.018349409103393555e+00,1.018296241760253906e+00,1.018243074417114258e+00,1.018189907073974609e+00,1.018136739730834961e+00,1.018083691596984863e+00,1.018030643463134766e+00,1.017977476119995117e+00,1.017924308776855469e+00,1.017871260643005371e+00,1.017818093299865723e+00,1.017765045166015625e+00,1.017711997032165527e+00,1.017658948898315430e+00,1.017605781555175781e+00,1.017552733421325684e+00,1.017499685287475586e+00,1.017446637153625488e+00,1.017393589019775391e+00,1.017340540885925293e+00,1.017287492752075195e+00,1.017234444618225098e+00,1.017181396484375000e+00,1.017128467559814453e+00,1.017075419425964355e+00,1.017022371292114258e+00,1.016969323158264160e+00,1.016916394233703613e+00,1.016863465309143066e+00
9.625369906425476074e-01,9.624895453453063965e-01,9.624420404434204102e-01,9.623945355415344238e-01,9.623470306396484375e-01,9.622995853424072266e-01,9.622521400451660156e-01,9.622046351432800293e-01,9.621571898460388184e-01,9.621098637580871582e-01,9.620624184608459473e-01,9.620149731636047363e-01,9.619675278663635254e-01,9.619201421737670898e-01,9.618726968765258789e-01,9.618252515792846680e-01,9.617778658866882324e-01,9.617304205894470215e-01,9.616830348968505859e-01,9.616356492042541504e-01,9.615883231163024902e-01,9.615409374237060547e-01,9.614935517311096191e-01,9.614461660385131836e-01,9.613987803459167480e-01,9.613513946533203125e-01,9.613040089607238770e-01,9.612566828727722168e-01,9.612092971801757812e-01,9.611619710922241211e-01,9.611145853996276855e-01,9.610672593116760254e-01,9.610199928283691406e-01,9.609726667404174805e-01,9.609253406524658203e-01,9.608780145645141602e-01,9.608306884765625000e-01,9.607833623886108398e-01,9.607360363006591797e-01,9.606887102127075195e-01,9.606414437294006348e-01,9.605941176414489746e-01,9.605468511581420898e-01,9.604996442794799805e-01,9.604523777961730957e-01,9.604050517082214355e-01,9.603577852249145508e-01,9.603105187416076660e-01,9.602632522583007812e-01,9.602159857749938965e-01,9.601687192916870117e-01,9.601214528083801270e-01,9.600742459297180176e-01,9.600269794464111328e-01,9.599797129631042480e-01,9.599326252937316895e-01,9.598853588104248047e-01,9.598381519317626953e-01,9.597909450531005859e-01,9.597436785697937012e-01,9.596964716911315918e-01,9.596492648124694824e-01,9.596020579338073730e-01,9.595548510551452637e-01,9.595077037811279297e-01,9.594604969024658203e-01,9.594134092330932617e-01,9.593662023544311523e-01,9.593190550804138184e-01,9.592718482017517090e-01,9.592247009277343750e-01,9.591775536537170410e-01,9.591304063796997070e-01,9.590832591056823730e-01,9.590361118316650391e-01,9.589889645576477051e-01,9.589418172836303711e-01,9.588947892189025879e-01,9.588476419448852539e-01,9.588005542755126953e-01
9.103531837463378906e-01,9.103107452392578125e-01,9.102682471275329590e-01,9.102257490158081055e-01,9.101833105087280273e-01,9.101408720016479492e-01,9.100983738899230957e-01,9.100560545921325684e-01,9.100135564804077148e-01,9.099711179733276367e-01,9.099286794662475586e-01,9.098862409591674805e-01,9.098438024520874023e-01,9.098013639450073242e-01,9.097589254379272461e-01,9.097165465354919434e-01,9.096741080284118652e-01,9.096316695213317871e-01,9.095893502235412598e-01,9.095469713211059570e-01,9.095045924186706543e-01,9.094621539115905762e-01,9.094197750091552734e-01,9.093773961067199707e-01,9.093350172042846680e-01,9.092925786972045898e-01,9.092501997947692871e-01,9.092078208923339844e-01,9.091655015945434570e-01,9.091231226921081543e-01,9.090808629989624023e-01,9.090384840965270996e-01,9.089961051940917969e-01,9.089537858963012695e-01,9.089114069938659668e-01,9.088690876960754395e-01,9.088267087936401367e-01,9.087843894958496094e-01,9.087420701980590820e-01,9.086997509002685547e-01,9.086574316024780273e-01,9.086151719093322754e-01,9.085728526115417480e-01,9.085305333137512207e-01,9.084882736206054688e-01,9.084459543228149414e-01,9.084036350250244141e-01,9.083613753318786621e-01,9.083190560340881348e-01,9.082767367362976074e-01,9.082344770431518555e-01,9.081922173500061035e-01,9.081500172615051270e-01,9.081077575683593750e-01,9.080654978752136230e-01,9.080232381820678711e-01,9.079809784889221191e-01,9.079387187957763672e-01,9.078964591026306152e-01,9.078541994094848633e-01,9.078119397163391113e-01,9.077696800231933594e-01,9.077274799346923828e-01,9.076852202415466309e-01,9.076430797576904297e-01,9.076008796691894531e-01,9.075586199760437012e-01,9.075164198875427246e-01,9.074742197990417480e-01,9.074320197105407715e-01,9.073898196220397949e-01,9.073476195335388184e-01,9.073053598403930664e-01,9.072632193565368652e-01,9.072210192680358887e-01,9.071789383888244629e-01,9.071367383003234863e-01,9.070945382118225098e-01,9.070523977279663086e-01,9.070101976394653320e-01
8.635367155075073242e-01,8.634985089302062988e-01,8.634602427482604980e-01,8.634220361709594727e-01,8.633838295936584473e-01,8.633457422256469727e-01,8.633075356483459473e-01,8.632693290710449219e-01,8.632311224937438965e-01,8.631929159164428711e-01,8.631547093391418457e-01,8.631165027618408203e-01,8.630783557891845703e-01,8.630401492118835449e-01,8.630020022392272949e-01,8.629637956619262695e-01,8.629257082939147949e-01,8.628875613212585449e-01,8.628494143486022949e-01,8.628112077713012695e-01,8.627730607986450195e-01,8.627349138259887695e-01,8.626967668533325195e-01,8.626586198806762695e-01,8.626204729080200195e-01,8.625823259353637695e-01,8.625441789627075195e-01,8.625061511993408203e-01,8.624680042266845703e-01,8.624298572540283203e-01,8.623917698860168457e-01,8.623536229133605957e-01,8.623155355453491211e-01,8.622773885726928711e-01,8.622393012046813965e-01,8.622012138366699219e-01,8.621630668640136719e-01,8.621249794960021973e-01,8.620868921279907227e-01,8.620488643646240234e-01,8.620107769966125488e-01,8.619726896286010742e-01,8.619346022605895996e-01,8.618965148925781250e-01,8.618584275245666504e-01,8.618203997611999512e-01,8.617823123931884766e-01,8.617442250251770020e-01,8.617061972618103027e-01,8.616681098937988281e-01,8.616301417350769043e-01,8.615921139717102051e-01,8.615540266036987305e-01,8.615159988403320312e-01,8.614779710769653320e-01,8.614398837089538574e-01,8.614018559455871582e-01,8.613638281822204590e-01,8.613258004188537598e-01,8.612877726554870605e-01,8.612497448921203613e-01,8.612117171287536621e-01,8.611738085746765137e-01,8.611357808113098145e-01,8.610978126525878906e-01,8.610597848892211914e-01,8.610217571258544922e-01,8.609837889671325684e-01,8.609457612037658691e-01,8.609077930450439453e-01,8.608697652816772461e-01,8.608317971229553223e-01,8.607938289642333984e-01,8.607559204101562500e-01,8.607179522514343262e-01,8.606799840927124023e-01,8.606420159339904785e-01,8.606040477752685547e-01,8.605660796165466309e-01,8.605281114578247070e-01
8.212999105453491211e-01,8.212653398513793945e-01,8.212307691574096680e-01,8.211962580680847168e-01,8.211617469787597656e-01,8.211271762847900391e-01,8.210926055908203125e-01,8.210580348968505859e-01,8.210234642028808594e-01,8.209889531135559082e-01,8.209543824195861816e-01,8.209198713302612305e-01,8.208853006362915039e-01,8.208507299423217773e-01,8.208162784576416016e-01,8.207817673683166504e-01,8.207472562789916992e-01,8.207126855850219727e-01,8.206781744956970215e-01,8.206436634063720703e-01,8.206091523170471191e-01,8.205746412277221680e-01,8.205401301383972168e-01,8.205056190490722656e-01,8.204711079597473145e-01,8.204366564750671387e-01,8.204022049903869629e-01,8.203676939010620117e-01,8.203331828117370605e-01,8.202986717224121094e-01,8.202642202377319336e-01,8.202297091484069824e-01,8.201951980590820312e-01,8.201607465744018555e-01,8.201262354850769043e-01,8.200917840003967285e-01,8.200573325157165527e-01,8.200229406356811523e-01,8.199884295463562012e-01,8.199539780616760254e-01,8.199195265769958496e-01,8.198850750923156738e-01,8.198506236076354980e-01,8.198161721229553223e-01,8.197817206382751465e-01,8.197472691535949707e-01,8.197128176689147949e-01,8.196783661842346191e-01,8.196440339088439941e-01,8.196095824241638184e-01,8.195751309394836426e-01,8.195407390594482422e-01,8.195062875747680664e-01,8.194718956947326660e-01,8.194374442100524902e-01,8.194030523300170898e-01,8.193686008453369141e-01,8.193342089653015137e-01,8.192998170852661133e-01,8.192653656005859375e-01,8.192310333251953125e-01,8.191966414451599121e-01,8.191622495651245117e-01,8.191278576850891113e-01,8.190934658050537109e-01,8.190590739250183105e-01,8.190246820449829102e-01,8.189902901649475098e-01,8.189558982849121094e-01,8.189215660095214844e-01,8.188871741294860840e-01,8.188529014587402344e-01,8.188185095787048340e-01,8.187841176986694336e-01,8.187497854232788086e-01,8.187153935432434082e-01,8.186810612678527832e-01,8.186467289924621582e-01,8.186123371124267578e-01,8.185780048370361328e-01
7.830023169517517090e-01,7.829708456993103027e-01,7.829394340515136719e-01,7.829080224037170410e-01,7.828766107559204102e-01,7.828451991081237793e-01,7.828137874603271484e-01,7.827823758125305176e-01,7.827509641647338867e-01,7.827195525169372559e-01,7.826881408691406250e-01,7.826567292213439941e-01,7.826254367828369141e-01,7.825940251350402832e-01,7.825626134872436523e-01,7.825312614440917969e-01,7.824998497962951660e-01,7.824684381484985352e-01,7.824370861053466797e-01,7.824056744575500488e-01,7.823743224143981934e-01,7.823429703712463379e-01,7.823115587234497070e-01,7.822802662849426270e-01,7.822489142417907715e-01,7.822175621986389160e-01,7.821861505508422852e-01,7.821547985076904297e-01,7.821234464645385742e-01,7.820920944213867188e-01,7.820607423782348633e-01,7.820293903350830078e-01,7.819980382919311523e-01,7.819666862487792969e-01,7.819353342056274414e-01,7.819041013717651367e-01,7.818727493286132812e-01,7.818413972854614258e-01,7.818101048469543457e-01,7.817787528038024902e-01,7.817474007606506348e-01,7.817161083221435547e-01,7.816847562789916992e-01,7.816534638404846191e-01,7.816221117973327637e-01,7.815908193588256836e-01,7.815595865249633789e-01,7.815282940864562988e-01,7.814969420433044434e-01,7.814656496047973633e-01,7.814343571662902832e-01,7.814030647277832031e-01,7.813717722892761230e-01,7.813404798507690430e-01,7.813091874122619629e-01,7.812778949737548828e-01,7.812466025352478027e-01,7.812153697013854980e-01,7.811840772628784180e-01,7.811528444290161133e-01,7.811215519905090332e-01,7.810902595520019531e-01,7.810589671134948730e-01,7.810277342796325684e-01,7.809964418411254883e-01,7.809652090072631836e-01,7.809339165687561035e-01,7.809026837348937988e-01,7.808713912963867188e-01,7.808402180671691895e-01,7.808089852333068848e-01,7.807776927947998047e-01,7.807464599609375000e-01,7.807152271270751953e-01,7.806839942932128906e-01,7.806527614593505859e-01,7.806215286254882812e-01,7.805902957916259766e-01,7.805590629577636719e-01,7.805278301239013672e-01
7.481171488761901855e-01,7.480884194374084473e-01,7.480597496032714844e-01,7.480310797691345215e-01,7.480024099349975586e-01,7.479736804962158203e-01,7.479450106620788574e-01,7.479163408279418945e-01,7.478876709938049316e-01,7.478590011596679688e-01,7.478303909301757812e-01,7.478017210960388184e-01,7.477730512619018555e-01,7.477444410324096680e-01,7.477157711982727051e-01,7.476871013641357422e-01,7.476584315299987793e-01,7.476297616958618164e-01,7.476011514663696289e-01,7.475724816322326660e-01,7.475438714027404785e-01,7.475152611732482910e-01,7.474866509437561035e-01,7.474579811096191406e-01,7.474293708801269531e-01,7.474007010459899902e-01,7.473720908164978027e-01,7.473434209823608398e-01,7.473148107528686523e-01,7.472862005233764648e-01,7.472575902938842773e-01,7.472289204597473145e-01,7.472003698348999023e-01,7.471717596054077148e-01,7.471431493759155273e-01,7.471145391464233398e-01,7.470859289169311523e-01,7.470573186874389648e-01,7.470287084579467773e-01,7.470000982284545898e-01,7.469714879989624023e-01,7.469428777694702148e-01,7.469143271446228027e-01,7.468857169151306152e-01,7.468571662902832031e-01,7.468286156654357910e-01,7.468000054359436035e-01,7.467713952064514160e-01,7.467428445816040039e-01,7.467142343521118164e-01,7.466856837272644043e-01,7.466570734977722168e-01,7.466285228729248047e-01,7.465999126434326172e-01,7.465713620185852051e-01,7.465428709983825684e-01,7.465143203735351562e-01,7.464857101440429688e-01,7.464571595191955566e-01,7.464286088943481445e-01,7.464000582695007324e-01,7.463715076446533203e-01,7.463429570198059082e-01,7.463144063949584961e-01,7.462858557701110840e-01,7.462573051452636719e-01,7.462287545204162598e-01,7.462002635002136230e-01,7.461717128753662109e-01,7.461431622505187988e-01,7.461146712303161621e-01,7.460861206054687500e-01,7.460575699806213379e-01,7.460290193557739258e-01,7.460005283355712891e-01,7.459719777107238770e-01,7.459434866905212402e-01,7.459149360656738281e-01,7.458865046501159668e-01,7.458579540252685547e-01
7.162078619003295898e-01,7.161815762519836426e-01,7.161552906036376953e-01,7.161289453506469727e-01,7.161026597023010254e-01,7.160763740539550781e-01,7.160501480102539062e-01,7.160239219665527344e-01,7.159976363182067871e-01,7.159713506698608398e-01,7.159450650215148926e-01,7.159187793731689453e-01,7.158924937248229980e-01,7.158662676811218262e-01,7.158399820327758789e-01,7.158136963844299316e-01,7.157874703407287598e-01,7.157611846923828125e-01,7.157349586486816406e-01,7.157087326049804688e-01,7.156824469566345215e-01,7.156562209129333496e-01,7.156299948692321777e-01,7.156037092208862305e-01,7.155774831771850586e-01,7.155511975288391113e-01,7.155249714851379395e-01,7.154987454414367676e-01,7.154725193977355957e-01,7.154462337493896484e-01,7.154200673103332520e-01,7.153938412666320801e-01,7.153676152229309082e-01,7.153413891792297363e-01,7.153151631355285645e-01,7.152889370918273926e-01,7.152627110481262207e-01,7.152364850044250488e-01,7.152102589607238770e-01,7.151840329170227051e-01,7.151578068733215332e-01,7.151315808296203613e-01,7.151054739952087402e-01,7.150792479515075684e-01,7.150530219078063965e-01,7.150267958641052246e-01,7.150006294250488281e-01,7.149744033813476562e-01,7.149482369422912598e-01,7.149220108985900879e-01,7.148957848548889160e-01,7.148696184158325195e-01,7.148433923721313477e-01,7.148172855377197266e-01,7.147911190986633301e-01,7.147648930549621582e-01,7.147387266159057617e-01,7.147125601768493652e-01,7.146863341331481934e-01,7.146601676940917969e-01,7.146340012550354004e-01,7.146078348159790039e-01,7.145816087722778320e-01,7.145554423332214355e-01,7.145292758941650391e-01,7.145031690597534180e-01,7.144770026206970215e-01,7.144508361816406250e-01,7.144246697425842285e-01,7.143985033035278320e-01,7.143723368644714355e-01,7.143462300300598145e-01,7.143200635910034180e-01,7.142938971519470215e-01,7.142677307128906250e-01,7.142415642738342285e-01,7.142155170440673828e-01,7.141893506050109863e-01,7.141631841659545898e-01,7.141370773315429688e-01
