1.934602618217468262e+00,1.961346864700317383e+00,1.988840937614440918e+00,2.017116546630859375e+00,2.046208143234252930e+00,2.076150894165039062e+00,2.106983184814453125e+00,2.138745069503784180e+00,2.171478986740112305e+00,2.205230474472045898e+00,2.240047931671142578e+00,2.275982379913330078e+00,2.313088417053222656e+00,2.351424455642700195e+00,2.391052722930908203e+00,2.432039499282836914e+00,2.474456071853637695e+00,2.518378257751464844e+00,2.563888072967529297e+00,2.611073017120361328e+00,2.660027265548706055e+00,2.710852146148681641e+00,2.763657093048095703e+00,2.818559885025024414e+00,2.875688314437866211e+00,2.935179710388183594e+00,2.997184514999389648e+00,3.061865806579589844e+00,3.129400014877319336e+00,3.199980735778808594e+00,3.273818731307983398e+00,3.351144552230834961e+00,3.432211875915527344e+00,3.517298460006713867e+00,3.606710910797119141e+00,3.700787782669067383e+00,3.799903869628906250e+00,3.904475212097167969e+00,4.014964580535888672e+00,4.131889820098876953e+00,4.255829334259033203e+00,5.000000000000000000e+00,5.000000000000000000e+00,5.000000000000000000e+00,5.000000000000000000e+00,5.000000000000000000e+00,5.000000000000000000e+00,5.000000000000000000e+00,5.000000000000000000e+00,5.000000000000000000e+00,5.000000000000000000e+00,5.000000000000000000e+00,5.000000000000000000e+00,5.000000000000000000e+00,5.000000000000000000e+00,5.000000000000000000e+00,5.000000000000000000e+00,5.000000000000000000e+00,5.000000000000000000e+00,5.000000000000000000e+00,5.000000000000000000e+00,5.000000000000000000e+00,5.000000000000000000e+00,5.000000000000000000e+00,5.000000000000000000e+00,5.000000000000000000e+00,5.000000000000000000e+00,5.000000000000000000e+00,5.000000000000000000e+00,5.000000000000000000e+00,5.000000000000000000e+00,5.000000000000000000e+00,5.000000000000000000e+00,5.000000000000000000e+00,5.000000000000000000e+00,5.000000000000000000e+00,5.000000000000000000e+00,5.000000000000000000e+00,5.000000000000000000e+00,5.000000000000000000e+00
1.934574484825134277e+00,1.961318016052246094e+00,1.988811254501342773e+00,2.017086029052734375e+00,2.046176671981811523e+00,2.076118469238281250e+00,2.106949806213378906e+00,2.138710737228393555e+00,2.171443700790405273e+00,2.205193996429443359e+00,2.240010261535644531e+00,2.275943279266357422e+00,2.313048362731933594e+00,2.351383209228515625e+00,2.391009807586669922e+00,2.431995153427124023e+00,2.474410057067871094e+00,2.518330812454223633e+00,2.563838720321655273e+00,2.611021757125854492e+00,2.659974098205566406e+00,2.710797071456909180e+00,2.763599634170532227e+00,2.818500280380249023e+00,2.875626564025878906e+00,2.935116052627563477e+00,2.997118234634399414e+00,3.061796426773071289e+00,3.129327774047851562e+00,3.199905157089233398e+00,3.273739576339721680e+00,3.351061582565307617e+00,3.432124853134155273e+00,3.517206907272338867e+00,3.606614828109741211e+00,3.700686454772949219e+00,3.799797058105468750e+00,3.904362678527832031e+00,4.014845371246337891e+00,4.131763935089111328e+00,4.255695819854736328e+00,4.387292385101318359e+00,5.000000000000000000e+00,5.000000000000000000e+00,5.000000000000000000e+00,5.000000000000000000e+00,5.000000000000000000e+00,5.000000000000000000e+00,5.000000000000000000e+00,5.000000000000000000e+00,5.000000000000000000e+00,5.000000000000000000e+00,5.000000000000000000e+00,5.000000000000000000e+00,5.000000000000000000e+00,5.000000000000000000e+00,5.000000000000000000e+00,5.000000000000000000e+00,5.000000000000000000e+00,5.000000000000000000e+00,5.000000000000000000e+00,5.000000000000000000e+00,5.000000000000000000e+00,5.000000000000000000e+00,5.000000000000000000e+00,5.000000000000000000e+00,5.000000000000000000e+00,5.000000000000000000e+00,5.000000000000000000e+00,5.000000000000000000e+00,5.000000000000000000e+00,5.000000000000000000e+00,5.000000000000000000e+00,5.000000000000000000e+00,5.000000000000000000e+00,5.000000000000000000e+00,5.000000000000000000e+00,5.000000000000000000e+00,5.000000000000000000e+00,5.000000000000000000e+00
1.934546351432800293e+00,1.961289048194885254e+00,1.988781452178955078e+00,2.017055511474609375e+00,2.046145439147949219e+00,2.076086282730102539e+00,2.106916666030883789e+00,2.138676404953002930e+00,2.171408176422119141e+00,2.205157518386840820e+00,2.239972591400146484e+00,2.275904417037963867e+00,2.313008069992065430e+00,2.351341485977172852e+00,2.390967130661010742e+00,2.431950807571411133e+00,2.474364280700683594e+00,2.518283128738403320e+00,2.563789606094360352e+00,2.610970735549926758e+00,2.659920930862426758e+00,2.710741758346557617e+00,2.763542413711547852e+00,2.818440675735473633e+00,2.875564336776733398e+00,2.935051679611206055e+00,2.997051954269409180e+00,3.061727523803710938e+00,3.129255533218383789e+00,3.199829816818237305e+00,3.273660659790039062e+00,3.350979089736938477e+00,3.432037830352783203e+00,3.517115592956542969e+00,3.606518507003784180e+00,3.700585365295410156e+00,3.799690485000610352e+00,3.904249906539916992e+00,4.014726638793945312e+00,4.131638050079345703e+00,4.255562305450439453e+00,4.387150287628173828e+00,4.527136325836181641e+00,5.000000000000000000e+00,5.000000000000000000e+00,5.000000000000000000e+00,5.000000000000000000e+00,5.000000000000000000e+00,5.000000000000000000e+00,5.000000000000000000e+00,5.000000000000000000e+00,5.000000000000000000e+00,5.000000000000000000e+00,5.000000000000000000e+00,5.000000000000000000e+00,5.000000000000000000e+00,5.000000000000000000e+00,5.000000000000000000e+00,5.000000000000000000e+00,5.000000000000000000e+00,5.000000000000000000e+00,5.000000000000000000e+00,5.000000000000000000e+00,5.000000000000000000e+00,5.000000000000000000e+00,5.000000000000000000e+00,5.000000000000000000e+00,5.000000000000000000e+00,5.000000000000000000e+00,5.000000000000000000e+00,5.000000000000000000e+00,5.000000000000000000e+00,5.000000000000000000e+00,5.000000000000000000e+00,5.000000000000000000e+00,5.000000000000000000e+00,5.000000000000000000e+00,5.000000000000000000e+00,5.000000000000000000e+00,5.000000000000000000e+00
1.934518098831176758e+00,1.961260199546813965e+00,1.988751769065856934e+00,2.017024993896484375e+00,2.046113967895507812e+00,2.076053857803344727e+00,2.106883287429809570e+00,2.138642072677612305e+00,2.171372890472412109e+00,2.205121040344238281e+00,2.239934921264648438e+00,2.275865554809570312e+00,2.312968015670776367e+00,2.351300001144409180e+00,2.390924215316772461e+00,2.431906223297119141e+00,2.474318265914916992e+00,2.518235683441162109e+00,2.563740253448486328e+00,2.610919713973999023e+00,2.659867763519287109e+00,2.710686683654785156e+00,2.763485193252563477e+00,2.818381309509277344e+00,2.875502347946166992e+00,2.934987068176269531e+00,2.996984720230102539e+00,3.061658143997192383e+00,3.129183292388916016e+00,3.199753999710083008e+00,3.273581504821777344e+00,3.350895881652832031e+00,3.431951045989990234e+00,3.517024517059326172e+00,3.606422901153564453e+00,3.700484514236450195e+00,3.799584150314331055e+00,3.904137849807739258e+00,4.014607906341552734e+00,4.131512165069580078e+00,4.255428791046142578e+00,4.387008666992187500e+00,4.526985168457031250e+00,4.676188468933105469e+00,5.000000000000000000e+00,5.000000000000000000e+00,5.000000000000000000e+00,5.000000000000000000e+00,5.000000000000000000e+00,5.000000000000000000e+00,5.000000000000000000e+00,5.000000000000000000e+00,5.000000000000000000e+00,5.000000000000000000e+00,5.000000000000000000e+00,5.000000000000000000e+00,5.000000000000000000e+00,5.000000000000000000e+00,5.000000000000000000e+00,5.000000000000000000e+00,5.000000000000000000e+00,5.000000000000000000e+00,5.000000000000000000e+00,5.000000000000000000e+00,5.000000000000000000e+00,5.000000000000000000e+00,5.000000000000000000e+00,5.000000000000000000e+00,5.000000000000000000e+00,5.000000000000000000e+00,5.000000000000000000e+00,5.000000000000000000e+00,5.000000000000000000e+00,5.000000000000000000e+00,5.000000000000000000e+00,5.000000000000000000e+00,5.000000000000000000e+00,5.000000000000000000e+00,5.000000000000000000e+00,5.000000000000000000e+00
1.934482812881469727e+00,1.961227178573608398e+00,1.988721132278442383e+00,2.016994476318359375e+00,2.046082496643066406e+00,2.076021671295166016e+00,2.106850147247314453e+00,2.138607740402221680e+00,2.171337366104125977e+00,2.205084562301635742e+00,2.239897251129150391e+00,2.275826930999755859e+00,2.312927722930908203e+00,2.351258516311645508e+00,2.390881061553955078e+00,2.431862115859985352e+00,2.474272251129150391e+00,2.518187999725341797e+00,2.563690900802612305e+00,2.610868453979492188e+00,2.659814596176147461e+00,2.710631370544433594e+00,2.763427734375000000e+00,2.818321466445922852e+00,2.875440359115600586e+00,2.934922218322753906e+00,2.996917247772216797e+00,3.061587810516357422e+00,3.129110813140869141e+00,3.199678421020507812e+00,3.273502349853515625e+00,3.350812911987304688e+00,3.431864023208618164e+00,3.516932964324951172e+00,3.606326818466186523e+00,3.700383424758911133e+00,3.799477577209472656e+00,3.904025077819824219e+00,4.014488697052001953e+00,4.131386280059814453e+00,4.255295276641845703e+00,4.386866092681884766e+00,4.526833534240722656e+00,4.676026821136474609e+00,4.835389137268066406e+00,5.000000000000000000e+00,5.000000000000000000e+00,5.000000000000000000e+00,5.000000000000000000e+00,5.000000000000000000e+00,5.000000000000000000e+00,5.000000000000000000e+00,5.000000000000000000e+00,5.000000000000000000e+00,5.000000000000000000e+00,5.000000000000000000e+00,5.000000000000000000e+00,5.000000000000000000e+00,5.000000000000000000e+00,5.000000000000000000e+00,5.000000000000000000e+00,5.000000000000000000e+00,5.000000000000000000e+00,5.000000000000000000e+00,5.000000000000000000e+00,5.000000000000000000e+00,5.000000000000000000e+00,5.000000000000000000e+00,5.000000000000000000e+00,5.000000000000000000e+00,5.000000000000000000e+00,5.000000000000000000e+00,5.000000000000000000e+00,5.000000000000000000e+00,5.000000000000000000e+00,5.000000000000000000e+00,5.000000000000000000e+00,5.000000000000000000e+00,5.000000000000000000e+00,5.000000000000000000e+00
1.934447765350341797e+00,1.961190938949584961e+00,1.988684177398681641e+00,2.016958951950073242e+00,2.046049594879150391e+00,2.075989246368408203e+00,2.106816768646240234e+00,2.138573408126831055e+00,2.171302080154418945e+00,2.205048084259033203e+00,2.239859580993652344e+00,2.275787830352783203e+00,2.312887668609619141e+00,2.351217031478881836e+00,2.390838146209716797e+00,2.431817770004272461e+00,2.474226474761962891e+00,2.518140316009521484e+00,2.563641548156738281e+00,2.610817193984985352e+00,2.659761667251586914e+00,2.710576295852661133e+00,2.763370513916015625e+00,2.818261861801147461e+00,2.875378370285034180e+00,2.934857606887817383e+00,2.996849775314331055e+00,3.061517477035522461e+00,3.129037380218505859e+00,3.199602603912353516e+00,3.273423433303833008e+00,3.350730419158935547e+00,3.431777238845825195e+00,3.516841888427734375e+00,3.606230974197387695e+00,3.700282573699951172e+00,3.799371242523193359e+00,3.903913021087646484e+00,4.014369964599609375e+00,4.131259918212890625e+00,4.255161285400390625e+00,4.386724472045898438e+00,4.526682853698730469e+00,4.675865650177001953e+00,4.835216999053955078e+00,5.000000000000000000e+00,5.000000000000000000e+00,5.000000000000000000e+00,5.000000000000000000e+00,5.000000000000000000e+00,5.000000000000000000e+00,5.000000000000000000e+00,5.000000000000000000e+00,5.000000000000000000e+00,5.000000000000000000e+00,5.000000000000000000e+00,5.000000000000000000e+00,5.000000000000000000e+00,5.000000000000000000e+00,5.000000000000000000e+00,5.000000000000000000e+00,5.000000000000000000e+00,5.000000000000000000e+00,5.000000000000000000e+00,5.000000000000000000e+00,5.000000000000000000e+00,5.000000000000000000e+00,5.000000000000000000e+00,5.000000000000000000e+00,5.000000000000000000e+00,5.000000000000000000e+00,5.000000000000000000e+00,5.000000000000000000e+00,5.000000000000000000e+00,5.000000000000000000e+00,5.000000000000000000e+00,5.000000000000000000e+00,5.000000000000000000e+00,5.000000000000000000e+00,5.000000000000000000e+00
1.934414148330688477e+00,1.961154937744140625e+00,1.988646864891052246e+00,2.016920804977416992e+00,2.046010255813598633e+00,2.075950860977172852e+00,2.106781005859375000e+00,2.138539075851440430e+00,2.171266794204711914e+00,2.205011606216430664e+00,2.239821910858154297e+00,2.275748968124389648e+00,2.312847614288330078e+00,2.351175546646118164e+00,2.390795230865478516e+00,2.431773185729980469e+00,2.474180459976196289e+00,2.518092632293701172e+00,2.563592195510864258e+00,2.610766172409057617e+00,2.659708499908447266e+00,2.710521221160888672e+00,2.763313055038452148e+00,2.818202257156372070e+00,2.875316143035888672e+00,2.934793233871459961e+00,2.996782302856445312e+00,3.061446905136108398e+00,3.128963708877563477e+00,3.199525833129882812e+00,3.273343563079833984e+00,3.350647449493408203e+00,3.431690216064453125e+00,3.516750574111938477e+00,3.606134891510009766e+00,3.700181245803833008e+00,3.799264430999755859e+00,3.903800249099731445e+00,4.014250755310058594e+00,4.131134033203125000e+00,4.255027770996093750e+00,4.386582374572753906e+00,4.526531696319580078e+00,4.675704479217529297e+00,4.835044384002685547e+00,5.000000000000000000e+00,5.000000000000000000e+00,5.000000000000000000e+00,5.000000000000000000e+00,5.000000000000000000e+00,5.000000000000000000e+00,5.000000000000000000e+00,5.000000000000000000e+00,5.000000000000000000e+00,5.000000000000000000e+00,5.000000000000000000e+00,5.000000000000000000e+00,5.000000000000000000e+00,5.000000000000000000e+00,5.000000000000000000e+00,5.000000000000000000e+00,5.000000000000000000e+00,5.000000000000000000e+00,5.000000000000000000e+00,5.000000000000000000e+00,5.000000000000000000e+00,5.000000000000000000e+00,5.000000000000000000e+00,5.000000000000000000e+00,5.000000000000000000e+00,5.000000000000000000e+00,5.000000000000000000e+00,5.000000000000000000e+00,5.000000000000000000e+00,5.000000000000000000e+00,5.000000000000000000e+00,5.000000000000000000e+00,5.000000000000000000e+00,5.000000000000000000e+00,5.000000000000000000e+00
1.934386014938354492e+00,1.961124300956726074e+00,1.988612055778503418e+00,2.016882658004760742e+00,2.045970916748046875e+00,2.075910568237304688e+00,2.106739521026611328e+00,2.138497829437255859e+00,2.171228170394897461e+00,2.204975128173828125e+00,2.239784240722656250e+00,2.275710105895996094e+00,2.312807321548461914e+00,2.351134061813354492e+00,2.390752315521240234e+00,2.431728839874267578e+00,2.474134445190429688e+00,2.518045186996459961e+00,2.563542842864990234e+00,2.610714912414550781e+00,2.659655570983886719e+00,2.710466146469116211e+00,2.763255834579467773e+00,2.818142652511596680e+00,2.875254154205322266e+00,2.934728622436523438e+00,2.996715068817138672e+00,3.061376571655273438e+00,3.128890275955200195e+00,3.199449062347412109e+00,3.273263454437255859e+00,3.350563764572143555e+00,3.431603193283081055e+00,3.516659259796142578e+00,3.606038808822631836e+00,3.700080156326293945e+00,3.799157857894897461e+00,3.903687715530395508e+00,4.014132022857666016e+00,4.131008148193359375e+00,4.254894256591796875e+00,4.386440277099609375e+00,4.526380538940429688e+00,4.675543308258056641e+00,4.834871768951416016e+00,5.000000000000000000e+00,5.000000000000000000e+00,5.000000000000000000e+00,5.000000000000000000e+00,5.000000000000000000e+00,5.000000000000000000e+00,5.000000000000000000e+00,5.000000000000000000e+00,5.000000000000000000e+00,5.000000000000000000e+00,5.000000000000000000e+00,5.000000000000000000e+00,5.000000000000000000e+00,5.000000000000000000e+00,5.000000000000000000e+00,5.000000000000000000e+00,5.000000000000000000e+00,5.000000000000000000e+00,5.000000000000000000e+00,5.000000000000000000e+00,5.000000000000000000e+00,5.000000000000000000e+00,5.000000000000000000e+00,5.000000000000000000e+00,5.000000000000000000e+00,5.000000000000000000e+00,5.000000000000000000e+00,5.000000000000000000e+00,5.000000000000000000e+00,5.000000000000000000e+00,5.000000000000000000e+00,5.000000000000000000e+00,5.000000000000000000e+00,5.000000000000000000e+00,5.000000000000000000e+00
1.934357643127441406e+00,1.961095094680786133e+00,1.988582134246826172e+00,2.016850471496582031e+00,2.045934438705444336e+00,2.075870275497436523e+00,2.106697797775268555e+00,2.138454914093017578e+00,2.171184062957763672e+00,2.204930543899536133e+00,2.239742755889892578e+00,2.275671243667602539e+00,2.312767267227172852e+00,2.351092576980590820e+00,2.390709638595581055e+00,2.431684494018554688e+00,2.474088430404663086e+00,2.517997741699218750e+00,2.563493490219116211e+00,2.610663652420043945e+00,2.659602403640747070e+00,2.710410833358764648e+00,2.763198614120483398e+00,2.818083047866821289e+00,2.875192165374755859e+00,2.934663772583007812e+00,2.996647596359252930e+00,3.061306238174438477e+00,3.128816843032836914e+00,3.199372053146362305e+00,3.273182868957519531e+00,3.350479841232299805e+00,3.431515455245971680e+00,3.516568183898925781e+00,3.605942964553833008e+00,3.699979305267333984e+00,3.799051523208618164e+00,3.903575420379638672e+00,4.014013290405273438e+00,4.130882263183593750e+00,4.254760742187500000e+00,4.386298656463623047e+00,4.526229381561279297e+00,4.675381660461425781e+00,4.834699153900146484e+00,5.000000000000000000e+00,5.000000000000000000e+00,5.000000000000000000e+00,5.000000000000000000e+00,5.000000000000000000e+00,5.000000000000000000e+00,5.000000000000000000e+00,5.000000000000000000e+00,5.000000000000000000e+00,5.000000000000000000e+00,5.000000000000000000e+00,5.000000000000000000e+00,5.000000000000000000e+00,5.000000000000000000e+00,5.000000000000000000e+00,5.000000000000000000e+00,5.000000000000000000e+00,5.000000000000000000e+00,5.000000000000000000e+00,5.000000000000000000e+00,5.000000000000000000e+00,5.000000000000000000e+00,5.000000000000000000e+00,5.000000000000000000e+00,5.000000000000000000e+00,5.000000000000000000e+00,5.000000000000000000e+00,5.000000000000000000e+00,5.000000000000000000e+00,5.000000000000000000e+00,5.000000000000000000e+00,5.000000000000000000e+00,5.000000000000000000e+00,5.000000000000000000e+00,5.000000000000000000e+00
1.934329628944396973e+00,1.961066246032714844e+00,1.988552331924438477e+00,2.016819953918457031e+00,2.045902729034423828e+00,2.075836896896362305e+00,2.106659650802612305e+00,2.138411998748779297e+00,2.171139717102050781e+00,2.204885005950927734e+00,2.239695549011230469e+00,2.275623083114624023e+00,2.312721967697143555e+00,2.351050615310668945e+00,2.390666723251342773e+00,2.431640148162841797e+00,2.474042415618896484e+00,2.517950057983398438e+00,2.563444137573242188e+00,2.610612630844116211e+00,2.659549236297607422e+00,2.710355758666992188e+00,2.763141155242919922e+00,2.818023681640625000e+00,2.875129938125610352e+00,2.934599161148071289e+00,2.996580123901367188e+00,3.061236143112182617e+00,3.128743171691894531e+00,3.199295282363891602e+00,3.273102521896362305e+00,3.350395441055297852e+00,3.431427001953125000e+00,3.516475677490234375e+00,3.605846881866455078e+00,3.699878215789794922e+00,3.798944950103759766e+00,3.903462886810302734e+00,4.013894557952880859e+00,4.130756378173828125e+00,4.254627227783203125e+00,4.386156558990478516e+00,4.526077747344970703e+00,4.675220489501953125e+00,4.834527015686035156e+00,5.000000000000000000e+00,5.000000000000000000e+00,5.000000000000000000e+00,5.000000000000000000e+00,5.000000000000000000e+00,5.000000000000000000e+00,5.000000000000000000e+00,5.000000000000000000e+00,5.000000000000000000e+00,5.000000000000000000e+00,5.000000000000000000e+00,5.000000000000000000e+00,5.000000000000000000e+00,5.000000000000000000e+00,5.000000000000000000e+00,5.000000000000000000e+00,5.000000000000000000e+00,5.000000000000000000e+00,5.000000000000000000e+00,5.000000000000000000e+00,5.000000000000000000e+00,5.000000000000000000e+00,5.000000000000000000e+00,5.000000000000000000e+00,5.000000000000000000e+00,5.000000000000000000e+00,5.000000000000000000e+00,5.000000000000000000e+00,5.000000000000000000e+00,5.000000000000000000e+00,5.000000000000000000e+00,5.000000000000000000e+00,5.000000000000000000e+00,5.000000000000000000e+00,5.000000000000000000e+00
1.934301257133483887e+00,1.961037158966064453e+00,1.988522410392761230e+00,2.016789197921752930e+00,2.045871257781982422e+00,2.075804233551025391e+00,2.106626272201538086e+00,2.138377189636230469e+00,2.171099901199340820e+00,2.204839468002319336e+00,2.239648580551147461e+00,2.275574445724487305e+00,2.312671899795532227e+00,2.350998878479003906e+00,2.390617370605468750e+00,2.431594371795654297e+00,2.473996639251708984e+00,2.517902374267578125e+00,2.563395023345947266e+00,2.610561609268188477e+00,2.659496068954467773e+00,2.710300683975219727e+00,2.763083934783935547e+00,2.817963838577270508e+00,2.875068187713623047e+00,2.934534549713134766e+00,2.996512651443481445e+00,3.061165809631347656e+00,3.128669977188110352e+00,3.199218273162841797e+00,3.273021936416625977e+00,3.350311040878295898e+00,3.431339025497436523e+00,3.516382694244384766e+00,3.605749607086181641e+00,3.699777364730834961e+00,3.798838615417480469e+00,3.903350591659545898e+00,4.013775348663330078e+00,4.130630493164062500e+00,4.254493236541748047e+00,4.386014461517333984e+00,4.525926589965820312e+00,4.675059318542480469e+00,4.834354400634765625e+00,5.000000000000000000e+00,5.000000000000000000e+00,5.000000000000000000e+00,5.000000000000000000e+00,5.000000000000000000e+00,5.000000000000000000e+00,5.000000000000000000e+00,5.000000000000000000e+00,5.000000000000000000e+00,5.000000000000000000e+00,3.880592584609985352e+00,5.000000000000000000e+00,5.000000000000000000e+00,5.000000000000000000e+00,5.000000000000000000e+00,5.000000000000000000e+00,5.000000000000000000e+00,5.000000000000000000e+00,5.000000000000000000e+00,5.000000000000000000e+00,5.000000000000000000e+00,5.000000000000000000e+00,5.000000000000000000e+00,5.000000000000000000e+00,5.000000000000000000e+00,5.000000000000000000e+00,5.000000000000000000e+00,5.000000000000000000e+00,5.000000000000000000e+00,5.000000000000000000e+00,5.000000000000000000e+00,5.000000000000000000e+00,5.000000000000000000e+00,5.000000000000000000e+00,5.000000000000000000e+00
1.934273123741149902e+00,1.961008310317993164e+00,1.988492727279663086e+00,2.016758680343627930e+00,2.045839786529541016e+00,2.075771808624267578e+00,2.106592655181884766e+00,2.138342618942260742e+00,2.171064376831054688e+00,2.204802989959716797e+00,2.239606857299804688e+00,2.275527000427246094e+00,2.312621831893920898e+00,2.350947141647338867e+00,2.390563964843750000e+00,2.431539058685302734e+00,2.473942995071411133e+00,2.517852544784545898e+00,2.563345670700073242e+00,2.610510349273681641e+00,2.659443140029907227e+00,2.710245370864868164e+00,2.763026475906372070e+00,2.817904233932495117e+00,2.875005960464477539e+00,2.934469699859619141e+00,2.996445417404174805e+00,3.061095476150512695e+00,3.128596544265747070e+00,3.199141740798950195e+00,3.272941589355468750e+00,3.350226879119873047e+00,3.431250572204589844e+00,3.516290187835693359e+00,3.605652093887329102e+00,3.699674606323242188e+00,3.798732042312622070e+00,3.903238058090209961e+00,4.013656616210937500e+00,4.130504608154296875e+00,4.254359722137451172e+00,4.385872364044189453e+00,4.525775432586669922e+00,4.674897670745849609e+00,4.834182262420654297e+00,5.000000000000000000e+00,5.000000000000000000e+00,5.000000000000000000e+00,5.000000000000000000e+00,5.000000000000000000e+00,5.000000000000000000e+00,5.000000000000000000e+00,5.000000000000000000e+00,5.000000000000000000e+00,3.913784980773925781e+00,3.884840488433837891e+00,3.925808191299438477e+00,5.000000000000000000e+00,5.000000000000000000e+00,5.000000000000000000e+00,5.000000000000000000e+00,5.000000000000000000e+00,5.000000000000000000e+00,5.000000000000000000e+00,5.000000000000000000e+00,5.000000000000000000e+00,5.000000000000000000e+00,5.000000000000000000e+00,5.000000000000000000e+00,5.000000000000000000e+00,5.000000000000000000e+00,5.000000000000000000e+00,5.000000000000000000e+00,5.000000000000000000e+00,5.000000000000000000e+00,5.000000000000000000e+00,5.000000000000000000e+00,5.000000000000000000e+00,5.000000000000000000e+00,5.000000000000000000e+00
1.934244871139526367e+00,1.960979223251342773e+00,1.988462805747985840e+00,2.016727924346923828e+00,2.045808315277099609e+00,2.075739383697509766e+00,2.106559276580810547e+00,2.138308286666870117e+00,2.171028852462768555e+00,2.204766273498535156e+00,2.239568948745727539e+00,2.275487899780273438e+00,2.312577962875366211e+00,2.350896835327148438e+00,2.390510320663452148e+00,2.431483507156372070e+00,2.473885774612426758e+00,2.517793178558349609e+00,2.563287258148193359e+00,2.610455751419067383e+00,2.659389972686767578e+00,2.710190534591674805e+00,2.762969255447387695e+00,2.817844629287719727e+00,2.874943971633911133e+00,2.934405326843261719e+00,2.996377944946289062e+00,3.061024904251098633e+00,3.128522872924804688e+00,3.199064970016479492e+00,3.272861003875732422e+00,3.350142478942871094e+00,3.431162118911743164e+00,3.516197443008422852e+00,3.605554819107055664e+00,3.699571847915649414e+00,3.798623561859130859e+00,3.903125524520874023e+00,4.013537883758544922e+00,4.130378723144531250e+00,4.254226207733154297e+00,4.385730743408203125e+00,4.525624752044677734e+00,4.674736499786376953e+00,4.834009647369384766e+00,5.000000000000000000e+00,5.000000000000000000e+00,5.000000000000000000e+00,5.000000000000000000e+00,5.000000000000000000e+00,5.000000000000000000e+00,5.000000000000000000e+00,5.000000000000000000e+00,5.000000000000000000e+00,5.000000000000000000e+00,3.884446144104003906e+00,3.950275659561157227e+00,5.000000000000000000e+00,5.000000000000000000e+00,5.000000000000000000e+00,5.000000000000000000e+00,5.000000000000000000e+00,5.000000000000000000e+00,5.000000000000000000e+00,5.000000000000000000e+00,5.000000000000000000e+00,5.000000000000000000e+00,5.000000000000000000e+00,5.000000000000000000e+00,5.000000000000000000e+00,5.000000000000000000e+00,5.000000000000000000e+00,5.000000000000000000e+00,5.000000000000000000e+00,5.000000000000000000e+00,5.000000000000000000e+00,5.000000000000000000e+00,5.000000000000000000e+00,5.000000000000000000e+00,5.000000000000000000e+00
1.934216737747192383e+00,1.960950255393981934e+00,1.988433122634887695e+00,2.016697406768798828e+00,2.045776605606079102e+00,2.075706720352172852e+00,2.106525897979736328e+00,2.138273715972900391e+00,2.170993328094482422e+00,2.204729795455932617e+00,2.239531278610229492e+00,2.275449037551879883e+00,2.312537670135498047e+00,2.350855350494384766e+00,2.390464305877685547e+00,2.431430816650390625e+00,2.473828315734863281e+00,2.517733812332153320e+00,2.563225746154785156e+00,2.610391855239868164e+00,2.659326314926147461e+00,2.710130453109741211e+00,2.762912034988403320e+00,2.817785024642944336e+00,2.874881982803344727e+00,2.934340715408325195e+00,2.996310710906982422e+00,3.060954570770263672e+00,3.128449440002441406e+00,3.198987960815429688e+00,3.272780895233154297e+00,3.350058317184448242e+00,3.431073665618896484e+00,3.516104459762573242e+00,3.605457067489624023e+00,3.699469089508056641e+00,3.798515319824218750e+00,3.903011083602905273e+00,4.013418197631835938e+00,4.130252838134765625e+00,4.254092693328857422e+00,4.385588645935058594e+00,4.525473594665527344e+00,4.674575328826904297e+00,4.833837032318115234e+00,5.000000000000000000e+00,5.000000000000000000e+00,5.000000000000000000e+00,5.000000000000000000e+00,5.000000000000000000e+00,5.000000000000000000e+00,5.000000000000000000e+00,5.000000000000000000e+00,5.000000000000000000e+00,5.000000000000000000e+00,3.952065706253051758e+00,3.906564474105834961e+00,5.000000000000000000e+00,5.000000000000000000e+00,5.000000000000000000e+00,5.000000000000000000e+00,5.000000000000000000e+00,5.000000000000000000e+00,5.000000000000000000e+00,5.000000000000000000e+00,5.000000000000000000e+00,5.000000000000000000e+00,5.000000000000000000e+00,5.000000000000000000e+00,5.000000000000000000e+00,5.000000000000000000e+00,5.000000000000000000e+00,5.000000000000000000e+00,5.000000000000000000e+00,5.000000000000000000e+00,5.000000000000000000e+00,5.000000000000000000e+00,5.000000000000000000e+00,5.000000000000000000e+00,5.000000000000000000e+00
1.934188365936279297e+00,1.960921168327331543e+00,1.988403439521789551e+00,2.016666650772094727e+00,2.045745134353637695e+00,2.075674295425415039e+00,2.106492280960083008e+00,2.138239383697509766e+00,2.170957803726196289e+00,2.204693078994750977e+00,2.239493370056152344e+00,2.275409936904907227e+00,2.312497138977050781e+00,2.350813627243041992e+00,2.390421152114868164e+00,2.431386232376098633e+00,2.473779916763305664e+00,2.517678022384643555e+00,2.563163995742797852e+00,2.610327959060668945e+00,2.659260034561157227e+00,2.710061788558959961e+00,2.762842178344726562e+00,2.817719221115112305e+00,2.874819755554199219e+00,2.934276103973388672e+00,2.996243238449096680e+00,3.060884237289428711e+00,3.128376007080078125e+00,3.198911190032958984e+00,3.272700548171997070e+00,3.349974393844604492e+00,3.430985212326049805e+00,3.516011714935302734e+00,3.605359554290771484e+00,3.699366569519042969e+00,3.798406839370727539e+00,3.902896642684936523e+00,4.013297557830810547e+00,4.130126476287841797e+00,4.253959655761718750e+00,4.385446548461914062e+00,4.525321960449218750e+00,4.674414157867431641e+00,4.833664417266845703e+00,5.000000000000000000e+00,5.000000000000000000e+00,5.000000000000000000e+00,5.000000000000000000e+00,5.000000000000000000e+00,5.000000000000000000e+00,5.000000000000000000e+00,5.000000000000000000e+00,4.013237476348876953e+00,3.908923149108886719e+00,3.891618490219116211e+00,3.861881732940673828e+00,3.844650506973266602e+00,3.844474315643310547e+00,3.891820430755615234e+00,5.000000000000000000e+00,5.000000000000000000e+00,5.000000000000000000e+00,5.000000000000000000e+00,5.000000000000000000e+00,5.000000000000000000e+00,5.000000000000000000e+00,5.000000000000000000e+00,5.000000000000000000e+00,5.000000000000000000e+00,5.000000000000000000e+00,5.000000000000000000e+00,5.000000000000000000e+00,5.000000000000000000e+00,5.000000000000000000e+00,5.000000000000000000e+00,5.000000000000000000e+00,5.000000000000000000e+00,5.000000000000000000e+00,5.000000000000000000e+00
1.934160351753234863e+00,1.960892319679260254e+00,1.988373517990112305e+00,2.016635894775390625e+00,2.045713663101196289e+00,2.075641870498657227e+00,2.106458902359008789e+00,2.138204813003540039e+00,2.170922279357910156e+00,2.204656362533569336e+00,2.239455461502075195e+00,2.275370836257934570e+00,2.312456846237182617e+00,2.350771903991699219e+00,2.390378236770629883e+00,2.431341648101806641e+00,2.473733663558959961e+00,2.517630100250244141e+00,2.563112735748291016e+00,2.610268831253051758e+00,2.659193754196166992e+00,2.709992885589599609e+00,2.762770652770996094e+00,2.817644834518432617e+00,2.874742984771728516e+00,2.934203386306762695e+00,2.996175289154052734e+00,3.060814142227172852e+00,3.128302574157714844e+00,3.198834419250488281e+00,3.272619962692260742e+00,3.349889993667602539e+00,3.430896997451782227e+00,3.515918970108032227e+00,3.605261802673339844e+00,3.699263811111450195e+00,3.798299074172973633e+00,3.902782201766967773e+00,4.013176441192626953e+00,4.129998207092285156e+00,4.253824710845947266e+00,4.385304927825927734e+00,4.525171279907226562e+00,4.674252986907958984e+00,4.833492279052734375e+00,5.000000000000000000e+00,5.000000000000000000e+00,5.000000000000000000e+00,5.000000000000000000e+00,5.000000000000000000e+00,5.000000000000000000e+00,5.000000000000000000e+00,4.026215553283691406e+00,3.943114757537841797e+00,3.879243135452270508e+00,3.849058628082275391e+00,3.832638978958129883e+00,3.846938848495483398e+00,3.859474897384643555e+00,3.869363307952880859e+00,5.000000000000000000e+00,5.000000000000000000e+00,5.000000000000000000e+00,5.000000000000000000e+00,5.000000000000000000e+00,5.000000000000000000e+00,5.000000000000000000e+00,5.000000000000000000e+00,5.000000000000000000e+00,5.000000000000000000e+00,5.000000000000000000e+00,5.000000000000000000e+00,5.000000000000000000e+00,5.000000000000000000e+00,5.000000000000000000e+00,5.000000000000000000e+00,5.000000000000000000e+00,5.000000000000000000e+00,5.000000000000000000e+00,5.000000000000000000e+00
1.934131979942321777e+00,1.960863471031188965e+00,1.988343834877014160e+00,2.016605377197265625e+00,2.045681953430175781e+00,2.075609445571899414e+00,2.106425523757934570e+00,2.138170480728149414e+00,2.170886754989624023e+00,2.204619884490966797e+00,2.239417791366577148e+00,2.275331735610961914e+00,2.312416553497314453e+00,2.350730180740356445e+00,2.390335083007812500e+00,2.431297063827514648e+00,2.473687648773193359e+00,2.517582416534423828e+00,2.563063144683837891e+00,2.610217571258544922e+00,2.659139394760131836e+00,2.709930181503295898e+00,2.762698888778686523e+00,2.817570447921752930e+00,2.874665737152099609e+00,2.934122562408447266e+00,2.996091127395629883e+00,3.060733795166015625e+00,3.128227233886718750e+00,3.198757410049438477e+00,3.272539615631103516e+00,3.349805831909179688e+00,3.430808782577514648e+00,3.515825986862182617e+00,3.605164289474487305e+00,3.699161052703857422e+00,3.798190593719482422e+00,3.902667999267578125e+00,4.013055801391601562e+00,4.129869937896728516e+00,4.253688812255859375e+00,4.385161876678466797e+00,4.525020122528076172e+00,4.674091815948486328e+00,4.833320140838623047e+00,5.000000000000000000e+00,5.000000000000000000e+00,5.000000000000000000e+00,5.000000000000000000e+00,5.000000000000000000e+00,5.000000000000000000e+00,5.000000000000000000e+00,4.038639545440673828e+00,3.938840389251708984e+00,3.879423141479492188e+00,3.845155715942382812e+00,3.840401887893676758e+00,3.857656955718994141e+00,3.869374513626098633e+00,3.881259918212890625e+00,5.000000000000000000e+00,5.000000000000000000e+00,5.000000000000000000e+00,5.000000000000000000e+00,5.000000000000000000e+00,5.000000000000000000e+00,5.000000000000000000e+00,5.000000000000000000e+00,5.000000000000000000e+00,5.000000000000000000e+00,5.000000000000000000e+00,5.000000000000000000e+00,5.000000000000000000e+00,5.000000000000000000e+00,5.000000000000000000e+00,5.000000000000000000e+00,5.000000000000000000e+00,5.000000000000000000e+00,5.000000000000000000e+00,5.000000000000000000e+00
1.934103965759277344e+00,1.960834264755249023e+00,1.988313913345336914e+00,2.016574621200561523e+00,2.045650482177734375e+00,2.075576782226562500e+00,2.106391906738281250e+00,2.138135910034179688e+00,2.170851230621337891e+00,2.204583168029785156e+00,2.239379882812500000e+00,2.275292873382568359e+00,2.312376260757446289e+00,2.350688695907592773e+00,2.390291929244995117e+00,2.431252479553222656e+00,2.473641395568847656e+00,2.517534732818603516e+00,2.563013792037963867e+00,2.610166311264038086e+00,2.659086227416992188e+00,2.709874868392944336e+00,2.762641429901123047e+00,2.817503690719604492e+00,2.874589204788208008e+00,2.934041976928710938e+00,2.996007204055786133e+00,3.060645818710327148e+00,3.128135442733764648e+00,3.198668479919433594e+00,3.272455692291259766e+00,3.349721431732177734e+00,3.430720567703247070e+00,3.515733480453491211e+00,3.605066776275634766e+00,3.699058294296264648e+00,3.798082351684570312e+00,3.902554035186767578e+00,4.012934684753417969e+00,4.129742145538330078e+00,4.253552913665771484e+00,4.385017395019531250e+00,4.524867057800292969e+00,4.673930644989013672e+00,4.833147525787353516e+00,5.000000000000000000e+00,5.000000000000000000e+00,5.000000000000000000e+00,5.000000000000000000e+00,5.000000000000000000e+00,5.000000000000000000e+00,5.000000000000000000e+00,4.041564464569091797e+00,3.964762449264526367e+00,3.878369331359863281e+00,3.840866327285766602e+00,3.830162286758422852e+00,3.866042613983154297e+00,3.872798204421997070e+00,3.897997379302978516e+00,5.000000000000000000e+00,5.000000000000000000e+00,5.000000000000000000e+00,5.000000000000000000e+00,5.000000000000000000e+00,5.000000000000000000e+00,5.000000000000000000e+00,5.000000000000000000e+00,5.000000000000000000e+00,5.000000000000000000e+00,5.000000000000000000e+00,5.000000000000000000e+00,5.000000000000000000e+00,5.000000000000000000e+00,5.000000000000000000e+00,5.000000000000000000e+00,5.000000000000000000e+00,5.000000000000000000e+00,5.000000000000000000e+00,5.000000000000000000e+00
1.934075832366943359e+00,1.960805416107177734e+00,1.988284230232238770e+00,2.016544103622436523e+00,2.045619010925292969e+00,2.075544357299804688e+00,2.106358766555786133e+00,2.138101577758789062e+00,2.170815706253051758e+00,2.204546451568603516e+00,2.239342212677001953e+00,2.275253772735595703e+00,2.312335968017578125e+00,2.350647211074829102e+00,2.390249013900756836e+00,2.431208133697509766e+00,2.473595380783081055e+00,2.517486810684204102e+00,2.562964200973510742e+00,2.610115051269531250e+00,2.659032821655273438e+00,2.709819555282592773e+00,2.762583971023559570e+00,2.817443847656250000e+00,2.874526739120483398e+00,2.933970928192138672e+00,2.995925188064575195e+00,3.060558080673217773e+00,3.128043889999389648e+00,3.198572397232055664e+00,3.272355079650878906e+00,3.349622249603271484e+00,3.430626392364501953e+00,3.515640735626220703e+00,3.604969501495361328e+00,3.698955535888671875e+00,3.797973871231079102e+00,3.902439594268798828e+00,4.012814044952392578e+00,4.129614353179931641e+00,4.253417491912841797e+00,4.384872913360595703e+00,4.524713516235351562e+00,4.673767089843750000e+00,4.832974910736083984e+00,5.000000000000000000e+00,5.000000000000000000e+00,5.000000000000000000e+00,5.000000000000000000e+00,5.000000000000000000e+00,5.000000000000000000e+00,5.000000000000000000e+00,4.040656089782714844e+00,4.013278961181640625e+00,3.879386425018310547e+00,3.840152502059936523e+00,3.822084665298461914e+00,3.858582973480224609e+00,3.897657632827758789e+00,5.000000000000000000e+00,5.000000000000000000e+00,5.000000000000000000e+00,5.000000000000000000e+00,5.000000000000000000e+00,5.000000000000000000e+00,5.000000000000000000e+00,5.000000000000000000e+00,5.000000000000000000e+00,5.000000000000000000e+00,5.000000000000000000e+00,5.000000000000000000e+00,5.000000000000000000e+00,5.000000000000000000e+00,5.000000000000000000e+00,5.000000000000000000e+00,5.000000000000000000e+00,5.000000000000000000e+00,5.000000000000000000e+00,5.000000000000000000e+00,5.000000000000000000e+00
1.934047460556030273e+00,1.960776329040527344e+00,1.988254308700561523e+00,2.016513347625732422e+00,2.045587301254272461e+00,2.075511932373046875e+00,2.106325149536132812e+00,2.138067007064819336e+00,2.170780181884765625e+00,2.204509735107421875e+00,2.239304304122924805e+00,2.275214672088623047e+00,2.312295913696289062e+00,2.350605487823486328e+00,2.390205860137939453e+00,2.431163549423217773e+00,2.473549127578735352e+00,2.517439126968383789e+00,2.562914848327636719e+00,2.610063552856445312e+00,2.658979654312133789e+00,2.709764003753662109e+00,2.762526273727416992e+00,2.817384004592895508e+00,2.874464511871337891e+00,2.933906078338623047e+00,2.995857477188110352e+00,3.060482025146484375e+00,3.127955675125122070e+00,3.198476791381835938e+00,3.272254943847656250e+00,3.349516868591308594e+00,3.430516004562377930e+00,3.515529632568359375e+00,3.604863643646240234e+00,3.698852777481079102e+00,3.797865629196166992e+00,3.902325153350830078e+00,4.012692928314208984e+00,4.129486560821533203e+00,4.253281593322753906e+00,4.384728908538818359e+00,4.524559974670410156e+00,4.673603534698486328e+00,4.832800388336181641e+00,5.000000000000000000e+00,5.000000000000000000e+00,5.000000000000000000e+00,5.000000000000000000e+00,5.000000000000000000e+00,5.000000000000000000e+00,5.000000000000000000e+00,4.047210216522216797e+00,3.954707622528076172e+00,3.868600130081176758e+00,3.829963445663452148e+00,3.832054615020751953e+00,3.847256898880004883e+00,3.907070398330688477e+00,3.909482479095458984e+00,5.000000000000000000e+00,5.000000000000000000e+00,5.000000000000000000e+00,5.000000000000000000e+00,5.000000000000000000e+00,5.000000000000000000e+00,5.000000000000000000e+00,5.000000000000000000e+00,5.000000000000000000e+00,5.000000000000000000e+00,5.000000000000000000e+00,5.000000000000000000e+00,5.000000000000000000e+00,5.000000000000000000e+00,5.000000000000000000e+00,5.000000000000000000e+00,5.000000000000000000e+00,5.000000000000000000e+00,5.000000000000000000e+00,5.000000000000000000e+00
1.934019446372985840e+00,1.960747480392456055e+00,1.988224625587463379e+00,2.016482591629028320e+00,2.045555830001831055e+00,2.075479507446289062e+00,2.106291770935058594e+00,2.138032674789428711e+00,2.170744657516479492e+00,2.204473257064819336e+00,2.239266633987426758e+00,2.275175809860229492e+00,2.312255620956420898e+00,2.350563764572143555e+00,2.390162706375122070e+00,2.431118965148925781e+00,2.473503112792968750e+00,2.517391204833984375e+00,2.562865257263183594e+00,2.610012292861938477e+00,2.658926248550415039e+00,2.709708690643310547e+00,2.762468814849853516e+00,2.817324161529541016e+00,2.874402523040771484e+00,2.933841228485107422e+00,2.995790004730224609e+00,3.060411453247070312e+00,3.127882003784179688e+00,3.198394775390625000e+00,3.272159814834594727e+00,3.349411964416503906e+00,3.430405855178833008e+00,3.515413522720336914e+00,3.604741811752319336e+00,3.698728084564208984e+00,3.797746658325195312e+00,3.902210950851440430e+00,4.012572288513183594e+00,4.129358291625976562e+00,4.253145694732666016e+00,4.384584426879882812e+00,4.524406433105468750e+00,4.673439502716064453e+00,4.832624912261962891e+00,5.000000000000000000e+00,5.000000000000000000e+00,5.000000000000000000e+00,5.000000000000000000e+00,5.000000000000000000e+00,5.000000000000000000e+00,5.000000000000000000e+00,3.997806310653686523e+00,3.959473371505737305e+00,3.882052898406982422e+00,3.848975896835327148e+00,3.831210613250732422e+00,3.844080924987792969e+00,3.902754068374633789e+00,3.899624347686767578e+00,5.000000000000000000e+00,5.000000000000000000e+00,5.000000000000000000e+00,5.000000000000000000e+00,5.000000000000000000e+00,5.000000000000000000e+00,5.000000000000000000e+00,5.000000000000000000e+00,5.000000000000000000e+00,5.000000000000000000e+00,5.000000000000000000e+00,5.000000000000000000e+00,5.000000000000000000e+00,5.000000000000000000e+00,5.000000000000000000e+00,5.000000000000000000e+00,5.000000000000000000e+00,5.000000000000000000e+00,5.000000000000000000e+00,5.000000000000000000e+00
1.933991074562072754e+00,1.960718393325805664e+00,1.988194704055786133e+00,2.016452074050903320e+00,2.045524358749389648e+00,2.075447082519531250e+00,2.106258392333984375e+00,2.137998104095458984e+00,2.170709133148193359e+00,2.204436540603637695e+00,2.239228725433349609e+00,2.275136709213256836e+00,2.312215089797973633e+00,2.350522041320800781e+00,2.390119791030883789e+00,2.431074380874633789e+00,2.473456859588623047e+00,2.517343759536743164e+00,2.562815666198730469e+00,2.609960794448852539e+00,2.658872842788696289e+00,2.709653377532958984e+00,2.762411355972290039e+00,2.817264318466186523e+00,2.874340057373046875e+00,2.933776378631591797e+00,2.995722293853759766e+00,3.060340642929077148e+00,3.127808094024658203e+00,3.198317527770996094e+00,3.272079467773437500e+00,3.349323511123657227e+00,3.430303096771240234e+00,3.515297889709472656e+00,3.604619741439819336e+00,3.698599576950073242e+00,3.797611236572265625e+00,3.902069807052612305e+00,4.012436866760253906e+00,4.129229545593261719e+00,4.253010272979736328e+00,4.384439945220947266e+00,4.524252891540527344e+00,4.673275470733642578e+00,4.832449913024902344e+00,5.000000000000000000e+00,5.000000000000000000e+00,5.000000000000000000e+00,5.000000000000000000e+00,5.000000000000000000e+00,5.000000000000000000e+00,5.000000000000000000e+00,3.957554340362548828e+00,3.958422422409057617e+00,3.918526172637939453e+00,3.839846849441528320e+00,3.778090953826904297e+00,3.802645683288574219e+00,3.903500556945800781e+00,3.888017654418945312e+00,5.000000000000000000e+00,5.000000000000000000e+00,5.000000000000000000e+00,5.000000000000000000e+00,5.000000000000000000e+00,5.000000000000000000e+00,5.000000000000000000e+00,5.000000000000000000e+00,5.000000000000000000e+00,5.000000000000000000e+00,5.000000000000000000e+00,5.000000000000000000e+00,5.000000000000000000e+00,5.000000000000000000e+00,5.000000000000000000e+00,5.000000000000000000e+00,5.000000000000000000e+00,5.000000000000000000e+00,5.000000000000000000e+00,5.000000000000000000e+00
1.933963060379028320e+00,1.960689425468444824e+00,1.988165020942687988e+00,2.016421318054199219e+00,2.045492887496948242e+00,2.075414657592773438e+00,2.106224775314331055e+00,2.137963533401489258e+00,2.170673608779907227e+00,2.204399824142456055e+00,2.239191055297851562e+00,2.275097846984863281e+00,2.312174797058105469e+00,2.350480556488037109e+00,2.390076637268066406e+00,2.431029796600341797e+00,2.473410844802856445e+00,2.517295837402343750e+00,2.562766313552856445e+00,2.609909534454345703e+00,2.658819675445556641e+00,2.709598064422607422e+00,2.762353658676147461e+00,2.817204713821411133e+00,2.874277830123901367e+00,2.933711290359497070e+00,2.995654582977294922e+00,3.060270071029663086e+00,3.127734422683715820e+00,3.198240518569946289e+00,3.271998643875122070e+00,3.349239110946655273e+00,3.430214405059814453e+00,3.515202045440673828e+00,3.604508161544799805e+00,3.698471546173095703e+00,3.797475814819335938e+00,3.901926755905151367e+00,4.012286186218261719e+00,4.129069805145263672e+00,4.252855300903320312e+00,4.384292125701904297e+00,4.524098873138427734e+00,4.673111438751220703e+00,4.832274436950683594e+00,5.000000000000000000e+00,5.000000000000000000e+00,5.000000000000000000e+00,5.000000000000000000e+00,5.000000000000000000e+00,5.000000000000000000e+00,5.000000000000000000e+00,5.000000000000000000e+00,3.953430414199829102e+00,3.914700031280517578e+00,3.782001972198486328e+00,3.752808094024658203e+00,3.783824443817138672e+00,5.000000000000000000e+00,3.907285928726196289e+00,5.000000000000000000e+00,5.000000000000000000e+00,5.000000000000000000e+00,5.000000000000000000e+00,5.000000000000000000e+00,5.000000000000000000e+00,5.000000000000000000e+00,5.000000000000000000e+00,5.000000000000000000e+00,5.000000000000000000e+00,5.000000000000000000e+00,5.000000000000000000e+00,5.000000000000000000e+00,5.000000000000000000e+00,5.000000000000000000e+00,5.000000000000000000e+00,5.000000000000000000e+00,5.000000000000000000e+00,5.000000000000000000e+00,5.000000000000000000e+00
1.933934688568115234e+00,1.960660338401794434e+00,1.988135099411010742e+00,2.016390800476074219e+00,2.045461416244506836e+00,2.075382232666015625e+00,2.106191396713256836e+00,2.137929201126098633e+00,2.170638084411621094e+00,2.204363346099853516e+00,2.239153146743774414e+00,2.275058746337890625e+00,2.312134504318237305e+00,2.350438833236694336e+00,2.390033483505249023e+00,2.430985212326049805e+00,2.473364830017089844e+00,2.517248153686523438e+00,2.562716722488403320e+00,2.609858274459838867e+00,2.658766269683837891e+00,2.709542751312255859e+00,2.762296199798583984e+00,2.817144870758056641e+00,2.874215602874755859e+00,2.933646440505981445e+00,2.995586872100830078e+00,3.060199499130249023e+00,3.127660751342773438e+00,3.198163509368896484e+00,3.271918058395385742e+00,3.349154472351074219e+00,3.430125713348388672e+00,3.515109062194824219e+00,3.604410409927368164e+00,3.698367595672607422e+00,3.797354221343994141e+00,3.901785135269165039e+00,4.012135028839111328e+00,4.128910064697265625e+00,4.252686023712158203e+00,4.384112358093261719e+00,4.523921489715576172e+00,4.672940254211425781e+00,4.832098960876464844e+00,5.000000000000000000e+00,5.000000000000000000e+00,5.000000000000000000e+00,5.000000000000000000e+00,5.000000000000000000e+00,5.000000000000000000e+00,3.895134210586547852e+00,5.000000000000000000e+00,3.964527606964111328e+00,3.919262409210205078e+00,3.752512693405151367e+00,3.733237504959106445e+00,3.816516876220703125e+00,3.870405912399291992e+00,3.871489048004150391e+00,5.000000000000000000e+00,5.000000000000000000e+00,5.000000000000000000e+00,5.000000000000000000e+00,5.000000000000000000e+00,5.000000000000000000e+00,5.000000000000000000e+00,5.000000000000000000e+00,5.000000000000000000e+00,5.000000000000000000e+00,5.000000000000000000e+00,5.000000000000000000e+00,5.000000000000000000e+00,5.000000000000000000e+00,5.000000000000000000e+00,5.000000000000000000e+00,5.000000000000000000e+00,5.000000000000000000e+00,5.000000000000000000e+00,5.000000000000000000e+00
1.933906555175781250e+00,1.960631489753723145e+00,1.988105416297912598e+00,2.016360282897949219e+00,2.045429706573486328e+00,2.075349569320678711e+00,2.106158018112182617e+00,2.137894630432128906e+00,2.170602560043334961e+00,2.204326868057250977e+00,2.239115476608276367e+00,2.275019645690917969e+00,2.312094211578369141e+00,2.350397109985351562e+00,2.389990568161010742e+00,2.430940628051757812e+00,2.473318815231323242e+00,2.517200231552124023e+00,2.562667131423950195e+00,2.609806776046752930e+00,2.658713102340698242e+00,2.709487199783325195e+00,2.762238979339599609e+00,2.817085027694702148e+00,2.874153375625610352e+00,2.933581590652465820e+00,2.995519161224365234e+00,3.060128927230834961e+00,3.127586841583251953e+00,3.198086500167846680e+00,3.271837234497070312e+00,3.349069833755493164e+00,3.430037021636962891e+00,3.515015840530395508e+00,3.604312419891357422e+00,3.698264598846435547e+00,3.797245502471923828e+00,3.901670455932617188e+00,4.012001037597656250e+00,4.128753185272216797e+00,4.252516269683837891e+00,4.383932113647460938e+00,4.523729324340820312e+00,4.672735691070556641e+00,4.831892967224121094e+00,5.000000000000000000e+00,5.000000000000000000e+00,5.000000000000000000e+00,5.000000000000000000e+00,5.000000000000000000e+00,5.000000000000000000e+00,5.000000000000000000e+00,5.000000000000000000e+00,3.987536430358886719e+00,3.934715986251831055e+00,3.721889257431030273e+00,3.712275266647338867e+00,5.000000000000000000e+00,5.000000000000000000e+00,3.862414836883544922e+00,5.000000000000000000e+00,5.000000000000000000e+00,5.000000000000000000e+00,5.000000000000000000e+00,5.000000000000000000e+00,5.000000000000000000e+00,5.000000000000000000e+00,5.000000000000000000e+00,5.000000000000000000e+00,5.000000000000000000e+00,5.000000000000000000e+00,5.000000000000000000e+00,5.000000000000000000e+00,5.000000000000000000e+00,5.000000000000000000e+00,5.000000000000000000e+00,5.000000000000000000e+00,5.000000000000000000e+00,5.000000000000000000e+00,5.000000000000000000e+00
1.933878302574157715e+00,1.960602402687072754e+00,1.988075733184814453e+00,2.016329526901245117e+00,2.045398235321044922e+00,2.075317144393920898e+00,2.106124639511108398e+00,2.137860298156738281e+00,2.170567035675048828e+00,2.204290151596069336e+00,2.239077568054199219e+00,2.274980783462524414e+00,2.312053918838500977e+00,2.350355386734008789e+00,2.389947414398193359e+00,2.430896282196044922e+00,2.473272562026977539e+00,2.517152547836303711e+00,2.562617778778076172e+00,2.609755516052246094e+00,2.658659696578979492e+00,2.709431886672973633e+00,2.762181282043457031e+00,2.817025184631347656e+00,2.874090909957885742e+00,2.933516740798950195e+00,2.995451688766479492e+00,3.060058355331420898e+00,3.127513408660888672e+00,3.198009490966796875e+00,3.271756649017333984e+00,3.348985195159912109e+00,3.429948329925537109e+00,3.514922618865966797e+00,3.604214668273925781e+00,3.698161363601684570e+00,3.797136783599853516e+00,3.901555776596069336e+00,4.011879444122314453e+00,4.128624916076660156e+00,4.252367973327636719e+00,4.383758068084716797e+00,4.523537158966064453e+00,4.672531127929687500e+00,4.831674098968505859e+00,5.000000000000000000e+00,5.000000000000000000e+00,5.000000000000000000e+00,5.000000000000000000e+00,5.000000000000000000e+00,5.000000000000000000e+00,5.000000000000000000e+00,5.000000000000000000e+00,5.000000000000000000e+00,3.948282003402709961e+00,3.690626621246337891e+00,3.721578598022460938e+00,5.000000000000000000e+00,5.000000000000000000e+00,5.000000000000000000e+00,5.000000000000000000e+00,5.000000000000000000e+00,5.000000000000000000e+00,5.000000000000000000e+00,5.000000000000000000e+00,5.000000000000000000e+00,5.000000000000000000e+00,5.000000000000000000e+00,5.000000000000000000e+00,5.000000000000000000e+00,5.000000000000000000e+00,5.000000000000000000e+00,5.000000000000000000e+00,5.000000000000000000e+00,5.000000000000000000e+00,5.000000000000000000e+00,5.000000000000000000e+00,5.000000000000000000e+00,5.000000000000000000e+00,5.000000000000000000e+00
1.933850169181823730e+00,1.960573554039001465e+00,1.988045811653137207e+00,2.016298770904541016e+00,2.045366764068603516e+00,2.075284719467163086e+00,2.106091022491455078e+00,2.137825727462768555e+00,2.170531511306762695e+00,2.204253435134887695e+00,2.239039897918701172e+00,2.274941682815551758e+00,2.312013626098632812e+00,2.350313901901245117e+00,2.389904499053955078e+00,2.430851697921752930e+00,2.473226547241210938e+00,2.517104864120483398e+00,2.562568187713623047e+00,2.609704017639160156e+00,2.658606529235839844e+00,2.709376811981201172e+00,2.762123823165893555e+00,2.816965341567993164e+00,2.874028682708740234e+00,2.933451890945434570e+00,2.995383977890014648e+00,3.059987783432006836e+00,3.127439737319946289e+00,3.197932243347167969e+00,3.271675825119018555e+00,3.348900794982910156e+00,3.429859638214111328e+00,3.514829397201538086e+00,3.604116916656494141e+00,3.698058366775512695e+00,3.797028064727783203e+00,3.901440858840942383e+00,4.011758327484130859e+00,4.128496170043945312e+00,4.252232074737548828e+00,4.383613109588623047e+00,4.523372650146484375e+00,4.672336101531982422e+00,4.831455230712890625e+00,5.000000000000000000e+00,5.000000000000000000e+00,5.000000000000000000e+00,5.000000000000000000e+00,5.000000000000000000e+00,5.000000000000000000e+00,5.000000000000000000e+00,5.000000000000000000e+00,5.000000000000000000e+00,3.962138652801513672e+00,3.683173418045043945e+00,3.746275901794433594e+00,5.000000000000000000e+00,5.000000000000000000e+00,5.000000000000000000e+00,5.000000000000000000e+00,5.000000000000000000e+00,5.000000000000000000e+00,5.000000000000000000e+00,5.000000000000000000e+00,5.000000000000000000e+00,5.000000000000000000e+00,5.000000000000000000e+00,5.000000000000000000e+00,5.000000000000000000e+00,5.000000000000000000e+00,5.000000000000000000e+00,5.000000000000000000e+00,5.000000000000000000e+00,5.000000000000000000e+00,5.000000000000000000e+00,5.000000000000000000e+00,5.000000000000000000e+00,5.000000000000000000e+00,5.000000000000000000e+00
1.933821916580200195e+00,1.960544705390930176e+00,1.988016128540039062e+00,2.016268253326416016e+00,2.045335054397583008e+00,2.075252294540405273e+00,2.106057643890380859e+00,2.137791395187377930e+00,2.170495986938476562e+00,2.204216957092285156e+00,2.239001989364624023e+00,2.274902582168579102e+00,2.311973333358764648e+00,2.350272178649902344e+00,2.389861583709716797e+00,2.430807113647460938e+00,2.473180294036865234e+00,2.517056941986083984e+00,2.562518596649169922e+00,2.609652757644653320e+00,2.658553123474121094e+00,2.709321498870849609e+00,2.762066364288330078e+00,2.816905498504638672e+00,2.873966455459594727e+00,2.933387041091918945e+00,2.995316267013549805e+00,3.059917449951171875e+00,3.127366065979003906e+00,3.197855234146118164e+00,3.271595239639282227e+00,3.348816156387329102e+00,3.429770946502685547e+00,3.514736652374267578e+00,3.604018926620483398e+00,3.697955131530761719e+00,3.796919345855712891e+00,3.901326179504394531e+00,4.011637210845947266e+00,4.128367900848388672e+00,4.252095699310302734e+00,4.383468627929687500e+00,4.523218154907226562e+00,4.672172069549560547e+00,4.831270217895507812e+00,5.000000000000000000e+00,5.000000000000000000e+00,5.000000000000000000e+00,5.000000000000000000e+00,5.000000000000000000e+00,5.000000000000000000e+00,5.000000000000000000e+00,5.000000000000000000e+00,5.000000000000000000e+00,3.976656436920166016e+00,3.705533266067504883e+00,3.722719669342041016e+00,5.000000000000000000e+00,5.000000000000000000e+00,5.000000000000000000e+00,5.000000000000000000e+00,5.000000000000000000e+00,5.000000000000000000e+00,5.000000000000000000e+00,5.000000000000000000e+00,5.000000000000000000e+00,5.000000000000000000e+00,5.000000000000000000e+00,5.000000000000000000e+00,5.000000000000000000e+00,5.000000000000000000e+00,5.000000000000000000e+00,5.000000000000000000e+00,5.000000000000000000e+00,5.000000000000000000e+00,5.000000000000000000e+00,5.000000000000000000e+00,5.000000000000000000e+00,5.000000000000000000e+00,5.000000000000000000e+00
1.933793783187866211e+00,1.960515618324279785e+00,1.987986207008361816e+00,2.016237497329711914e+00,2.045303583145141602e+00,2.075219869613647461e+00,2.106024265289306641e+00,2.137757062911987305e+00,2.170460462570190430e+00,2.204180240631103516e+00,2.238964319229125977e+00,2.274863719940185547e+00,2.311933040618896484e+00,2.350230455398559570e+00,2.389818429946899414e+00,2.430762529373168945e+00,2.473134279251098633e+00,2.517009258270263672e+00,2.562469244003295898e+00,2.609601497650146484e+00,2.658499956130981445e+00,2.709266185760498047e+00,2.762008905410766602e+00,2.816845655441284180e+00,2.873904228210449219e+00,2.933322191238403320e+00,2.995248794555664062e+00,3.059846878051757812e+00,3.127292156219482422e+00,3.197777986526489258e+00,3.271514415740966797e+00,3.348731517791748047e+00,3.429682254791259766e+00,3.514643430709838867e+00,3.603920936584472656e+00,3.697852134704589844e+00,3.796810626983642578e+00,3.901211500167846680e+00,4.011515617370605469e+00,4.128239631652832031e+00,4.251959323883056641e+00,4.383323669433593750e+00,4.523064136505126953e+00,4.672007560729980469e+00,4.831094264984130859e+00,5.000000000000000000e+00,5.000000000000000000e+00,5.000000000000000000e+00,5.000000000000000000e+00,5.000000000000000000e+00,5.000000000000000000e+00,5.000000000000000000e+00,5.000000000000000000e+00,5.000000000000000000e+00,4.094920635223388672e+00,3.725762605667114258e+00,3.731427431106567383e+00,5.000000000000000000e+00,5.000000000000000000e+00,5.000000000000000000e+00,5.000000000000000000e+00,5.000000000000000000e+00,5.000000000000000000e+00,5.000000000000000000e+00,5.000000000000000000e+00,5.000000000000000000e+00,5.000000000000000000e+00,5.000000000000000000e+00,5.000000000000000000e+00,5.000000000000000000e+00,5.000000000000000000e+00,5.000000000000000000e+00,5.000000000000000000e+00,5.000000000000000000e+00,5.000000000000000000e+00,5.000000000000000000e+00,5.000000000000000000e+00,5.000000000000000000e+00,5.000000000000000000e+00,5.000000000000000000e+00
1.933765769004821777e+00,1.960486769676208496e+00,1.987956523895263672e+00,2.016206979751586914e+00,2.045272111892700195e+00,2.075187206268310547e+00,2.105990886688232422e+00,2.137722492218017578e+00,2.170424938201904297e+00,2.204143524169921875e+00,2.238926410675048828e+00,2.274824619293212891e+00,2.311892747879028320e+00,2.350188970565795898e+00,2.389775276184082031e+00,2.430718183517456055e+00,2.473088026046752930e+00,2.516961574554443359e+00,2.562419652938842773e+00,2.609549999237060547e+00,2.658446788787841797e+00,2.709210872650146484e+00,2.761951208114624023e+00,2.816785812377929688e+00,2.873842000961303711e+00,2.933257102966308594e+00,2.995181322097778320e+00,3.059776067733764648e+00,3.127218484878540039e+00,3.197700977325439453e+00,3.271433830261230469e+00,3.348647117614746094e+00,3.429593801498413086e+00,3.514550447463989258e+00,3.603822946548461914e+00,3.697748899459838867e+00,3.796701908111572266e+00,3.901096582412719727e+00,4.011394500732421875e+00,4.128110885620117188e+00,4.251822948455810547e+00,4.383178710937500000e+00,4.522910118103027344e+00,4.671843051910400391e+00,4.830918312072753906e+00,5.000000000000000000e+00,5.000000000000000000e+00,5.000000000000000000e+00,5.000000000000000000e+00,5.000000000000000000e+00,5.000000000000000000e+00,5.000000000000000000e+00,5.000000000000000000e+00,5.000000000000000000e+00,5.000000000000000000e+00,3.725183725357055664e+00,3.739544153213500977e+00,5.000000000000000000e+00,5.000000000000000000e+00,5.000000000000000000e+00,5.000000000000000000e+00,5.000000000000000000e+00,5.000000000000000000e+00,5.000000000000000000e+00,5.000000000000000000e+00,5.000000000000000000e+00,5.000000000000000000e+00,5.000000000000000000e+00,5.000000000000000000e+00,5.000000000000000000e+00,5.000000000000000000e+00,5.000000000000000000e+00,5.000000000000000000e+00,5.000000000000000000e+00,5.000000000000000000e+00,5.000000000000000000e+00,5.000000000000000000e+00,5.000000000000000000e+00,5.000000000000000000e+00,5.000000000000000000e+00
1.933737397193908691e+00,1.960457563400268555e+00,1.987926602363586426e+00,2.016176223754882812e+00,2.045240402221679688e+00,2.075154781341552734e+00,2.105957508087158203e+00,2.137688159942626953e+00,2.170389652252197266e+00,2.204107046127319336e+00,2.238888740539550781e+00,2.274785518646240234e+00,2.311852455139160156e+00,2.350147485733032227e+00,2.389732360839843750e+00,2.430673599243164062e+00,2.473042011260986328e+00,2.516913652420043945e+00,2.562370061874389648e+00,2.609498977661132812e+00,2.658393383026123047e+00,2.709155559539794922e+00,2.761893749237060547e+00,2.816725969314575195e+00,2.873779535293579102e+00,2.933192491531372070e+00,2.995113611221313477e+00,3.059705495834350586e+00,3.127144813537597656e+00,3.197623968124389648e+00,3.271353006362915039e+00,3.348562479019165039e+00,3.429505109786987305e+00,3.514457225799560547e+00,3.603725194931030273e+00,3.697645902633666992e+00,3.796593189239501953e+00,3.900981903076171875e+00,4.011273384094238281e+00,4.127982616424560547e+00,4.251686573028564453e+00,4.383034229278564453e+00,4.522755622863769531e+00,4.671678543090820312e+00,4.830742359161376953e+00,5.000000000000000000e+00,5.000000000000000000e+00,5.000000000000000000e+00,5.000000000000000000e+00,5.000000000000000000e+00,5.000000000000000000e+00,5.000000000000000000e+00,5.000000000000000000e+00,5.000000000000000000e+00,5.000000000000000000e+00,3.723848581314086914e+00,3.748083114624023438e+00,5.000000000000000000e+00,5.000000000000000000e+00,5.000000000000000000e+00,5.000000000000000000e+00,5.000000000000000000e+00,5.000000000000000000e+00,5.000000000000000000e+00,5.000000000000000000e+00,5.000000000000000000e+00,5.000000000000000000e+00,5.000000000000000000e+00,5.000000000000000000e+00,5.000000000000000000e+00,5.000000000000000000e+00,5.000000000000000000e+00,5.000000000000000000e+00,5.000000000000000000e+00,5.000000000000000000e+00,5.000000000000000000e+00,5.000000000000000000e+00,5.000000000000000000e+00,5.000000000000000000e+00,5.000000000000000000e+00
1.933709383010864258e+00,1.960428714752197266e+00,1.987896919250488281e+00,2.016145706176757812e+00,2.045208930969238281e+00,2.075122356414794922e+00,2.105924129486083984e+00,2.137653589248657227e+00,2.170354127883911133e+00,2.204070329666137695e+00,2.238850831985473633e+00,2.274746656417846680e+00,2.311812400817871094e+00,2.350105762481689453e+00,2.389689207077026367e+00,2.430629014968872070e+00,2.472995996475219727e+00,2.516865968704223633e+00,2.562320947647094727e+00,2.609447479248046875e+00,2.658340215682983398e+00,2.709100008010864258e+00,2.761836290359497070e+00,2.816666126251220703e+00,2.873717308044433594e+00,2.933127641677856445e+00,2.995045900344848633e+00,3.059634923934936523e+00,3.127070903778076172e+00,3.197546720504760742e+00,3.271272420883178711e+00,3.348478317260742188e+00,3.429416418075561523e+00,3.514364242553710938e+00,3.603627204895019531e+00,3.697542905807495117e+00,3.796484470367431641e+00,3.900867223739624023e+00,4.011151790618896484e+00,4.127853870391845703e+00,4.251550197601318359e+00,4.382889270782470703e+00,4.522601604461669922e+00,4.671513557434082031e+00,4.830566406250000000e+00,5.000000000000000000e+00,5.000000000000000000e+00,5.000000000000000000e+00,5.000000000000000000e+00,5.000000000000000000e+00,5.000000000000000000e+00,5.000000000000000000e+00,5.000000000000000000e+00,5.000000000000000000e+00,5.000000000000000000e+00,3.732605934143066406e+00,3.770589590072631836e+00,5.000000000000000000e+00,5.000000000000000000e+00,5.000000000000000000e+00,5.000000000000000000e+00,5.000000000000000000e+00,5.000000000000000000e+00,5.000000000000000000e+00,5.000000000000000000e+00,5.000000000000000000e+00,5.000000000000000000e+00,5.000000000000000000e+00,5.000000000000000000e+00,5.000000000000000000e+00,5.000000000000000000e+00,5.000000000000000000e+00,5.000000000000000000e+00,5.000000000000000000e+00,5.000000000000000000e+00,5.000000000000000000e+00,5.000000000000000000e+00,5.000000000000000000e+00,5.000000000000000000e+00,5.000000000000000000e+00
1.933681011199951172e+00,1.960399627685546875e+00,1.987866997718811035e+00,2.016114950180053711e+00,2.045177459716796875e+00,2.075089931488037109e+00,2.105890512466430664e+00,2.137619256973266602e+00,2.170318603515625000e+00,2.204033613204956055e+00,2.238813161849975586e+00,2.274707555770874023e+00,2.311772108078002930e+00,2.350064039230346680e+00,2.389646291732788086e+00,2.430584430694580078e+00,2.472949743270874023e+00,2.516818284988403320e+00,2.562271356582641602e+00,2.609396219253540039e+00,2.658287048339843750e+00,2.709044694900512695e+00,2.761778831481933594e+00,2.816606283187866211e+00,2.873655319213867188e+00,2.933062791824340820e+00,2.994978427886962891e+00,3.059564352035522461e+00,3.126997232437133789e+00,3.197469711303710938e+00,3.271191596984863281e+00,3.348393678665161133e+00,3.429327726364135742e+00,3.514271020889282227e+00,3.603529214859008789e+00,3.697439670562744141e+00,3.796375989913940430e+00,3.900752782821655273e+00,4.011030673980712891e+00,4.127725601196289062e+00,4.251414299011230469e+00,4.382744312286376953e+00,4.522447109222412109e+00,4.671349048614501953e+00,4.830390453338623047e+00,5.000000000000000000e+00,5.000000000000000000e+00,5.000000000000000000e+00,5.000000000000000000e+00,5.000000000000000000e+00,5.000000000000000000e+00,5.000000000000000000e+00,5.000000000000000000e+00,5.000000000000000000e+00,5.000000000000000000e+00,3.751299381256103516e+00,4.274225711822509766e+00,5.000000000000000000e+00,5.000000000000000000e+00,5.000000000000000000e+00,5.000000000000000000e+00,5.000000000000000000e+00,5.000000000000000000e+00,5.000000000000000000e+00,5.000000000000000000e+00,5.000000000000000000e+00,5.000000000000000000e+00,5.000000000000000000e+00,5.000000000000000000e+00,5.000000000000000000e+00,5.000000000000000000e+00,5.000000000000000000e+00,5.000000000000000000e+00,5.000000000000000000e+00,5.000000000000000000e+00,5.000000000000000000e+00,5.000000000000000000e+00,5.000000000000000000e+00,5.000000000000000000e+00,5.000000000000000000e+00
1.933652997016906738e+00,1.960370779037475586e+00,1.987837314605712891e+00,2.016084194183349609e+00,2.045145988464355469e+00,2.075057506561279297e+00,2.105857133865356445e+00,2.137584686279296875e+00,2.170283079147338867e+00,2.203997135162353516e+00,2.238775253295898438e+00,2.274668693542480469e+00,2.311731815338134766e+00,2.350022554397583008e+00,2.389603137969970703e+00,2.430539846420288086e+00,2.472903728485107422e+00,2.516770601272583008e+00,2.562221765518188477e+00,2.609344959259033203e+00,2.658233642578125000e+00,2.708989620208740234e+00,2.761721134185791016e+00,2.816546678543090820e+00,2.873593091964721680e+00,2.932997941970825195e+00,2.994910717010498047e+00,3.059493780136108398e+00,3.126923561096191406e+00,3.197392702102661133e+00,3.271111249923706055e+00,3.348309278488159180e+00,3.429239034652709961e+00,3.514177799224853516e+00,3.603431463241577148e+00,3.697336673736572266e+00,3.796267271041870117e+00,3.900638103485107422e+00,4.010909080505371094e+00,4.127597332000732422e+00,4.251277923583984375e+00,4.382599830627441406e+00,4.522293090820312500e+00,4.671185016632080078e+00,4.821117877960205078e+00,4.819935798645019531e+00,4.818754196166992188e+00,4.817573547363281250e+00,4.816393852233886719e+00,4.815214157104492188e+00,4.814034938812255859e+00,4.812856674194335938e+00,4.811678886413574219e+00,4.810501575469970703e+00,4.809324741363525391e+00,3.716879606246948242e+00,4.255656242370605469e+00,4.805798053741455078e+00,4.804623603820800781e+00,4.803449630737304688e+00,4.802276611328125000e+00,4.801104068756103516e+00,4.799931526184082031e+00,4.798760414123535156e+00,4.797589302062988281e+00,4.796418666839599609e+00,4.795248985290527344e+00,4.794079780578613281e+00,4.792911529541015625e+00,4.791742801666259766e+00,4.790575504302978516e+00,4.789408683776855469e+00,4.788242340087890625e+00,4.787076473236083984e+00,4.785911083221435547e+00,4.784746646881103516e+00,4.783582687377929688e+00,4.782418727874755859e+00,4.781255722045898438e+00,4.780093193054199219e+00
1.933624625205993652e+00,1.960341691970825195e+00,1.987807393074035645e+00,2.016053676605224609e+00,2.045114517211914062e+00,2.075025081634521484e+00,2.105823755264282227e+00,2.137550354003906250e+00,2.170247554779052734e+00,2.203960418701171875e+00,2.238737583160400391e+00,2.274629831314086914e+00,2.311691522598266602e+00,2.349980831146240234e+00,2.389559984207153320e+00,2.430495262145996094e+00,2.472857475280761719e+00,2.516722917556762695e+00,2.562172412872314453e+00,2.609293460845947266e+00,2.658180475234985352e+00,2.708934068679809570e+00,2.761663675308227539e+00,2.816487073898315430e+00,2.873530864715576172e+00,2.932933092117309570e+00,2.994843006134033203e+00,3.059423208236694336e+00,3.126849889755249023e+00,3.197315454483032227e+00,3.271030664443969727e+00,3.348224639892578125e+00,3.429150342941284180e+00,3.514084815979003906e+00,3.603333473205566406e+00,3.697233438491821289e+00,3.751397132873535156e+00,3.750681400299072266e+00,3.749966144561767578e+00,3.749250888824462891e+00,3.748536109924316406e+00,3.747821331024169922e+00,3.747106790542602539e+00,3.746392726898193359e+00,3.745679140090942383e+00,3.744965553283691406e+00,3.744252204895019531e+00,3.743539571762084961e+00,3.742826938629150391e+00,3.742114305496215820e+00,3.741402626037597656e+00,3.740690469741821289e+00,3.739979267120361328e+00,3.739267826080322266e+00,3.738556623458862305e+00,3.737846136093139648e+00,3.737135410308837891e+00,3.736425161361694336e+00,3.735715389251708984e+00,3.735005617141723633e+00,3.734296560287475586e+00,3.733587265014648438e+00,3.732878208160400391e+00,3.732169866561889648e+00,3.731461524963378906e+00,3.730753183364868164e+00,3.730045795440673828e+00,3.729338169097900391e+00,3.728630781173706055e+00,3.727923870086669922e+00,3.727216958999633789e+00,3.726511001586914062e+00,3.725804567337036133e+00,3.725098371505737305e+00,3.724393129348754883e+00,3.723687648773193359e+00,3.722982406616210938e+00,3.722277641296386719e+00,3.721573114395141602e+00,3.720869064331054688e+00
1.933596611022949219e+00,1.960312843322753906e+00,1.987777709960937500e+00,2.016022920608520508e+00,2.045083045959472656e+00,2.074992656707763672e+00,2.105790376663208008e+00,2.137515783309936523e+00,2.170212030410766602e+00,2.203923940658569336e+00,2.238699913024902344e+00,2.274590730667114258e+00,2.311651229858398438e+00,2.349939107894897461e+00,2.389517068862915039e+00,2.430450916290283203e+00,2.472811698913574219e+00,2.516674995422363281e+00,2.562122821807861328e+00,2.609242200851440430e+00,2.658127069473266602e+00,2.708878755569458008e+00,2.761606216430664062e+00,2.816427230834960938e+00,2.873468637466430664e+00,2.932868242263793945e+00,2.994775533676147461e+00,3.059352636337280273e+00,3.070179224014282227e+00,3.069699764251708984e+00,3.069220542907714844e+00,3.068741798400878906e+00,3.068262577056884766e+00,3.067783832550048828e+00,3.067305088043212891e+00,3.066826581954956055e+00,3.066348075866699219e+00,3.065870046615600586e+00,3.065392017364501953e+00,3.064914226531982422e+00,3.064436435699462891e+00,3.063958883285522461e+00,3.063481330871582031e+00,3.063004016876220703e+00,3.062526702880859375e+00,3.062049627304077148e+00,3.061573028564453125e+00,3.061096191406250000e+00,3.060619592666625977e+00,3.060143232345581055e+00,3.059667110443115234e+00,3.059190988540649414e+00,3.058714866638183594e+00,3.058239221572875977e+00,3.057763576507568359e+00,3.057288169860839844e+00,3.056812763214111328e+00,3.056337594985961914e+00,3.055862665176391602e+00,3.055387735366821289e+00,3.054912805557250977e+00,3.054438352584838867e+00,3.053963899612426758e+00,3.053489446640014648e+00,3.053015470504760742e+00,3.052541255950927734e+00,3.052067756652832031e+00,3.051593780517578125e+00,3.051120281219482422e+00,3.050647020339965820e+00,3.050173521041870117e+00,3.049700260162353516e+00,3.049227476119995117e+00,3.048754692077636719e+00,3.048282146453857422e+00,3.047809600830078125e+00,3.047337055206298828e+00,3.046864986419677734e+00,3.046392679214477539e+00,3.045920610427856445e+00
1.933568239212036133e+00,1.960283756256103516e+00,1.987747788429260254e+00,2.015992403030395508e+00,2.045051336288452148e+00,2.074960231781005859e+00,2.105756759643554688e+00,2.137481451034545898e+00,2.170176506042480469e+00,2.203887462615966797e+00,2.238662004470825195e+00,2.274551630020141602e+00,2.311610937118530273e+00,2.349897623062133789e+00,2.389473915100097656e+00,2.430406332015991211e+00,2.472765445709228516e+00,2.516627311706542969e+00,2.562073230743408203e+00,2.598688125610351562e+00,2.598344802856445312e+00,2.598001241683959961e+00,2.597657918930053711e+00,2.597314834594726562e+00,2.596971750259399414e+00,2.596628665924072266e+00,2.596285820007324219e+00,2.595942974090576172e+00,2.595600128173828125e+00,2.595257520675659180e+00,2.594914913177490234e+00,2.594572305679321289e+00,2.594229936599731445e+00,2.593887805938720703e+00,2.593545675277709961e+00,2.593203544616699219e+00,2.592861413955688477e+00,2.592519283294677734e+00,2.592177629470825195e+00,2.591835737228393555e+00,2.591494321823120117e+00,2.591152667999267578e+00,2.590811014175415039e+00,2.590469598770141602e+00,2.590128421783447266e+00,2.589787006378173828e+00,2.589445829391479492e+00,2.589105129241943359e+00,2.588764190673828125e+00,2.588423252105712891e+00,2.588082313537597656e+00,2.587741613388061523e+00,2.587401151657104492e+00,2.587060689926147461e+00,2.586720228195190430e+00,2.586380004882812500e+00,2.586040019989013672e+00,2.585699796676635742e+00,2.585359811782836914e+00,2.585019826889038086e+00,2.584680080413818359e+00,2.584340333938598633e+00,2.584000587463378906e+00,2.583661079406738281e+00,2.583321809768676758e+00,2.582982301712036133e+00,2.582642793655395508e+00,2.582303762435913086e+00,2.581964731216430664e+00,2.581625699996948242e+00,2.581286668777465820e+00,2.580947875976562500e+00,2.580609083175659180e+00,2.580270290374755859e+00,2.579931735992431641e+00,2.579593420028686523e+00,2.579254865646362305e+00,2.578916788101196289e+00,2.578578472137451172e+00,2.578240156173706055e+00
1.933540225028991699e+00,1.960254907608032227e+00,1.987718105316162109e+00,2.015961885452270508e+00,2.045019865036010742e+00,2.074927806854248047e+00,2.105723381042480469e+00,2.137446880340576172e+00,2.170140981674194336e+00,2.203850746154785156e+00,2.238624334335327148e+00,2.252475261688232422e+00,2.252217292785644531e+00,2.251959085464477539e+00,2.251701116561889648e+00,2.251443386077880859e+00,2.251185417175292969e+00,2.250927686691284180e+00,2.250669956207275391e+00,2.250412464141845703e+00,2.250154733657836914e+00,2.249897241592407227e+00,2.249639749526977539e+00,2.249382495880126953e+00,2.249125003814697266e+00,2.248867750167846680e+00,2.248610496520996094e+00,2.248353481292724609e+00,2.248096227645874023e+00,2.247839212417602539e+00,2.247582197189331055e+00,2.247325181961059570e+00,2.247068405151367188e+00,2.246811628341674805e+00,2.246554851531982422e+00,2.246298074722290039e+00,2.246041536331176758e+00,2.245784759521484375e+00,2.245528221130371094e+00,2.245271682739257812e+00,2.245015382766723633e+00,2.244759082794189453e+00,2.244502782821655273e+00,2.244246482849121094e+00,2.243990421295166016e+00,2.243734121322631836e+00,2.243478059768676758e+00,2.243221998214721680e+00,2.242966413497924805e+00,2.242710351943969727e+00,2.242454528808593750e+00,2.242198705673217773e+00,2.241943120956420898e+00,2.241687297821044922e+00,2.241431713104248047e+00,2.241176366806030273e+00,2.240920782089233398e+00,2.240665435791015625e+00,2.240410089492797852e+00,2.240154743194580078e+00,2.239899635314941406e+00,2.239644527435302734e+00,2.239389419555664062e+00,2.239134311676025391e+00,2.238879442214965820e+00,2.238624334335327148e+00,2.238369464874267578e+00,2.238114833831787109e+00,2.237859964370727539e+00,2.237605333328247070e+00,2.237350702285766602e+00,2.237096071243286133e+00,2.236841678619384766e+00,2.236587285995483398e+00,2.236332654953002930e+00,2.236078500747680664e+00,2.235824108123779297e+00,2.235569715499877930e+00,2.235315799713134766e+00,2.235061645507812500e+00
1.933511853218078613e+00,1.960225820541381836e+00,1.987688422203063965e+00,1.987666130065917969e+00,1.987465262413024902e+00,1.987264394760131836e+00,1.987063407897949219e+00,1.986862778663635254e+00,1.986661791801452637e+00,1.986461162567138672e+00,1.986260294914245605e+00,1.986059784889221191e+00,1.985859274864196777e+00,1.985658526420593262e+00,1.985458135604858398e+00,1.985257506370544434e+00,1.985057115554809570e+00,1.984856605529785156e+00,1.984656214714050293e+00,1.984455704689025879e+00,1.984255552291870117e+00,1.984055399894714355e+00,1.983855009078979492e+00,1.983654975891113281e+00,1.983454704284667969e+00,1.983254671096801758e+00,1.983054518699645996e+00,1.982854604721069336e+00,1.982654690742492676e+00,1.982454657554626465e+00,1.982254862785339355e+00,1.982054829597473145e+00,1.981855154037475586e+00,1.981655240058898926e+00,1.981455564498901367e+00,1.981256008148193359e+00,1.981056213378906250e+00,1.980856657028198242e+00,1.980656981468200684e+00,1.980457544326782227e+00,1.980257868766784668e+00,1.980058550834655762e+00,1.979859232902526855e+00,1.979659676551818848e+00,1.979460477828979492e+00,1.979261040687561035e+00,1.979061841964721680e+00,1.978862524032592773e+00,1.978663444519042969e+00,1.978464484214782715e+00,1.978265166282653809e+00,1.978066205978393555e+00,1.977867126464843750e+00,1.977668166160583496e+00,1.977469086647033691e+00,1.977270364761352539e+00,1.977071642875671387e+00,1.976872682571411133e+00,1.976673960685729980e+00,1.976475119590759277e+00,1.976276516914367676e+00,1.976077675819396973e+00,1.975879192352294922e+00,1.975680708885192871e+00,1.975481986999511719e+00,1.975283622741699219e+00,1.975085258483886719e+00,1.974887013435363770e+00,1.974688410758972168e+00,1.974490165710449219e+00,1.974292039871215820e+00,1.974093675613403320e+00,1.973895549774169922e+00,1.973697423934936523e+00,1.973499178886413574e+00,1.973301172256469727e+00,1.973103165626525879e+00,1.972905039787292480e+00,1.972707152366638184e+00,1.972509384155273438e+00
1.777766823768615723e+00,1.777606129646301270e+00,1.777445316314697266e+00,1.777284741401672363e+00,1.777123928070068359e+00,1.776963472366333008e+00,1.776802897453308105e+00,1.776642203330993652e+00,1.776481747627258301e+00,1.776321053504943848e+00,1.776160717010498047e+00,1.776000142097473145e+00,1.775839805603027344e+00,1.775679469108581543e+00,1.775519013404846191e+00,1.775358676910400391e+00,1.775198340415954590e+00,1.775038123130798340e+00,1.774877667427062988e+00,1.774717569351196289e+00,1.774557232856750488e+00,1.774397134780883789e+00,1.774237155914306641e+00,1.774076938629150391e+00,1.773916840553283691e+00,1.773756742477416992e+00,1.773596763610839844e+00,1.773436665534973145e+00,1.773276805877685547e+00,1.773116946220397949e+00,1.772956848144531250e+00,1.772797107696533203e+00,1.772637128829956055e+00,1.772477388381958008e+00,1.772317409515380859e+00,1.772157788276672363e+00,1.771998047828674316e+00,1.771838307380676270e+00,1.771678686141967773e+00,1.771518945693969727e+00,1.771359324455261230e+00,1.771199703216552734e+00,1.771040201187133789e+00,1.770880699157714844e+00,1.770721077919006348e+00,1.770561695098876953e+00,1.770402193069458008e+00,1.770242810249328613e+00,1.770083308219909668e+00,1.769924044609069824e+00,1.769764780998229980e+00,1.769605278968811035e+00,1.769446134567260742e+00,1.769286751747131348e+00,1.769127607345581055e+00,1.768968343734741211e+00,1.768809199333190918e+00,1.768650174140930176e+00,1.768490910530090332e+00,1.768332004547119141e+00,1.768172740936279297e+00,1.768013834953308105e+00,1.767854690551757812e+00,1.767695903778076172e+00,1.767536759376525879e+00,1.767377972602844238e+00,1.767219185829162598e+00,1.767060279846191406e+00,1.766901493072509766e+00,1.766742825508117676e+00,1.766584038734436035e+00,1.766425251960754395e+00,1.766266584396362305e+00,1.766108036041259766e+00,1.765949249267578125e+00,1.765790700912475586e+00,1.765632271766662598e+00,1.765473604202270508e+00,1.765315175056457520e+00,1.765156745910644531e+00
1.607570052146911621e+00,1.607438445091247559e+00,1.607307076454162598e+00,1.607175588607788086e+00,1.607044339179992676e+00,1.606912851333618164e+00,1.606781601905822754e+00,1.606650352478027344e+00,1.606518983840942383e+00,1.606387734413146973e+00,1.606256365776062012e+00,1.606125235557556152e+00,1.605993866920471191e+00,1.605862855911254883e+00,1.605731725692749023e+00,1.605600476264953613e+00,1.605469346046447754e+00,1.605338215827941895e+00,1.605207204818725586e+00,1.605076074600219727e+00,1.604945063591003418e+00,1.604814171791076660e+00,1.604683041572570801e+00,1.604552149772644043e+00,1.604421138763427734e+00,1.604290246963500977e+00,1.604159235954284668e+00,1.604028344154357910e+00,1.603897452354431152e+00,1.603766679763793945e+00,1.603635907173156738e+00,1.603505015373229980e+00,1.603374242782592773e+00,1.603243470191955566e+00,1.603112816810607910e+00,1.602981925010681152e+00,1.602851271629333496e+00,1.602720737457275391e+00,1.602589964866638184e+00,1.602459430694580078e+00,1.602328658103942871e+00,1.602198123931884766e+00,1.602067470550537109e+00,1.601937055587768555e+00,1.601806521415710449e+00,1.601675987243652344e+00,1.601545572280883789e+00,1.601415038108825684e+00,1.601284623146057129e+00,1.601154088973999023e+00,1.601023793220520020e+00,1.600893497467041016e+00,1.600763082504272461e+00,1.600632786750793457e+00,1.600502371788024902e+00,1.600372195243835449e+00,1.600241780281066895e+00,1.600111603736877441e+00,1.599981427192687988e+00,1.599851131439208984e+00,1.599720954895019531e+00,1.599590659141540527e+00,1.599460601806640625e+00,1.599330425262451172e+00,1.599200367927551270e+00,1.599070429801940918e+00,1.598940253257751465e+00,1.598810315132141113e+00,1.598680138587951660e+00,1.598550200462341309e+00,1.598420143127441406e+00,1.598290324211120605e+00,1.598160386085510254e+00,1.598030567169189453e+00,1.597900629043579102e+00,1.597770810127258301e+00,1.597640991210937500e+00,1.597511053085327148e+00,1.597381353378295898e+00,1.597251653671264648e+00
1.467113733291625977e+00,1.467004299163818359e+00,1.466894865036010742e+00,1.466785430908203125e+00,1.466675877571105957e+00,1.466566562652587891e+00,1.466457128524780273e+00,1.466347694396972656e+00,1.466238379478454590e+00,1.466129064559936523e+00,1.466019749641418457e+00,1.465910315513610840e+00,1.465801119804382324e+00,1.465691685676574707e+00,1.465582489967346191e+00,1.465473294258117676e+00,1.465363979339599609e+00,1.465254783630371094e+00,1.465145587921142578e+00,1.465036392211914062e+00,1.464927196502685547e+00,1.464818120002746582e+00,1.464708924293518066e+00,1.464599728584289551e+00,1.464490771293640137e+00,1.464381575584411621e+00,1.464272499084472656e+00,1.464163422584533691e+00,1.464054465293884277e+00,1.463945269584655762e+00,1.463836312294006348e+00,1.463727474212646484e+00,1.463618397712707520e+00,1.463509440422058105e+00,1.463400483131408691e+00,1.463291525840759277e+00,1.463182568550109863e+00,1.463073730468750000e+00,1.462964892387390137e+00,1.462855935096740723e+00,1.462747216224670410e+00,1.462638258934020996e+00,1.462529540061950684e+00,1.462420701980590820e+00,1.462311983108520508e+00,1.462203264236450195e+00,1.462094426155090332e+00,1.461985707283020020e+00,1.461876988410949707e+00,1.461768269538879395e+00,1.461659550666809082e+00,1.461550951004028320e+00,1.461442351341247559e+00,1.461333632469177246e+00,1.461225032806396484e+00,1.461116433143615723e+00,1.461007833480834961e+00,1.460899233818054199e+00,1.460790753364562988e+00,1.460682272911071777e+00,1.460573673248291016e+00,1.460465192794799805e+00,1.460356593132019043e+00,1.460248231887817383e+00,1.460139632225036621e+00,1.460031270980834961e+00,1.459922909736633301e+00,1.459814429283142090e+00,1.459706068038940430e+00,1.459597587585449219e+00,1.459489345550537109e+00,1.459380865097045898e+00,1.459272623062133789e+00,1.459164261817932129e+00,1.459056019783020020e+00,1.458947777748107910e+00,1.458839535713195801e+00,1.458731174468994141e+00,1.458623051643371582e+00,1.458514809608459473e+00
1.349229216575622559e+00,1.349136710166931152e+00,1.349044084548950195e+00,1.348951458930969238e+00,1.348858952522277832e+00,1.348766326904296875e+00,1.348673939704895020e+00,1.348581314086914062e+00,1.348488807678222656e+00,1.348396420478820801e+00,1.348303914070129395e+00,1.348211407661437988e+00,1.348118901252746582e+00,1.348026514053344727e+00,1.347934007644653320e+00,1.347841620445251465e+00,1.347749352455139160e+00,1.347656846046447754e+00,1.347564578056335449e+00,1.347472071647644043e+00,1.347379803657531738e+00,1.347287416458129883e+00,1.347195148468017578e+00,1.347102880477905273e+00,1.347010493278503418e+00,1.346918225288391113e+00,1.346825957298278809e+00,1.346733689308166504e+00,1.346641421318054199e+00,1.346549153327941895e+00,1.346456885337829590e+00,1.346364736557006836e+00,1.346272587776184082e+00,1.346180319786071777e+00,1.346088171005249023e+00,1.345996022224426270e+00,1.345903873443603516e+00,1.345811605453491211e+00,1.345719575881958008e+00,1.345627546310424805e+00,1.345535397529602051e+00,1.345443248748779297e+00,1.345351219177246094e+00,1.345259189605712891e+00,1.345167040824890137e+00,1.345075011253356934e+00,1.344983100891113281e+00,1.344890952110290527e+00,1.344799041748046875e+00,1.344707012176513672e+00,1.344615101814270020e+00,1.344523072242736816e+00,1.344431161880493164e+00,1.344339251518249512e+00,1.344247221946716309e+00,1.344155430793762207e+00,1.344063401222229004e+00,1.343971610069274902e+00,1.343879580497741699e+00,1.343787789344787598e+00,1.343695998191833496e+00,1.343604087829589844e+00,1.343512296676635742e+00,1.343420505523681641e+00,1.343328714370727539e+00,1.343236804008483887e+00,1.343145132064819336e+00,1.343053460121154785e+00,1.342961549758911133e+00,1.342869877815246582e+00,1.342778086662292480e+00,1.342686414718627930e+00,1.342594623565673828e+00,1.342503070831298828e+00,1.342411279678344727e+00,1.342319726943969727e+00,1.342228055000305176e+00,1.342136383056640625e+00,1.342044830322265625e+00,1.341953277587890625e+00
1.248880147933959961e+00,1.248800754547119141e+00,1.248721480369567871e+00,1.248642206192016602e+00,1.248562812805175781e+00,1.248483538627624512e+00,1.248404264450073242e+00,1.248324990272521973e+00,1.248245716094970703e+00,1.248166441917419434e+00,1.248087286949157715e+00,1.248008012771606445e+00,1.247928857803344727e+00,1.247849583625793457e+00,1.247770428657531738e+00,1.247691154479980469e+00,1.247611999511718750e+00,1.247532844543457031e+00,1.247453689575195312e+00,1.247374534606933594e+00,1.247295379638671875e+00,1.247216224670410156e+00,1.247137069702148438e+00,1.247058033943176270e+00,1.246978878974914551e+00,1.246899724006652832e+00,1.246820688247680664e+00,1.246741652488708496e+00,1.246662616729736328e+00,1.246583461761474609e+00,1.246504426002502441e+00,1.246425509452819824e+00,1.246346354484558105e+00,1.246267437934875488e+00,1.246188402175903320e+00,1.246109366416931152e+00,1.246030330657958984e+00,1.245951414108276367e+00,1.245872378349304199e+00,1.245793461799621582e+00,1.245714664459228516e+00,1.245635628700256348e+00,1.245556712150573730e+00,1.245477795600891113e+00,1.245398879051208496e+00,1.245319962501525879e+00,1.245241165161132812e+00,1.245162248611450195e+00,1.245083332061767578e+00,1.245004534721374512e+00,1.244925618171691895e+00,1.244846820831298828e+00,1.244768023490905762e+00,1.244689226150512695e+00,1.244610428810119629e+00,1.244531631469726562e+00,1.244452834129333496e+00,1.244374036788940430e+00,1.244295358657836914e+00,1.244216561317443848e+00,1.244137763977050781e+00,1.244059085845947266e+00,1.243980407714843750e+00,1.243901729583740234e+00,1.243822932243347168e+00,1.243744254112243652e+00,1.243665575981140137e+00,1.243586897850036621e+00,1.243508338928222656e+00,1.243429541587829590e+00,1.243350982666015625e+00,1.243272304534912109e+00,1.243193745613098145e+00,1.243115067481994629e+00,1.243036508560180664e+00,1.242957949638366699e+00,1.242879271507263184e+00,1.242800712585449219e+00,1.242722153663635254e+00,1.242643594741821289e+00
1.162424564361572266e+00,1.162355899810791016e+00,1.162287116050720215e+00,1.162218451499938965e+00,1.162149786949157715e+00,1.162081003189086914e+00,1.162012457847595215e+00,1.161943674087524414e+00,1.161875009536743164e+00,1.161806344985961914e+00,1.161737680435180664e+00,1.161669135093688965e+00,1.161600351333618164e+00,1.161531805992126465e+00,1.161463141441345215e+00,1.161394596099853516e+00,1.161325931549072266e+00,1.161257266998291016e+00,1.161188721656799316e+00,1.161120176315307617e+00,1.161051630973815918e+00,1.160982966423034668e+00,1.160914421081542969e+00,1.160845875740051270e+00,1.160777330398559570e+00,1.160708785057067871e+00,1.160640239715576172e+00,1.160571813583374023e+00,1.160503268241882324e+00,1.160434722900390625e+00,1.160366177558898926e+00,1.160297751426696777e+00,1.160229206085205078e+00,1.160160779953002930e+00,1.160092353820800781e+00,1.160023808479309082e+00,1.159955382347106934e+00,1.159886956214904785e+00,1.159818530082702637e+00,1.159750103950500488e+00,1.159681677818298340e+00,1.159613370895385742e+00,1.159544825553894043e+00,1.159476518630981445e+00,1.159408092498779297e+00,1.159339785575866699e+00,1.159271359443664551e+00,1.159203052520751953e+00,1.159134745597839355e+00,1.159066319465637207e+00,1.158998012542724609e+00,1.158929586410522461e+00,1.158861398696899414e+00,1.158792972564697266e+00,1.158724665641784668e+00,1.158656477928161621e+00,1.158588171005249023e+00,1.158519864082336426e+00,1.158451557159423828e+00,1.158383369445800781e+00,1.158315062522888184e+00,1.158246874809265137e+00,1.158178687095642090e+00,1.158110380172729492e+00,1.158042192459106445e+00,1.157973885536193848e+00,1.157905697822570801e+00,1.157837510108947754e+00,1.157769322395324707e+00,1.157701253890991211e+00,1.157632946968078613e+00,1.157564878463745117e+00,1.157496690750122070e+00,1.157428503036499023e+00,1.157360315322875977e+00,1.157292246818542480e+00,1.157224178314208984e+00,1.157155990600585938e+00,1.157087922096252441e+00,1.157019734382629395e+00
1.087164163589477539e+00,1.087103962898254395e+00,1.087043881416320801e+00,1.086983799934387207e+00,1.086923718452453613e+00,1.086863636970520020e+00,1.086803555488586426e+00,1.086743474006652832e+00,1.086683392524719238e+00,1.086623311042785645e+00,1.086563229560852051e+00,1.086503148078918457e+00,1.086443185806274414e+00,1.086383104324340820e+00,1.086323142051696777e+00,1.086263060569763184e+00,1.086202979087829590e+00,1.086143016815185547e+00,1.086083054542541504e+00,1.086023092269897461e+00,1.085963010787963867e+00,1.085903048515319824e+00,1.085843086242675781e+00,1.085783123970031738e+00,1.085723042488098145e+00,1.085663199424743652e+00,1.085603237152099609e+00,1.085543274879455566e+00,1.085483312606811523e+00,1.085423350334167480e+00,1.085363507270812988e+00,1.085303544998168945e+00,1.085243582725524902e+00,1.085183739662170410e+00,1.085123777389526367e+00,1.085063934326171875e+00,1.085003972053527832e+00,1.084944128990173340e+00,1.084884285926818848e+00,1.084824442863464355e+00,1.084764480590820312e+00,1.084704637527465820e+00,1.084644913673400879e+00,1.084584951400756836e+00,1.084525227546691895e+00,1.084465265274047852e+00,1.084405541419982910e+00,1.084345698356628418e+00,1.084285855293273926e+00,1.084226131439208984e+00,1.084166288375854492e+00,1.084106564521789551e+00,1.084046721458435059e+00,1.083986997604370117e+00,1.083927154541015625e+00,1.083867430686950684e+00,1.083807706832885742e+00,1.083747863769531250e+00,1.083688259124755859e+00,1.083628416061401367e+00,1.083568692207336426e+00,1.083508968353271484e+00,1.083449244499206543e+00,1.083389639854431152e+00,1.083329916000366211e+00,1.083270192146301270e+00,1.083210468292236328e+00,1.083150863647460938e+00,1.083091139793395996e+00,1.083031415939331055e+00,1.082971811294555664e+00,1.082912087440490723e+00,1.082852482795715332e+00,1.082792878150939941e+00,1.082733154296875000e+00,1.082673549652099609e+00,1.082613945007324219e+00,1.082554340362548828e+00,1.082494735717773438e+00,1.082435131072998047e+00
1.021056413650512695e+00,1.021003365516662598e+00,1.020950317382812500e+00,1.020897388458251953e+00,1.020844340324401855e+00,1.020791292190551758e+00,1.020738363265991211e+00,1.020685315132141113e+00,1.020632386207580566e+00,1.020579338073730469e+00,1.020526409149169922e+00,1.020473361015319824e+00,1.020420432090759277e+00,1.020367503166198730e+00,1.020314455032348633e+00,1.020261526107788086e+00,1.020208597183227539e+00,1.020155668258666992e+00,1.020102739334106445e+00,1.020049810409545898e+00,1.019996881484985352e+00,1.019943952560424805e+00,1.019891023635864258e+00,1.019838094711303711e+00,1.019785284996032715e+00,1.019732356071472168e+00,1.019679427146911621e+00,1.019626617431640625e+00,1.019573688507080078e+00,1.019520759582519531e+00,1.019467949867248535e+00,1.019415020942687988e+00,1.019362211227416992e+00,1.019309401512145996e+00,1.019256472587585449e+00,1.019203662872314453e+00,1.019150853157043457e+00,1.019097924232482910e+00,1.019045114517211914e+00,1.018992304801940918e+00,1.018939495086669922e+00,1.018886685371398926e+00,1.018833875656127930e+00,1.018781185150146484e+00,1.018728256225585938e+00,1.018675565719604492e+00,1.018622756004333496e+00,1.018569946289062500e+00,1.018517136573791504e+00,1.018464446067810059e+00,1.018411636352539062e+00,1.018358945846557617e+00,1.018306136131286621e+00,1.018253445625305176e+00,1.018200635910034180e+00,1.018147945404052734e+00,1.018095254898071289e+00,1.018042564392089844e+00,1.017989754676818848e+00,1.017937064170837402e+00,1.017884373664855957e+00,1.017831683158874512e+00,1.017778873443603516e+00,1.017726302146911621e+00,1.017673611640930176e+00,1.017620921134948730e+00,1.017568230628967285e+00,1.017515540122985840e+00,1.017462849617004395e+00,1.017410159111022949e+00,1.017357587814331055e+00,1.017305016517639160e+00,1.017252326011657715e+00,1.017199635505676270e+00,1.017147064208984375e+00,1.017094373703002930e+00,1.017041802406311035e+00,1.016989111900329590e+00,1.016936540603637695e+00,1.016883969306945801e+00
