2.301673889160156250e+00,2.294439792633056641e+00,2.287251234054565430e+00,2.280107498168945312e+00,2.273008584976196289e+00,2.265953063964843750e+00,2.258941888809204102e+00,2.251973628997802734e+00,2.245048284530639648e+00,2.238165140151977539e+00,2.231324434280395508e+00,2.224525451660156250e+00,2.217767477035522461e+00,2.211050748825073242e+00,2.204374313354492188e+00,2.197738170623779297e+00,2.191141843795776367e+00,2.184585094451904297e+00,2.178067445755004883e+00,2.171588420867919922e+00,2.165148019790649414e+00,2.158745527267456055e+00,2.152380943298339844e+00,2.146053791046142578e+00,2.139763593673706055e+00,2.133510112762451172e+00,2.127293348312377930e+00,2.121112585067749023e+00,2.114967346191406250e+00,2.108858108520507812e+00,2.102783679962158203e+00,2.096744298934936523e+00,2.090739488601684570e+00,2.084769010543823242e+00,2.078832387924194336e+00,2.072929620742797852e+00,2.067060232162475586e+00,2.061223983764648438e+00,2.055420637130737305e+00,2.049649953842163086e+00,2.043911457061767578e+00,2.038205146789550781e+00,2.032530307769775391e+00,2.026887416839599609e+00,2.021275281906127930e+00,2.015694379806518555e+00,2.010144233703613281e+00,2.004624605178833008e+00,1.999135136604309082e+00,1.993675708770751953e+00,1.988246083259582520e+00,1.982845902442932129e+00,1.977474927902221680e+00,1.972132802009582520e+00,1.966819763183593750e+00,1.961535096168518066e+00,1.956278920173645020e+00,1.951050519943237305e+00,1.945850253105163574e+00,1.940677523612976074e+00,1.935532450675964355e+00,1.930414199829101562e+00,1.925323247909545898e+00,1.920258998870849609e+00,1.915221333503723145e+00,1.910209774971008301e+00,1.905224680900573730e+00,1.900265455245971680e+00,1.895332098007202148e+00,1.890424013137817383e+00,1.885541439056396484e+00,1.880684018135070801e+00,1.875851631164550781e+00,1.871043801307678223e+00,1.866260766983032227e+00,1.861502051353454590e+00,1.856767654418945312e+00,1.852057099342346191e+00,1.847370386123657227e+00,1.842707514762878418e+00
2.301664113998413086e+00,2.294430255889892578e+00,2.287241697311401367e+00,2.280098199844360352e+00,2.272999048233032227e+00,2.265943765640258789e+00,2.258932590484619141e+00,2.251964330673217773e+00,2.245038986206054688e+00,2.238156080245971680e+00,2.231315374374389648e+00,2.224516153335571289e+00,2.217758655548095703e+00,2.211041688919067383e+00,2.204365491867065430e+00,2.197729349136352539e+00,2.191133022308349609e+00,2.184576272964477539e+00,2.178058624267578125e+00,2.171579837799072266e+00,2.165139436721801758e+00,2.158736944198608398e+00,2.152372360229492188e+00,2.146045446395874023e+00,2.139755249023437500e+00,2.133502006530761719e+00,2.127285003662109375e+00,2.121104240417480469e+00,2.114959239959716797e+00,2.108850002288818359e+00,2.102775573730468750e+00,2.096736431121826172e+00,2.090731620788574219e+00,2.084761142730712891e+00,2.078824520111083984e+00,2.072921752929687500e+00,2.067052364349365234e+00,2.061216354370117188e+00,2.055413007736206055e+00,2.049642324447631836e+00,2.043903827667236328e+00,2.038197517395019531e+00,2.032522916793823242e+00,2.026879787445068359e+00,2.021267890930175781e+00,2.015686988830566406e+00,2.010136842727661133e+00,2.004617214202880859e+00,1.999127984046936035e+00,1.993668675422668457e+00,1.988238692283630371e+00,1.982838630676269531e+00,1.977467775344848633e+00,1.972125768661499023e+00,1.966812610626220703e+00,1.961528062820434570e+00,1.956271767616271973e+00,1.951043725013732910e+00,1.945843219757080078e+00,1.940670609474182129e+00,1.935525417327880859e+00,1.930407524108886719e+00,1.925316333770751953e+00,1.920252203941345215e+00,1.915214538574218750e+00,1.910203337669372559e+00,1.905218243598937988e+00,1.900258779525756836e+00,1.895325422286987305e+00,1.890417575836181641e+00,1.885535120964050293e+00,1.880677580833435059e+00,1.875845193862915039e+00,1.871037602424621582e+00,1.866254568099975586e+00,1.861495733261108398e+00,1.856761217117309570e+00,1.852050900459289551e+00,1.847364306449890137e+00,1.842701196670532227e+00
2.301654577255249023e+00,2.294420719146728516e+00,2.287232160568237305e+00,2.280088663101196289e+00,2.272989749908447266e+00,2.265934467315673828e+00,2.258923292160034180e+00,2.251955032348632812e+00,2.245029926300048828e+00,2.238147020339965820e+00,2.231306314468383789e+00,2.224507331848144531e+00,2.217749595642089844e+00,2.211032867431640625e+00,2.204356670379638672e+00,2.197720527648925781e+00,2.191124439239501953e+00,2.184567689895629883e+00,2.178050041198730469e+00,2.171571254730224609e+00,2.165130853652954102e+00,2.158728599548339844e+00,2.152364015579223633e+00,2.146036863327026367e+00,2.139746904373168945e+00,2.133493423461914062e+00,2.127276897430419922e+00,2.121095895767211914e+00,2.114951133728027344e+00,2.108841657638549805e+00,2.102767705917358398e+00,2.096728324890136719e+00,2.090723514556884766e+00,2.084753036499023438e+00,2.078816652297973633e+00,2.072913885116577148e+00,2.067044734954833984e+00,2.061208724975585938e+00,2.055405378341674805e+00,2.049634695053100586e+00,2.043896198272705078e+00,2.038189888000488281e+00,2.032515287399291992e+00,2.026872396469116211e+00,2.021260499954223633e+00,2.015679597854614258e+00,2.010129690170288086e+00,2.004610061645507812e+00,1.999120593070983887e+00,1.993661284446716309e+00,1.988231658935546875e+00,1.982831597328186035e+00,1.977460503578186035e+00,1.972118616104125977e+00,1.966805696487426758e+00,1.961521148681640625e+00,1.956264734268188477e+00,1.951036691665649414e+00,1.945836424827575684e+00,1.940663933753967285e+00,1.935518503189086914e+00,1.930400609970092773e+00,1.925309658050537109e+00,1.920245647430419922e+00,1.915207743644714355e+00,1.910196542739868164e+00,1.905211448669433594e+00,1.900252342224121094e+00,1.895318746566772461e+00,1.890411019325256348e+00,1.885528445243835449e+00,1.880671262741088867e+00,1.875838637351989746e+00,1.871031045913696289e+00,1.866248130798339844e+00,1.861489534378051758e+00,1.856754899024963379e+00,1.852044582366943359e+00,1.847357988357543945e+00,1.842695116996765137e+00
2.301644802093505859e+00,2.294411182403564453e+00,2.287222623825073242e+00,2.280079126358032227e+00,2.272980213165283203e+00,2.265925168991088867e+00,2.258913755416870117e+00,2.251945972442626953e+00,2.245020627975463867e+00,2.238137960433959961e+00,2.231297254562377930e+00,2.224498271942138672e+00,2.217740774154663086e+00,2.211023807525634766e+00,2.204347848892211914e+00,2.197711706161499023e+00,2.191115617752075195e+00,2.184559106826782227e+00,2.178041458129882812e+00,2.171562671661376953e+00,2.165122509002685547e+00,2.158720016479492188e+00,2.152355670928955078e+00,2.146028518676757812e+00,2.139738559722900391e+00,2.133485317230224609e+00,2.127268552780151367e+00,2.121087789535522461e+00,2.114943027496337891e+00,2.108833551406860352e+00,2.102759599685668945e+00,2.096720218658447266e+00,2.090715646743774414e+00,2.084745168685913086e+00,2.078808784484863281e+00,2.072906017303466797e+00,2.067036867141723633e+00,2.061200857162475586e+00,2.055397748947143555e+00,2.049626827239990234e+00,2.043888568878173828e+00,2.038182258605957031e+00,2.032507896423339844e+00,2.026864767074584961e+00,2.021253108978271484e+00,2.015672206878662109e+00,2.010122299194335938e+00,2.004602670669555664e+00,1.999113440513610840e+00,1.993653893470764160e+00,1.988224387168884277e+00,1.982824325561523438e+00,1.977453470230102539e+00,1.972111701965332031e+00,1.966798543930053711e+00,1.961513996124267578e+00,1.956257820129394531e+00,1.951029896736145020e+00,1.945829391479492188e+00,1.940656900405883789e+00,1.935511827468872070e+00,1.930393934249877930e+00,1.925302863121032715e+00,1.920238733291625977e+00,1.915201187133789062e+00,1.910189986228942871e+00,1.905204772949218750e+00,1.900245666503906250e+00,1.895312309265136719e+00,1.890404582023620605e+00,1.885521888732910156e+00,1.880664706230163574e+00,1.875832319259643555e+00,1.871024847030639648e+00,1.866241693496704102e+00,1.861483097076416016e+00,1.856748700141906738e+00,1.852038502693176270e+00,1.847351670265197754e+00,1.842688798904418945e+00
2.301635026931762695e+00,2.294401645660400391e+00,2.287213087081909180e+00,2.280069828033447266e+00,2.272970676422119141e+00,2.265915870666503906e+00,2.258904457092285156e+00,2.251936674118041992e+00,2.245011329650878906e+00,2.238128900527954102e+00,2.231288194656372070e+00,2.224489212036132812e+00,2.217731714248657227e+00,2.211014986038208008e+00,2.204338788986206055e+00,2.197702884674072266e+00,2.191106796264648438e+00,2.184550285339355469e+00,2.178032636642456055e+00,2.171554088592529297e+00,2.165113925933837891e+00,2.158711671829223633e+00,2.152347087860107422e+00,2.146020174026489258e+00,2.139730215072631836e+00,2.133476972579956055e+00,2.127260446548461914e+00,2.121079683303833008e+00,2.114934921264648438e+00,2.108825445175170898e+00,2.102751493453979492e+00,2.096712350845336914e+00,2.090707778930664062e+00,2.084737300872802734e+00,2.078801155090332031e+00,2.072898149490356445e+00,2.067029237747192383e+00,2.061192989349365234e+00,2.055390119552612305e+00,2.049619197845458984e+00,2.043881177902221680e+00,2.038174867630004883e+00,2.032500267028808594e+00,2.026857376098632812e+00,2.021245718002319336e+00,2.015664815902709961e+00,2.010114908218383789e+00,2.004595279693603516e+00,1.999106049537658691e+00,1.993646860122680664e+00,1.988217234611511230e+00,1.982817053794860840e+00,1.977446317672729492e+00,1.972104549407958984e+00,1.966791629791259766e+00,1.961506962776184082e+00,1.956250786781311035e+00,1.951022863388061523e+00,1.945822715759277344e+00,1.940649986267089844e+00,1.935504913330078125e+00,1.930387020111083984e+00,1.925296187400817871e+00,1.920232176780700684e+00,1.915194392204284668e+00,1.910183310508728027e+00,1.905198335647583008e+00,1.900239229202270508e+00,1.895305752754211426e+00,1.890398025512695312e+00,1.885515570640563965e+00,1.880658388137817383e+00,1.875825881958007812e+00,1.871018409729003906e+00,1.866235494613647461e+00,1.861476898193359375e+00,1.856742382049560547e+00,1.852032065391540527e+00,1.847345590591430664e+00,1.842682838439941406e+00
2.301625490188598633e+00,2.294391870498657227e+00,2.287203550338745117e+00,2.280060291290283203e+00,2.272961378097534180e+00,2.265906572341918945e+00,2.258895397186279297e+00,2.251927375793457031e+00,2.245002269744873047e+00,2.238119840621948242e+00,2.231279134750366211e+00,2.224480390548706055e+00,2.217722654342651367e+00,2.211006164550781250e+00,2.204329967498779297e+00,2.197694063186645508e+00,2.191097974777221680e+00,2.184541702270507812e+00,2.178024053573608398e+00,2.171545505523681641e+00,2.165105342864990234e+00,2.158703088760375977e+00,2.152338743209838867e+00,2.146011829376220703e+00,2.139721870422363281e+00,2.133468627929687500e+00,2.127251863479614258e+00,2.121071338653564453e+00,2.114926576614379883e+00,2.108817577362060547e+00,2.102743387222290039e+00,2.096704244613647461e+00,2.090699672698974609e+00,2.084729433059692383e+00,2.078793287277221680e+00,2.072890520095825195e+00,2.067021369934082031e+00,2.061185359954833984e+00,2.055382251739501953e+00,2.049611568450927734e+00,2.043873548507690430e+00,2.038167238235473633e+00,2.032492876052856445e+00,2.026849746704101562e+00,2.021238327026367188e+00,2.015657424926757812e+00,2.010107517242431641e+00,2.004587888717651367e+00,1.999098896980285645e+00,1.993639469146728516e+00,1.988209962844848633e+00,1.982810020446777344e+00,1.977439284324645996e+00,1.972097277641296387e+00,1.966784477233886719e+00,1.961500048637390137e+00,1.956243991851806641e+00,1.951015830039978027e+00,1.945815682411193848e+00,1.940643191337585449e+00,1.935498237609863281e+00,1.930380225181579590e+00,1.925289392471313477e+00,1.920225381851196289e+00,1.915187835693359375e+00,1.910176515579223633e+00,1.905191659927368164e+00,1.900232553482055664e+00,1.895299315452575684e+00,1.890391349792480469e+00,1.885509014129638672e+00,1.880651831626892090e+00,1.875819563865661621e+00,1.871011853218078613e+00,1.866229057312011719e+00,1.861470460891723633e+00,1.856736183166503906e+00,1.852025985717773438e+00,1.847339272499084473e+00,1.842676520347595215e+00
2.301615953445434570e+00,2.294382333755493164e+00,2.287194013595581055e+00,2.280050754547119141e+00,2.272951841354370117e+00,2.265897035598754883e+00,2.258886098861694336e+00,2.251918315887451172e+00,2.244993209838867188e+00,2.238110542297363281e+00,2.231270074844360352e+00,2.224471330642700195e+00,2.217713832855224609e+00,2.210997104644775391e+00,2.204321146011352539e+00,2.197685480117797852e+00,2.191089391708374023e+00,2.184532880783081055e+00,2.178015470504760742e+00,2.171536922454833984e+00,2.165096759796142578e+00,2.158694744110107422e+00,2.152330160140991211e+00,2.146003246307373047e+00,2.139713525772094727e+00,2.133460283279418945e+00,2.127243757247924805e+00,2.121063232421875000e+00,2.114918470382690430e+00,2.108809471130371094e+00,2.102735280990600586e+00,2.096696138381958008e+00,2.090691566467285156e+00,2.084721565246582031e+00,2.078785181045532227e+00,2.072882652282714844e+00,2.067013502120971680e+00,2.061177730560302734e+00,2.055374622344970703e+00,2.049603939056396484e+00,2.043865680694580078e+00,2.038159608840942383e+00,2.032485246658325195e+00,2.026842355728149414e+00,2.021230697631835938e+00,2.015650033950805664e+00,2.010100126266479492e+00,2.004580736160278320e+00,1.999091506004333496e+00,1.993632316589355469e+00,1.988202929496765137e+00,1.982802748680114746e+00,1.977432131767272949e+00,1.972090363502502441e+00,1.966777563095092773e+00,1.961492896080017090e+00,1.956236839294433594e+00,1.951009035110473633e+00,1.945808887481689453e+00,1.940636277198791504e+00,1.935491323471069336e+00,1.930373549461364746e+00,1.925282716751098633e+00,1.920218586921691895e+00,1.915181040763854980e+00,1.910170078277587891e+00,1.905185103416442871e+00,1.900225877761840820e+00,1.895292639732360840e+00,1.890385031700134277e+00,1.885502696037292480e+00,1.880645275115966797e+00,1.875813126564025879e+00,1.871005654335021973e+00,1.866222858428955078e+00,1.861464142799377441e+00,1.856729865074157715e+00,1.852019667625427246e+00,1.847333192825317383e+00,1.842670202255249023e+00
2.301606178283691406e+00,2.294372797012329102e+00,2.287184476852416992e+00,2.280041217803955078e+00,2.272942543029785156e+00,2.265887737274169922e+00,2.258876800537109375e+00,2.251908779144287109e+00,2.244983911514282227e+00,2.238101243972778320e+00,2.231261014938354492e+00,2.224462032318115234e+00,2.217704772949218750e+00,2.210988283157348633e+00,2.204312324523925781e+00,2.197676420211791992e+00,2.191080570220947266e+00,2.184524059295654297e+00,2.178006887435913086e+00,2.171528339385986328e+00,2.165088176727294922e+00,2.158686161041259766e+00,2.152321815490722656e+00,2.145994901657104492e+00,2.139705181121826172e+00,2.133452177047729492e+00,2.127235412597656250e+00,2.121055126190185547e+00,2.114910364151000977e+00,2.108801364898681641e+00,2.102727174758911133e+00,2.096688270568847656e+00,2.090683698654174805e+00,2.084713459014892578e+00,2.078777313232421875e+00,2.072874784469604492e+00,2.067005634307861328e+00,2.061169862747192383e+00,2.055366754531860352e+00,2.049596309661865234e+00,2.043858051300048828e+00,2.038152217864990234e+00,2.032477617263793945e+00,2.026834964752197266e+00,2.021223306655883789e+00,2.015642642974853516e+00,2.010092735290527344e+00,2.004573345184326172e+00,1.999084115028381348e+00,1.993625044822692871e+00,1.988195657730102539e+00,1.982795715332031250e+00,1.977424860000610352e+00,1.972083210945129395e+00,1.966770410537719727e+00,1.961486101150512695e+00,1.956229805946350098e+00,1.951002001762390137e+00,1.945801854133605957e+00,1.940629601478576660e+00,1.935484409332275391e+00,1.930366635322570801e+00,1.925275921821594238e+00,1.920211911201477051e+00,1.915174484252929688e+00,1.910163283348083496e+00,1.905178427696228027e+00,1.900219440460205078e+00,1.895286202430725098e+00,1.890378355979919434e+00,1.885496020317077637e+00,1.880638957023620605e+00,1.875806808471679688e+00,1.870999217033386230e+00,1.866216421127319336e+00,1.861457943916320801e+00,1.856723666191101074e+00,1.852013349533081055e+00,1.847326874732971191e+00,1.842664122581481934e+00
2.301596641540527344e+00,2.294363021850585938e+00,2.287174940109252930e+00,2.280031681060791016e+00,2.272933244705200195e+00,2.265878438949584961e+00,2.258867502212524414e+00,2.251899719238281250e+00,2.244974851608276367e+00,2.238092184066772461e+00,2.231251955032348633e+00,2.224453210830688477e+00,2.217695951461791992e+00,2.210979223251342773e+00,2.204303503036499023e+00,2.197667598724365234e+00,2.191071987152099609e+00,2.184515476226806641e+00,2.177998304367065430e+00,2.171519756317138672e+00,2.165079593658447266e+00,2.158677577972412109e+00,2.152313470840454102e+00,2.145986557006835938e+00,2.139696836471557617e+00,2.133443593978881836e+00,2.127227306365966797e+00,2.121046781539916992e+00,2.114902257919311523e+00,2.108793020248413086e+00,2.102719306945800781e+00,2.096680164337158203e+00,2.090675830841064453e+00,2.084705591201782227e+00,2.078769445419311523e+00,2.072866916656494141e+00,2.066998004913330078e+00,2.061162233352661133e+00,2.055359125137329102e+00,2.049588680267333984e+00,2.043850660324096680e+00,2.038144588470458984e+00,2.032470226287841797e+00,2.026827335357666016e+00,2.021215915679931641e+00,2.015635251998901367e+00,2.010085344314575195e+00,2.004565954208374023e+00,1.999076962471008301e+00,1.993617892265319824e+00,1.988188266754150391e+00,1.982788562774658203e+00,1.977417826652526855e+00,1.972076177597045898e+00,1.966763257980346680e+00,1.961478948593139648e+00,1.956223011016845703e+00,1.950995206832885742e+00,1.945794939994812012e+00,1.940622568130493164e+00,1.935477733612060547e+00,1.930359959602355957e+00,1.925269007682800293e+00,1.920205116271972656e+00,1.915167689323425293e+00,1.910156726837158203e+00,1.905171751976013184e+00,1.900212764739990234e+00,1.895279645919799805e+00,1.890372037887573242e+00,1.885489463806152344e+00,1.880632400512695312e+00,1.875800251960754395e+00,1.870992898941040039e+00,1.866210103034973145e+00,1.861451506614685059e+00,1.856717348098754883e+00,1.852007150650024414e+00,1.847320795059204102e+00,1.842657923698425293e+00
2.301586866378784180e+00,2.294353485107421875e+00,2.287165641784667969e+00,2.280022382736206055e+00,2.272923707962036133e+00,2.265868902206420898e+00,2.258858203887939453e+00,2.251890420913696289e+00,2.244965553283691406e+00,2.238083124160766602e+00,2.231242895126342773e+00,2.224444150924682617e+00,2.217686891555786133e+00,2.210970401763916016e+00,2.204294681549072266e+00,2.197659015655517578e+00,2.191063165664672852e+00,2.184506893157958984e+00,2.177989482879638672e+00,2.171511173248291016e+00,2.165071249008178711e+00,2.158669233322143555e+00,2.152304887771606445e+00,2.145978212356567383e+00,2.139688491821289062e+00,2.133435487747192383e+00,2.127218961715698242e+00,2.121038675308227539e+00,2.114894151687622070e+00,2.108784914016723633e+00,2.102711200714111328e+00,2.096672058105468750e+00,2.090667724609375000e+00,2.084697723388671875e+00,2.078761577606201172e+00,2.072859048843383789e+00,2.066990137100219727e+00,2.061154365539550781e+00,2.055351495742797852e+00,2.049581050872802734e+00,2.043843030929565430e+00,2.038136959075927734e+00,2.032462596893310547e+00,2.026819944381713867e+00,2.021208286285400391e+00,2.015627861022949219e+00,2.010077953338623047e+00,2.004558801651000977e+00,1.999069571495056152e+00,1.993610620498657227e+00,1.988181233406066895e+00,1.982781529426574707e+00,1.977410674095153809e+00,1.972069025039672852e+00,1.966756343841552734e+00,1.961472034454345703e+00,1.956215858459472656e+00,1.950988173484802246e+00,1.945788145065307617e+00,1.940615892410278320e+00,1.935470819473266602e+00,1.930353045463562012e+00,1.925262451171875000e+00,1.920198559761047363e+00,1.915160894393920898e+00,1.910150051116943359e+00,1.905165195465087891e+00,1.900206327438354492e+00,1.895272970199584961e+00,1.890365362167358398e+00,1.885483145713806152e+00,1.880626082420349121e+00,1.875793814659118652e+00,1.870986461639404297e+00,1.866203665733337402e+00,1.861445307731628418e+00,1.856710910797119141e+00,1.852000832557678223e+00,1.847314476966857910e+00,1.842651844024658203e+00
2.301577091217041016e+00,2.294343948364257812e+00,2.287155866622924805e+00,2.280012845993041992e+00,2.272914171218872070e+00,2.265859603881835938e+00,2.258848667144775391e+00,2.251881122589111328e+00,2.244956254959106445e+00,2.238074064254760742e+00,2.231233596801757812e+00,2.224435091018676758e+00,2.217677831649780273e+00,2.210961580276489258e+00,2.204285621643066406e+00,2.197650194168090820e+00,2.191054344177246094e+00,2.184498071670532227e+00,2.177980899810791016e+00,2.171502590179443359e+00,2.165062665939331055e+00,2.158660650253295898e+00,2.152296543121337891e+00,2.145969629287719727e+00,2.139680147171020508e+00,2.133427143096923828e+00,2.127210855484008789e+00,2.121030330657958984e+00,2.114886045455932617e+00,2.108776807785034180e+00,2.102703094482421875e+00,2.096664190292358398e+00,2.090659856796264648e+00,2.084689617156982422e+00,2.078753709793090820e+00,2.072851181030273438e+00,2.066982507705688477e+00,2.061146497726440430e+00,2.055343866348266602e+00,2.049573421478271484e+00,2.043835401535034180e+00,2.038129329681396484e+00,2.032455205917358398e+00,2.026812314987182617e+00,2.021200895309448242e+00,2.015620470046997070e+00,2.010070800781250000e+00,2.004551410675048828e+00,1.999062418937683105e+00,1.993603229522705078e+00,1.988173961639404297e+00,1.982774257659912109e+00,1.977403640747070312e+00,1.972061872482299805e+00,1.966749191284179688e+00,1.961465001106262207e+00,1.956209063529968262e+00,1.950981140136718750e+00,1.945781111717224121e+00,1.940608859062194824e+00,1.935464024543762207e+00,1.930346369743347168e+00,1.925255537033081055e+00,1.920191764831542969e+00,1.915154337882995605e+00,1.910143494606018066e+00,1.905158519744873047e+00,1.900199651718139648e+00,1.895266532897949219e+00,1.890359044075012207e+00,1.885476589202880859e+00,1.880619525909423828e+00,1.875787496566772461e+00,1.870980143547058105e+00,1.866197228431701660e+00,1.861438870429992676e+00,1.856704831123352051e+00,1.851994752883911133e+00,1.847308158874511719e+00,1.842645525932312012e+00
2.301567554473876953e+00,2.294334411621093750e+00,2.287146329879760742e+00,2.280003547668457031e+00,2.272904872894287109e+00,2.265850305557250977e+00,2.258839607238769531e+00,2.251872062683105469e+00,2.244947195053100586e+00,2.238065004348754883e+00,2.231224536895751953e+00,2.224426269531250000e+00,2.217669010162353516e+00,2.210952758789062500e+00,2.204276800155639648e+00,2.197641372680664062e+00,2.191045522689819336e+00,2.184489488601684570e+00,2.177972316741943359e+00,2.171494007110595703e+00,2.165053844451904297e+00,2.158652067184448242e+00,2.152287960052490234e+00,2.145961284637451172e+00,2.139671802520751953e+00,2.133418798446655273e+00,2.127202510833740234e+00,2.121022224426269531e+00,2.114877700805664062e+00,2.108768939971923828e+00,2.102695226669311523e+00,2.096656084060668945e+00,2.090651988983154297e+00,2.084681749343872070e+00,2.078745841979980469e+00,2.072843551635742188e+00,2.066974639892578125e+00,2.061138868331909180e+00,2.055336236953735352e+00,2.049565792083740234e+00,2.043827772140502930e+00,2.038121700286865234e+00,2.032447576522827148e+00,2.026804924011230469e+00,2.021193504333496094e+00,2.015613079071044922e+00,2.010063409805297852e+00,2.004544019699096680e+00,1.999055027961730957e+00,1.993596076965332031e+00,1.988166809082031250e+00,1.982766985893249512e+00,1.977396368980407715e+00,1.972054839134216309e+00,1.966742277145385742e+00,1.961457848548889160e+00,1.956202030181884766e+00,1.950974345207214355e+00,1.945774435997009277e+00,1.940601944923400879e+00,1.935457110404968262e+00,1.930339574813842773e+00,1.925248980522155762e+00,1.920184969902038574e+00,1.915147662162780762e+00,1.910136699676513672e+00,1.905151963233947754e+00,1.900192975997924805e+00,1.895259857177734375e+00,1.890352368354797363e+00,1.885470271110534668e+00,1.880613207817077637e+00,1.875780940055847168e+00,1.870973706245422363e+00,1.866191029548645020e+00,1.861432671546936035e+00,1.856698393821716309e+00,1.851988315582275391e+00,1.847302079200744629e+00,1.842639446258544922e+00
2.301558017730712891e+00,2.294324874877929688e+00,2.287136793136596680e+00,2.279994010925292969e+00,2.272895574569702148e+00,2.265841007232666016e+00,2.258830308914184570e+00,2.251862764358520508e+00,2.244937896728515625e+00,2.238055944442749023e+00,2.231215476989746094e+00,2.224417209625244141e+00,2.217659950256347656e+00,2.210943698883056641e+00,2.204267978668212891e+00,2.197632551193237305e+00,2.191036939620971680e+00,2.184480667114257812e+00,2.177963495254516602e+00,2.171485424041748047e+00,2.165045499801635742e+00,2.158643722534179688e+00,2.152279615402221680e+00,2.145952939987182617e+00,2.139663457870483398e+00,2.133410692214965820e+00,2.127194166183471680e+00,2.121014118194580078e+00,2.114869594573974609e+00,2.108760833740234375e+00,2.102686882019042969e+00,2.096648216247558594e+00,2.090643882751464844e+00,2.084673881530761719e+00,2.078737974166870117e+00,2.072835683822631836e+00,2.066966772079467773e+00,2.061131238937377930e+00,2.055328369140625000e+00,2.049558162689208984e+00,2.043820142745971680e+00,2.038114309310913086e+00,2.032440185546875000e+00,2.026797533035278320e+00,2.021186113357543945e+00,2.015605688095092773e+00,2.010056018829345703e+00,2.004536628723144531e+00,1.999047875404357910e+00,1.993588805198669434e+00,1.988159537315368652e+00,1.982759952545166016e+00,1.977389454841613770e+00,1.972047686576843262e+00,1.966735124588012695e+00,1.961450934410095215e+00,1.956195116043090820e+00,1.950967311859130859e+00,1.945767402648925781e+00,1.940595149993896484e+00,1.935450434684753418e+00,1.930332660675048828e+00,1.925242066383361816e+00,1.920178294181823730e+00,1.915141105651855469e+00,1.910130023956298828e+00,1.905145287513732910e+00,1.900186419486999512e+00,1.895253539085388184e+00,1.890345811843872070e+00,1.885463595390319824e+00,1.880606651306152344e+00,1.875774741172790527e+00,1.870967268943786621e+00,1.866184592247009277e+00,1.861426353454589844e+00,1.856692194938659668e+00,1.851981997489929199e+00,1.847295761108398438e+00,1.842633247375488281e+00
2.301548242568969727e+00,2.294315099716186523e+00,2.287127256393432617e+00,2.279984474182128906e+00,2.272886037826538086e+00,2.265831470489501953e+00,2.258821010589599609e+00,2.251853466033935547e+00,2.244928836822509766e+00,2.238046646118164062e+00,2.231206417083740234e+00,2.224407911300659180e+00,2.217651128768920898e+00,2.210934877395629883e+00,2.204259157180786133e+00,2.197623729705810547e+00,2.191028118133544922e+00,2.184472084045410156e+00,2.177954912185668945e+00,2.171476840972900391e+00,2.165036916732788086e+00,2.158635139465332031e+00,2.152271032333374023e+00,2.145944595336914062e+00,2.139655113220214844e+00,2.133402347564697266e+00,2.127186059951782227e+00,2.121005773544311523e+00,2.114861488342285156e+00,2.108752727508544922e+00,2.102679014205932617e+00,2.096640110015869141e+00,2.090636014938354492e+00,2.084666013717651367e+00,2.078730106353759766e+00,2.072827816009521484e+00,2.066958904266357422e+00,2.061123371124267578e+00,2.055320739746093750e+00,2.049550533294677734e+00,2.043812513351440430e+00,2.038106679916381836e+00,2.032432556152343750e+00,2.026789903640747070e+00,2.021178483963012695e+00,2.015598297119140625e+00,2.010048627853393555e+00,2.004529476165771484e+00,1.999040603637695312e+00,1.993581652641296387e+00,1.988152265548706055e+00,1.982752680778503418e+00,1.977382183074951172e+00,1.972040772438049316e+00,1.966727972030639648e+00,1.961443901062011719e+00,1.956188082695007324e+00,1.950960397720336914e+00,1.945760607719421387e+00,1.940588235855102539e+00,1.935443520545959473e+00,1.930325984954833984e+00,1.925235509872436523e+00,1.920171499252319336e+00,1.915134310722351074e+00,1.910123467445373535e+00,1.905138850212097168e+00,1.900179862976074219e+00,1.895246863365173340e+00,1.890339374542236328e+00,1.885457277297973633e+00,1.880600214004516602e+00,1.875768184661865234e+00,1.870960950851440430e+00,1.866178393363952637e+00,1.861419916152954102e+00,1.856685876846313477e+00,1.851975917816162109e+00,1.847289681434631348e+00,1.842626929283142090e+00
2.301538705825805664e+00,2.294305562973022461e+00,2.287117719650268555e+00,2.279974937438964844e+00,2.272876739501953125e+00,2.265822172164916992e+00,2.258811712265014648e+00,2.251844167709350586e+00,2.244919776916503906e+00,2.238037586212158203e+00,2.231197595596313477e+00,2.224399089813232422e+00,2.217642068862915039e+00,2.210925817489624023e+00,2.204250335693359375e+00,2.197614908218383789e+00,2.191019296646118164e+00,2.184463262557983398e+00,2.177946329116821289e+00,2.171468019485473633e+00,2.165028333663940430e+00,2.158626556396484375e+00,2.152262687683105469e+00,2.145936012268066406e+00,2.139646768569946289e+00,2.133394002914428711e+00,2.127177715301513672e+00,2.120997667312622070e+00,2.114853382110595703e+00,2.108744621276855469e+00,2.102670907974243164e+00,2.096632242202758789e+00,2.090627908706665039e+00,2.084658145904541016e+00,2.078722238540649414e+00,2.072819948196411133e+00,2.066951274871826172e+00,2.061115741729736328e+00,2.055312871932983398e+00,2.049542903900146484e+00,2.043804883956909180e+00,2.038099050521850586e+00,2.032424926757812500e+00,2.026782512664794922e+00,2.021171092987060547e+00,2.015590906143188477e+00,2.010041236877441406e+00,2.004522085189819336e+00,1.999033212661743164e+00,1.993574380874633789e+00,1.988145232200622559e+00,1.982745647430419922e+00,1.977375030517578125e+00,1.972033619880676270e+00,1.966721057891845703e+00,1.961436986923217773e+00,1.956181049346923828e+00,1.950953364372253418e+00,1.945753574371337891e+00,1.940581560134887695e+00,1.935436606407165527e+00,1.930319070816040039e+00,1.925228595733642578e+00,1.920164942741394043e+00,1.915127515792846680e+00,1.910116791725158691e+00,1.905132055282592773e+00,1.900173306465148926e+00,1.895240187644958496e+00,1.890332818031311035e+00,1.885450720787048340e+00,1.880593895912170410e+00,1.875761866569519043e+00,1.870954513549804688e+00,1.866171956062316895e+00,1.861413717269897461e+00,1.856679677963256836e+00,1.851969599723815918e+00,1.847283363342285156e+00,1.842620849609375000e+00
2.301528930664062500e+00,2.294296026229858398e+00,2.287108421325683594e+00,2.279965400695800781e+00,2.272867202758789062e+00,2.265812873840332031e+00,2.258802413940429688e+00,2.251834869384765625e+00,2.244910478591918945e+00,2.238028287887573242e+00,2.231188535690307617e+00,2.224390029907226562e+00,2.217633247375488281e+00,2.210916996002197266e+00,2.204241514205932617e+00,2.197606086730957031e+00,2.191010713577270508e+00,2.184454679489135742e+00,2.177937746047973633e+00,2.171459436416625977e+00,2.165019750595092773e+00,2.158618211746215820e+00,2.152254343032836914e+00,2.145927667617797852e+00,2.139638423919677734e+00,2.133385658264160156e+00,2.127169609069824219e+00,2.120989322662353516e+00,2.114845275878906250e+00,2.108736276626586914e+00,2.102662801742553711e+00,2.096624135971069336e+00,2.090620040893554688e+00,2.084650039672851562e+00,2.078714370727539062e+00,2.072812080383300781e+00,2.066943407058715820e+00,2.061107873916625977e+00,2.055305242538452148e+00,2.049535036087036133e+00,2.043797254562377930e+00,2.038091659545898438e+00,2.032417535781860352e+00,2.026775121688842773e+00,2.021163702011108398e+00,2.015583515167236328e+00,2.010033845901489258e+00,2.004514694213867188e+00,1.999026060104370117e+00,1.993567228317260742e+00,1.988137841224670410e+00,1.982738375663757324e+00,1.977367997169494629e+00,1.972026586532592773e+00,1.966713905334472656e+00,1.961429834365844727e+00,1.956174135208129883e+00,1.950946569442749023e+00,1.945746660232543945e+00,1.940574526786804199e+00,1.935429930686950684e+00,1.930312395095825195e+00,1.925221800804138184e+00,1.920158147811889648e+00,1.915120959281921387e+00,1.910110235214233398e+00,1.905125379562377930e+00,1.900166630744934082e+00,1.895233750343322754e+00,1.890326380729675293e+00,1.885444164276123047e+00,1.880587339401245117e+00,1.875755429267883301e+00,1.870948314666748047e+00,1.866165518760681152e+00,1.861407279968261719e+00,1.856673359870910645e+00,1.851963400840759277e+00,1.847277045249938965e+00,1.842614531517028809e+00
2.301519155502319336e+00,2.294286489486694336e+00,2.287098646163940430e+00,2.279956102371215820e+00,2.272857666015625000e+00,2.265803575515747070e+00,2.258792877197265625e+00,2.251825809478759766e+00,2.244901180267333984e+00,2.238019227981567383e+00,2.231179475784301758e+00,2.224380970001220703e+00,2.217624187469482422e+00,2.210908174514770508e+00,2.204232692718505859e+00,2.197597265243530273e+00,2.191001892089843750e+00,2.184445858001708984e+00,2.177929162979125977e+00,2.171450853347778320e+00,2.165011405944824219e+00,2.158609628677368164e+00,2.152245759963989258e+00,2.145919322967529297e+00,2.139630079269409180e+00,2.133377313613891602e+00,2.127161264419555664e+00,2.120981216430664062e+00,2.114837169647216797e+00,2.108728170394897461e+00,2.102654695510864258e+00,2.096616029739379883e+00,2.090612173080444336e+00,2.084642171859741211e+00,2.078706502914428711e+00,2.072804212570190430e+00,2.066935777664184570e+00,2.061100244522094727e+00,2.055297613143920898e+00,2.049527406692504883e+00,2.043789625167846680e+00,2.038083791732788086e+00,2.032409906387329102e+00,2.026767492294311523e+00,2.021156311035156250e+00,2.015575885772705078e+00,2.010026454925537109e+00,2.004507303237915039e+00,1.999018669128417969e+00,1.993559837341308594e+00,1.988130807876586914e+00,1.982731103897094727e+00,1.977360725402832031e+00,1.972019433975219727e+00,1.966706991195678711e+00,1.961423039436340332e+00,1.956167101860046387e+00,1.950939536094665527e+00,1.945739865303039551e+00,1.940567851066589355e+00,1.935423016548156738e+00,1.930305600166320801e+00,1.925215125083923340e+00,1.920151472091674805e+00,1.915114164352416992e+00,1.910103440284729004e+00,1.905118942260742188e+00,1.900160193443298340e+00,1.895227193832397461e+00,1.890319824218750000e+00,1.885437846183776855e+00,1.880581021308898926e+00,1.875748872756958008e+00,1.870941758155822754e+00,1.866159319877624512e+00,1.861401081085205078e+00,1.856666922569274902e+00,1.851957082748413086e+00,1.847270965576171875e+00,1.842608571052551270e+00
2.301509618759155273e+00,2.294276714324951172e+00,2.287089109420776367e+00,2.279946565628051758e+00,2.272848367691040039e+00,2.265794277191162109e+00,2.258783578872680664e+00,2.251816511154174805e+00,2.244892120361328125e+00,2.238010168075561523e+00,2.231170177459716797e+00,2.224372148513793945e+00,2.217615127563476562e+00,2.210899114608764648e+00,2.204223632812500000e+00,2.197588443756103516e+00,2.190993070602416992e+00,2.184437274932861328e+00,2.177920341491699219e+00,2.171442270278930664e+00,2.165002584457397461e+00,2.158601284027099609e+00,2.152237415313720703e+00,2.145910978317260742e+00,2.139621734619140625e+00,2.133368968963623047e+00,2.127153158187866211e+00,2.120973110198974609e+00,2.114828824996948242e+00,2.108720302581787109e+00,2.102646827697753906e+00,2.096608161926269531e+00,2.090604066848754883e+00,2.084634304046630859e+00,2.078698635101318359e+00,2.072796344757080078e+00,2.066927909851074219e+00,2.061092376708984375e+00,2.055289983749389648e+00,2.049519777297973633e+00,2.043781995773315430e+00,2.038076400756835938e+00,2.032402515411376953e+00,2.026759862899780273e+00,2.021148920059204102e+00,2.015568494796752930e+00,2.010019063949584961e+00,2.004500150680541992e+00,1.999011516571044922e+00,1.993552565574645996e+00,1.988123536109924316e+00,1.982724070549011230e+00,1.977353811264038086e+00,1.972012281417846680e+00,1.966699838638305664e+00,1.961415886878967285e+00,1.956160306930541992e+00,1.950932502746582031e+00,1.945732831954956055e+00,1.940560817718505859e+00,1.935416340827941895e+00,1.930298686027526855e+00,1.925208330154418945e+00,1.920144677162170410e+00,1.915107607841491699e+00,1.910096764564514160e+00,1.905112147331237793e+00,1.900153517723083496e+00,1.895220756530761719e+00,1.890313386917114258e+00,1.885431289672851562e+00,1.880574464797973633e+00,1.875742554664611816e+00,1.870935559272766113e+00,1.866152882575988770e+00,1.861394762992858887e+00,1.856660842895507812e+00,1.851951003074645996e+00,1.847264647483825684e+00,1.842602252960205078e+00
2.301500082015991211e+00,2.294267177581787109e+00,2.287079572677612305e+00,2.279937028884887695e+00,2.272839069366455078e+00,2.265784740447998047e+00,2.258774518966674805e+00,2.251807212829589844e+00,2.244882822036743164e+00,2.238001108169555664e+00,2.231161117553710938e+00,2.224363088607788086e+00,2.217606306076049805e+00,2.210890293121337891e+00,2.204214811325073242e+00,2.197579860687255859e+00,2.190984249114990234e+00,2.184428691864013672e+00,2.177911758422851562e+00,2.171433687210083008e+00,2.164994239807128906e+00,2.158592700958251953e+00,2.152228832244873047e+00,2.145902633666992188e+00,2.139613389968872070e+00,2.133360862731933594e+00,2.127144813537597656e+00,2.120964765548706055e+00,2.114820718765258789e+00,2.108712196350097656e+00,2.102638483047485352e+00,2.096600055694580078e+00,2.090595960617065430e+00,2.084626436233520508e+00,2.078690767288208008e+00,2.072788715362548828e+00,2.066920042037963867e+00,2.061084747314453125e+00,2.055282115936279297e+00,2.049512147903442383e+00,2.043774604797363281e+00,2.038068771362304688e+00,2.032394886016845703e+00,2.026752471923828125e+00,2.021141529083251953e+00,2.015561103820800781e+00,2.010011911392211914e+00,2.004492759704589844e+00,1.999004125595092773e+00,1.993545413017272949e+00,1.988116383552551270e+00,1.982716798782348633e+00,1.977346539497375488e+00,1.972005248069763184e+00,1.966692924499511719e+00,1.961408853530883789e+00,1.956153154373168945e+00,1.950925707817077637e+00,1.945726037025451660e+00,1.940553903579711914e+00,1.935409426689147949e+00,1.930292010307312012e+00,1.925201654434204102e+00,1.920137882232666016e+00,1.915100812911987305e+00,1.910090208053588867e+00,1.905105710029602051e+00,1.900146842002868652e+00,1.895214080810546875e+00,1.890306830406188965e+00,1.885424852371215820e+00,1.880567908287048340e+00,1.875736117362976074e+00,1.870929121971130371e+00,1.866146564483642578e+00,1.861388325691223145e+00,1.856654405593872070e+00,1.851944565773010254e+00,1.847258567810058594e+00,1.842595934867858887e+00
2.301490306854248047e+00,2.294257640838623047e+00,2.287070035934448242e+00,2.279927492141723633e+00,2.272829532623291016e+00,2.265775442123413086e+00,2.258765220642089844e+00,2.251797914505004883e+00,2.244873762130737305e+00,2.237992048263549805e+00,2.231152057647705078e+00,2.224354028701782227e+00,2.217597246170043945e+00,2.210881471633911133e+00,2.204205989837646484e+00,2.197571039199829102e+00,2.190975666046142578e+00,2.184419870376586914e+00,2.177903175354003906e+00,2.171425104141235352e+00,2.164985656738281250e+00,2.158584356307983398e+00,2.152220487594604492e+00,2.145894289016723633e+00,2.139605045318603516e+00,2.133352518081665039e+00,2.127136468887329102e+00,2.120956659317016602e+00,2.114812612533569336e+00,2.108704090118408203e+00,2.102630615234375000e+00,2.096592187881469727e+00,2.090588092803955078e+00,2.084618568420410156e+00,2.078682899475097656e+00,2.072780847549438477e+00,2.066912174224853516e+00,2.061076879501342773e+00,2.055274486541748047e+00,2.049504518508911133e+00,2.043766736984252930e+00,2.038061141967773438e+00,2.032387256622314453e+00,2.026745080947875977e+00,2.021133899688720703e+00,2.015553712844848633e+00,2.010004281997680664e+00,2.004485368728637695e+00,1.998996734619140625e+00,1.993538141250610352e+00,1.988109111785888672e+00,1.982709765434265137e+00,1.977339506149291992e+00,1.971998095512390137e+00,1.966685771942138672e+00,1.961401939392089844e+00,1.956146359443664551e+00,1.950918674468994141e+00,1.945719122886657715e+00,1.940547108650207520e+00,1.935402631759643555e+00,1.930285096168518066e+00,1.925194859504699707e+00,1.920131325721740723e+00,1.915094256401062012e+00,1.910083413124084473e+00,1.905099034309387207e+00,1.900140404701232910e+00,1.895207643508911133e+00,1.890300273895263672e+00,1.885418295860290527e+00,1.880561590194702148e+00,1.875729799270629883e+00,1.870922565460205078e+00,1.866140127182006836e+00,1.861382126808166504e+00,1.856648325920104980e+00,1.851938247680664062e+00,1.847252249717712402e+00,1.842589855194091797e+00
2.301480770111083984e+00,2.294247865676879883e+00,2.287060737609863281e+00,2.279918193817138672e+00,2.272820234298706055e+00,2.265765905380249023e+00,2.258755922317504883e+00,2.251788616180419922e+00,2.244864463806152344e+00,2.237982749938964844e+00,2.231142997741699219e+00,2.224344968795776367e+00,2.217588186264038086e+00,2.210872411727905273e+00,2.204197168350219727e+00,2.197561979293823242e+00,2.190966844558715820e+00,2.184411048889160156e+00,2.177894353866577148e+00,2.171416521072387695e+00,2.164977073669433594e+00,2.158575773239135742e+00,2.152212142944335938e+00,2.145885944366455078e+00,2.139596700668334961e+00,2.133344173431396484e+00,2.127128362655639648e+00,2.120948553085327148e+00,2.114804506301879883e+00,2.108695983886718750e+00,2.102622509002685547e+00,2.096584081649780273e+00,2.090580224990844727e+00,2.084610700607299805e+00,2.078675031661987305e+00,2.072772979736328125e+00,2.066904544830322266e+00,2.061069250106811523e+00,2.055266857147216797e+00,2.049496889114379883e+00,2.043759107589721680e+00,2.038053750991821289e+00,2.032379865646362305e+00,2.026737451553344727e+00,2.021126508712768555e+00,2.015546321868896484e+00,2.009997129440307617e+00,2.004478216171264648e+00,1.998989582061767578e+00,1.993530988693237305e+00,1.988101840019226074e+00,1.982702493667602539e+00,1.977332353591918945e+00,1.971991181373596191e+00,1.966678619384765625e+00,1.961394786834716797e+00,1.956139206886291504e+00,1.950911879539489746e+00,1.945712089538574219e+00,1.940540194511413574e+00,1.935395717620849609e+00,1.930278420448303223e+00,1.925187945365905762e+00,1.920124530792236328e+00,1.915087461471557617e+00,1.910076975822448730e+00,1.905092477798461914e+00,1.900133728981018066e+00,1.895200967788696289e+00,1.890293836593627930e+00,1.885411977767944336e+00,1.880555033683776855e+00,1.875723361968994141e+00,1.870916366577148438e+00,1.866133928298950195e+00,1.861375689506530762e+00,1.856641888618469238e+00,1.851932168006896973e+00,1.847246170043945312e+00,1.842583656311035156e+00
2.301471233367919922e+00,2.294238328933715820e+00,2.287051200866699219e+00,2.279908657073974609e+00,2.272810697555541992e+00,2.265756607055664062e+00,2.258746623992919922e+00,2.251779556274414062e+00,2.244855403900146484e+00,2.237973690032958984e+00,2.231133937835693359e+00,2.224335908889770508e+00,2.217579364776611328e+00,2.210863590240478516e+00,2.204188346862792969e+00,2.197553157806396484e+00,2.190958261489868164e+00,2.184402465820312500e+00,2.177885770797729492e+00,2.171407938003540039e+00,2.164968490600585938e+00,2.158567190170288086e+00,2.152203559875488281e+00,2.145877361297607422e+00,2.139588356018066406e+00,2.133335828781127930e+00,2.127120018005371094e+00,2.120940208435058594e+00,2.114796161651611328e+00,2.108687639236450195e+00,2.102614402770996094e+00,2.096575975418090820e+00,2.090572118759155273e+00,2.084602594375610352e+00,2.078667163848876953e+00,2.072765111923217773e+00,2.066896677017211914e+00,2.061061620712280273e+00,2.055258989334106445e+00,2.049489259719848633e+00,2.043751478195190430e+00,2.038046121597290039e+00,2.032372236251831055e+00,2.026730060577392578e+00,2.021119117736816406e+00,2.015538930892944336e+00,2.009989738464355469e+00,2.004470825195312500e+00,1.998982191085815430e+00,1.993523597717285156e+00,1.988094806671142578e+00,1.982695460319519043e+00,1.977325081825256348e+00,1.971983909606933594e+00,1.966671705245971680e+00,1.961387872695922852e+00,1.956132173538208008e+00,1.950904846191406250e+00,1.945705294609069824e+00,1.940533518791198730e+00,1.935388803482055664e+00,1.930271506309509277e+00,1.925181388854980469e+00,1.920117855072021484e+00,1.915080666542053223e+00,1.910070180892944336e+00,1.905085802078247070e+00,1.900127291679382324e+00,1.895194411277770996e+00,1.890287280082702637e+00,1.885405421257019043e+00,1.880548715591430664e+00,1.875716805458068848e+00,1.870909810066223145e+00,1.866127490997314453e+00,1.861369490623474121e+00,1.856635570526123047e+00,1.851925849914550781e+00,1.847239851951599121e+00,1.842577576637268066e+00
2.301461219787597656e+00,2.294228792190551758e+00,2.287041425704956055e+00,2.279899120330810547e+00,2.272801160812377930e+00,2.265747308731079102e+00,2.258737325668334961e+00,2.251770257949829102e+00,2.244846105575561523e+00,2.237964391708374023e+00,2.231124877929687500e+00,2.224326848983764648e+00,2.217570543289184570e+00,2.210854530334472656e+00,2.204179525375366211e+00,2.197544574737548828e+00,2.190949440002441406e+00,2.184393644332885742e+00,2.177877187728881836e+00,2.171399354934692383e+00,2.164960145950317383e+00,2.158558607101440430e+00,2.152195215225219727e+00,2.145869016647338867e+00,2.139580011367797852e+00,2.133327722549438477e+00,2.127111911773681641e+00,2.120932102203369141e+00,2.114788055419921875e+00,2.108679533004760742e+00,2.102606534957885742e+00,2.096568107604980469e+00,2.090564250946044922e+00,2.084594726562500000e+00,2.078659296035766602e+00,2.072757244110107422e+00,2.066889047622680664e+00,2.061053752899169922e+00,2.055251359939575195e+00,2.049481391906738281e+00,2.043744087219238281e+00,2.038038492202758789e+00,2.032364845275878906e+00,2.026722431182861328e+00,2.021111488342285156e+00,2.015531539916992188e+00,2.009982347488403320e+00,2.004463434219360352e+00,1.998975038528442383e+00,1.993516564369201660e+00,1.988087534904479980e+00,1.982688188552856445e+00,1.977318167686462402e+00,1.971976995468139648e+00,1.966664552688598633e+00,1.961380839347839355e+00,1.956125378608703613e+00,1.950898051261901855e+00,1.945698380470275879e+00,1.940526485443115234e+00,1.935382127761840820e+00,1.930264949798583984e+00,1.925174474716186523e+00,1.920111060142517090e+00,1.915074110031127930e+00,1.910063624382019043e+00,1.905079126358032227e+00,1.900120615959167480e+00,1.895187973976135254e+00,1.890280842781066895e+00,1.885398864746093750e+00,1.880542159080505371e+00,1.875710487365722656e+00,1.870903611183166504e+00,1.866121053695678711e+00,1.861363053321838379e+00,1.856629371643066406e+00,1.851919651031494141e+00,1.847233533859252930e+00,1.842571258544921875e+00
2.301451683044433594e+00,2.294219255447387695e+00,2.287031888961791992e+00,2.279889822006225586e+00,2.272791862487792969e+00,2.265738010406494141e+00,2.258727788925170898e+00,2.251760959625244141e+00,2.244836807250976562e+00,2.237955331802368164e+00,2.231115818023681641e+00,2.224318027496337891e+00,2.217561244964599609e+00,2.210845708847045898e+00,2.204170465469360352e+00,2.197535753250122070e+00,2.190940618515014648e+00,2.184385061264038086e+00,2.177868366241455078e+00,2.171390771865844727e+00,2.164951562881469727e+00,2.158550262451171875e+00,2.152186870574951172e+00,2.145860671997070312e+00,2.139571666717529297e+00,2.133319377899169922e+00,2.127103567123413086e+00,2.120923757553100586e+00,2.114779949188232422e+00,2.108671665191650391e+00,2.102598428726196289e+00,2.096560001373291016e+00,2.090556383132934570e+00,2.084586858749389648e+00,2.078651428222656250e+00,2.072749376296997070e+00,2.066881179809570312e+00,2.061045885086059570e+00,2.055243730545043945e+00,2.049473762512207031e+00,2.043736457824707031e+00,2.038030862808227539e+00,2.032357454299926758e+00,2.026715040206909180e+00,2.021104097366333008e+00,2.015524148941040039e+00,2.009974956512451172e+00,2.004456043243408203e+00,1.998967647552490234e+00,1.993509173393249512e+00,1.988080382347106934e+00,1.982680916786193848e+00,1.977310895919799805e+00,1.971969842910766602e+00,1.966657638549804688e+00,1.961373686790466309e+00,1.956118226051330566e+00,1.950891017913818359e+00,1.945691585540771484e+00,1.940519571304321289e+00,1.935375213623046875e+00,1.930258035659790039e+00,1.925167918205261230e+00,1.920104503631591797e+00,1.915067434310913086e+00,1.910056948661804199e+00,1.905072569847106934e+00,1.900114178657531738e+00,1.895181298255920410e+00,1.890274286270141602e+00,1.885392427444458008e+00,1.880535840988159180e+00,1.875704050064086914e+00,1.870897173881530762e+00,1.866114854812622070e+00,1.861356854438781738e+00,1.856623053550720215e+00,1.851913332939147949e+00,1.847227454185485840e+00,1.842565178871154785e+00
2.301442146301269531e+00,2.294209718704223633e+00,2.287022352218627930e+00,2.279880285263061523e+00,2.272782564163208008e+00,2.265728712081909180e+00,2.258718490600585938e+00,2.251751899719238281e+00,2.244827747344970703e+00,2.237946271896362305e+00,2.231106758117675781e+00,2.224308967590332031e+00,2.217552423477172852e+00,2.210836887359619141e+00,2.204161643981933594e+00,2.197526931762695312e+00,2.190931797027587891e+00,2.184376478195190430e+00,2.177859783172607422e+00,2.171382188796997070e+00,2.164942979812622070e+00,2.158541679382324219e+00,2.152178287506103516e+00,2.145852327346801758e+00,2.139563322067260742e+00,2.133311033248901367e+00,2.127095222473144531e+00,2.120915651321411133e+00,2.114771842956542969e+00,2.108663558959960938e+00,2.102590322494506836e+00,2.096552133560180664e+00,2.090548276901245117e+00,2.084578752517700195e+00,2.078643560409545898e+00,2.072741746902465820e+00,2.066873311996459961e+00,2.061038255691528320e+00,2.055236101150512695e+00,2.049466133117675781e+00,2.043728828430175781e+00,2.038023471832275391e+00,2.032349824905395508e+00,2.026707649230957031e+00,2.021096706390380859e+00,2.015516757965087891e+00,2.009967565536499023e+00,2.004448890686035156e+00,1.998960494995117188e+00,1.993501901626586914e+00,1.988073110580444336e+00,1.982673883438110352e+00,1.977303862571716309e+00,1.971962690353393555e+00,1.966650485992431641e+00,1.961366772651672363e+00,1.956111431121826172e+00,1.950883984565734863e+00,1.945684552192687988e+00,1.940512776374816895e+00,1.935368537902832031e+00,1.930251121520996094e+00,1.925161004066467285e+00,1.920097708702087402e+00,1.915060877799987793e+00,1.910050153732299805e+00,1.905065894126892090e+00,1.900107502937316895e+00,1.895174860954284668e+00,1.890267610549926758e+00,1.885385870933532715e+00,1.880529284477233887e+00,1.875697731971740723e+00,1.870890617370605469e+00,1.866108417510986328e+00,1.861350536346435547e+00,1.856616854667663574e+00,1.851907253265380859e+00,1.847221136093139648e+00,1.842558979988098145e+00
2.301432371139526367e+00,2.294199943542480469e+00,2.287012815475463867e+00,2.279870748519897461e+00,2.272773027420043945e+00,2.265719413757324219e+00,2.258709430694580078e+00,2.251742601394653320e+00,2.244818687438964844e+00,2.237937211990356445e+00,2.231097698211669922e+00,2.224299907684326172e+00,2.217543363571166992e+00,2.210827827453613281e+00,2.204152822494506836e+00,2.197518110275268555e+00,2.190923213958740234e+00,2.184367656707763672e+00,2.177851200103759766e+00,2.171373605728149414e+00,2.164934396743774414e+00,2.158533334732055664e+00,2.152169704437255859e+00,2.145843982696533203e+00,2.139554977416992188e+00,2.133302927017211914e+00,2.127087116241455078e+00,2.120907545089721680e+00,2.114763736724853516e+00,2.108655452728271484e+00,2.102582216262817383e+00,2.096544027328491211e+00,2.090540409088134766e+00,2.084570884704589844e+00,2.078635454177856445e+00,2.072733879089355469e+00,2.066865444183349609e+00,2.061030626296997070e+00,2.055228233337402344e+00,2.049458503723144531e+00,2.043721199035644531e+00,2.038015842437744141e+00,2.032342195510864258e+00,2.026700019836425781e+00,2.021089076995849609e+00,2.015509366989135742e+00,2.009960412979125977e+00,2.004441499710083008e+00,1.998953104019165039e+00,1.993494749069213867e+00,1.988066077232360840e+00,1.982666611671447754e+00,1.977296710014343262e+00,1.971955657005310059e+00,1.966643571853637695e+00,1.961359739303588867e+00,1.956104397773742676e+00,1.950877189636230469e+00,1.945677757263183594e+00,1.940505862236022949e+00,1.935361623764038086e+00,1.930244445800781250e+00,1.925154447555541992e+00,1.920090913772583008e+00,1.915054082870483398e+00,1.910043716430664062e+00,1.905059456825256348e+00,1.900100827217102051e+00,1.895168304443359375e+00,1.890261292457580566e+00,1.885379552841186523e+00,1.880522847175598145e+00,1.875691175460815430e+00,1.870884418487548828e+00,1.866102218627929688e+00,1.861344099044799805e+00,1.856610417366027832e+00,1.851900815963745117e+00,1.847215056419372559e+00,1.842552661895751953e+00
2.301422834396362305e+00,2.294190406799316406e+00,2.287003517150878906e+00,2.279861211776733398e+00,2.272763729095458984e+00,2.265709877014160156e+00,2.258700132369995117e+00,2.251733303070068359e+00,2.244809389114379883e+00,2.237927913665771484e+00,2.231088638305664062e+00,2.224290847778320312e+00,2.217534542083740234e+00,2.210819005966186523e+00,2.204144001007080078e+00,2.197509288787841797e+00,2.190914392471313477e+00,2.184359073638916016e+00,2.177842617034912109e+00,2.171365022659301758e+00,2.164925813674926758e+00,2.158524751663208008e+00,2.152161359786987305e+00,2.145835399627685547e+00,2.139546632766723633e+00,2.133294582366943359e+00,2.127078771591186523e+00,2.120899200439453125e+00,2.114755392074584961e+00,2.108647346496582031e+00,2.102574110031127930e+00,2.096535921096801758e+00,2.090532302856445312e+00,2.084563016891479492e+00,2.078627586364746094e+00,2.072726011276245117e+00,2.066857814788818359e+00,2.061022758483886719e+00,2.055220603942871094e+00,2.049450874328613281e+00,2.043713569641113281e+00,2.038008213043212891e+00,2.032334804534912109e+00,2.026692628860473633e+00,2.021081686019897461e+00,2.015501976013183594e+00,2.009952783584594727e+00,2.004434108734130859e+00,1.998945713043212891e+00,1.993487358093261719e+00,1.988058686256408691e+00,1.982659578323364258e+00,1.977289438247680664e+00,1.971948504447937012e+00,1.966636419296264648e+00,1.961352825164794922e+00,1.956097245216369629e+00,1.950870156288146973e+00,1.945670843124389648e+00,1.940499186515808105e+00,1.935354948043823242e+00,1.930237650871276855e+00,1.925147533416748047e+00,1.920084238052368164e+00,1.915047526359558105e+00,1.910036921501159668e+00,1.905052661895751953e+00,1.900094389915466309e+00,1.895161867141723633e+00,1.890254616737365723e+00,1.885372996330261230e+00,1.880516529083251953e+00,1.875684976577758789e+00,1.870877981185913086e+00,1.866095781326293945e+00,1.861337900161743164e+00,1.856604337692260742e+00,1.851894497871398926e+00,1.847208738327026367e+00,1.842546582221984863e+00
2.301413297653198242e+00,2.294180870056152344e+00,2.286993980407714844e+00,2.279851675033569336e+00,2.272754192352294922e+00,2.265700578689575195e+00,2.258690834045410156e+00,2.251724004745483398e+00,2.244800329208374023e+00,2.237918853759765625e+00,2.231079578399658203e+00,2.224281787872314453e+00,2.217525482177734375e+00,2.210809946060180664e+00,2.204135179519653320e+00,2.197500467300415039e+00,2.190905570983886719e+00,2.184350252151489258e+00,2.177834033966064453e+00,2.171356439590454102e+00,2.164917230606079102e+00,2.158516168594360352e+00,2.152153015136718750e+00,2.145827054977416992e+00,2.139538288116455078e+00,2.133286237716674805e+00,2.127070665359497070e+00,2.120891094207763672e+00,2.114747285842895508e+00,2.108639240264892578e+00,2.102566242218017578e+00,2.096528053283691406e+00,2.090524435043334961e+00,2.084555149078369141e+00,2.078619956970214844e+00,2.072718143463134766e+00,2.066849946975708008e+00,2.061015129089355469e+00,2.055212974548339844e+00,2.049443244934082031e+00,2.043705940246582031e+00,2.038000822067260742e+00,2.032327175140380859e+00,2.026685237884521484e+00,2.021074295043945312e+00,2.015494585037231445e+00,2.009945392608642578e+00,2.004426956176757812e+00,1.998938560485839844e+00,1.993480324745178223e+00,1.988051414489746094e+00,1.982652425765991211e+00,1.977282404899597168e+00,1.971941590309143066e+00,1.966629266738891602e+00,1.961345672607421875e+00,1.956090450286865234e+00,1.950863361358642578e+00,1.945663809776306152e+00,1.940492153167724609e+00,1.935347914695739746e+00,1.930230975151062012e+00,1.925140738487243652e+00,1.920077443122863770e+00,1.915040731430053711e+00,1.910030364990234375e+00,1.905045986175537109e+00,1.900087714195251465e+00,1.895155191421508789e+00,1.890248298645019531e+00,1.885366439819335938e+00,1.880509972572326660e+00,1.875678420066833496e+00,1.870871663093566895e+00,1.866089582443237305e+00,1.861331462860107422e+00,1.856597900390625000e+00,1.851888418197631836e+00,1.847202658653259277e+00,1.842540383338928223e+00
2.301403522491455078e+00,2.294171333312988281e+00,2.286984443664550781e+00,2.279842376708984375e+00,2.272744894027709961e+00,2.265691280364990234e+00,2.258681535720825195e+00,2.251714706420898438e+00,2.244791030883789062e+00,2.237909793853759766e+00,2.231070518493652344e+00,2.224272727966308594e+00,2.217516660690307617e+00,2.210801124572753906e+00,2.204126358032226562e+00,2.197491645812988281e+00,2.190896987915039062e+00,2.184341669082641602e+00,2.177825212478637695e+00,2.171347856521606445e+00,2.164908885955810547e+00,2.158507823944091797e+00,2.152144432067871094e+00,2.145818710327148438e+00,2.139529943466186523e+00,2.133277893066406250e+00,2.127062320709228516e+00,2.120882749557495117e+00,2.114739179611206055e+00,2.108630895614624023e+00,2.102558135986328125e+00,2.096519947052001953e+00,2.090516567230224609e+00,2.084547042846679688e+00,2.078612089157104492e+00,2.072710275650024414e+00,2.066842317581176758e+00,2.061007261276245117e+00,2.055205106735229492e+00,2.049435615539550781e+00,2.043698310852050781e+00,2.037992954254150391e+00,2.032319784164428711e+00,2.026677608489990234e+00,2.021066904067993164e+00,2.015487194061279297e+00,2.009938240051269531e+00,2.004419565200805664e+00,1.998931288719177246e+00,1.993472933769226074e+00,1.988044381141662598e+00,1.982645392417907715e+00,1.977275252342224121e+00,1.971934318542480469e+00,1.966622352600097656e+00,1.961338877677917480e+00,1.956083416938781738e+00,1.950856328010559082e+00,1.945657014846801758e+00,1.940485477447509766e+00,1.935341000556945801e+00,1.930224061012268066e+00,1.925134062767028809e+00,1.920070886611938477e+00,1.915033936500549316e+00,1.910023689270019531e+00,1.905039548873901367e+00,1.900081276893615723e+00,1.895148634910583496e+00,1.890241622924804688e+00,1.885360002517700195e+00,1.880503654479980469e+00,1.875671982765197754e+00,1.870865225791931152e+00,1.866083145141601562e+00,1.861325263977050781e+00,1.856591582298278809e+00,1.851882100105285645e+00,1.847196340560913086e+00,1.842534303665161133e+00
2.301393747329711914e+00,2.294161796569824219e+00,2.286974668502807617e+00,2.279832839965820312e+00,2.272735357284545898e+00,2.265681982040405273e+00,2.258671998977661133e+00,2.251705646514892578e+00,2.244781732559204102e+00,2.237900495529174805e+00,2.231061220169067383e+00,2.224263906478881836e+00,2.217507600784301758e+00,2.210792303085327148e+00,2.204117536544799805e+00,2.197482824325561523e+00,2.190888166427612305e+00,2.184332847595214844e+00,2.177816629409790039e+00,2.171339273452758789e+00,2.164900302886962891e+00,2.158499240875244141e+00,2.152136087417602539e+00,2.145810365676879883e+00,2.139521598815917969e+00,2.133269548416137695e+00,2.127054214477539062e+00,2.120874643325805664e+00,2.114731073379516602e+00,2.108623027801513672e+00,2.102550029754638672e+00,2.096511840820312500e+00,2.090508460998535156e+00,2.084539175033569336e+00,2.078604221343994141e+00,2.072702407836914062e+00,2.066834449768066406e+00,2.060999393463134766e+00,2.055197477340698242e+00,2.049427986145019531e+00,2.043690681457519531e+00,2.037985563278198242e+00,2.032312154769897461e+00,2.026670217514038086e+00,2.021059513092041016e+00,2.015479564666748047e+00,2.009930849075317383e+00,2.004412174224853516e+00,1.998924136161804199e+00,1.993465542793273926e+00,1.988037109375000000e+00,1.982638120651245117e+00,1.977268218994140625e+00,1.971927165985107422e+00,1.966615319252014160e+00,1.961331725120544434e+00,1.956076502799987793e+00,1.950849533081054688e+00,1.945649981498718262e+00,1.940478444099426270e+00,1.935334324836730957e+00,1.930217385292053223e+00,1.925127267837524414e+00,1.920064091682434082e+00,1.915027379989624023e+00,1.910017132759094238e+00,1.905032753944396973e+00,1.900074601173400879e+00,1.895142197608947754e+00,1.890235304832458496e+00,1.885353446006774902e+00,1.880497097969055176e+00,1.875665664672851562e+00,1.870858907699584961e+00,1.866076707839965820e+00,1.861318945884704590e+00,1.856585383415222168e+00,1.851875901222229004e+00,1.847190022468566895e+00,1.842527985572814941e+00
2.301384210586547852e+00,2.294152021408081055e+00,2.286965131759643555e+00,2.279823541641235352e+00,2.272726058959960938e+00,2.265672445297241211e+00,2.258662700653076172e+00,2.251696348190307617e+00,2.244772672653198242e+00,2.237891435623168945e+00,2.231052160263061523e+00,2.224254846572875977e+00,2.217498540878295898e+00,2.210783481597900391e+00,2.204108476638793945e+00,2.197474002838134766e+00,2.190879344940185547e+00,2.184324264526367188e+00,2.177808046340942383e+00,2.171330690383911133e+00,2.164891719818115234e+00,2.158490896224975586e+00,2.152127504348754883e+00,2.145801782608032227e+00,2.139513254165649414e+00,2.133261203765869141e+00,2.127045869827270508e+00,2.120866537094116211e+00,2.114722967147827148e+00,2.108614921569824219e+00,2.102541923522949219e+00,2.096503973007202148e+00,2.090500593185424805e+00,2.084531307220458984e+00,2.078596353530883789e+00,2.072694778442382812e+00,2.066826820373535156e+00,2.060991764068603516e+00,2.055189847946166992e+00,2.049420356750488281e+00,2.043683052062988281e+00,2.037977933883666992e+00,2.032304763793945312e+00,2.026662588119506836e+00,2.021052122116088867e+00,2.015472173690795898e+00,2.009923458099365234e+00,2.004404783248901367e+00,1.998916745185852051e+00,1.993458509445190430e+00,1.988029956817626953e+00,1.982630848884582520e+00,1.977261066436767578e+00,1.971920251846313477e+00,1.966608405113220215e+00,1.961324691772460938e+00,1.956069469451904297e+00,1.950842499732971191e+00,1.945643305778503418e+00,1.940471529960632324e+00,1.935327410697937012e+00,1.930210471153259277e+00,1.925120592117309570e+00,1.920057296752929688e+00,1.915020585060119629e+00,1.910010457038879395e+00,1.905026316642761230e+00,1.900067925453186035e+00,1.895135521888732910e+00,1.890228629112243652e+00,1.885347127914428711e+00,1.880490779876708984e+00,1.875659108161926270e+00,1.870852470397949219e+00,1.866070389747619629e+00,1.861312747001647949e+00,1.856579065322875977e+00,1.851869583129882812e+00,1.847183942794799805e+00,1.842521905899047852e+00
2.301374435424804688e+00,2.294142484664916992e+00,2.286955833435058594e+00,2.279814004898071289e+00,2.272716522216796875e+00,2.265663146972656250e+00,2.258653640747070312e+00,2.251687049865722656e+00,2.244763374328613281e+00,2.237882375717163086e+00,2.231043100357055664e+00,2.224245786666870117e+00,2.217489719390869141e+00,2.210774421691894531e+00,2.204099655151367188e+00,2.197465419769287109e+00,2.190870523452758789e+00,2.184315443038940430e+00,2.177799224853515625e+00,2.171322107315063477e+00,2.164883136749267578e+00,2.158482313156127930e+00,2.152119159698486328e+00,2.145793437957763672e+00,2.139504909515380859e+00,2.133253097534179688e+00,2.127037525177001953e+00,2.120858192443847656e+00,2.114714622497558594e+00,2.108606815338134766e+00,2.102533817291259766e+00,2.096495866775512695e+00,2.090492486953735352e+00,2.084523439407348633e+00,2.078588247299194336e+00,2.072686910629272461e+00,2.066818714141845703e+00,2.060984134674072266e+00,2.055181980133056641e+00,2.049412488937377930e+00,2.043675422668457031e+00,2.037970304489135742e+00,2.032297134399414062e+00,2.026655197143554688e+00,2.021044731140136719e+00,2.015464782714843750e+00,2.009916067123413086e+00,2.004397630691528320e+00,1.998909592628479004e+00,1.993451118469238281e+00,1.988022685050964355e+00,1.982623815536499023e+00,1.977254033088684082e+00,1.971913099288940430e+00,1.966601252555847168e+00,1.961317777633666992e+00,1.956062674522399902e+00,1.950835466384887695e+00,1.945636272430419922e+00,1.940464854240417480e+00,1.935320734977722168e+00,1.930203557014465332e+00,1.925113797187805176e+00,1.920050621032714844e+00,1.915014028549194336e+00,1.910003662109375000e+00,1.905019640922546387e+00,1.900061488151550293e+00,1.895129084587097168e+00,1.890222072601318359e+00,1.885340571403503418e+00,1.880484223365783691e+00,1.875652790069580078e+00,1.870846033096313477e+00,1.866063952445983887e+00,1.861306309700012207e+00,1.856572866439819336e+00,1.851863265037536621e+00,1.847177624702453613e+00,1.842515587806701660e+00
2.255591154098510742e+00,2.255330801010131836e+00,2.255070686340332031e+00,2.254810571670532227e+00,2.254550457000732422e+00,2.254290342330932617e+00,2.254030466079711914e+00,2.251677751541137695e+00,2.244754314422607422e+00,2.237873077392578125e+00,2.231034040451049805e+00,2.224236726760864258e+00,2.217480659484863281e+00,2.210765600204467773e+00,2.204090833663940430e+00,2.197456598281860352e+00,2.190861940383911133e+00,2.184306859970092773e+00,2.177790641784667969e+00,2.171313524246215820e+00,2.164874553680419922e+00,2.158473968505859375e+00,2.152110815048217773e+00,2.145785093307495117e+00,2.139496564865112305e+00,2.133244752883911133e+00,2.127029418945312500e+00,2.120850086212158203e+00,2.114706516265869141e+00,2.108598709106445312e+00,2.102525711059570312e+00,2.096487998962402344e+00,2.090484619140625000e+00,2.084515571594238281e+00,2.078580379486083984e+00,2.072679042816162109e+00,2.066811084747314453e+00,2.060976266860961914e+00,2.055174350738525391e+00,2.049404859542846680e+00,2.043667793273925781e+00,2.037962913513183594e+00,2.032289505004882812e+00,2.026647806167602539e+00,2.021037101745605469e+00,2.015457630157470703e+00,2.009908676147460938e+00,2.004390239715576172e+00,1.998902201652526855e+00,1.993444085121154785e+00,1.988015413284301758e+00,1.982616543769836426e+00,1.977246761322021484e+00,1.971906065940856934e+00,1.966594338417053223e+00,1.961310625076293945e+00,1.956055521965026855e+00,1.950828671455383301e+00,1.945629477500915527e+00,1.940457820892333984e+00,1.935313820838928223e+00,1.930197000503540039e+00,1.925107121467590332e+00,1.920043826103210449e+00,1.915007233619689941e+00,1.909997105598449707e+00,1.905013084411621094e+00,1.900054812431335449e+00,1.895122408866882324e+00,1.890215635299682617e+00,1.885334253311157227e+00,1.880477666854858398e+00,1.875646352767944336e+00,1.870839715003967285e+00,1.866057753562927246e+00,1.861299872398376465e+00,1.856566548347473145e+00,1.851857066154479980e+00,1.847171425819396973e+00,1.842509388923645020e+00
1.988482356071472168e+00,1.988280177116394043e+00,1.988077998161315918e+00,1.987875699996948242e+00,1.987673640251159668e+00,1.987471580505371094e+00,1.987269639968872070e+00,1.987067461013793945e+00,1.986865520477294922e+00,1.986663699150085449e+00,1.986461877822875977e+00,1.986260056495666504e+00,1.986058115959167480e+00,1.985856413841247559e+00,1.985654711723327637e+00,1.985453128814697266e+00,1.985251307487487793e+00,1.985049843788146973e+00,1.984848380088806152e+00,1.984646916389465332e+00,1.984445214271545410e+00,1.984243869781494141e+00,1.984042525291442871e+00,1.983841180801391602e+00,1.983639955520629883e+00,1.983438491821289062e+00,1.983237385749816895e+00,1.983036279678344727e+00,1.982835173606872559e+00,1.982633829116821289e+00,1.982432842254638672e+00,1.982231855392456055e+00,1.982030987739562988e+00,1.981829881668090820e+00,1.981629014015197754e+00,1.981428265571594238e+00,1.981227397918701172e+00,1.981026768684387207e+00,1.980825781822204590e+00,1.980625152587890625e+00,1.980424523353576660e+00,1.980224013328552246e+00,1.980023264884948730e+00,1.979822754859924316e+00,1.979622364044189453e+00,1.979421973228454590e+00,1.979221582412719727e+00,1.979021072387695312e+00,1.978820800781250000e+00,1.978620529174804688e+00,1.978420376777648926e+00,1.978219985961914062e+00,1.977239608764648438e+00,1.971898913383483887e+00,1.966587185859680176e+00,1.961303830146789551e+00,1.956048488616943359e+00,1.950821638107299805e+00,1.945622563362121582e+00,1.940451145172119141e+00,1.935306906700134277e+00,1.930190086364746094e+00,1.925100326538085938e+00,1.920037269592285156e+00,1.915000438690185547e+00,1.909990429878234863e+00,1.905006408691406250e+00,1.900048375129699707e+00,1.895116090774536133e+00,1.890209078788757324e+00,1.885327577590942383e+00,1.880471348762512207e+00,1.875640034675598145e+00,1.870833277702331543e+00,1.866051316261291504e+00,1.861293673515319824e+00,1.856560349464416504e+00,1.851850748062133789e+00,1.847165226936340332e+00,1.842503309249877930e+00
1.777937889099121094e+00,1.777776122093200684e+00,1.777614474296569824e+00,1.777452826499938965e+00,1.777291297912597656e+00,1.777129650115966797e+00,1.776968121528625488e+00,1.776806712150573730e+00,1.776645183563232422e+00,1.776483654975891113e+00,1.776322245597839355e+00,1.776160836219787598e+00,1.775999546051025391e+00,1.775838255882263184e+00,1.775676846504211426e+00,1.775515556335449219e+00,1.775354385375976562e+00,1.775193214416503906e+00,1.775031924247741699e+00,1.774870753288269043e+00,1.774709701538085938e+00,1.774548649787902832e+00,1.774387598037719727e+00,1.774226427078247070e+00,1.774065494537353516e+00,1.773904442787170410e+00,1.773743629455566406e+00,1.773582458496093750e+00,1.773421645164489746e+00,1.773260831832885742e+00,1.773100018501281738e+00,1.772939085960388184e+00,1.772778391838073730e+00,1.772617578506469727e+00,1.772457003593444824e+00,1.772296309471130371e+00,1.772135496139526367e+00,1.771974921226501465e+00,1.771814346313476562e+00,1.771653771400451660e+00,1.771493077278137207e+00,1.771332621574401855e+00,1.771172165870666504e+00,1.771011710166931152e+00,1.770851135253906250e+00,1.770690798759460449e+00,1.770530462265014648e+00,1.770370244979858398e+00,1.770209908485412598e+00,1.770049452781677246e+00,1.769889235496520996e+00,1.769729137420654297e+00,1.769568920135498047e+00,1.769408583641052246e+00,1.769248485565185547e+00,1.769088387489318848e+00,1.768928408622741699e+00,1.768768191337585449e+00,1.768608212471008301e+00,1.768448233604431152e+00,1.768288373947143555e+00,1.768128395080566406e+00,1.767968416213989258e+00,1.767808556556701660e+00,1.767648696899414062e+00,1.767488956451416016e+00,1.767328977584838867e+00,1.767169356346130371e+00,1.767009615898132324e+00,1.766849994659423828e+00,1.766690254211425781e+00,1.766530513763427734e+00,1.766370892524719238e+00,1.766211390495300293e+00,1.766051888465881348e+00,1.765892148017883301e+00,1.765732765197753906e+00,1.765573263168334961e+00,1.765413999557495117e+00,1.765254378318786621e+00
1.607710242271423340e+00,1.607578039169311523e+00,1.607445836067199707e+00,1.607313632965087891e+00,1.607181429862976074e+00,1.607049345970153809e+00,1.606917262077331543e+00,1.606785058975219727e+00,1.606653094291687012e+00,1.606521129608154297e+00,1.606389164924621582e+00,1.606257200241088867e+00,1.606125116348266602e+00,1.605993151664733887e+00,1.605861306190490723e+00,1.605729341506958008e+00,1.605597376823425293e+00,1.605465531349182129e+00,1.605333805084228516e+00,1.605201959609985352e+00,1.605069994926452637e+00,1.604938268661499023e+00,1.604806542396545410e+00,1.604674935340881348e+00,1.604543209075927734e+00,1.604411363601684570e+00,1.604279756546020508e+00,1.604148149490356445e+00,1.604016542434692383e+00,1.603884816169738770e+00,1.603753328323364258e+00,1.603621840476989746e+00,1.603490233421325684e+00,1.603358626365661621e+00,1.603227138519287109e+00,1.603095769882202148e+00,1.602964282035827637e+00,1.602832913398742676e+00,1.602701425552368164e+00,1.602570056915283203e+00,1.602438688278198242e+00,1.602307438850402832e+00,1.602175951004028320e+00,1.602044701576232910e+00,1.601913452148437500e+00,1.601782202720642090e+00,1.601651072502136230e+00,1.601519703865051270e+00,1.601388573646545410e+00,1.601257443428039551e+00,1.601126313209533691e+00,1.600995063781738281e+00,1.600864052772521973e+00,1.600732922554016113e+00,1.600601911544799805e+00,1.600470781326293945e+00,1.600339770317077637e+00,1.600208878517150879e+00,1.600077867507934570e+00,1.599946856498718262e+00,1.599815845489501953e+00,1.599684953689575195e+00,1.599554061889648438e+00,1.599423289299011230e+00,1.599292278289794922e+00,1.599161505699157715e+00,1.599030733108520508e+00,1.598899960517883301e+00,1.598769068717956543e+00,1.598638415336608887e+00,1.598507761955261230e+00,1.598377108573913574e+00,1.598246455192565918e+00,1.598115682601928711e+00,1.597985029220581055e+00,1.597854495048522949e+00,1.597723960876464844e+00,1.597593188285827637e+00,1.597462654113769531e+00,1.597332239151000977e+00
1.467231035232543945e+00,1.467120885848999023e+00,1.467010736465454102e+00,1.466900706291198730e+00,1.466790676116943359e+00,1.466680526733398438e+00,1.466570496559143066e+00,1.466460585594177246e+00,1.466350555419921875e+00,1.466240525245666504e+00,1.466130495071411133e+00,1.466020584106445312e+00,1.465910673141479492e+00,1.465800881385803223e+00,1.465690851211547852e+00,1.465580940246582031e+00,1.465471148490905762e+00,1.465361356735229492e+00,1.465251326560974121e+00,1.465141534805297852e+00,1.465031862258911133e+00,1.464922070503234863e+00,1.464812278747558594e+00,1.464702486991882324e+00,1.464592695236206055e+00,1.464483022689819336e+00,1.464373350143432617e+00,1.464263558387756348e+00,1.464154005050659180e+00,1.464044332504272461e+00,1.463934659957885742e+00,1.463824987411499023e+00,1.463715434074401855e+00,1.463605880737304688e+00,1.463496327400207520e+00,1.463386774063110352e+00,1.463277101516723633e+00,1.463167667388916016e+00,1.463058233261108398e+00,1.462948679924011230e+00,1.462839126586914062e+00,1.462729692459106445e+00,1.462620258331298828e+00,1.462510943412780762e+00,1.462401390075683594e+00,1.462292075157165527e+00,1.462182760238647461e+00,1.462073445320129395e+00,1.461964130401611328e+00,1.461854696273803711e+00,1.461745381355285645e+00,1.461636066436767578e+00,1.461526870727539062e+00,1.461417555809020996e+00,1.461308240890502930e+00,1.461199045181274414e+00,1.461089968681335449e+00,1.460980653762817383e+00,1.460871458053588867e+00,1.460762381553649902e+00,1.460653185844421387e+00,1.460544109344482422e+00,1.460434913635253906e+00,1.460325837135314941e+00,1.460216760635375977e+00,1.460107803344726562e+00,1.459998607635498047e+00,1.459889650344848633e+00,1.459780573844909668e+00,1.459671616554260254e+00,1.459562659263610840e+00,1.459453582763671875e+00,1.459344744682312012e+00,1.459235787391662598e+00,1.459126949310302734e+00,1.459017872810363770e+00,1.458909034729003906e+00,1.458800196647644043e+00,1.458691358566284180e+00,1.458582401275634766e+00
1.349328756332397461e+00,1.349235653877258301e+00,1.349142551422119141e+00,1.349049329757690430e+00,1.348956227302551270e+00,1.348863244056701660e+00,1.348770141601562500e+00,1.348677039146423340e+00,1.348584055900573730e+00,1.348491072654724121e+00,1.348397970199584961e+00,1.348305106163024902e+00,1.348212003707885742e+00,1.348119020462036133e+00,1.348026037216186523e+00,1.347933173179626465e+00,1.347840189933776855e+00,1.347747206687927246e+00,1.347654342651367188e+00,1.347561478614807129e+00,1.347468495368957520e+00,1.347375631332397461e+00,1.347282886505126953e+00,1.347190022468566895e+00,1.347097277641296387e+00,1.347004294395446777e+00,1.346911549568176270e+00,1.346818804740905762e+00,1.346726059913635254e+00,1.346633195877075195e+00,1.346540451049804688e+00,1.346447706222534180e+00,1.346354961395263672e+00,1.346262216567993164e+00,1.346169471740722656e+00,1.346076846122741699e+00,1.345984220504760742e+00,1.345891594886779785e+00,1.345798850059509277e+00,1.345706224441528320e+00,1.345613598823547363e+00,1.345520973205566406e+00,1.345428347587585449e+00,1.345335721969604492e+00,1.345243215560913086e+00,1.345150589942932129e+00,1.345058083534240723e+00,1.344965457916259766e+00,1.344872951507568359e+00,1.344780445098876953e+00,1.344688057899475098e+00,1.344595432281494141e+00,1.344502925872802734e+00,1.344410538673400879e+00,1.344318151473999023e+00,1.344225645065307617e+00,1.344133138656616211e+00,1.344040751457214355e+00,1.343948364257812500e+00,1.343856096267700195e+00,1.343763589859008789e+00,1.343671202659606934e+00,1.343578934669494629e+00,1.343486666679382324e+00,1.343394160270690918e+00,1.343301892280578613e+00,1.343209624290466309e+00,1.343117356300354004e+00,1.343024969100952148e+00,1.342932820320129395e+00,1.342840552330017090e+00,1.342748284339904785e+00,1.342656135559082031e+00,1.342563867568969727e+00,1.342471718788146973e+00,1.342379450798034668e+00,1.342287302017211914e+00,1.342195153236389160e+00,1.342103004455566406e+00,1.342010855674743652e+00
1.248965620994567871e+00,1.248885750770568848e+00,1.248805999755859375e+00,1.248726248741149902e+00,1.248646616935729980e+00,1.248566746711730957e+00,1.248486995697021484e+00,1.248407363891601562e+00,1.248327612876892090e+00,1.248247861862182617e+00,1.248168110847473145e+00,1.248088479042053223e+00,1.248008847236633301e+00,1.247929215431213379e+00,1.247849464416503906e+00,1.247769832611083984e+00,1.247690200805664062e+00,1.247610569000244141e+00,1.247530937194824219e+00,1.247451305389404297e+00,1.247371792793273926e+00,1.247292160987854004e+00,1.247212648391723633e+00,1.247133016586303711e+00,1.247053384780883789e+00,1.246973872184753418e+00,1.246894359588623047e+00,1.246814846992492676e+00,1.246735334396362305e+00,1.246655821800231934e+00,1.246576309204101562e+00,1.246496796607971191e+00,1.246417284011840820e+00,1.246337890625000000e+00,1.246258497238159180e+00,1.246178984642028809e+00,1.246099472045898438e+00,1.246020078659057617e+00,1.245940685272216797e+00,1.245861291885375977e+00,1.245781898498535156e+00,1.245702505111694336e+00,1.245623111724853516e+00,1.245543837547302246e+00,1.245464324951171875e+00,1.245385050773620605e+00,1.245305776596069336e+00,1.245226383209228516e+00,1.245147109031677246e+00,1.245067715644836426e+00,1.244988441467285156e+00,1.244909286499023438e+00,1.244830012321472168e+00,1.244750618934631348e+00,1.244671463966369629e+00,1.244592189788818359e+00,1.244512915611267090e+00,1.244433641433715820e+00,1.244354486465454102e+00,1.244275331497192383e+00,1.244196176528930664e+00,1.244117021560668945e+00,1.244037747383117676e+00,1.243958592414855957e+00,1.243879437446594238e+00,1.243800282478332520e+00,1.243721127510070801e+00,1.243641972541809082e+00,1.243562936782836914e+00,1.243483901023864746e+00,1.243404746055603027e+00,1.243325591087341309e+00,1.243246555328369141e+00,1.243167519569396973e+00,1.243088483810424805e+00,1.243009448051452637e+00,1.242930412292480469e+00,1.242851376533508301e+00,1.242772459983825684e+00,1.242693305015563965e+00
1.162498950958251953e+00,1.162429809570312500e+00,1.162360787391662598e+00,1.162291526794433594e+00,1.162222504615783691e+00,1.162153363227844238e+00,1.162084341049194336e+00,1.162015199661254883e+00,1.161946177482604980e+00,1.161877155303955078e+00,1.161808133125305176e+00,1.161739110946655273e+00,1.161669969558715820e+00,1.161600947380065918e+00,1.161531925201416016e+00,1.161463022232055664e+00,1.161393880844116211e+00,1.161324977874755859e+00,1.161255955696105957e+00,1.161186933517456055e+00,1.161117911338806152e+00,1.161049008369445801e+00,1.160980105400085449e+00,1.160911202430725098e+00,1.160842180252075195e+00,1.160773277282714844e+00,1.160704374313354492e+00,1.160635471343994141e+00,1.160566568374633789e+00,1.160497546195983887e+00,1.160428762435913086e+00,1.160359859466552734e+00,1.160290956497192383e+00,1.160222053527832031e+00,1.160153269767761230e+00,1.160084366798400879e+00,1.160015583038330078e+00,1.159946799278259277e+00,1.159877896308898926e+00,1.159809112548828125e+00,1.159740328788757324e+00,1.159671545028686523e+00,1.159602642059326172e+00,1.159533858299255371e+00,1.159465193748474121e+00,1.159396409988403320e+00,1.159327626228332520e+00,1.159258842468261719e+00,1.159190058708190918e+00,1.159121394157409668e+00,1.159052729606628418e+00,1.158983945846557617e+00,1.158915162086486816e+00,1.158846497535705566e+00,1.158777832984924316e+00,1.158709049224853516e+00,1.158640503883361816e+00,1.158571839332580566e+00,1.158503174781799316e+00,1.158434510231018066e+00,1.158365845680236816e+00,1.158297181129455566e+00,1.158228635787963867e+00,1.158159971237182617e+00,1.158091306686401367e+00,1.158022761344909668e+00,1.157954216003417969e+00,1.157885670661926270e+00,1.157817006111145020e+00,1.157748460769653320e+00,1.157679915428161621e+00,1.157611370086669922e+00,1.157542824745178223e+00,1.157474160194396973e+00,1.157405734062194824e+00,1.157337188720703125e+00,1.157268762588500977e+00,1.157200098037719727e+00,1.157131671905517578e+00,1.157063245773315430e+00
1.087229371070861816e+00,1.087168812751770020e+00,1.087108373641967773e+00,1.087047934532165527e+00,1.086987614631652832e+00,1.086927056312561035e+00,1.086866617202758789e+00,1.086806297302246094e+00,1.086745858192443848e+00,1.086685419082641602e+00,1.086624979972839355e+00,1.086564660072326660e+00,1.086504220962524414e+00,1.086443901062011719e+00,1.086383461952209473e+00,1.086323142051696777e+00,1.086262702941894531e+00,1.086202383041381836e+00,1.086141943931579590e+00,1.086081624031066895e+00,1.086021304130554199e+00,1.085960984230041504e+00,1.085900783538818359e+00,1.085840344429016113e+00,1.085780024528503418e+00,1.085719823837280273e+00,1.085659503936767578e+00,1.085599184036254883e+00,1.085538864135742188e+00,1.085478663444519043e+00,1.085418343544006348e+00,1.085358023643493652e+00,1.085297822952270508e+00,1.085237622261047363e+00,1.085177302360534668e+00,1.085117101669311523e+00,1.085056900978088379e+00,1.084996700286865234e+00,1.084936499595642090e+00,1.084876298904418945e+00,1.084815979003906250e+00,1.084755778312683105e+00,1.084695577621459961e+00,1.084635496139526367e+00,1.084575176239013672e+00,1.084515094757080078e+00,1.084454894065856934e+00,1.084394812583923340e+00,1.084334611892700195e+00,1.084274411201477051e+00,1.084214329719543457e+00,1.084154248237609863e+00,1.084094166755676270e+00,1.084033966064453125e+00,1.083973884582519531e+00,1.083913803100585938e+00,1.083853721618652344e+00,1.083793520927429199e+00,1.083733439445495605e+00,1.083673477172851562e+00,1.083613395690917969e+00,1.083553314208984375e+00,1.083493232727050781e+00,1.083433151245117188e+00,1.083373188972473145e+00,1.083313107490539551e+00,1.083253026008605957e+00,1.083193063735961914e+00,1.083133101463317871e+00,1.083073019981384277e+00,1.083013057708740234e+00,1.082952976226806641e+00,1.082893013954162598e+00,1.082833051681518555e+00,1.082773089408874512e+00,1.082713127136230469e+00,1.082653164863586426e+00,1.082593202590942383e+00,1.082533240318298340e+00,1.082473278045654297e+00
1.021114110946655273e+00,1.021060824394226074e+00,1.021007537841796875e+00,1.020954132080078125e+00,1.020900845527648926e+00,1.020847558975219727e+00,1.020794272422790527e+00,1.020740866661071777e+00,1.020687580108642578e+00,1.020634293556213379e+00,1.020581126213073730e+00,1.020527839660644531e+00,1.020474433898925781e+00,1.020421266555786133e+00,1.020367980003356934e+00,1.020314693450927734e+00,1.020261406898498535e+00,1.020208239555358887e+00,1.020154953002929688e+00,1.020101785659790039e+00,1.020048499107360840e+00,1.019995331764221191e+00,1.019942045211791992e+00,1.019888877868652344e+00,1.019835710525512695e+00,1.019782423973083496e+00,1.019729256629943848e+00,1.019676089286804199e+00,1.019622921943664551e+00,1.019569754600524902e+00,1.019516587257385254e+00,1.019463419914245605e+00,1.019410252571105957e+00,1.019357085227966309e+00,1.019303917884826660e+00,1.019250750541687012e+00,1.019197702407836914e+00,1.019144535064697266e+00,1.019091367721557617e+00,1.019038200378417969e+00,1.018985152244567871e+00,1.018931984901428223e+00,1.018878936767578125e+00,1.018825769424438477e+00,1.018772721290588379e+00,1.018719673156738281e+00,1.018666625022888184e+00,1.018613457679748535e+00,1.018560409545898438e+00,1.018507361412048340e+00,1.018454313278198242e+00,1.018401145935058594e+00,1.018348097801208496e+00,1.018295049667358398e+00,1.018242120742797852e+00,1.018188953399658203e+00,1.018136024475097656e+00,1.018082976341247559e+00,1.018029928207397461e+00,1.017976999282836914e+00,1.017923951148986816e+00,1.017870903015136719e+00,1.017817974090576172e+00,1.017764925956726074e+00,1.017711877822875977e+00,1.017658948898315430e+00,1.017606019973754883e+00,1.017553091049194336e+00,1.017500042915344238e+00,1.017447113990783691e+00,1.017394185066223145e+00,1.017341256141662598e+00,1.017288327217102051e+00,1.017235279083251953e+00,1.017182350158691406e+00,1.017129540443420410e+00,1.017076611518859863e+00,1.017023682594299316e+00,1.016970753669738770e+00,1.016917824745178223e+00
9.625790715217590332e-01,9.625316858291625977e-01,9.624843001365661621e-01,9.624369740486145020e-01,9.623895883560180664e-01,9.623420834541320801e-01,9.622946977615356445e-01,9.622473716735839844e-01,9.622000455856323242e-01,9.621526598930358887e-01,9.621053338050842285e-01,9.620580077171325684e-01,9.620106816291809082e-01,9.619633555412292480e-01,9.619159102439880371e-01,9.618685841560363770e-01,9.618213176727294922e-01,9.617739915847778320e-01,9.617266654968261719e-01,9.616793990135192871e-01,9.616320729255676270e-01,9.615848064422607422e-01,9.615375399589538574e-01,9.614901542663574219e-01,9.614428877830505371e-01,9.613955616950988770e-01,9.613482952117919922e-01,9.613010883331298828e-01,9.612538218498229980e-01,9.612065553665161133e-01,9.611592888832092285e-01,9.611119627952575684e-01,9.610646963119506836e-01,9.610174894332885742e-01,9.609702229499816895e-01,9.609230160713195801e-01,9.608758091926574707e-01,9.608286023139953613e-01,9.607813954353332520e-01,9.607341885566711426e-01,9.606868624687194824e-01,9.606396555900573730e-01,9.605925083160400391e-01,9.605453014373779297e-01,9.604980945587158203e-01,9.604509472846984863e-01,9.604037404060363770e-01,9.603565931320190430e-01,9.603094458580017090e-01,9.602621793746948242e-01,9.602149724960327148e-01,9.601678252220153809e-01,9.601206779479980469e-01,9.600735902786254883e-01,9.600264430046081543e-01,9.599792957305908203e-01,9.599321484565734863e-01,9.598849415779113770e-01,9.598377943038940430e-01,9.597907066345214844e-01,9.597436189651489258e-01,9.596964716911315918e-01,9.596493840217590332e-01,9.596022963523864746e-01,9.595552086830139160e-01,9.595081210136413574e-01,9.594609141349792480e-01,9.594138264656066895e-01,9.593667984008789062e-01,9.593197107315063477e-01,9.592726230621337891e-01,9.592255949974060059e-01,9.591785669326782227e-01,9.591314792633056641e-01,9.590844511985778809e-01,9.590373039245605469e-01,9.589902758598327637e-01,9.589432477951049805e-01,9.588962197303771973e-01,9.588491916656494141e-01
9.103911519050598145e-01,9.103487730026245117e-01,9.103063941001892090e-01,9.102638959884643555e-01,9.102215170860290527e-01,9.101791381835937500e-01,9.101368188858032227e-01,9.100944399833679199e-01,9.100520610809326172e-01,9.100097417831420898e-01,9.099673628807067871e-01,9.099250435829162598e-01,9.098826050758361816e-01,9.098402857780456543e-01,9.097979068756103516e-01,9.097555875778198242e-01,9.097132682800292969e-01,9.096709489822387695e-01,9.096286296844482422e-01,9.095863103866577148e-01,9.095439314842224121e-01,9.095016121864318848e-01,9.094592928886413574e-01,9.094170331954956055e-01,9.093747138977050781e-01,9.093324542045593262e-01,9.092901349067687988e-01,9.092478752136230469e-01,9.092055559158325195e-01,9.091631770133972168e-01,9.091209173202514648e-01,9.090786576271057129e-01,9.090363979339599609e-01,9.089941382408142090e-01,9.089518785476684570e-01,9.089096188545227051e-01,9.088674187660217285e-01,9.088251590728759766e-01,9.087828397750854492e-01,9.087405800819396973e-01,9.086983799934387207e-01,9.086561203002929688e-01,9.086139202117919922e-01,9.085717201232910156e-01,9.085294604301452637e-01,9.084872603416442871e-01,9.084450602531433105e-01,9.084027409553527832e-01,9.083605408668518066e-01,9.083183407783508301e-01,9.082762002944946289e-01,9.082340002059936523e-01,9.081918001174926758e-01,9.081496000289916992e-01,9.081074595451354980e-01,9.080651998519897461e-01,9.080229997634887695e-01,9.079808592796325684e-01,9.079387187957763672e-01,9.078965187072753906e-01,9.078543782234191895e-01,9.078122377395629883e-01,9.077700972557067871e-01,9.077279567718505859e-01,9.076856970787048340e-01,9.076435565948486328e-01,9.076014757156372070e-01,9.075593352317810059e-01,9.075171947479248047e-01,9.074751138687133789e-01,9.074329733848571777e-01,9.073908925056457520e-01,9.073487520217895508e-01,9.073065519332885742e-01,9.072644710540771484e-01,9.072223901748657227e-01,9.071803092956542969e-01,9.071382284164428711e-01,9.070961475372314453e-01,9.070540666580200195e-01
8.635711073875427246e-01,8.635329008102416992e-01,8.634947538375854492e-01,8.634566068649291992e-01,8.634184598922729492e-01,8.633803725242614746e-01,8.633422255516052246e-01,8.633041381835937500e-01,8.632659912109375000e-01,8.632278442382812500e-01,8.631896972656250000e-01,8.631516098976135254e-01,8.631135225296020508e-01,8.630754351615905762e-01,8.630373477935791016e-01,8.629992604255676270e-01,8.629611730575561523e-01,8.629230856895446777e-01,8.628848791122436523e-01,8.628467917442321777e-01,8.628087639808654785e-01,8.627706766128540039e-01,8.627325892448425293e-01,8.626945614814758301e-01,8.626564741134643555e-01,8.626184463500976562e-01,8.625803589820861816e-01,8.625422120094299316e-01,8.625041842460632324e-01,8.624661564826965332e-01,8.624281287193298340e-01,8.623901009559631348e-01,8.623520135879516602e-01,8.623139858245849609e-01,8.622759580612182617e-01,8.622379899024963379e-01,8.621998429298400879e-01,8.621618151664733887e-01,8.621238470077514648e-01,8.620858192443847656e-01,8.620477914810180664e-01,8.620098233222961426e-01,8.619717955589294434e-01,8.619338274002075195e-01,8.618957400321960449e-01,8.618577718734741211e-01,8.618197441101074219e-01,8.617817759513854980e-01,8.617438077926635742e-01,8.617058396339416504e-01,8.616678714752197266e-01,8.616299033164978027e-01,8.615919351577758789e-01,8.615538477897644043e-01,8.615158796310424805e-01,8.614779710769653320e-01,8.614400029182434082e-01,8.614020347595214844e-01,8.613641262054443359e-01,8.613261580467224121e-01,8.612882494926452637e-01,8.612502813339233398e-01,8.612122535705566406e-01,8.611743450164794922e-01,8.611364364624023438e-01,8.610984683036804199e-01,8.610605597496032715e-01,8.610226511955261230e-01,8.609847426414489746e-01,8.609468340873718262e-01,8.609089255332946777e-01,8.608709573745727539e-01,8.608330488204956055e-01,8.607951402664184570e-01,8.607572317123413086e-01,8.607193827629089355e-01,8.606814742088317871e-01,8.606436252593994141e-01,8.606057167053222656e-01,8.605677485466003418e-01
8.213312029838562012e-01,8.212966918945312500e-01,8.212621808052062988e-01,8.212277293205261230e-01,8.211932182312011719e-01,8.211587667465209961e-01,8.211242556571960449e-01,8.210896849632263184e-01,8.210552334785461426e-01,8.210207819938659668e-01,8.209862709045410156e-01,8.209518194198608398e-01,8.209173679351806641e-01,8.208829164505004883e-01,8.208484053611755371e-01,8.208139538764953613e-01,8.207794427871704102e-01,8.207449913024902344e-01,8.207105398178100586e-01,8.206760883331298828e-01,8.206416368484497070e-01,8.206072449684143066e-01,8.205727934837341309e-01,8.205383419990539551e-01,8.205039501190185547e-01,8.204694390296936035e-01,8.204349875450134277e-01,8.204005956649780273e-01,8.203661441802978516e-01,8.203317523002624512e-01,8.202973008155822754e-01,8.202629089355468750e-01,8.202285170555114746e-01,8.201940059661865234e-01,8.201596140861511230e-01,8.201252222061157227e-01,8.200908303260803223e-01,8.200564384460449219e-01,8.200220465660095215e-01,8.199876546859741211e-01,8.199532628059387207e-01,8.199188709259033203e-01,8.198844194412231445e-01,8.198500275611877441e-01,8.198156952857971191e-01,8.197813034057617188e-01,8.197469711303710938e-01,8.197125792503356934e-01,8.196781873703002930e-01,8.196438550949096680e-01,8.196095228195190430e-01,8.195750713348388672e-01,8.195407390594482422e-01,8.195063471794128418e-01,8.194720149040222168e-01,8.194376826286315918e-01,8.194033503532409668e-01,8.193690180778503418e-01,8.193346858024597168e-01,8.193003535270690918e-01,8.192659616470336914e-01,8.192316293716430664e-01,8.191972970962524414e-01,8.191629648208618164e-01,8.191286325454711914e-01,8.190943598747253418e-01,8.190600275993347168e-01,8.190257549285888672e-01,8.189913630485534668e-01,8.189570307731628418e-01,8.189227581024169922e-01,8.188884258270263672e-01,8.188541531562805176e-01,8.188198804855346680e-01,8.187856078147888184e-01,8.187512755393981934e-01,8.187170028686523438e-01,8.186826705932617188e-01,8.186483979225158691e-01,8.186141252517700195e-01
7.830308675765991211e-01,7.829995155334472656e-01,7.829681634902954102e-01,7.829368114471435547e-01,7.829054594039916992e-01,7.828740477561950684e-01,7.828426957130432129e-01,7.828113436698913574e-01,7.827800512313842773e-01,7.827486991882324219e-01,7.827173471450805664e-01,7.826860547065734863e-01,7.826547026634216309e-01,7.826233506202697754e-01,7.825919985771179199e-01,7.825606465339660645e-01,7.825293540954589844e-01,7.824980020523071289e-01,7.824667096138000488e-01,7.824354171752929688e-01,7.824040651321411133e-01,7.823727726936340332e-01,7.823414802551269531e-01,7.823101282119750977e-01,7.822788357734680176e-01,7.822475433349609375e-01,7.822162508964538574e-01,7.821849584579467773e-01,7.821536660194396973e-01,7.821223735809326172e-01,7.820910811424255371e-01,7.820597290992736816e-01,7.820284366607666016e-01,7.819971442222595215e-01,7.819659113883972168e-01,7.819346189498901367e-01,7.819033861160278320e-01,7.818720936775207520e-01,7.818408608436584473e-01,7.818095684051513672e-01,7.817782163619995117e-01,7.817469835281372070e-01,7.817157506942749023e-01,7.816844582557678223e-01,7.816532254219055176e-01,7.816219925880432129e-01,7.815907597541809082e-01,7.815595269203186035e-01,7.815282940864562988e-01,7.814969420433044434e-01,7.814657092094421387e-01,7.814344763755798340e-01,7.814032435417175293e-01,7.813720703125000000e-01,7.813408374786376953e-01,7.813096046447753906e-01,7.812783718109130859e-01,7.812470793724060059e-01,7.812159061431884766e-01,7.811846733093261719e-01,7.811534404754638672e-01,7.811222672462463379e-01,7.810910344123840332e-01,7.810598611831665039e-01,7.810286879539489746e-01,7.809974551200866699e-01,7.809662222862243652e-01,7.809349894523620605e-01,7.809038162231445312e-01,7.808726429939270020e-01,7.808414697647094727e-01,7.808102965354919434e-01,7.807791233062744141e-01,7.807479500770568848e-01,7.807167768478393555e-01,7.806854844093322754e-01,7.806543111801147461e-01,7.806231975555419922e-01,7.805920243263244629e-01,7.805608510971069336e-01
