3.097714662551879883e+00,3.176285982131958008e+00,3.258946895599365234e+00,3.346025228500366211e+00,3.437884807586669922e+00,3.534930229187011719e+00,3.637614011764526367e+00,3.746441602706909180e+00,3.861981868743896484e+00,3.984875202178955078e+00,4.115847110748291016e+00,4.255720615386962891e+00,4.405436038970947266e+00,5.000000000000000000e+00,5.000000000000000000e+00,5.000000000000000000e+00,5.000000000000000000e+00,5.000000000000000000e+00,5.000000000000000000e+00,5.000000000000000000e+00,5.000000000000000000e+00,5.000000000000000000e+00,5.000000000000000000e+00,5.000000000000000000e+00,5.000000000000000000e+00,5.000000000000000000e+00,5.000000000000000000e+00,5.000000000000000000e+00,5.000000000000000000e+00,5.000000000000000000e+00,5.000000000000000000e+00,5.000000000000000000e+00,5.000000000000000000e+00,5.000000000000000000e+00,5.000000000000000000e+00,5.000000000000000000e+00,5.000000000000000000e+00,5.000000000000000000e+00,5.000000000000000000e+00,5.000000000000000000e+00,5.000000000000000000e+00,5.000000000000000000e+00,5.000000000000000000e+00,5.000000000000000000e+00,5.000000000000000000e+00,5.000000000000000000e+00,5.000000000000000000e+00,5.000000000000000000e+00,5.000000000000000000e+00,5.000000000000000000e+00,5.000000000000000000e+00,5.000000000000000000e+00,5.000000000000000000e+00,5.000000000000000000e+00,5.000000000000000000e+00,5.000000000000000000e+00,5.000000000000000000e+00,5.000000000000000000e+00,5.000000000000000000e+00,5.000000000000000000e+00,5.000000000000000000e+00,5.000000000000000000e+00,5.000000000000000000e+00,5.000000000000000000e+00,5.000000000000000000e+00,5.000000000000000000e+00,5.000000000000000000e+00,5.000000000000000000e+00,5.000000000000000000e+00,5.000000000000000000e+00,5.000000000000000000e+00,5.000000000000000000e+00,5.000000000000000000e+00,4.399266242980957031e+00,4.268292903900146484e+00,4.144891738891601562e+00,4.028404712677001953e+00,3.918243169784545898e+00,3.813946485519409180e+00,3.715057849884033203e+00
3.097635984420776367e+00,3.176203489303588867e+00,3.258860111236572266e+00,3.345933675765991211e+00,3.437788248062133789e+00,3.534828186035156250e+00,3.637506008148193359e+00,3.746326923370361328e+00,3.861860036849975586e+00,3.984745264053344727e+00,4.115708351135253906e+00,4.255572795867919922e+00,4.405277252197265625e+00,4.565898418426513672e+00,5.000000000000000000e+00,5.000000000000000000e+00,5.000000000000000000e+00,5.000000000000000000e+00,5.000000000000000000e+00,5.000000000000000000e+00,5.000000000000000000e+00,5.000000000000000000e+00,5.000000000000000000e+00,5.000000000000000000e+00,5.000000000000000000e+00,5.000000000000000000e+00,5.000000000000000000e+00,5.000000000000000000e+00,5.000000000000000000e+00,5.000000000000000000e+00,5.000000000000000000e+00,5.000000000000000000e+00,5.000000000000000000e+00,5.000000000000000000e+00,5.000000000000000000e+00,5.000000000000000000e+00,5.000000000000000000e+00,5.000000000000000000e+00,5.000000000000000000e+00,5.000000000000000000e+00,5.000000000000000000e+00,5.000000000000000000e+00,5.000000000000000000e+00,5.000000000000000000e+00,5.000000000000000000e+00,5.000000000000000000e+00,5.000000000000000000e+00,5.000000000000000000e+00,5.000000000000000000e+00,5.000000000000000000e+00,5.000000000000000000e+00,5.000000000000000000e+00,5.000000000000000000e+00,5.000000000000000000e+00,5.000000000000000000e+00,5.000000000000000000e+00,5.000000000000000000e+00,5.000000000000000000e+00,5.000000000000000000e+00,5.000000000000000000e+00,5.000000000000000000e+00,5.000000000000000000e+00,5.000000000000000000e+00,5.000000000000000000e+00,5.000000000000000000e+00,5.000000000000000000e+00,5.000000000000000000e+00,5.000000000000000000e+00,5.000000000000000000e+00,5.000000000000000000e+00,5.000000000000000000e+00,5.000000000000000000e+00,4.538753032684326172e+00,4.399473667144775391e+00,4.268487453460693359e+00,4.145043373107910156e+00,4.028502464294433594e+00,3.918335676193237305e+00,3.814033985137939453e+00,3.715140819549560547e+00
3.097557306289672852e+00,3.176120758056640625e+00,3.258773088455200195e+00,3.345842123031616211e+00,3.437691450119018555e+00,3.534725904464721680e+00,3.637397527694702148e+00,3.746212005615234375e+00,3.861737966537475586e+00,3.984615564346313477e+00,4.115569591522216797e+00,4.255424499511718750e+00,4.405118465423583984e+00,4.565728187561035156e+00,4.738492488861083984e+00,5.000000000000000000e+00,5.000000000000000000e+00,5.000000000000000000e+00,5.000000000000000000e+00,5.000000000000000000e+00,5.000000000000000000e+00,5.000000000000000000e+00,5.000000000000000000e+00,5.000000000000000000e+00,5.000000000000000000e+00,5.000000000000000000e+00,5.000000000000000000e+00,5.000000000000000000e+00,5.000000000000000000e+00,5.000000000000000000e+00,5.000000000000000000e+00,5.000000000000000000e+00,5.000000000000000000e+00,5.000000000000000000e+00,5.000000000000000000e+00,5.000000000000000000e+00,5.000000000000000000e+00,5.000000000000000000e+00,5.000000000000000000e+00,5.000000000000000000e+00,5.000000000000000000e+00,5.000000000000000000e+00,5.000000000000000000e+00,5.000000000000000000e+00,5.000000000000000000e+00,5.000000000000000000e+00,5.000000000000000000e+00,5.000000000000000000e+00,5.000000000000000000e+00,5.000000000000000000e+00,5.000000000000000000e+00,5.000000000000000000e+00,5.000000000000000000e+00,5.000000000000000000e+00,5.000000000000000000e+00,5.000000000000000000e+00,5.000000000000000000e+00,5.000000000000000000e+00,5.000000000000000000e+00,5.000000000000000000e+00,5.000000000000000000e+00,5.000000000000000000e+00,5.000000000000000000e+00,5.000000000000000000e+00,5.000000000000000000e+00,5.000000000000000000e+00,5.000000000000000000e+00,5.000000000000000000e+00,5.000000000000000000e+00,5.000000000000000000e+00,5.000000000000000000e+00,4.687374114990234375e+00,4.538973331451416016e+00,4.399680137634277344e+00,4.268638134002685547e+00,4.145147323608398438e+00,4.028600692749023438e+00,3.918428421020507812e+00,3.814121961593627930e+00,3.715224266052246094e+00
3.097481250762939453e+00,3.176038265228271484e+00,3.258686304092407227e+00,3.345750570297241211e+00,3.437594890594482422e+00,3.534623861312866211e+00,3.637289524078369141e+00,3.746097087860107422e+00,3.861615657806396484e+00,3.984485387802124023e+00,4.115431308746337891e+00,4.255276203155517578e+00,4.404959678649902344e+00,4.565557479858398438e+00,4.738308906555175781e+00,4.924646854400634766e+00,5.000000000000000000e+00,5.000000000000000000e+00,5.000000000000000000e+00,5.000000000000000000e+00,5.000000000000000000e+00,5.000000000000000000e+00,5.000000000000000000e+00,5.000000000000000000e+00,5.000000000000000000e+00,5.000000000000000000e+00,5.000000000000000000e+00,5.000000000000000000e+00,5.000000000000000000e+00,5.000000000000000000e+00,5.000000000000000000e+00,5.000000000000000000e+00,5.000000000000000000e+00,5.000000000000000000e+00,5.000000000000000000e+00,5.000000000000000000e+00,5.000000000000000000e+00,5.000000000000000000e+00,5.000000000000000000e+00,5.000000000000000000e+00,5.000000000000000000e+00,5.000000000000000000e+00,5.000000000000000000e+00,5.000000000000000000e+00,5.000000000000000000e+00,5.000000000000000000e+00,5.000000000000000000e+00,5.000000000000000000e+00,5.000000000000000000e+00,5.000000000000000000e+00,5.000000000000000000e+00,5.000000000000000000e+00,5.000000000000000000e+00,5.000000000000000000e+00,5.000000000000000000e+00,5.000000000000000000e+00,5.000000000000000000e+00,5.000000000000000000e+00,5.000000000000000000e+00,5.000000000000000000e+00,5.000000000000000000e+00,5.000000000000000000e+00,5.000000000000000000e+00,5.000000000000000000e+00,5.000000000000000000e+00,5.000000000000000000e+00,5.000000000000000000e+00,5.000000000000000000e+00,5.000000000000000000e+00,5.000000000000000000e+00,4.846058368682861328e+00,4.687609195709228516e+00,4.539193630218505859e+00,4.399829864501953125e+00,4.268748283386230469e+00,4.145250797271728516e+00,4.028698444366455078e+00,3.918520927429199219e+00,3.814209461212158203e+00,3.715307474136352539e+00
3.097415208816528320e+00,3.175958156585693359e+00,3.258599281311035156e+00,3.345658779144287109e+00,3.437498092651367188e+00,3.534521341323852539e+00,3.637181043624877930e+00,3.745982408523559570e+00,3.861493825912475586e+00,3.984355688095092773e+00,4.115292549133300781e+00,4.255128383636474609e+00,4.404800891876220703e+00,4.565386772155761719e+00,4.738124847412109375e+00,4.924448490142822266e+00,5.000000000000000000e+00,5.000000000000000000e+00,5.000000000000000000e+00,5.000000000000000000e+00,5.000000000000000000e+00,5.000000000000000000e+00,5.000000000000000000e+00,5.000000000000000000e+00,5.000000000000000000e+00,5.000000000000000000e+00,5.000000000000000000e+00,5.000000000000000000e+00,5.000000000000000000e+00,5.000000000000000000e+00,5.000000000000000000e+00,5.000000000000000000e+00,5.000000000000000000e+00,5.000000000000000000e+00,5.000000000000000000e+00,5.000000000000000000e+00,5.000000000000000000e+00,5.000000000000000000e+00,5.000000000000000000e+00,5.000000000000000000e+00,5.000000000000000000e+00,5.000000000000000000e+00,5.000000000000000000e+00,5.000000000000000000e+00,5.000000000000000000e+00,5.000000000000000000e+00,5.000000000000000000e+00,5.000000000000000000e+00,5.000000000000000000e+00,5.000000000000000000e+00,5.000000000000000000e+00,5.000000000000000000e+00,5.000000000000000000e+00,5.000000000000000000e+00,5.000000000000000000e+00,5.000000000000000000e+00,5.000000000000000000e+00,5.000000000000000000e+00,5.000000000000000000e+00,5.000000000000000000e+00,5.000000000000000000e+00,5.000000000000000000e+00,5.000000000000000000e+00,5.000000000000000000e+00,5.000000000000000000e+00,5.000000000000000000e+00,5.000000000000000000e+00,5.000000000000000000e+00,5.000000000000000000e+00,5.000000000000000000e+00,4.846309661865234375e+00,4.687844276428222656e+00,4.539341449737548828e+00,4.399946689605712891e+00,4.268858432769775391e+00,4.145354270935058594e+00,4.028796195983886719e+00,3.918613910675048828e+00,3.814297437667846680e+00,3.715390443801879883e+00
3.097349166870117188e+00,3.175888538360595703e+00,3.258514404296875000e+00,3.345567464828491211e+00,3.437401533126831055e+00,3.534419059753417969e+00,3.637072563171386719e+00,3.745867490768432617e+00,3.861371755599975586e+00,3.984225749969482422e+00,4.115154266357421875e+00,4.254980087280273438e+00,4.404642105102539062e+00,4.565216064453125000e+00,4.737941265106201172e+00,4.924250125885009766e+00,5.000000000000000000e+00,5.000000000000000000e+00,5.000000000000000000e+00,5.000000000000000000e+00,5.000000000000000000e+00,5.000000000000000000e+00,5.000000000000000000e+00,5.000000000000000000e+00,5.000000000000000000e+00,5.000000000000000000e+00,5.000000000000000000e+00,5.000000000000000000e+00,5.000000000000000000e+00,5.000000000000000000e+00,5.000000000000000000e+00,5.000000000000000000e+00,5.000000000000000000e+00,5.000000000000000000e+00,5.000000000000000000e+00,5.000000000000000000e+00,5.000000000000000000e+00,5.000000000000000000e+00,5.000000000000000000e+00,5.000000000000000000e+00,5.000000000000000000e+00,5.000000000000000000e+00,5.000000000000000000e+00,5.000000000000000000e+00,5.000000000000000000e+00,5.000000000000000000e+00,5.000000000000000000e+00,5.000000000000000000e+00,5.000000000000000000e+00,5.000000000000000000e+00,5.000000000000000000e+00,5.000000000000000000e+00,5.000000000000000000e+00,5.000000000000000000e+00,5.000000000000000000e+00,5.000000000000000000e+00,5.000000000000000000e+00,5.000000000000000000e+00,5.000000000000000000e+00,5.000000000000000000e+00,5.000000000000000000e+00,5.000000000000000000e+00,5.000000000000000000e+00,5.000000000000000000e+00,5.000000000000000000e+00,5.000000000000000000e+00,5.000000000000000000e+00,5.000000000000000000e+00,5.000000000000000000e+00,5.000000000000000000e+00,4.846560478210449219e+00,4.687990188598632812e+00,4.539465904235839844e+00,4.400063514709472656e+00,4.268968105316162109e+00,4.145458221435546875e+00,4.028894424438476562e+00,3.918706178665161133e+00,3.814385175704956055e+00,3.715474128723144531e+00
3.097283124923706055e+00,3.175819158554077148e+00,3.258441448211669922e+00,3.345477819442749023e+00,3.437304735183715820e+00,3.534317016601562500e+00,3.636964559555053711e+00,3.745752811431884766e+00,3.861249923706054688e+00,3.984096050262451172e+00,4.115015506744384766e+00,4.254831790924072266e+00,4.404483318328857422e+00,4.565045833587646484e+00,4.737757205963134766e+00,4.924051761627197266e+00,5.000000000000000000e+00,5.000000000000000000e+00,5.000000000000000000e+00,5.000000000000000000e+00,5.000000000000000000e+00,5.000000000000000000e+00,5.000000000000000000e+00,5.000000000000000000e+00,5.000000000000000000e+00,5.000000000000000000e+00,5.000000000000000000e+00,5.000000000000000000e+00,5.000000000000000000e+00,5.000000000000000000e+00,5.000000000000000000e+00,5.000000000000000000e+00,5.000000000000000000e+00,5.000000000000000000e+00,5.000000000000000000e+00,5.000000000000000000e+00,5.000000000000000000e+00,5.000000000000000000e+00,5.000000000000000000e+00,5.000000000000000000e+00,5.000000000000000000e+00,5.000000000000000000e+00,5.000000000000000000e+00,5.000000000000000000e+00,5.000000000000000000e+00,5.000000000000000000e+00,5.000000000000000000e+00,5.000000000000000000e+00,5.000000000000000000e+00,5.000000000000000000e+00,5.000000000000000000e+00,5.000000000000000000e+00,5.000000000000000000e+00,5.000000000000000000e+00,5.000000000000000000e+00,5.000000000000000000e+00,5.000000000000000000e+00,5.000000000000000000e+00,5.000000000000000000e+00,5.000000000000000000e+00,5.000000000000000000e+00,5.000000000000000000e+00,5.000000000000000000e+00,5.000000000000000000e+00,5.000000000000000000e+00,5.000000000000000000e+00,5.000000000000000000e+00,5.000000000000000000e+00,5.000000000000000000e+00,5.000000000000000000e+00,4.846704006195068359e+00,4.688122749328613281e+00,4.539590358734130859e+00,4.400180339813232422e+00,4.269077777862548828e+00,4.145561695098876953e+00,4.028992176055908203e+00,3.918799161911010742e+00,3.814473152160644531e+00,3.715557098388671875e+00
3.097217082977294922e+00,3.175749778747558594e+00,3.258368730545043945e+00,3.345400810241699219e+00,3.437210083007812500e+00,3.534214735031127930e+00,3.636856317520141602e+00,3.745637893676757812e+00,3.861127853393554688e+00,3.983965873718261719e+00,4.114876747131347656e+00,4.254683494567871094e+00,4.404324531555175781e+00,4.564875125885009766e+00,4.737573623657226562e+00,4.923853397369384766e+00,5.000000000000000000e+00,5.000000000000000000e+00,5.000000000000000000e+00,5.000000000000000000e+00,5.000000000000000000e+00,5.000000000000000000e+00,5.000000000000000000e+00,5.000000000000000000e+00,5.000000000000000000e+00,5.000000000000000000e+00,5.000000000000000000e+00,5.000000000000000000e+00,5.000000000000000000e+00,5.000000000000000000e+00,5.000000000000000000e+00,5.000000000000000000e+00,5.000000000000000000e+00,5.000000000000000000e+00,5.000000000000000000e+00,5.000000000000000000e+00,5.000000000000000000e+00,5.000000000000000000e+00,5.000000000000000000e+00,5.000000000000000000e+00,5.000000000000000000e+00,5.000000000000000000e+00,5.000000000000000000e+00,5.000000000000000000e+00,5.000000000000000000e+00,5.000000000000000000e+00,5.000000000000000000e+00,5.000000000000000000e+00,5.000000000000000000e+00,5.000000000000000000e+00,5.000000000000000000e+00,5.000000000000000000e+00,5.000000000000000000e+00,5.000000000000000000e+00,5.000000000000000000e+00,5.000000000000000000e+00,5.000000000000000000e+00,5.000000000000000000e+00,5.000000000000000000e+00,5.000000000000000000e+00,5.000000000000000000e+00,5.000000000000000000e+00,5.000000000000000000e+00,5.000000000000000000e+00,5.000000000000000000e+00,5.000000000000000000e+00,5.000000000000000000e+00,5.000000000000000000e+00,5.000000000000000000e+00,5.000000000000000000e+00,4.846845626831054688e+00,4.688255310058593750e+00,4.539714336395263672e+00,4.400297164916992188e+00,4.269187927246093750e+00,4.145665645599365234e+00,4.029090404510498047e+00,3.918891668319702148e+00,3.814560651779174805e+00,3.715640783309936523e+00
3.097151041030883789e+00,3.175680398941040039e+00,3.258295536041259766e+00,3.345323562622070312e+00,3.437128782272338867e+00,3.534114122390747070e+00,3.636748313903808594e+00,3.745523214340209961e+00,3.861006021499633789e+00,3.983835935592651367e+00,4.114738464355468750e+00,4.254535675048828125e+00,4.404165744781494141e+00,4.564704895019531250e+00,4.737390041351318359e+00,4.923655033111572266e+00,5.000000000000000000e+00,5.000000000000000000e+00,5.000000000000000000e+00,5.000000000000000000e+00,5.000000000000000000e+00,5.000000000000000000e+00,5.000000000000000000e+00,5.000000000000000000e+00,5.000000000000000000e+00,5.000000000000000000e+00,5.000000000000000000e+00,5.000000000000000000e+00,5.000000000000000000e+00,5.000000000000000000e+00,5.000000000000000000e+00,5.000000000000000000e+00,5.000000000000000000e+00,5.000000000000000000e+00,5.000000000000000000e+00,5.000000000000000000e+00,5.000000000000000000e+00,5.000000000000000000e+00,5.000000000000000000e+00,5.000000000000000000e+00,5.000000000000000000e+00,5.000000000000000000e+00,5.000000000000000000e+00,5.000000000000000000e+00,5.000000000000000000e+00,5.000000000000000000e+00,5.000000000000000000e+00,5.000000000000000000e+00,5.000000000000000000e+00,5.000000000000000000e+00,5.000000000000000000e+00,5.000000000000000000e+00,5.000000000000000000e+00,5.000000000000000000e+00,5.000000000000000000e+00,5.000000000000000000e+00,5.000000000000000000e+00,5.000000000000000000e+00,5.000000000000000000e+00,5.000000000000000000e+00,5.000000000000000000e+00,5.000000000000000000e+00,5.000000000000000000e+00,5.000000000000000000e+00,5.000000000000000000e+00,5.000000000000000000e+00,5.000000000000000000e+00,5.000000000000000000e+00,5.000000000000000000e+00,5.000000000000000000e+00,4.846987247467041016e+00,4.688387870788574219e+00,4.539838790893554688e+00,4.400413990020751953e+00,4.269298076629638672e+00,4.145769596099853516e+00,4.029188156127929688e+00,3.918984413146972656e+00,3.814645767211914062e+00,3.715717554092407227e+00
3.097085237503051758e+00,3.175611019134521484e+00,3.258222579956054688e+00,3.345246553421020508e+00,3.437047243118286133e+00,3.534028053283691406e+00,3.636641502380371094e+00,3.745408296585083008e+00,3.860883951187133789e+00,3.983706235885620117e+00,4.114599704742431641e+00,4.254387378692626953e+00,4.404006958007812500e+00,4.564534187316894531e+00,4.737206459045410156e+00,4.923456668853759766e+00,5.000000000000000000e+00,5.000000000000000000e+00,5.000000000000000000e+00,5.000000000000000000e+00,5.000000000000000000e+00,5.000000000000000000e+00,5.000000000000000000e+00,5.000000000000000000e+00,5.000000000000000000e+00,5.000000000000000000e+00,5.000000000000000000e+00,5.000000000000000000e+00,5.000000000000000000e+00,5.000000000000000000e+00,5.000000000000000000e+00,5.000000000000000000e+00,5.000000000000000000e+00,5.000000000000000000e+00,5.000000000000000000e+00,5.000000000000000000e+00,5.000000000000000000e+00,5.000000000000000000e+00,5.000000000000000000e+00,5.000000000000000000e+00,5.000000000000000000e+00,5.000000000000000000e+00,5.000000000000000000e+00,5.000000000000000000e+00,5.000000000000000000e+00,5.000000000000000000e+00,5.000000000000000000e+00,5.000000000000000000e+00,5.000000000000000000e+00,5.000000000000000000e+00,5.000000000000000000e+00,5.000000000000000000e+00,5.000000000000000000e+00,5.000000000000000000e+00,5.000000000000000000e+00,5.000000000000000000e+00,5.000000000000000000e+00,5.000000000000000000e+00,5.000000000000000000e+00,5.000000000000000000e+00,5.000000000000000000e+00,5.000000000000000000e+00,5.000000000000000000e+00,5.000000000000000000e+00,5.000000000000000000e+00,5.000000000000000000e+00,5.000000000000000000e+00,5.000000000000000000e+00,5.000000000000000000e+00,5.000000000000000000e+00,4.847129344940185547e+00,4.688520908355712891e+00,4.539963245391845703e+00,4.400530815124511719e+00,4.269407749176025391e+00,4.145871639251708984e+00,4.029280662536621094e+00,3.919067382812500000e+00,3.814723491668701172e+00,3.715791225433349609e+00
3.097019195556640625e+00,3.175541400909423828e+00,3.258149385452270508e+00,3.345169544219970703e+00,3.436965942382812500e+00,3.533942222595214844e+00,3.636550426483154297e+00,3.745295047760009766e+00,3.860761642456054688e+00,3.983576297760009766e+00,4.114461421966552734e+00,4.254239559173583984e+00,4.403848648071289062e+00,4.564363956451416016e+00,4.737022876739501953e+00,4.923258304595947266e+00,5.000000000000000000e+00,5.000000000000000000e+00,5.000000000000000000e+00,5.000000000000000000e+00,5.000000000000000000e+00,5.000000000000000000e+00,5.000000000000000000e+00,5.000000000000000000e+00,5.000000000000000000e+00,5.000000000000000000e+00,5.000000000000000000e+00,5.000000000000000000e+00,5.000000000000000000e+00,5.000000000000000000e+00,5.000000000000000000e+00,5.000000000000000000e+00,5.000000000000000000e+00,5.000000000000000000e+00,5.000000000000000000e+00,5.000000000000000000e+00,5.000000000000000000e+00,5.000000000000000000e+00,5.000000000000000000e+00,5.000000000000000000e+00,5.000000000000000000e+00,5.000000000000000000e+00,5.000000000000000000e+00,5.000000000000000000e+00,5.000000000000000000e+00,5.000000000000000000e+00,5.000000000000000000e+00,5.000000000000000000e+00,5.000000000000000000e+00,5.000000000000000000e+00,5.000000000000000000e+00,5.000000000000000000e+00,5.000000000000000000e+00,5.000000000000000000e+00,5.000000000000000000e+00,5.000000000000000000e+00,5.000000000000000000e+00,5.000000000000000000e+00,5.000000000000000000e+00,5.000000000000000000e+00,5.000000000000000000e+00,5.000000000000000000e+00,5.000000000000000000e+00,5.000000000000000000e+00,5.000000000000000000e+00,5.000000000000000000e+00,5.000000000000000000e+00,5.000000000000000000e+00,5.000000000000000000e+00,5.000000000000000000e+00,4.847270965576171875e+00,4.688653469085693359e+00,4.540087699890136719e+00,4.400642871856689453e+00,4.269508838653564453e+00,4.145963191986083984e+00,4.029366970062255859e+00,3.919149398803710938e+00,3.814800977706909180e+00,3.715864896774291992e+00
3.096953153610229492e+00,3.175472021102905273e+00,3.258076190948486328e+00,3.345092535018920898e+00,3.436884641647338867e+00,3.533856153488159180e+00,3.636459350585937500e+00,3.745198488235473633e+00,3.860640764236450195e+00,3.983446598052978516e+00,4.114322662353515625e+00,4.254091262817382812e+00,4.403689861297607422e+00,4.564193248748779297e+00,4.736839294433593750e+00,4.923059463500976562e+00,5.000000000000000000e+00,5.000000000000000000e+00,5.000000000000000000e+00,5.000000000000000000e+00,5.000000000000000000e+00,5.000000000000000000e+00,5.000000000000000000e+00,5.000000000000000000e+00,5.000000000000000000e+00,5.000000000000000000e+00,5.000000000000000000e+00,5.000000000000000000e+00,5.000000000000000000e+00,5.000000000000000000e+00,5.000000000000000000e+00,5.000000000000000000e+00,5.000000000000000000e+00,5.000000000000000000e+00,5.000000000000000000e+00,5.000000000000000000e+00,5.000000000000000000e+00,5.000000000000000000e+00,5.000000000000000000e+00,5.000000000000000000e+00,5.000000000000000000e+00,5.000000000000000000e+00,5.000000000000000000e+00,5.000000000000000000e+00,5.000000000000000000e+00,5.000000000000000000e+00,5.000000000000000000e+00,5.000000000000000000e+00,5.000000000000000000e+00,5.000000000000000000e+00,5.000000000000000000e+00,5.000000000000000000e+00,5.000000000000000000e+00,5.000000000000000000e+00,5.000000000000000000e+00,5.000000000000000000e+00,5.000000000000000000e+00,5.000000000000000000e+00,5.000000000000000000e+00,5.000000000000000000e+00,5.000000000000000000e+00,5.000000000000000000e+00,5.000000000000000000e+00,5.000000000000000000e+00,5.000000000000000000e+00,5.000000000000000000e+00,5.000000000000000000e+00,5.000000000000000000e+00,5.000000000000000000e+00,5.000000000000000000e+00,4.847409725189208984e+00,4.688776969909667969e+00,4.540198326110839844e+00,4.400746345520019531e+00,4.269606113433837891e+00,4.146054744720458984e+00,4.029453754425048828e+00,3.919231176376342773e+00,3.814878702163696289e+00,3.715938568115234375e+00
3.096887111663818359e+00,3.175402641296386719e+00,3.258003234863281250e+00,3.345015525817871094e+00,3.436803340911865234e+00,3.533770561218261719e+00,3.636368274688720703e+00,3.745101928710937500e+00,3.860538244247436523e+00,3.983317613601684570e+00,4.114184379577636719e+00,4.253943443298339844e+00,4.403531074523925781e+00,4.564022541046142578e+00,4.736655712127685547e+00,4.922861099243164062e+00,5.000000000000000000e+00,5.000000000000000000e+00,5.000000000000000000e+00,5.000000000000000000e+00,5.000000000000000000e+00,5.000000000000000000e+00,5.000000000000000000e+00,5.000000000000000000e+00,5.000000000000000000e+00,5.000000000000000000e+00,5.000000000000000000e+00,5.000000000000000000e+00,5.000000000000000000e+00,5.000000000000000000e+00,5.000000000000000000e+00,5.000000000000000000e+00,5.000000000000000000e+00,5.000000000000000000e+00,5.000000000000000000e+00,5.000000000000000000e+00,5.000000000000000000e+00,5.000000000000000000e+00,5.000000000000000000e+00,5.000000000000000000e+00,5.000000000000000000e+00,5.000000000000000000e+00,5.000000000000000000e+00,5.000000000000000000e+00,5.000000000000000000e+00,5.000000000000000000e+00,5.000000000000000000e+00,5.000000000000000000e+00,5.000000000000000000e+00,5.000000000000000000e+00,5.000000000000000000e+00,5.000000000000000000e+00,5.000000000000000000e+00,5.000000000000000000e+00,5.000000000000000000e+00,5.000000000000000000e+00,5.000000000000000000e+00,5.000000000000000000e+00,5.000000000000000000e+00,5.000000000000000000e+00,5.000000000000000000e+00,5.000000000000000000e+00,5.000000000000000000e+00,5.000000000000000000e+00,5.000000000000000000e+00,5.000000000000000000e+00,5.000000000000000000e+00,5.000000000000000000e+00,5.000000000000000000e+00,5.000000000000000000e+00,4.847535133361816406e+00,4.688894271850585938e+00,4.540307998657226562e+00,4.400849819183349609e+00,4.269703388214111328e+00,4.146146774291992188e+00,4.029540061950683594e+00,3.919313192367553711e+00,3.814956188201904297e+00,3.716012239456176758e+00
3.096821308135986328e+00,3.175333261489868164e+00,3.257930040359497070e+00,3.344938755035400391e+00,3.436722040176391602e+00,3.533684730529785156e+00,3.636277198791503906e+00,3.745005369186401367e+00,3.860435724258422852e+00,3.983208417892456055e+00,4.114046096801757812e+00,4.253795146942138672e+00,4.403372287750244141e+00,4.563852310180664062e+00,4.736472129821777344e+00,4.922663211822509766e+00,5.000000000000000000e+00,5.000000000000000000e+00,5.000000000000000000e+00,5.000000000000000000e+00,5.000000000000000000e+00,5.000000000000000000e+00,5.000000000000000000e+00,5.000000000000000000e+00,5.000000000000000000e+00,5.000000000000000000e+00,5.000000000000000000e+00,5.000000000000000000e+00,5.000000000000000000e+00,5.000000000000000000e+00,5.000000000000000000e+00,5.000000000000000000e+00,5.000000000000000000e+00,5.000000000000000000e+00,5.000000000000000000e+00,5.000000000000000000e+00,5.000000000000000000e+00,5.000000000000000000e+00,5.000000000000000000e+00,5.000000000000000000e+00,5.000000000000000000e+00,5.000000000000000000e+00,5.000000000000000000e+00,5.000000000000000000e+00,5.000000000000000000e+00,5.000000000000000000e+00,5.000000000000000000e+00,5.000000000000000000e+00,5.000000000000000000e+00,5.000000000000000000e+00,5.000000000000000000e+00,5.000000000000000000e+00,5.000000000000000000e+00,5.000000000000000000e+00,5.000000000000000000e+00,5.000000000000000000e+00,5.000000000000000000e+00,5.000000000000000000e+00,5.000000000000000000e+00,5.000000000000000000e+00,5.000000000000000000e+00,5.000000000000000000e+00,5.000000000000000000e+00,5.000000000000000000e+00,5.000000000000000000e+00,5.000000000000000000e+00,5.000000000000000000e+00,5.000000000000000000e+00,5.000000000000000000e+00,5.000000000000000000e+00,4.847660064697265625e+00,4.689011573791503906e+00,4.540418148040771484e+00,4.400952816009521484e+00,4.269800662994384766e+00,4.146238327026367188e+00,4.029626846313476562e+00,3.919395208358764648e+00,3.815033912658691406e+00,3.716085910797119141e+00
3.096755266189575195e+00,3.175263881683349609e+00,3.257857084274291992e+00,3.344861745834350586e+00,3.436640739440917969e+00,3.533598661422729492e+00,3.636186122894287109e+00,3.744908809661865234e+00,3.860332965850830078e+00,3.983099222183227539e+00,4.113929748535156250e+00,4.253647327423095703e+00,4.403213500976562500e+00,4.563682079315185547e+00,4.736288547515869141e+00,4.922464847564697266e+00,5.000000000000000000e+00,5.000000000000000000e+00,5.000000000000000000e+00,5.000000000000000000e+00,5.000000000000000000e+00,5.000000000000000000e+00,5.000000000000000000e+00,5.000000000000000000e+00,5.000000000000000000e+00,5.000000000000000000e+00,5.000000000000000000e+00,5.000000000000000000e+00,5.000000000000000000e+00,5.000000000000000000e+00,5.000000000000000000e+00,5.000000000000000000e+00,5.000000000000000000e+00,5.000000000000000000e+00,5.000000000000000000e+00,5.000000000000000000e+00,5.000000000000000000e+00,5.000000000000000000e+00,5.000000000000000000e+00,5.000000000000000000e+00,5.000000000000000000e+00,5.000000000000000000e+00,5.000000000000000000e+00,5.000000000000000000e+00,5.000000000000000000e+00,5.000000000000000000e+00,5.000000000000000000e+00,5.000000000000000000e+00,5.000000000000000000e+00,5.000000000000000000e+00,4.982037067413330078e+00,5.000000000000000000e+00,5.000000000000000000e+00,5.000000000000000000e+00,5.000000000000000000e+00,5.000000000000000000e+00,5.000000000000000000e+00,5.000000000000000000e+00,5.000000000000000000e+00,5.000000000000000000e+00,5.000000000000000000e+00,5.000000000000000000e+00,5.000000000000000000e+00,5.000000000000000000e+00,5.000000000000000000e+00,5.000000000000000000e+00,5.000000000000000000e+00,5.000000000000000000e+00,5.000000000000000000e+00,5.000000000000000000e+00,4.847785472869873047e+00,4.689128875732421875e+00,4.540528297424316406e+00,4.401056289672851562e+00,4.269897937774658203e+00,4.146329879760742188e+00,4.029713630676269531e+00,3.919476985931396484e+00,3.815111637115478516e+00,3.716159582138061523e+00
3.096689224243164062e+00,3.175194740295410156e+00,3.257784128189086914e+00,3.344784736633300781e+00,3.436559438705444336e+00,3.533512592315673828e+00,3.636095285415649414e+00,3.744812250137329102e+00,3.860230445861816406e+00,3.982989788055419922e+00,4.113813400268554688e+00,4.253522396087646484e+00,4.403055191040039062e+00,4.563511371612548828e+00,4.736104965209960938e+00,4.922266483306884766e+00,5.000000000000000000e+00,5.000000000000000000e+00,5.000000000000000000e+00,5.000000000000000000e+00,5.000000000000000000e+00,5.000000000000000000e+00,5.000000000000000000e+00,5.000000000000000000e+00,5.000000000000000000e+00,5.000000000000000000e+00,5.000000000000000000e+00,5.000000000000000000e+00,5.000000000000000000e+00,5.000000000000000000e+00,5.000000000000000000e+00,5.000000000000000000e+00,5.000000000000000000e+00,5.000000000000000000e+00,5.000000000000000000e+00,5.000000000000000000e+00,5.000000000000000000e+00,5.000000000000000000e+00,5.000000000000000000e+00,5.000000000000000000e+00,5.000000000000000000e+00,5.000000000000000000e+00,5.000000000000000000e+00,5.000000000000000000e+00,5.000000000000000000e+00,5.000000000000000000e+00,5.000000000000000000e+00,5.000000000000000000e+00,5.000000000000000000e+00,5.000000000000000000e+00,4.999243736267089844e+00,5.000000000000000000e+00,5.000000000000000000e+00,5.000000000000000000e+00,5.000000000000000000e+00,5.000000000000000000e+00,5.000000000000000000e+00,5.000000000000000000e+00,5.000000000000000000e+00,5.000000000000000000e+00,5.000000000000000000e+00,5.000000000000000000e+00,5.000000000000000000e+00,5.000000000000000000e+00,5.000000000000000000e+00,5.000000000000000000e+00,5.000000000000000000e+00,5.000000000000000000e+00,5.000000000000000000e+00,5.000000000000000000e+00,4.847910881042480469e+00,4.689246177673339844e+00,4.540637969970703125e+00,4.401159763336181641e+00,4.269995212554931641e+00,4.146421909332275391e+00,4.029799938201904297e+00,3.919559001922607422e+00,3.815189123153686523e+00,3.716233253479003906e+00
3.096623182296752930e+00,3.175125360488891602e+00,3.257710933685302734e+00,3.344707727432250977e+00,3.436478137969970703e+00,3.533426761627197266e+00,3.636004209518432617e+00,3.744715690612792969e+00,3.860128402709960938e+00,3.982880592346191406e+00,4.113697052001953125e+00,4.253397941589355469e+00,4.402921199798583984e+00,4.563341140747070312e+00,4.735921382904052734e+00,4.922068595886230469e+00,5.000000000000000000e+00,5.000000000000000000e+00,5.000000000000000000e+00,5.000000000000000000e+00,5.000000000000000000e+00,5.000000000000000000e+00,5.000000000000000000e+00,5.000000000000000000e+00,5.000000000000000000e+00,5.000000000000000000e+00,5.000000000000000000e+00,5.000000000000000000e+00,5.000000000000000000e+00,5.000000000000000000e+00,5.000000000000000000e+00,5.000000000000000000e+00,5.000000000000000000e+00,5.000000000000000000e+00,5.000000000000000000e+00,5.000000000000000000e+00,5.000000000000000000e+00,5.000000000000000000e+00,5.000000000000000000e+00,5.000000000000000000e+00,5.000000000000000000e+00,5.000000000000000000e+00,5.000000000000000000e+00,5.000000000000000000e+00,5.000000000000000000e+00,5.000000000000000000e+00,5.000000000000000000e+00,5.000000000000000000e+00,5.000000000000000000e+00,5.000000000000000000e+00,5.000000000000000000e+00,5.000000000000000000e+00,5.000000000000000000e+00,5.000000000000000000e+00,5.000000000000000000e+00,5.000000000000000000e+00,5.000000000000000000e+00,5.000000000000000000e+00,5.000000000000000000e+00,5.000000000000000000e+00,5.000000000000000000e+00,5.000000000000000000e+00,5.000000000000000000e+00,5.000000000000000000e+00,5.000000000000000000e+00,5.000000000000000000e+00,5.000000000000000000e+00,5.000000000000000000e+00,5.000000000000000000e+00,5.000000000000000000e+00,4.848036289215087891e+00,4.689363479614257812e+00,4.540748119354248047e+00,4.401262760162353516e+00,4.270092487335205078e+00,4.146513462066650391e+00,4.029886722564697266e+00,3.919641017913818359e+00,3.815266847610473633e+00,3.716306924819946289e+00
3.096557140350341797e+00,3.175055980682373047e+00,3.257637977600097656e+00,3.344630718231201172e+00,3.436396837234497070e+00,3.533340692520141602e+00,3.635913133621215820e+00,3.744619131088256836e+00,3.860025644302368164e+00,3.982771396636962891e+00,4.113580226898193359e+00,4.253273487091064453e+00,4.402787685394287109e+00,4.563196659088134766e+00,4.735737800598144531e+00,4.921869754791259766e+00,5.000000000000000000e+00,5.000000000000000000e+00,5.000000000000000000e+00,5.000000000000000000e+00,5.000000000000000000e+00,5.000000000000000000e+00,5.000000000000000000e+00,5.000000000000000000e+00,5.000000000000000000e+00,5.000000000000000000e+00,5.000000000000000000e+00,5.000000000000000000e+00,5.000000000000000000e+00,5.000000000000000000e+00,5.000000000000000000e+00,5.000000000000000000e+00,5.000000000000000000e+00,5.000000000000000000e+00,5.000000000000000000e+00,5.000000000000000000e+00,5.000000000000000000e+00,5.000000000000000000e+00,5.000000000000000000e+00,5.000000000000000000e+00,5.000000000000000000e+00,5.000000000000000000e+00,5.000000000000000000e+00,5.000000000000000000e+00,5.000000000000000000e+00,5.000000000000000000e+00,5.000000000000000000e+00,5.000000000000000000e+00,5.000000000000000000e+00,5.000000000000000000e+00,4.991678714752197266e+00,4.988427162170410156e+00,5.000000000000000000e+00,5.000000000000000000e+00,5.000000000000000000e+00,5.000000000000000000e+00,5.000000000000000000e+00,5.000000000000000000e+00,5.000000000000000000e+00,5.000000000000000000e+00,5.000000000000000000e+00,5.000000000000000000e+00,5.000000000000000000e+00,5.000000000000000000e+00,5.000000000000000000e+00,5.000000000000000000e+00,5.000000000000000000e+00,5.000000000000000000e+00,5.000000000000000000e+00,5.000000000000000000e+00,4.848161697387695312e+00,4.689480781555175781e+00,4.540858268737792969e+00,4.401366233825683594e+00,4.270189762115478516e+00,4.146605014801025391e+00,4.029973506927490234e+00,3.919723033905029297e+00,3.815344572067260742e+00,3.716380596160888672e+00
3.096543788909912109e+00,3.175011396408081055e+00,3.257564783096313477e+00,3.344553709030151367e+00,3.436315536499023438e+00,3.533254861831665039e+00,3.635822534561157227e+00,3.744522571563720703e+00,3.859923124313354492e+00,3.982662200927734375e+00,4.113463878631591797e+00,4.253149032592773438e+00,4.402654170989990234e+00,4.563053607940673828e+00,4.735582351684570312e+00,4.921671867370605469e+00,5.000000000000000000e+00,5.000000000000000000e+00,5.000000000000000000e+00,5.000000000000000000e+00,5.000000000000000000e+00,5.000000000000000000e+00,5.000000000000000000e+00,5.000000000000000000e+00,5.000000000000000000e+00,5.000000000000000000e+00,5.000000000000000000e+00,5.000000000000000000e+00,5.000000000000000000e+00,5.000000000000000000e+00,5.000000000000000000e+00,5.000000000000000000e+00,5.000000000000000000e+00,5.000000000000000000e+00,5.000000000000000000e+00,5.000000000000000000e+00,5.000000000000000000e+00,5.000000000000000000e+00,5.000000000000000000e+00,5.000000000000000000e+00,5.000000000000000000e+00,5.000000000000000000e+00,5.000000000000000000e+00,5.000000000000000000e+00,5.000000000000000000e+00,5.000000000000000000e+00,5.000000000000000000e+00,5.000000000000000000e+00,5.000000000000000000e+00,4.995570659637451172e+00,4.975348949432373047e+00,4.992390155792236328e+00,5.000000000000000000e+00,5.000000000000000000e+00,5.000000000000000000e+00,5.000000000000000000e+00,5.000000000000000000e+00,5.000000000000000000e+00,5.000000000000000000e+00,5.000000000000000000e+00,5.000000000000000000e+00,5.000000000000000000e+00,5.000000000000000000e+00,5.000000000000000000e+00,5.000000000000000000e+00,5.000000000000000000e+00,5.000000000000000000e+00,5.000000000000000000e+00,5.000000000000000000e+00,5.000000000000000000e+00,4.848287105560302734e+00,4.689598083496093750e+00,4.540967941284179688e+00,4.401469707489013672e+00,4.270287036895751953e+00,4.146697044372558594e+00,4.030059814453125000e+00,3.919805049896240234e+00,3.815422296524047852e+00,3.716454267501831055e+00
3.096543788909912109e+00,3.175011396408081055e+00,3.257559061050415039e+00,3.344514131546020508e+00,3.436238527297973633e+00,3.533169031143188477e+00,3.635731458663940430e+00,3.744426012039184570e+00,3.859820604324340820e+00,3.982553005218505859e+00,4.113347530364990234e+00,4.253024578094482422e+00,4.402521133422851562e+00,4.562910556793212891e+00,4.735427856445312500e+00,4.921503067016601562e+00,5.000000000000000000e+00,5.000000000000000000e+00,5.000000000000000000e+00,5.000000000000000000e+00,5.000000000000000000e+00,5.000000000000000000e+00,5.000000000000000000e+00,5.000000000000000000e+00,5.000000000000000000e+00,5.000000000000000000e+00,5.000000000000000000e+00,5.000000000000000000e+00,5.000000000000000000e+00,5.000000000000000000e+00,5.000000000000000000e+00,5.000000000000000000e+00,5.000000000000000000e+00,5.000000000000000000e+00,5.000000000000000000e+00,5.000000000000000000e+00,5.000000000000000000e+00,5.000000000000000000e+00,5.000000000000000000e+00,5.000000000000000000e+00,5.000000000000000000e+00,5.000000000000000000e+00,5.000000000000000000e+00,5.000000000000000000e+00,5.000000000000000000e+00,5.000000000000000000e+00,5.000000000000000000e+00,5.000000000000000000e+00,5.000000000000000000e+00,4.994963169097900391e+00,4.969110965728759766e+00,4.988275051116943359e+00,5.000000000000000000e+00,5.000000000000000000e+00,5.000000000000000000e+00,5.000000000000000000e+00,5.000000000000000000e+00,5.000000000000000000e+00,5.000000000000000000e+00,5.000000000000000000e+00,5.000000000000000000e+00,5.000000000000000000e+00,5.000000000000000000e+00,5.000000000000000000e+00,5.000000000000000000e+00,5.000000000000000000e+00,5.000000000000000000e+00,5.000000000000000000e+00,5.000000000000000000e+00,5.000000000000000000e+00,4.848412513732910156e+00,4.689715385437011719e+00,4.541078090667724609e+00,4.401573181152343750e+00,4.270384311676025391e+00,4.146788597106933594e+00,4.030146598815917969e+00,3.919886827468872070e+00,3.815499782562255859e+00,3.716527938842773438e+00
3.096527099609375000e+00,3.175011396408081055e+00,3.257559061050415039e+00,3.344514131546020508e+00,3.436238527297973633e+00,3.533135890960693359e+00,3.635656356811523438e+00,3.744329690933227539e+00,3.859718084335327148e+00,3.982443809509277344e+00,4.113230705261230469e+00,4.252900123596191406e+00,4.402387619018554688e+00,4.562767028808593750e+00,4.735273361206054688e+00,4.921336174011230469e+00,5.000000000000000000e+00,5.000000000000000000e+00,5.000000000000000000e+00,5.000000000000000000e+00,5.000000000000000000e+00,5.000000000000000000e+00,5.000000000000000000e+00,5.000000000000000000e+00,5.000000000000000000e+00,5.000000000000000000e+00,5.000000000000000000e+00,5.000000000000000000e+00,5.000000000000000000e+00,5.000000000000000000e+00,5.000000000000000000e+00,5.000000000000000000e+00,5.000000000000000000e+00,5.000000000000000000e+00,5.000000000000000000e+00,5.000000000000000000e+00,5.000000000000000000e+00,5.000000000000000000e+00,5.000000000000000000e+00,5.000000000000000000e+00,5.000000000000000000e+00,5.000000000000000000e+00,5.000000000000000000e+00,5.000000000000000000e+00,5.000000000000000000e+00,5.000000000000000000e+00,5.000000000000000000e+00,5.000000000000000000e+00,5.000000000000000000e+00,4.981682777404785156e+00,4.962966918945312500e+00,4.971759796142578125e+00,5.000000000000000000e+00,5.000000000000000000e+00,5.000000000000000000e+00,5.000000000000000000e+00,5.000000000000000000e+00,5.000000000000000000e+00,5.000000000000000000e+00,5.000000000000000000e+00,5.000000000000000000e+00,5.000000000000000000e+00,5.000000000000000000e+00,5.000000000000000000e+00,5.000000000000000000e+00,5.000000000000000000e+00,5.000000000000000000e+00,5.000000000000000000e+00,5.000000000000000000e+00,5.000000000000000000e+00,4.848537921905517578e+00,4.689832687377929688e+00,4.541188240051269531e+00,4.401676177978515625e+00,4.270481586456298828e+00,4.146880626678466797e+00,4.030233383178710938e+00,3.919968843460083008e+00,3.815577507019042969e+00,3.716601610183715820e+00
3.096460819244384766e+00,3.174954652786254883e+00,3.257531881332397461e+00,3.344514131546020508e+00,3.436238527297973633e+00,3.533135890960693359e+00,3.635656356811523438e+00,3.744304418563842773e+00,3.859646558761596680e+00,3.982334613800048828e+00,4.113114833831787109e+00,4.252775669097900391e+00,4.402254581451416016e+00,4.562623977661132812e+00,4.735119342803955078e+00,4.921169757843017578e+00,5.000000000000000000e+00,5.000000000000000000e+00,5.000000000000000000e+00,5.000000000000000000e+00,5.000000000000000000e+00,5.000000000000000000e+00,5.000000000000000000e+00,5.000000000000000000e+00,5.000000000000000000e+00,5.000000000000000000e+00,5.000000000000000000e+00,5.000000000000000000e+00,5.000000000000000000e+00,5.000000000000000000e+00,5.000000000000000000e+00,5.000000000000000000e+00,5.000000000000000000e+00,5.000000000000000000e+00,5.000000000000000000e+00,5.000000000000000000e+00,5.000000000000000000e+00,5.000000000000000000e+00,5.000000000000000000e+00,5.000000000000000000e+00,5.000000000000000000e+00,5.000000000000000000e+00,5.000000000000000000e+00,5.000000000000000000e+00,5.000000000000000000e+00,5.000000000000000000e+00,5.000000000000000000e+00,5.000000000000000000e+00,5.000000000000000000e+00,4.998004913330078125e+00,4.967628955841064453e+00,4.982658386230468750e+00,5.000000000000000000e+00,5.000000000000000000e+00,5.000000000000000000e+00,5.000000000000000000e+00,5.000000000000000000e+00,5.000000000000000000e+00,5.000000000000000000e+00,5.000000000000000000e+00,5.000000000000000000e+00,5.000000000000000000e+00,5.000000000000000000e+00,5.000000000000000000e+00,5.000000000000000000e+00,5.000000000000000000e+00,5.000000000000000000e+00,5.000000000000000000e+00,5.000000000000000000e+00,5.000000000000000000e+00,4.848663330078125000e+00,4.689949989318847656e+00,4.541298389434814453e+00,4.401779651641845703e+00,4.270578861236572266e+00,4.146972179412841797e+00,4.030320167541503906e+00,3.920050859451293945e+00,3.815655231475830078e+00,3.716675281524658203e+00
3.096394300460815430e+00,3.174885034561157227e+00,3.257458686828613281e+00,3.344441652297973633e+00,3.436197996139526367e+00,3.533130645751953125e+00,3.635656356811523438e+00,3.744304418563842773e+00,3.859646558761596680e+00,3.982320547103881836e+00,4.113048076629638672e+00,4.252651214599609375e+00,4.402121067047119141e+00,4.562480449676513672e+00,4.734964847564697266e+00,4.921002864837646484e+00,5.000000000000000000e+00,5.000000000000000000e+00,5.000000000000000000e+00,5.000000000000000000e+00,5.000000000000000000e+00,5.000000000000000000e+00,5.000000000000000000e+00,5.000000000000000000e+00,5.000000000000000000e+00,5.000000000000000000e+00,5.000000000000000000e+00,5.000000000000000000e+00,5.000000000000000000e+00,5.000000000000000000e+00,5.000000000000000000e+00,5.000000000000000000e+00,5.000000000000000000e+00,5.000000000000000000e+00,5.000000000000000000e+00,5.000000000000000000e+00,5.000000000000000000e+00,5.000000000000000000e+00,5.000000000000000000e+00,5.000000000000000000e+00,5.000000000000000000e+00,5.000000000000000000e+00,5.000000000000000000e+00,5.000000000000000000e+00,5.000000000000000000e+00,5.000000000000000000e+00,5.000000000000000000e+00,5.000000000000000000e+00,5.000000000000000000e+00,4.915039062500000000e+00,4.989959239959716797e+00,4.977811813354492188e+00,5.000000000000000000e+00,5.000000000000000000e+00,5.000000000000000000e+00,5.000000000000000000e+00,5.000000000000000000e+00,5.000000000000000000e+00,5.000000000000000000e+00,5.000000000000000000e+00,5.000000000000000000e+00,5.000000000000000000e+00,5.000000000000000000e+00,5.000000000000000000e+00,5.000000000000000000e+00,5.000000000000000000e+00,5.000000000000000000e+00,5.000000000000000000e+00,5.000000000000000000e+00,5.000000000000000000e+00,4.848788738250732422e+00,4.690067291259765625e+00,4.541408061981201172e+00,4.401883125305175781e+00,4.270676136016845703e+00,4.147063732147216797e+00,4.030406475067138672e+00,3.920132875442504883e+00,3.815732955932617188e+00,3.716748952865600586e+00
3.096328020095825195e+00,3.174815177917480469e+00,3.257385015487670898e+00,3.344364404678344727e+00,3.436116218566894531e+00,3.533044338226318359e+00,3.635600090026855469e+00,3.744287014007568359e+00,3.859646558761596680e+00,3.982320547103881836e+00,4.113048076629638672e+00,4.252650260925292969e+00,4.402061939239501953e+00,4.562354564666748047e+00,4.734810352325439453e+00,4.920836448669433594e+00,5.000000000000000000e+00,5.000000000000000000e+00,5.000000000000000000e+00,5.000000000000000000e+00,5.000000000000000000e+00,5.000000000000000000e+00,5.000000000000000000e+00,5.000000000000000000e+00,5.000000000000000000e+00,5.000000000000000000e+00,5.000000000000000000e+00,5.000000000000000000e+00,5.000000000000000000e+00,5.000000000000000000e+00,5.000000000000000000e+00,5.000000000000000000e+00,5.000000000000000000e+00,5.000000000000000000e+00,5.000000000000000000e+00,5.000000000000000000e+00,5.000000000000000000e+00,5.000000000000000000e+00,5.000000000000000000e+00,5.000000000000000000e+00,5.000000000000000000e+00,5.000000000000000000e+00,5.000000000000000000e+00,5.000000000000000000e+00,5.000000000000000000e+00,5.000000000000000000e+00,5.000000000000000000e+00,5.000000000000000000e+00,5.000000000000000000e+00,4.872303485870361328e+00,4.933001518249511719e+00,4.957321643829345703e+00,5.000000000000000000e+00,4.980531692504882812e+00,5.000000000000000000e+00,5.000000000000000000e+00,5.000000000000000000e+00,5.000000000000000000e+00,5.000000000000000000e+00,5.000000000000000000e+00,5.000000000000000000e+00,5.000000000000000000e+00,5.000000000000000000e+00,5.000000000000000000e+00,5.000000000000000000e+00,5.000000000000000000e+00,5.000000000000000000e+00,5.000000000000000000e+00,5.000000000000000000e+00,5.000000000000000000e+00,4.848914146423339844e+00,4.690184593200683594e+00,4.541518211364746094e+00,4.401986598968505859e+00,4.270773410797119141e+00,4.147155761718750000e+00,4.030493259429931641e+00,3.920214891433715820e+00,3.815812349319458008e+00,3.716828107833862305e+00
3.096261739730834961e+00,3.174745559692382812e+00,3.257311582565307617e+00,3.344287157058715820e+00,3.436034440994262695e+00,3.532958030700683594e+00,3.635508537292480469e+00,3.744189977645874023e+00,3.859570264816284180e+00,3.982287406921386719e+00,4.113048076629638672e+00,4.252650260925292969e+00,4.402061939239501953e+00,4.562354564666748047e+00,4.734761714935302734e+00,4.920711040496826172e+00,5.000000000000000000e+00,5.000000000000000000e+00,5.000000000000000000e+00,5.000000000000000000e+00,5.000000000000000000e+00,5.000000000000000000e+00,5.000000000000000000e+00,5.000000000000000000e+00,5.000000000000000000e+00,5.000000000000000000e+00,5.000000000000000000e+00,5.000000000000000000e+00,5.000000000000000000e+00,5.000000000000000000e+00,5.000000000000000000e+00,5.000000000000000000e+00,5.000000000000000000e+00,5.000000000000000000e+00,5.000000000000000000e+00,5.000000000000000000e+00,5.000000000000000000e+00,5.000000000000000000e+00,5.000000000000000000e+00,5.000000000000000000e+00,5.000000000000000000e+00,5.000000000000000000e+00,5.000000000000000000e+00,5.000000000000000000e+00,5.000000000000000000e+00,5.000000000000000000e+00,5.000000000000000000e+00,5.000000000000000000e+00,5.000000000000000000e+00,4.830167293548583984e+00,4.878393173217773438e+00,4.957393646240234375e+00,5.000000000000000000e+00,5.000000000000000000e+00,5.000000000000000000e+00,5.000000000000000000e+00,5.000000000000000000e+00,5.000000000000000000e+00,5.000000000000000000e+00,5.000000000000000000e+00,5.000000000000000000e+00,5.000000000000000000e+00,5.000000000000000000e+00,5.000000000000000000e+00,5.000000000000000000e+00,5.000000000000000000e+00,5.000000000000000000e+00,5.000000000000000000e+00,5.000000000000000000e+00,5.000000000000000000e+00,4.849039554595947266e+00,4.690301895141601562e+00,4.541628360748291016e+00,4.402089595794677734e+00,4.270870685577392578e+00,4.147247314453125000e+00,4.030584335327148438e+00,3.920305490493774414e+00,3.815900325775146484e+00,3.716911554336547852e+00
3.096195459365844727e+00,3.174675703048706055e+00,3.257238149642944336e+00,3.344209671020507812e+00,3.435952663421630859e+00,3.532871723175048828e+00,3.635416746139526367e+00,3.744093179702758789e+00,3.859467267990112305e+00,3.982177257537841797e+00,4.112946987152099609e+00,4.252597332000732422e+00,4.402061939239501953e+00,4.562354564666748047e+00,4.734761714935302734e+00,4.920711040496826172e+00,5.000000000000000000e+00,5.000000000000000000e+00,5.000000000000000000e+00,5.000000000000000000e+00,5.000000000000000000e+00,5.000000000000000000e+00,5.000000000000000000e+00,5.000000000000000000e+00,5.000000000000000000e+00,5.000000000000000000e+00,5.000000000000000000e+00,5.000000000000000000e+00,5.000000000000000000e+00,5.000000000000000000e+00,5.000000000000000000e+00,5.000000000000000000e+00,5.000000000000000000e+00,5.000000000000000000e+00,5.000000000000000000e+00,5.000000000000000000e+00,5.000000000000000000e+00,5.000000000000000000e+00,5.000000000000000000e+00,5.000000000000000000e+00,5.000000000000000000e+00,5.000000000000000000e+00,5.000000000000000000e+00,5.000000000000000000e+00,5.000000000000000000e+00,5.000000000000000000e+00,5.000000000000000000e+00,5.000000000000000000e+00,5.000000000000000000e+00,4.791361331939697266e+00,4.822058200836181641e+00,4.954485893249511719e+00,5.000000000000000000e+00,5.000000000000000000e+00,5.000000000000000000e+00,5.000000000000000000e+00,5.000000000000000000e+00,5.000000000000000000e+00,5.000000000000000000e+00,5.000000000000000000e+00,5.000000000000000000e+00,5.000000000000000000e+00,5.000000000000000000e+00,5.000000000000000000e+00,5.000000000000000000e+00,5.000000000000000000e+00,5.000000000000000000e+00,5.000000000000000000e+00,5.000000000000000000e+00,5.000000000000000000e+00,4.849164962768554688e+00,4.690419197082519531e+00,4.541738510131835938e+00,4.402195930480957031e+00,4.270975589752197266e+00,4.147351264953613281e+00,4.030682563781738281e+00,3.920397996902465820e+00,3.815988063812255859e+00,3.716994762420654297e+00
3.096129179000854492e+00,3.174605846405029297e+00,3.257164955139160156e+00,3.344132184982299805e+00,3.435871124267578125e+00,3.532785415649414062e+00,3.635325431823730469e+00,3.743996143341064453e+00,3.859364271163940430e+00,3.982067584991455078e+00,4.112830162048339844e+00,4.252471923828125000e+00,4.401929855346679688e+00,4.562275886535644531e+00,4.734745025634765625e+00,4.920711040496826172e+00,5.000000000000000000e+00,5.000000000000000000e+00,5.000000000000000000e+00,5.000000000000000000e+00,5.000000000000000000e+00,5.000000000000000000e+00,5.000000000000000000e+00,5.000000000000000000e+00,5.000000000000000000e+00,5.000000000000000000e+00,5.000000000000000000e+00,5.000000000000000000e+00,5.000000000000000000e+00,5.000000000000000000e+00,5.000000000000000000e+00,5.000000000000000000e+00,5.000000000000000000e+00,5.000000000000000000e+00,5.000000000000000000e+00,5.000000000000000000e+00,5.000000000000000000e+00,5.000000000000000000e+00,5.000000000000000000e+00,5.000000000000000000e+00,5.000000000000000000e+00,5.000000000000000000e+00,5.000000000000000000e+00,5.000000000000000000e+00,5.000000000000000000e+00,5.000000000000000000e+00,5.000000000000000000e+00,5.000000000000000000e+00,5.000000000000000000e+00,4.802580833435058594e+00,4.846410274505615234e+00,4.950924396514892578e+00,5.000000000000000000e+00,5.000000000000000000e+00,5.000000000000000000e+00,5.000000000000000000e+00,5.000000000000000000e+00,5.000000000000000000e+00,5.000000000000000000e+00,5.000000000000000000e+00,5.000000000000000000e+00,5.000000000000000000e+00,5.000000000000000000e+00,5.000000000000000000e+00,5.000000000000000000e+00,5.000000000000000000e+00,5.000000000000000000e+00,5.000000000000000000e+00,5.000000000000000000e+00,5.000000000000000000e+00,4.849290370941162109e+00,4.690543174743652344e+00,4.541860103607177734e+00,4.402313232421875000e+00,4.271085739135742188e+00,4.147455215454101562e+00,4.030780315399169922e+00,3.920490503311157227e+00,3.816075563430786133e+00,3.717077970504760742e+00
3.096062660217285156e+00,3.174536228179931641e+00,3.257091522216796875e+00,3.344054698944091797e+00,3.435789346694946289e+00,3.532698869705200195e+00,3.635234117507934570e+00,3.743899345397949219e+00,3.859260797500610352e+00,3.981958150863647461e+00,4.112713336944580078e+00,4.252346992492675781e+00,4.401795387268066406e+00,4.562131404876708984e+00,4.734590053558349609e+00,4.920598983764648438e+00,5.000000000000000000e+00,5.000000000000000000e+00,5.000000000000000000e+00,5.000000000000000000e+00,5.000000000000000000e+00,5.000000000000000000e+00,5.000000000000000000e+00,5.000000000000000000e+00,5.000000000000000000e+00,5.000000000000000000e+00,5.000000000000000000e+00,5.000000000000000000e+00,5.000000000000000000e+00,5.000000000000000000e+00,5.000000000000000000e+00,5.000000000000000000e+00,5.000000000000000000e+00,5.000000000000000000e+00,5.000000000000000000e+00,5.000000000000000000e+00,5.000000000000000000e+00,5.000000000000000000e+00,5.000000000000000000e+00,5.000000000000000000e+00,5.000000000000000000e+00,5.000000000000000000e+00,5.000000000000000000e+00,5.000000000000000000e+00,5.000000000000000000e+00,5.000000000000000000e+00,5.000000000000000000e+00,5.000000000000000000e+00,5.000000000000000000e+00,4.873012542724609375e+00,5.000000000000000000e+00,4.990743637084960938e+00,5.000000000000000000e+00,5.000000000000000000e+00,5.000000000000000000e+00,5.000000000000000000e+00,5.000000000000000000e+00,5.000000000000000000e+00,5.000000000000000000e+00,5.000000000000000000e+00,5.000000000000000000e+00,5.000000000000000000e+00,5.000000000000000000e+00,5.000000000000000000e+00,5.000000000000000000e+00,5.000000000000000000e+00,5.000000000000000000e+00,5.000000000000000000e+00,5.000000000000000000e+00,5.000000000000000000e+00,4.849432468414306641e+00,4.690675735473632812e+00,4.541984081268310547e+00,4.402429580688476562e+00,4.271195411682128906e+00,4.147558689117431641e+00,4.030878067016601562e+00,3.920583486557006836e+00,3.816163778305053711e+00,3.717161655426025391e+00
3.095996141433715820e+00,3.174466609954833984e+00,3.257017850875854492e+00,3.343977451324462891e+00,3.435707807540893555e+00,3.532612562179565430e+00,3.635142803192138672e+00,3.743802309036254883e+00,3.859157800674438477e+00,3.981848478317260742e+00,4.112596035003662109e+00,4.252222061157226562e+00,4.401661396026611328e+00,4.561987876892089844e+00,4.734434604644775391e+00,4.920431613922119141e+00,5.000000000000000000e+00,5.000000000000000000e+00,5.000000000000000000e+00,5.000000000000000000e+00,5.000000000000000000e+00,5.000000000000000000e+00,5.000000000000000000e+00,5.000000000000000000e+00,5.000000000000000000e+00,5.000000000000000000e+00,5.000000000000000000e+00,5.000000000000000000e+00,5.000000000000000000e+00,5.000000000000000000e+00,5.000000000000000000e+00,5.000000000000000000e+00,5.000000000000000000e+00,5.000000000000000000e+00,5.000000000000000000e+00,5.000000000000000000e+00,5.000000000000000000e+00,5.000000000000000000e+00,5.000000000000000000e+00,5.000000000000000000e+00,5.000000000000000000e+00,5.000000000000000000e+00,5.000000000000000000e+00,5.000000000000000000e+00,5.000000000000000000e+00,5.000000000000000000e+00,5.000000000000000000e+00,5.000000000000000000e+00,5.000000000000000000e+00,4.913240432739257812e+00,5.000000000000000000e+00,5.000000000000000000e+00,5.000000000000000000e+00,5.000000000000000000e+00,5.000000000000000000e+00,5.000000000000000000e+00,5.000000000000000000e+00,5.000000000000000000e+00,5.000000000000000000e+00,5.000000000000000000e+00,5.000000000000000000e+00,5.000000000000000000e+00,5.000000000000000000e+00,5.000000000000000000e+00,5.000000000000000000e+00,5.000000000000000000e+00,5.000000000000000000e+00,5.000000000000000000e+00,5.000000000000000000e+00,5.000000000000000000e+00,4.849574565887451172e+00,4.690808773040771484e+00,4.542108535766601562e+00,4.402546882629394531e+00,4.271305561065673828e+00,4.147662639617919922e+00,4.030976295471191406e+00,3.920675992965698242e+00,3.816251516342163086e+00,3.717244863510131836e+00
3.095930099487304688e+00,3.174396991729736328e+00,3.256944417953491211e+00,3.343900203704833984e+00,3.435625791549682617e+00,3.532526254653930664e+00,3.635051250457763672e+00,3.743705034255981445e+00,3.859054803848266602e+00,3.981738805770874023e+00,4.112479209899902344e+00,4.252096652984619141e+00,4.401527404785156250e+00,4.561843872070312500e+00,4.734279632568359375e+00,4.920263767242431641e+00,5.000000000000000000e+00,5.000000000000000000e+00,5.000000000000000000e+00,5.000000000000000000e+00,5.000000000000000000e+00,5.000000000000000000e+00,5.000000000000000000e+00,5.000000000000000000e+00,5.000000000000000000e+00,5.000000000000000000e+00,5.000000000000000000e+00,5.000000000000000000e+00,5.000000000000000000e+00,5.000000000000000000e+00,5.000000000000000000e+00,5.000000000000000000e+00,5.000000000000000000e+00,5.000000000000000000e+00,5.000000000000000000e+00,5.000000000000000000e+00,5.000000000000000000e+00,5.000000000000000000e+00,5.000000000000000000e+00,5.000000000000000000e+00,5.000000000000000000e+00,5.000000000000000000e+00,5.000000000000000000e+00,5.000000000000000000e+00,5.000000000000000000e+00,5.000000000000000000e+00,5.000000000000000000e+00,5.000000000000000000e+00,5.000000000000000000e+00,4.967027187347412109e+00,5.000000000000000000e+00,5.000000000000000000e+00,5.000000000000000000e+00,5.000000000000000000e+00,5.000000000000000000e+00,5.000000000000000000e+00,5.000000000000000000e+00,5.000000000000000000e+00,5.000000000000000000e+00,5.000000000000000000e+00,5.000000000000000000e+00,5.000000000000000000e+00,5.000000000000000000e+00,5.000000000000000000e+00,5.000000000000000000e+00,5.000000000000000000e+00,5.000000000000000000e+00,5.000000000000000000e+00,5.000000000000000000e+00,5.000000000000000000e+00,4.849716186523437500e+00,4.690941333770751953e+00,4.542232990264892578e+00,4.402663707733154297e+00,4.271415710449218750e+00,4.147766113281250000e+00,4.031074047088623047e+00,3.920768737792968750e+00,3.816339015960693359e+00,3.717328071594238281e+00
3.095863819122314453e+00,3.174326896667480469e+00,3.256871223449707031e+00,3.343822717666625977e+00,3.435544252395629883e+00,3.532439947128295898e+00,3.634959936141967773e+00,3.743608236312866211e+00,3.858951807022094727e+00,3.981628656387329102e+00,4.112362384796142578e+00,4.251971721649169922e+00,4.401393413543701172e+00,4.561699390411376953e+00,4.734124660491943359e+00,4.920096397399902344e+00,5.000000000000000000e+00,5.000000000000000000e+00,5.000000000000000000e+00,5.000000000000000000e+00,5.000000000000000000e+00,5.000000000000000000e+00,5.000000000000000000e+00,5.000000000000000000e+00,5.000000000000000000e+00,5.000000000000000000e+00,5.000000000000000000e+00,5.000000000000000000e+00,5.000000000000000000e+00,5.000000000000000000e+00,5.000000000000000000e+00,5.000000000000000000e+00,5.000000000000000000e+00,5.000000000000000000e+00,5.000000000000000000e+00,5.000000000000000000e+00,5.000000000000000000e+00,5.000000000000000000e+00,5.000000000000000000e+00,5.000000000000000000e+00,5.000000000000000000e+00,5.000000000000000000e+00,5.000000000000000000e+00,5.000000000000000000e+00,5.000000000000000000e+00,5.000000000000000000e+00,5.000000000000000000e+00,5.000000000000000000e+00,5.000000000000000000e+00,5.000000000000000000e+00,5.000000000000000000e+00,5.000000000000000000e+00,5.000000000000000000e+00,5.000000000000000000e+00,5.000000000000000000e+00,5.000000000000000000e+00,5.000000000000000000e+00,5.000000000000000000e+00,5.000000000000000000e+00,5.000000000000000000e+00,5.000000000000000000e+00,5.000000000000000000e+00,5.000000000000000000e+00,5.000000000000000000e+00,5.000000000000000000e+00,5.000000000000000000e+00,5.000000000000000000e+00,5.000000000000000000e+00,5.000000000000000000e+00,5.000000000000000000e+00,4.849857807159423828e+00,4.691073894500732422e+00,4.542357444763183594e+00,4.402780532836914062e+00,4.271525382995605469e+00,4.147869586944580078e+00,4.031172275543212891e+00,3.920861721038818359e+00,3.816427230834960938e+00,3.717411518096923828e+00
3.095797538757324219e+00,3.174257278442382812e+00,3.256797790527343750e+00,3.343745231628417969e+00,3.435462713241577148e+00,3.532353639602661133e+00,3.634868144989013672e+00,3.743511199951171875e+00,3.858848810195922852e+00,3.981518983840942383e+00,4.112245082855224609e+00,4.251846313476562500e+00,4.401259422302246094e+00,4.561555862426757812e+00,4.733969211578369141e+00,4.919928550720214844e+00,5.000000000000000000e+00,5.000000000000000000e+00,5.000000000000000000e+00,5.000000000000000000e+00,5.000000000000000000e+00,5.000000000000000000e+00,5.000000000000000000e+00,5.000000000000000000e+00,5.000000000000000000e+00,5.000000000000000000e+00,5.000000000000000000e+00,5.000000000000000000e+00,5.000000000000000000e+00,5.000000000000000000e+00,5.000000000000000000e+00,5.000000000000000000e+00,5.000000000000000000e+00,5.000000000000000000e+00,5.000000000000000000e+00,5.000000000000000000e+00,5.000000000000000000e+00,5.000000000000000000e+00,5.000000000000000000e+00,5.000000000000000000e+00,5.000000000000000000e+00,5.000000000000000000e+00,5.000000000000000000e+00,5.000000000000000000e+00,5.000000000000000000e+00,5.000000000000000000e+00,5.000000000000000000e+00,5.000000000000000000e+00,5.000000000000000000e+00,4.974401473999023438e+00,5.000000000000000000e+00,5.000000000000000000e+00,5.000000000000000000e+00,5.000000000000000000e+00,5.000000000000000000e+00,5.000000000000000000e+00,5.000000000000000000e+00,5.000000000000000000e+00,5.000000000000000000e+00,5.000000000000000000e+00,5.000000000000000000e+00,5.000000000000000000e+00,5.000000000000000000e+00,5.000000000000000000e+00,5.000000000000000000e+00,5.000000000000000000e+00,5.000000000000000000e+00,5.000000000000000000e+00,5.000000000000000000e+00,5.000000000000000000e+00,4.849999904632568359e+00,4.691206455230712891e+00,4.542481899261474609e+00,4.402897357940673828e+00,4.271635532379150391e+00,4.147973537445068359e+00,4.031270027160644531e+00,3.920954227447509766e+00,3.816514968872070312e+00,3.717494726181030273e+00
3.095731019973754883e+00,3.174187660217285156e+00,3.256724357604980469e+00,3.343667984008789062e+00,3.435381174087524414e+00,3.532267332077026367e+00,3.634776830673217773e+00,3.743414402008056641e+00,3.858745574951171875e+00,3.981409549713134766e+00,4.112128257751464844e+00,4.251721382141113281e+00,4.401125431060791016e+00,4.561411857604980469e+00,4.733814716339111328e+00,4.855212688446044922e+00,4.854008674621582031e+00,4.852805614471435547e+00,4.851603031158447266e+00,4.850400924682617188e+00,4.849199295043945312e+00,4.847998619079589844e+00,4.846798419952392578e+00,4.845598697662353516e+00,4.844399452209472656e+00,4.843201160430908203e+00,4.842003345489501953e+00,4.840806007385253906e+00,4.839609146118164062e+00,4.838412761688232422e+00,4.837217330932617188e+00,4.836022377014160156e+00,4.834827899932861328e+00,4.833634376525878906e+00,4.832441329956054688e+00,4.831248760223388672e+00,4.830056667327880859e+00,4.828865051269531250e+00,4.827674388885498047e+00,4.826484203338623047e+00,4.825294494628906250e+00,4.824105739593505859e+00,4.822916984558105469e+00,4.821729183197021484e+00,4.820541858673095703e+00,4.819355010986328125e+00,4.818169116973876953e+00,4.816983699798583984e+00,4.815798282623291016e+00,4.814614295959472656e+00,4.813429832458496094e+00,4.812246799468994141e+00,4.811064243316650391e+00,4.809882164001464844e+00,4.808700561523437500e+00,4.807519435882568359e+00,4.806339263916015625e+00,4.805159568786621094e+00,4.803980350494384766e+00,4.802801609039306641e+00,4.801623821258544922e+00,4.800446510314941406e+00,4.799269676208496094e+00,4.798093318939208984e+00,4.796917438507080078e+00,4.795742511749267578e+00,4.794568061828613281e+00,4.793394088745117188e+00,4.792220592498779297e+00,4.791048049926757812e+00,4.789875507354736328e+00,4.691339492797851562e+00,4.542606353759765625e+00,4.403014183044433594e+00,4.271745681762695312e+00,4.148077011108398438e+00,4.031368255615234375e+00,3.921046733856201172e+00,3.816602706909179688e+00,3.717577934265136719e+00
3.095664739608764648e+00,3.174117803573608398e+00,3.256650924682617188e+00,3.343590497970581055e+00,3.435299396514892578e+00,3.532180786132812500e+00,3.634685516357421875e+00,3.743317365646362305e+00,3.771328210830688477e+00,3.770601749420166016e+00,3.769875764846801758e+00,3.769150018692016602e+00,3.768424510955810547e+00,3.767699241638183594e+00,3.766974210739135742e+00,3.766249418258666992e+00,3.765525102615356445e+00,3.764801025390625000e+00,3.764076948165893555e+00,3.763353347778320312e+00,3.762629985809326172e+00,3.761907100677490234e+00,3.761184215545654297e+00,3.760461807250976562e+00,3.759739637374877930e+00,3.759017705917358398e+00,3.758296012878417969e+00,3.757574796676635742e+00,3.756853580474853516e+00,3.756132841110229492e+00,3.755412340164184570e+00,3.754692077636718750e+00,3.753972053527832031e+00,3.753252267837524414e+00,3.752532720565795898e+00,3.751813650131225586e+00,3.751094818115234375e+00,3.750376224517822266e+00,3.749657869338989258e+00,3.748939752578735352e+00,3.748221874237060547e+00,3.747504472732543945e+00,3.746787309646606445e+00,3.746070146560668945e+00,3.745353460311889648e+00,3.744637250900268555e+00,3.743921041488647461e+00,3.743205070495605469e+00,3.742489576339721680e+00,3.741774320602416992e+00,3.741058826446533203e+00,3.740344047546386719e+00,3.739629507064819336e+00,3.738915443420410156e+00,3.738201379776000977e+00,3.737487792968750000e+00,3.736774206161499023e+00,3.736061096191406250e+00,3.735348224639892578e+00,3.734635829925537109e+00,3.733923435211181641e+00,3.733211278915405273e+00,3.732499599456787109e+00,3.731788158416748047e+00,3.731076955795288086e+00,3.730365991592407227e+00,3.729655265808105469e+00,3.728944778442382812e+00,3.728234529495239258e+00,3.727524757385253906e+00,3.726814985275268555e+00,3.726105690002441406e+00,3.725396633148193359e+00,3.724687814712524414e+00,3.723979234695434570e+00,3.723271131515502930e+00,3.722563028335571289e+00,3.721855401992797852e+00,3.721147775650024414e+00,3.717661619186401367e+00
3.083546876907348633e+00,3.083061218261718750e+00,3.082575798034667969e+00,3.082090854644775391e+00,3.081605672836303711e+00,3.081120252609252930e+00,3.080635547637939453e+00,3.080150842666625977e+00,3.079666137695312500e+00,3.079181909561157227e+00,3.078697681427001953e+00,3.078213453292846680e+00,3.077729463577270508e+00,3.077245712280273438e+00,3.076762199401855469e+00,3.076278686523437500e+00,3.075795412063598633e+00,3.075312137603759766e+00,3.074829101562500000e+00,3.074346303939819336e+00,3.073863506317138672e+00,3.073380947113037109e+00,3.072898387908935547e+00,3.072416305541992188e+00,3.071933984756469727e+00,3.071452140808105469e+00,3.070970296859741211e+00,3.070488691329956055e+00,3.070007085800170898e+00,3.069525718688964844e+00,3.069044589996337891e+00,3.068563461303710938e+00,3.068082571029663086e+00,3.067601919174194336e+00,3.067121267318725586e+00,3.066640853881835938e+00,3.066160440444946289e+00,3.065680265426635742e+00,3.065200328826904297e+00,3.064720630645751953e+00,3.064240932464599609e+00,3.063761234283447266e+00,3.063281774520874023e+00,3.062802553176879883e+00,3.062323570251464844e+00,3.061844587326049805e+00,3.061365842819213867e+00,3.060887098312377930e+00,3.060408592224121094e+00,3.059930324554443359e+00,3.059452056884765625e+00,3.058974027633666992e+00,3.058495998382568359e+00,3.058018207550048828e+00,3.057540655136108398e+00,3.057063102722167969e+00,3.056585788726806641e+00,3.056108713150024414e+00,3.055631637573242188e+00,3.055154800415039062e+00,3.054677963256835938e+00,3.054201602935791016e+00,3.053725004196166992e+00,3.053248882293701172e+00,3.052772760391235352e+00,3.052296638488769531e+00,3.051820993423461914e+00,3.051345109939575195e+00,3.050869703292846680e+00,3.050394296646118164e+00,3.049919128417968750e+00,3.049443960189819336e+00,3.048969030380249023e+00,3.048494338989257812e+00,3.048019647598266602e+00,3.047545194625854492e+00,3.047070741653442383e+00,3.046596527099609375e+00,3.046122550964355469e+00,3.045648574829101562e+00
2.605158090591430664e+00,2.604811429977416992e+00,2.604465246200561523e+00,2.604118824005126953e+00,2.603772401809692383e+00,2.603426218032836914e+00,2.603080272674560547e+00,2.602734088897705078e+00,2.602388381958007812e+00,2.602042198181152344e+00,2.601696491241455078e+00,2.601350784301757812e+00,2.601005077362060547e+00,2.600659608840942383e+00,2.600314140319824219e+00,2.599968671798706055e+00,2.599623441696166992e+00,2.599278211593627930e+00,2.598933219909667969e+00,2.598588228225708008e+00,2.598243236541748047e+00,2.597898483276367188e+00,2.597553730010986328e+00,2.597209215164184570e+00,2.596864700317382812e+00,2.596520185470581055e+00,2.596175909042358398e+00,2.595831632614135742e+00,2.595487594604492188e+00,2.595143556594848633e+00,2.594799518585205078e+00,2.594455718994140625e+00,2.594111919403076172e+00,2.593768119812011719e+00,2.593424558639526367e+00,2.593080997467041016e+00,2.592737436294555664e+00,2.592394113540649414e+00,2.592051029205322266e+00,2.591707706451416016e+00,2.591364860534667969e+00,2.591021776199340820e+00,2.590678930282592773e+00,2.590336084365844727e+00,2.589993476867675781e+00,2.589650869369506836e+00,2.589308261871337891e+00,2.588965892791748047e+00,2.588623523712158203e+00,2.588281154632568359e+00,2.587939023971557617e+00,2.587596893310546875e+00,2.587254762649536133e+00,2.586912870407104492e+00,2.586571216583251953e+00,2.586229562759399414e+00,2.585887908935546875e+00,2.585546255111694336e+00,2.585204839706420898e+00,2.584863662719726562e+00,2.584522247314453125e+00,2.584181308746337891e+00,2.583840131759643555e+00,2.583499193191528320e+00,2.583158254623413086e+00,2.582817316055297852e+00,2.582476615905761719e+00,2.582136154174804688e+00,2.581795454025268555e+00,2.581455230712890625e+00,2.581114768981933594e+00,2.580774545669555664e+00,2.580434322357177734e+00,2.580094337463378906e+00,2.579754114151000977e+00,2.579414367675781250e+00,2.579074382781982422e+00,2.578734874725341797e+00,2.578395128250122070e+00,2.578055620193481445e+00
2.255270481109619141e+00,2.255010604858398438e+00,2.254750967025756836e+00,2.254491329193115234e+00,2.254231929779052734e+00,2.253972291946411133e+00,2.253712892532348633e+00,2.253453493118286133e+00,2.253194093704223633e+00,2.252934932708740234e+00,2.252675771713256836e+00,2.252416610717773438e+00,2.252157449722290039e+00,2.251898288726806641e+00,2.251639366149902344e+00,2.251380443572998047e+00,2.251121520996093750e+00,2.250862598419189453e+00,2.250603914260864258e+00,2.250345230102539062e+00,2.250086545944213867e+00,2.249827861785888672e+00,2.249569416046142578e+00,2.249310970306396484e+00,2.249052524566650391e+00,2.248794078826904297e+00,2.248535871505737305e+00,2.248277664184570312e+00,2.248019456863403320e+00,2.247761249542236328e+00,2.247503280639648438e+00,2.247245311737060547e+00,2.246987342834472656e+00,2.246729373931884766e+00,2.246471643447875977e+00,2.246213912963867188e+00,2.245956182479858398e+00,2.245698690414428711e+00,2.245440959930419922e+00,2.245183467864990234e+00,2.244925975799560547e+00,2.244668483734130859e+00,2.244411230087280273e+00,2.244153976440429688e+00,2.243896722793579102e+00,2.243639469146728516e+00,2.243382453918457031e+00,2.243125438690185547e+00,2.242868423461914062e+00,2.242611408233642578e+00,2.242354631423950195e+00,2.242097854614257812e+00,2.241841077804565430e+00,2.241584300994873047e+00,2.241327762603759766e+00,2.241070985794067383e+00,2.240814685821533203e+00,2.240558147430419922e+00,2.240301609039306641e+00,2.240045309066772461e+00,2.239789009094238281e+00,2.239532947540283203e+00,2.239276647567749023e+00,2.239020586013793945e+00,2.238764524459838867e+00,2.238508462905883789e+00,2.238252639770507812e+00,2.237996816635131836e+00,2.237740993499755859e+00,2.237485170364379883e+00,2.237229347229003906e+00,2.236973762512207031e+00,2.236718177795410156e+00,2.236462593078613281e+00,2.236207246780395508e+00,2.235951900482177734e+00,2.235696315765380859e+00,2.235441207885742188e+00,2.235185861587524414e+00,2.234930753707885742e+00
1.988238453865051270e+00,1.988036632537841797e+00,1.987834692001342773e+00,1.987632870674133301e+00,1.987431049346923828e+00,1.987229585647583008e+00,1.987027883529663086e+00,1.986826300621032715e+00,1.986624598503112793e+00,1.986423015594482422e+00,1.986221551895141602e+00,1.986019968986511230e+00,1.985818862915039062e+00,1.985617399215698242e+00,1.985416054725646973e+00,1.985214710235595703e+00,1.985013365745544434e+00,1.984812140464782715e+00,1.984610915184020996e+00,1.984409689903259277e+00,1.984208583831787109e+00,1.984007477760314941e+00,1.983806490898132324e+00,1.983605504035949707e+00,1.983404517173767090e+00,1.983203649520874023e+00,1.983002662658691406e+00,1.982801914215087891e+00,1.982601046562194824e+00,1.982400298118591309e+00,1.982199549674987793e+00,1.981998920440673828e+00,1.981798291206359863e+00,1.981597661972045898e+00,1.981397032737731934e+00,1.981196522712707520e+00,1.980996131896972656e+00,1.980795621871948242e+00,1.980595231056213379e+00,1.980394840240478516e+00,1.980194568634033203e+00,1.979994297027587891e+00,1.979794025421142578e+00,1.979593873023986816e+00,1.979393720626831055e+00,1.979193568229675293e+00,1.978993535041809082e+00,1.978793501853942871e+00,1.978593468666076660e+00,1.978393554687500000e+00,1.978193402290344238e+00,1.977993488311767578e+00,1.977793693542480469e+00,1.977593898773193359e+00,1.977394104003906250e+00,1.977194428443908691e+00,1.976994752883911133e+00,1.976795077323913574e+00,1.976595520973205566e+00,1.976395964622497559e+00,1.976196408271789551e+00,1.975996971130371094e+00,1.975797533988952637e+00,1.975598096847534180e+00,1.975398778915405273e+00,1.975199460983276367e+00,1.975000143051147461e+00,1.974800944328308105e+00,1.974601745605468750e+00,1.974402666091918945e+00,1.974203467369079590e+00,1.974004387855529785e+00,1.973805427551269531e+00,1.973606467247009277e+00,1.973407506942749023e+00,1.973208546638488770e+00,1.973009705543518066e+00,1.972810864448547363e+00,1.972612023353576660e+00,1.972413301467895508e+00
1.777747035026550293e+00,1.777585625648498535e+00,1.777424216270446777e+00,1.777262926101684570e+00,1.777101516723632812e+00,1.776940226554870605e+00,1.776778936386108398e+00,1.776617884635925293e+00,1.776456713676452637e+00,1.776295542716979980e+00,1.776134371757507324e+00,1.775973200798034668e+00,1.775812149047851562e+00,1.775651097297668457e+00,1.775490283966064453e+00,1.775329232215881348e+00,1.775168299674987793e+00,1.775007247924804688e+00,1.774846315383911133e+00,1.774685502052307129e+00,1.774524569511413574e+00,1.774363756179809570e+00,1.774202942848205566e+00,1.774042129516601562e+00,1.773881435394287109e+00,1.773720741271972656e+00,1.773560047149658203e+00,1.773399353027343750e+00,1.773238658905029297e+00,1.773078083992004395e+00,1.772917509078979492e+00,1.772756934165954590e+00,1.772596478462219238e+00,1.772436022758483887e+00,1.772275567054748535e+00,1.772115111351013184e+00,1.771954655647277832e+00,1.771794319152832031e+00,1.771633982658386230e+00,1.771473646163940430e+00,1.771313309669494629e+00,1.771153092384338379e+00,1.770992875099182129e+00,1.770832657814025879e+00,1.770672559738159180e+00,1.770512342453002930e+00,1.770352244377136230e+00,1.770192146301269531e+00,1.770032167434692383e+00,1.769872069358825684e+00,1.769712090492248535e+00,1.769552111625671387e+00,1.769392132759094238e+00,1.769232273101806641e+00,1.769072413444519043e+00,1.768912553787231445e+00,1.768752694129943848e+00,1.768592953681945801e+00,1.768433213233947754e+00,1.768273472785949707e+00,1.768113732337951660e+00,1.767953991889953613e+00,1.767794370651245117e+00,1.767634749412536621e+00,1.767475128173828125e+00,1.767315626144409180e+00,1.767156124114990234e+00,1.766996622085571289e+00,1.766837120056152344e+00,1.766677618026733398e+00,1.766518235206604004e+00,1.766358852386474609e+00,1.766199469566345215e+00,1.766040205955505371e+00,1.765880823135375977e+00,1.765721559524536133e+00,1.765562295913696289e+00,1.765403151512145996e+00,1.765244007110595703e+00,1.765084862709045410e+00
1.607557535171508789e+00,1.607425570487976074e+00,1.607293725013732910e+00,1.607161760330200195e+00,1.607029795646667480e+00,1.606897950172424316e+00,1.606765985488891602e+00,1.606634140014648438e+00,1.606502532958984375e+00,1.606370687484741211e+00,1.606238842010498047e+00,1.606107115745544434e+00,1.605975270271301270e+00,1.605843544006347656e+00,1.605711817741394043e+00,1.605580329895019531e+00,1.605448603630065918e+00,1.605316996574401855e+00,1.605185389518737793e+00,1.605053782463073730e+00,1.604922175407409668e+00,1.604790687561035156e+00,1.604659199714660645e+00,1.604527592658996582e+00,1.604396104812622070e+00,1.604264616966247559e+00,1.604133129119873047e+00,1.604001760482788086e+00,1.603870272636413574e+00,1.603738903999328613e+00,1.603607535362243652e+00,1.603476166725158691e+00,1.603344917297363281e+00,1.603213548660278320e+00,1.603082299232482910e+00,1.602951049804687500e+00,1.602819800376892090e+00,1.602688550949096680e+00,1.602557301521301270e+00,1.602426171302795410e+00,1.602295041084289551e+00,1.602163910865783691e+00,1.602032780647277832e+00,1.601901650428771973e+00,1.601770639419555664e+00,1.601639628410339355e+00,1.601508617401123047e+00,1.601377606391906738e+00,1.601246595382690430e+00,1.601115584373474121e+00,1.600984692573547363e+00,1.600853800773620605e+00,1.600722908973693848e+00,1.600592017173767090e+00,1.600461125373840332e+00,1.600330352783203125e+00,1.600199460983276367e+00,1.600068688392639160e+00,1.599937915802001953e+00,1.599807143211364746e+00,1.599676489830017090e+00,1.599545717239379883e+00,1.599415063858032227e+00,1.599284410476684570e+00,1.599153757095336914e+00,1.599023103713989258e+00,1.598892569541931152e+00,1.598761916160583496e+00,1.598631381988525391e+00,1.598500847816467285e+00,1.598370313644409180e+00,1.598239898681640625e+00,1.598109364509582520e+00,1.597978949546813965e+00,1.597848534584045410e+00,1.597718119621276855e+00,1.597587704658508301e+00,1.597457408905029297e+00,1.597326993942260742e+00,1.597196698188781738e+00
1.467106699943542480e+00,1.466996788978576660e+00,1.466886878013610840e+00,1.466777086257934570e+00,1.466667175292968750e+00,1.466557264328002930e+00,1.466447472572326660e+00,1.466337561607360840e+00,1.466227769851684570e+00,1.466117978096008301e+00,1.466008305549621582e+00,1.465898513793945312e+00,1.465788841247558594e+00,1.465679049491882324e+00,1.465569257736206055e+00,1.465459585189819336e+00,1.465349912643432617e+00,1.465240359306335449e+00,1.465130686759948730e+00,1.465021014213562012e+00,1.464911460876464844e+00,1.464801788330078125e+00,1.464692234992980957e+00,1.464582681655883789e+00,1.464473247528076172e+00,1.464363694190979004e+00,1.464254140853881836e+00,1.464144468307495117e+00,1.464035034179687500e+00,1.463925480842590332e+00,1.463816046714782715e+00,1.463706612586975098e+00,1.463597178459167480e+00,1.463487744331359863e+00,1.463378310203552246e+00,1.463268995285034180e+00,1.463159561157226562e+00,1.463050246238708496e+00,1.462940931320190430e+00,1.462831616401672363e+00,1.462722301483154297e+00,1.462612986564636230e+00,1.462503790855407715e+00,1.462394475936889648e+00,1.462285280227661133e+00,1.462176084518432617e+00,1.462066888809204102e+00,1.461957693099975586e+00,1.461848497390747070e+00,1.461739420890808105e+00,1.461630225181579590e+00,1.461521148681640625e+00,1.461412072181701660e+00,1.461302995681762695e+00,1.461193919181823730e+00,1.461084842681884766e+00,1.460975766181945801e+00,1.460866808891296387e+00,1.460757732391357422e+00,1.460648775100708008e+00,1.460539817810058594e+00,1.460430860519409180e+00,1.460321903228759766e+00,1.460212945938110352e+00,1.460104107856750488e+00,1.459995150566101074e+00,1.459886312484741211e+00,1.459777474403381348e+00,1.459668636322021484e+00,1.459559798240661621e+00,1.459450960159301758e+00,1.459342122077941895e+00,1.459233403205871582e+00,1.459124684333801270e+00,1.459015846252441406e+00,1.458907127380371094e+00,1.458798408508300781e+00,1.458689689636230469e+00,1.458581089973449707e+00,1.458472371101379395e+00
1.349226117134094238e+00,1.349133133888244629e+00,1.349040150642395020e+00,1.348947167396545410e+00,1.348854184150695801e+00,1.348761439323425293e+00,1.348668456077575684e+00,1.348575592041015625e+00,1.348482608795166016e+00,1.348389744758605957e+00,1.348296880722045898e+00,1.348204016685485840e+00,1.348111391067504883e+00,1.348018527030944824e+00,1.347925662994384766e+00,1.347832918167114258e+00,1.347740054130554199e+00,1.347647309303283691e+00,1.347554564476013184e+00,1.347461938858032227e+00,1.347369194030761719e+00,1.347276449203491211e+00,1.347183823585510254e+00,1.347091078758239746e+00,1.346998333930969238e+00,1.346905827522277832e+00,1.346813201904296875e+00,1.346720457077026367e+00,1.346627831459045410e+00,1.346535205841064453e+00,1.346442580223083496e+00,1.346350073814392090e+00,1.346257448196411133e+00,1.346164822578430176e+00,1.346072316169738770e+00,1.345979809761047363e+00,1.345887184143066406e+00,1.345794677734375000e+00,1.345702171325683594e+00,1.345609664916992188e+00,1.345517277717590332e+00,1.345424771308898926e+00,1.345332264900207520e+00,1.345239877700805664e+00,1.345147371292114258e+00,1.345054984092712402e+00,1.344962596893310547e+00,1.344870209693908691e+00,1.344777822494506836e+00,1.344685435295104980e+00,1.344592928886413574e+00,1.344500660896301270e+00,1.344408273696899414e+00,1.344316005706787109e+00,1.344223618507385254e+00,1.344131350517272949e+00,1.344039082527160645e+00,1.343946814537048340e+00,1.343854546546936035e+00,1.343762278556823730e+00,1.343670129776000977e+00,1.343577861785888672e+00,1.343485593795776367e+00,1.343393445014953613e+00,1.343301296234130859e+00,1.343209147453308105e+00,1.343116998672485352e+00,1.343024849891662598e+00,1.342932701110839844e+00,1.342840552330017090e+00,1.342748403549194336e+00,1.342656373977661133e+00,1.342564225196838379e+00,1.342472195625305176e+00,1.342380166053771973e+00,1.342288136482238770e+00,1.342196106910705566e+00,1.342104077339172363e+00,1.342012047767639160e+00,1.341920018196105957e+00
1.248879790306091309e+00,1.248800039291381836e+00,1.248720407485961914e+00,1.248640775680541992e+00,1.248561143875122070e+00,1.248481512069702148e+00,1.248401880264282227e+00,1.248322367668151855e+00,1.248242855072021484e+00,1.248163223266601562e+00,1.248083710670471191e+00,1.248004078865051270e+00,1.247924566268920898e+00,1.247845053672790527e+00,1.247765541076660156e+00,1.247686028480529785e+00,1.247606515884399414e+00,1.247527003288269043e+00,1.247447490692138672e+00,1.247367978096008301e+00,1.247288703918457031e+00,1.247209191322326660e+00,1.247129678726196289e+00,1.247050285339355469e+00,1.246970891952514648e+00,1.246891379356384277e+00,1.246811985969543457e+00,1.246732711791992188e+00,1.246653318405151367e+00,1.246573925018310547e+00,1.246494531631469727e+00,1.246415257453918457e+00,1.246335864067077637e+00,1.246256470680236816e+00,1.246177196502685547e+00,1.246097803115844727e+00,1.246018528938293457e+00,1.245939254760742188e+00,1.245859980583190918e+00,1.245780706405639648e+00,1.245701432228088379e+00,1.245622158050537109e+00,1.245542883872985840e+00,1.245463609695434570e+00,1.245384454727172852e+00,1.245305180549621582e+00,1.245226025581359863e+00,1.245146751403808594e+00,1.245067596435546875e+00,1.244988441467285156e+00,1.244909286499023438e+00,1.244830012321472168e+00,1.244750976562500000e+00,1.244671821594238281e+00,1.244592666625976562e+00,1.244513511657714844e+00,1.244434475898742676e+00,1.244355320930480957e+00,1.244276165962219238e+00,1.244197130203247070e+00,1.244118094444274902e+00,1.244039058685302734e+00,1.243960022926330566e+00,1.243880987167358398e+00,1.243801951408386230e+00,1.243722915649414062e+00,1.243643879890441895e+00,1.243564844131469727e+00,1.243485927581787109e+00,1.243406891822814941e+00,1.243327975273132324e+00,1.243248939514160156e+00,1.243170022964477539e+00,1.243091106414794922e+00,1.243012189865112305e+00,1.242933273315429688e+00,1.242854356765747070e+00,1.242775440216064453e+00,1.242696523666381836e+00,1.242617726325988770e+00
1.162426352500915527e+00,1.162357330322265625e+00,1.162288308143615723e+00,1.162219405174255371e+00,1.162150382995605469e+00,1.162081360816955566e+00,1.162012457847595215e+00,1.161943435668945312e+00,1.161874532699584961e+00,1.161805629730224609e+00,1.161736607551574707e+00,1.161667704582214355e+00,1.161598801612854004e+00,1.161529898643493652e+00,1.161460995674133301e+00,1.161392092704772949e+00,1.161323189735412598e+00,1.161254286766052246e+00,1.161185503005981445e+00,1.161116600036621094e+00,1.161047697067260742e+00,1.160978913307189941e+00,1.160910129547119141e+00,1.160841226577758789e+00,1.160772442817687988e+00,1.160703659057617188e+00,1.160634756088256836e+00,1.160565972328186035e+00,1.160497188568115234e+00,1.160428524017333984e+00,1.160359740257263184e+00,1.160290956497192383e+00,1.160222172737121582e+00,1.160153388977050781e+00,1.160084605216979980e+00,1.160015940666198730e+00,1.159947276115417480e+00,1.159878492355346680e+00,1.159809708595275879e+00,1.159741044044494629e+00,1.159672260284423828e+00,1.159603595733642578e+00,1.159534931182861328e+00,1.159466266632080078e+00,1.159397602081298828e+00,1.159328937530517578e+00,1.159260272979736328e+00,1.159191608428955078e+00,1.159122943878173828e+00,1.159054398536682129e+00,1.158985733985900879e+00,1.158917188644409180e+00,1.158848524093627930e+00,1.158779978752136230e+00,1.158711314201354980e+00,1.158642768859863281e+00,1.158574223518371582e+00,1.158505678176879883e+00,1.158437132835388184e+00,1.158368587493896484e+00,1.158300042152404785e+00,1.158231496810913086e+00,1.158162951469421387e+00,1.158094406127929688e+00,1.158025979995727539e+00,1.157957434654235840e+00,1.157889008522033691e+00,1.157820463180541992e+00,1.157752037048339844e+00,1.157683610916137695e+00,1.157615065574645996e+00,1.157546639442443848e+00,1.157478213310241699e+00,1.157409787178039551e+00,1.157341361045837402e+00,1.157272934913635254e+00,1.157204508781433105e+00,1.157136082649230957e+00,1.157067775726318359e+00,1.156999349594116211e+00
1.087167382240295410e+00,1.087107062339782715e+00,1.087046623229980469e+00,1.086986422538757324e+00,1.086925983428955078e+00,1.086865663528442383e+00,1.086805343627929688e+00,1.086745023727416992e+00,1.086684703826904297e+00,1.086624383926391602e+00,1.086564064025878906e+00,1.086503863334655762e+00,1.086443543434143066e+00,1.086383223533630371e+00,1.086322903633117676e+00,1.086262702941894531e+00,1.086202383041381836e+00,1.086142182350158691e+00,1.086081981658935547e+00,1.086021661758422852e+00,1.085961461067199707e+00,1.085901260375976562e+00,1.085840940475463867e+00,1.085780739784240723e+00,1.085720658302307129e+00,1.085660457611083984e+00,1.085600256919860840e+00,1.085540056228637695e+00,1.085479855537414551e+00,1.085419654846191406e+00,1.085359573364257812e+00,1.085299372673034668e+00,1.085239171981811523e+00,1.085179090499877930e+00,1.085118889808654785e+00,1.085058808326721191e+00,1.084998607635498047e+00,1.084938526153564453e+00,1.084878444671630859e+00,1.084818363189697266e+00,1.084758162498474121e+00,1.084698081016540527e+00,1.084637880325317383e+00,1.084577798843383789e+00,1.084517717361450195e+00,1.084457635879516602e+00,1.084397554397583008e+00,1.084337592124938965e+00,1.084277510643005371e+00,1.084217429161071777e+00,1.084157347679138184e+00,1.084097385406494141e+00,1.084037303924560547e+00,1.083977341651916504e+00,1.083917260169982910e+00,1.083857297897338867e+00,1.083797216415405273e+00,1.083737254142761230e+00,1.083677291870117188e+00,1.083617329597473145e+00,1.083557367324829102e+00,1.083497405052185059e+00,1.083437442779541016e+00,1.083377480506896973e+00,1.083317518234252930e+00,1.083257555961608887e+00,1.083197593688964844e+00,1.083137631416320801e+00,1.083077788352966309e+00,1.083017826080322266e+00,1.082957863807678223e+00,1.082898020744323730e+00,1.082838058471679688e+00,1.082778215408325195e+00,1.082718372344970703e+00,1.082658410072326660e+00,1.082598567008972168e+00,1.082538723945617676e+00,1.082478880882263184e+00,1.082419037818908691e+00
1.021060943603515625e+00,1.021007657051086426e+00,1.020954370498657227e+00,1.020901203155517578e+00,1.020847916603088379e+00,1.020794749259948730e+00,1.020741581916809082e+00,1.020688295364379883e+00,1.020635128021240234e+00,1.020581841468811035e+00,1.020528674125671387e+00,1.020475506782531738e+00,1.020422339439392090e+00,1.020369172096252441e+00,1.020316004753112793e+00,1.020262837409973145e+00,1.020209670066833496e+00,1.020156502723693848e+00,1.020103335380554199e+00,1.020050287246704102e+00,1.019997119903564453e+00,1.019943952560424805e+00,1.019890785217285156e+00,1.019837737083435059e+00,1.019784569740295410e+00,1.019731521606445312e+00,1.019678354263305664e+00,1.019625306129455566e+00,1.019572138786315918e+00,1.019519090652465820e+00,1.019466042518615723e+00,1.019412875175476074e+00,1.019359827041625977e+00,1.019306778907775879e+00,1.019253730773925781e+00,1.019200682640075684e+00,1.019147634506225586e+00,1.019094586372375488e+00,1.019041538238525391e+00,1.018988490104675293e+00,1.018935561180114746e+00,1.018882513046264648e+00,1.018829464912414551e+00,1.018776416778564453e+00,1.018723368644714355e+00,1.018670439720153809e+00,1.018617391586303711e+00,1.018564343452453613e+00,1.018511414527893066e+00,1.018458366394042969e+00,1.018405437469482422e+00,1.018352389335632324e+00,1.018299460411071777e+00,1.018246412277221680e+00,1.018193483352661133e+00,1.018140554428100586e+00,1.018087625503540039e+00,1.018034696578979492e+00,1.017981767654418945e+00,1.017928838729858398e+00,1.017875909805297852e+00,1.017822980880737305e+00,1.017770051956176758e+00,1.017717123031616211e+00,1.017664194107055664e+00,1.017611265182495117e+00,1.017558455467224121e+00,1.017505526542663574e+00,1.017452597618103027e+00,1.017399787902832031e+00,1.017346858978271484e+00,1.017294049263000488e+00,1.017241239547729492e+00,1.017188310623168945e+00,1.017135500907897949e+00,1.017082691192626953e+00,1.017029762268066406e+00,1.016976952552795410e+00,1.016924142837524414e+00,1.016871333122253418e+00
9.625330567359924316e-01,9.624856710433959961e-01,9.624384045600891113e-01,9.623910188674926758e-01,9.623437523841857910e-01,9.622963666915893555e-01,9.622491598129272461e-01,9.622018933296203613e-01,9.621545672416687012e-01,9.621073603630065918e-01,9.620599746704101562e-01,9.620127677917480469e-01,9.619654417037963867e-01,9.619182348251342773e-01,9.618710279464721680e-01,9.618237018585205078e-01,9.617764949798583984e-01,9.617292284965515137e-01,9.616820216178894043e-01,9.616347551345825195e-01,9.615875482559204102e-01,9.615404009819030762e-01,9.614931344985961914e-01,9.614459276199340820e-01,9.613986611366271973e-01,9.613515138626098633e-01,9.613042473793029785e-01,9.612571001052856445e-01,9.612099528312683105e-01,9.611627459526062012e-01,9.611155986785888672e-01,9.610683321952819824e-01,9.610212445259094238e-01,9.609739780426025391e-01,9.609268903732299805e-01,9.608797430992126465e-01,9.608325362205505371e-01,9.607854485511779785e-01,9.607382416725158691e-01,9.606911540031433105e-01,9.606439471244812012e-01,9.605968594551086426e-01,9.605498313903808594e-01,9.605026245117187500e-01,9.604555368423461914e-01,9.604083895683288574e-01,9.603613018989562988e-01,9.603142738342285156e-01,9.602671265602111816e-01,9.602199196815490723e-01,9.601728916168212891e-01,9.601257443428039551e-01,9.600787162780761719e-01,9.600315690040588379e-01,9.599845409393310547e-01,9.599374532699584961e-01,9.598904252052307129e-01,9.598433375358581543e-01,9.597963094711303711e-01,9.597492218017578125e-01,9.597021937370300293e-01,9.596551060676574707e-01,9.596081376075744629e-01,9.595610499382019043e-01,9.595140218734741211e-01,9.594669938087463379e-01,9.594200253486633301e-01,9.593729376792907715e-01,9.593259692192077637e-01,9.592788815498352051e-01,9.592319726943969727e-01,9.591848850250244141e-01,9.591379761695861816e-01,9.590908885002136230e-01,9.590439796447753906e-01,9.589969515800476074e-01,9.589500427246093750e-01,9.589030146598815918e-01,9.588561058044433594e-01,9.588090777397155762e-01
