3.099559545516967773e+00,3.177942752838134766e+00,3.260390520095825195e+00,3.347226619720458984e+00,3.438815593719482422e+00,3.535557031631469727e+00,3.637899637222290039e+00,3.746343851089477539e+00,3.861451625823974609e+00,3.983857154846191406e+00,4.114277362823486328e+00,4.253525733947753906e+00,4.402529716491699219e+00,4.562352657318115234e+00,4.734216213226318359e+00,4.919534683227539062e+00,5.000000000000000000e+00,5.000000000000000000e+00,5.000000000000000000e+00,5.000000000000000000e+00,5.000000000000000000e+00,5.000000000000000000e+00,5.000000000000000000e+00,5.000000000000000000e+00,5.000000000000000000e+00,5.000000000000000000e+00,5.000000000000000000e+00,5.000000000000000000e+00,5.000000000000000000e+00,5.000000000000000000e+00,5.000000000000000000e+00,5.000000000000000000e+00,5.000000000000000000e+00,5.000000000000000000e+00,5.000000000000000000e+00,5.000000000000000000e+00,5.000000000000000000e+00,5.000000000000000000e+00,5.000000000000000000e+00,5.000000000000000000e+00,5.000000000000000000e+00,5.000000000000000000e+00,5.000000000000000000e+00,5.000000000000000000e+00,5.000000000000000000e+00,5.000000000000000000e+00,5.000000000000000000e+00,5.000000000000000000e+00,5.000000000000000000e+00,5.000000000000000000e+00,5.000000000000000000e+00,5.000000000000000000e+00,5.000000000000000000e+00,5.000000000000000000e+00,5.000000000000000000e+00,5.000000000000000000e+00,5.000000000000000000e+00,5.000000000000000000e+00,5.000000000000000000e+00,5.000000000000000000e+00,5.000000000000000000e+00,5.000000000000000000e+00,5.000000000000000000e+00,5.000000000000000000e+00,5.000000000000000000e+00,5.000000000000000000e+00,5.000000000000000000e+00,5.000000000000000000e+00,5.000000000000000000e+00,5.000000000000000000e+00,4.850060939788818359e+00,4.690705299377441406e+00,4.541531085968017578e+00,4.401615142822265625e+00,4.270062446594238281e+00,4.146145343780517578e+00,4.029217720031738281e+00,3.918704032897949219e+00,3.814091205596923828e+00,3.714917898178100586e+00
3.099493980407714844e+00,3.177873849868774414e+00,3.260320663452148438e+00,3.347156524658203125e+00,3.438741207122802734e+00,3.535478830337524414e+00,3.637816667556762695e+00,3.746255397796630859e+00,3.861357927322387695e+00,3.983757734298706055e+00,4.114171028137207031e+00,4.253412246704101562e+00,4.402408123016357422e+00,4.562222003936767578e+00,4.734075546264648438e+00,4.919383049011230469e+00,5.000000000000000000e+00,5.000000000000000000e+00,5.000000000000000000e+00,5.000000000000000000e+00,5.000000000000000000e+00,5.000000000000000000e+00,5.000000000000000000e+00,5.000000000000000000e+00,5.000000000000000000e+00,5.000000000000000000e+00,5.000000000000000000e+00,5.000000000000000000e+00,5.000000000000000000e+00,5.000000000000000000e+00,5.000000000000000000e+00,5.000000000000000000e+00,5.000000000000000000e+00,5.000000000000000000e+00,5.000000000000000000e+00,5.000000000000000000e+00,5.000000000000000000e+00,5.000000000000000000e+00,5.000000000000000000e+00,5.000000000000000000e+00,5.000000000000000000e+00,5.000000000000000000e+00,5.000000000000000000e+00,5.000000000000000000e+00,5.000000000000000000e+00,5.000000000000000000e+00,5.000000000000000000e+00,5.000000000000000000e+00,5.000000000000000000e+00,5.000000000000000000e+00,5.000000000000000000e+00,5.000000000000000000e+00,5.000000000000000000e+00,5.000000000000000000e+00,5.000000000000000000e+00,5.000000000000000000e+00,5.000000000000000000e+00,5.000000000000000000e+00,5.000000000000000000e+00,5.000000000000000000e+00,5.000000000000000000e+00,5.000000000000000000e+00,5.000000000000000000e+00,5.000000000000000000e+00,5.000000000000000000e+00,5.000000000000000000e+00,5.000000000000000000e+00,5.000000000000000000e+00,5.000000000000000000e+00,5.000000000000000000e+00,4.850061893463134766e+00,4.690766334533691406e+00,4.541655063629150391e+00,4.401731967926025391e+00,4.270172595977783203e+00,4.146249294281005859e+00,4.029315471649169922e+00,3.918796777725219727e+00,3.814178705215454102e+00,3.715001344680786133e+00
3.099428415298461914e+00,3.177804946899414062e+00,3.260248184204101562e+00,3.347083091735839844e+00,3.438667297363281250e+00,3.535400390625000000e+00,3.637733459472656250e+00,3.746167659759521484e+00,3.861264705657958984e+00,3.983658075332641602e+00,4.114064693450927734e+00,4.253298759460449219e+00,4.402286529541015625e+00,4.562091350555419922e+00,4.733934879302978516e+00,4.919230937957763672e+00,5.000000000000000000e+00,5.000000000000000000e+00,5.000000000000000000e+00,5.000000000000000000e+00,5.000000000000000000e+00,5.000000000000000000e+00,5.000000000000000000e+00,5.000000000000000000e+00,5.000000000000000000e+00,5.000000000000000000e+00,5.000000000000000000e+00,5.000000000000000000e+00,5.000000000000000000e+00,5.000000000000000000e+00,5.000000000000000000e+00,5.000000000000000000e+00,5.000000000000000000e+00,5.000000000000000000e+00,5.000000000000000000e+00,5.000000000000000000e+00,5.000000000000000000e+00,5.000000000000000000e+00,5.000000000000000000e+00,5.000000000000000000e+00,5.000000000000000000e+00,5.000000000000000000e+00,5.000000000000000000e+00,5.000000000000000000e+00,5.000000000000000000e+00,5.000000000000000000e+00,5.000000000000000000e+00,5.000000000000000000e+00,5.000000000000000000e+00,5.000000000000000000e+00,5.000000000000000000e+00,5.000000000000000000e+00,5.000000000000000000e+00,5.000000000000000000e+00,5.000000000000000000e+00,5.000000000000000000e+00,5.000000000000000000e+00,5.000000000000000000e+00,5.000000000000000000e+00,5.000000000000000000e+00,5.000000000000000000e+00,5.000000000000000000e+00,5.000000000000000000e+00,5.000000000000000000e+00,5.000000000000000000e+00,5.000000000000000000e+00,5.000000000000000000e+00,5.000000000000000000e+00,5.000000000000000000e+00,5.000000000000000000e+00,4.850143432617187500e+00,4.690899372100830078e+00,4.541779994964599609e+00,4.401848793029785156e+00,4.270282268524169922e+00,4.146352767944335938e+00,4.029413223266601562e+00,3.918889284133911133e+00,3.814266443252563477e+00,3.715084552764892578e+00
3.099362850189208984e+00,3.177736043930053711e+00,3.260175704956054688e+00,3.347006797790527344e+00,3.438589572906494141e+00,3.535321950912475586e+00,3.637650728225708008e+00,3.746079444885253906e+00,3.861170768737792969e+00,3.983558654785156250e+00,4.113958835601806641e+00,4.253185272216796875e+00,4.402164936065673828e+00,4.561960697174072266e+00,4.733794689178466797e+00,4.919079303741455078e+00,5.000000000000000000e+00,5.000000000000000000e+00,5.000000000000000000e+00,5.000000000000000000e+00,5.000000000000000000e+00,5.000000000000000000e+00,5.000000000000000000e+00,5.000000000000000000e+00,5.000000000000000000e+00,5.000000000000000000e+00,5.000000000000000000e+00,5.000000000000000000e+00,5.000000000000000000e+00,5.000000000000000000e+00,5.000000000000000000e+00,5.000000000000000000e+00,5.000000000000000000e+00,5.000000000000000000e+00,5.000000000000000000e+00,5.000000000000000000e+00,5.000000000000000000e+00,5.000000000000000000e+00,5.000000000000000000e+00,5.000000000000000000e+00,5.000000000000000000e+00,5.000000000000000000e+00,5.000000000000000000e+00,5.000000000000000000e+00,5.000000000000000000e+00,5.000000000000000000e+00,5.000000000000000000e+00,5.000000000000000000e+00,5.000000000000000000e+00,5.000000000000000000e+00,5.000000000000000000e+00,5.000000000000000000e+00,5.000000000000000000e+00,5.000000000000000000e+00,5.000000000000000000e+00,5.000000000000000000e+00,5.000000000000000000e+00,5.000000000000000000e+00,5.000000000000000000e+00,5.000000000000000000e+00,5.000000000000000000e+00,5.000000000000000000e+00,5.000000000000000000e+00,5.000000000000000000e+00,5.000000000000000000e+00,5.000000000000000000e+00,5.000000000000000000e+00,5.000000000000000000e+00,5.000000000000000000e+00,5.000000000000000000e+00,4.850285530090332031e+00,4.691031932830810547e+00,4.541904449462890625e+00,4.401965618133544922e+00,4.270392417907714844e+00,4.146456241607666016e+00,4.029511451721191406e+00,3.918981790542602539e+00,3.814354419708251953e+00,3.715167522430419922e+00
3.099297285079956055e+00,3.177667140960693359e+00,3.260103225708007812e+00,3.346930265426635742e+00,3.438508987426757812e+00,3.535240173339843750e+00,3.637567520141601562e+00,3.745991706848144531e+00,3.861077547073364258e+00,3.983458995819091797e+00,4.113852500915527344e+00,4.253071784973144531e+00,4.402043819427490234e+00,4.561830043792724609e+00,4.733654022216796875e+00,4.918927669525146484e+00,5.000000000000000000e+00,5.000000000000000000e+00,5.000000000000000000e+00,5.000000000000000000e+00,5.000000000000000000e+00,5.000000000000000000e+00,5.000000000000000000e+00,5.000000000000000000e+00,5.000000000000000000e+00,5.000000000000000000e+00,5.000000000000000000e+00,5.000000000000000000e+00,5.000000000000000000e+00,5.000000000000000000e+00,5.000000000000000000e+00,5.000000000000000000e+00,5.000000000000000000e+00,5.000000000000000000e+00,5.000000000000000000e+00,5.000000000000000000e+00,5.000000000000000000e+00,5.000000000000000000e+00,5.000000000000000000e+00,5.000000000000000000e+00,5.000000000000000000e+00,5.000000000000000000e+00,5.000000000000000000e+00,5.000000000000000000e+00,5.000000000000000000e+00,5.000000000000000000e+00,5.000000000000000000e+00,5.000000000000000000e+00,5.000000000000000000e+00,5.000000000000000000e+00,5.000000000000000000e+00,5.000000000000000000e+00,5.000000000000000000e+00,3.722754955291748047e+00,5.000000000000000000e+00,5.000000000000000000e+00,5.000000000000000000e+00,5.000000000000000000e+00,5.000000000000000000e+00,5.000000000000000000e+00,5.000000000000000000e+00,5.000000000000000000e+00,5.000000000000000000e+00,5.000000000000000000e+00,5.000000000000000000e+00,5.000000000000000000e+00,5.000000000000000000e+00,5.000000000000000000e+00,5.000000000000000000e+00,5.000000000000000000e+00,4.850427150726318359e+00,4.691164493560791016e+00,4.542028427124023438e+00,4.402082443237304688e+00,4.270502567291259766e+00,4.146560192108154297e+00,4.029609203338623047e+00,3.919074773788452148e+00,3.814441919326782227e+00,3.715251207351684570e+00
3.099231958389282227e+00,3.177598476409912109e+00,3.260030508041381836e+00,3.346853733062744141e+00,3.438428401947021484e+00,3.535154819488525391e+00,3.637481212615966797e+00,3.745903491973876953e+00,3.860983848571777344e+00,3.983359575271606445e+00,4.113746643066406250e+00,4.252958297729492188e+00,4.401922225952148438e+00,4.561699390411376953e+00,4.733513355255126953e+00,4.918775558471679688e+00,5.000000000000000000e+00,5.000000000000000000e+00,5.000000000000000000e+00,5.000000000000000000e+00,5.000000000000000000e+00,5.000000000000000000e+00,5.000000000000000000e+00,5.000000000000000000e+00,5.000000000000000000e+00,5.000000000000000000e+00,5.000000000000000000e+00,5.000000000000000000e+00,5.000000000000000000e+00,5.000000000000000000e+00,5.000000000000000000e+00,5.000000000000000000e+00,5.000000000000000000e+00,5.000000000000000000e+00,5.000000000000000000e+00,5.000000000000000000e+00,5.000000000000000000e+00,5.000000000000000000e+00,5.000000000000000000e+00,5.000000000000000000e+00,5.000000000000000000e+00,5.000000000000000000e+00,5.000000000000000000e+00,5.000000000000000000e+00,5.000000000000000000e+00,5.000000000000000000e+00,5.000000000000000000e+00,5.000000000000000000e+00,5.000000000000000000e+00,5.000000000000000000e+00,5.000000000000000000e+00,5.000000000000000000e+00,3.721669197082519531e+00,3.694401502609252930e+00,5.000000000000000000e+00,5.000000000000000000e+00,5.000000000000000000e+00,5.000000000000000000e+00,5.000000000000000000e+00,5.000000000000000000e+00,5.000000000000000000e+00,5.000000000000000000e+00,5.000000000000000000e+00,5.000000000000000000e+00,5.000000000000000000e+00,5.000000000000000000e+00,5.000000000000000000e+00,5.000000000000000000e+00,5.000000000000000000e+00,5.000000000000000000e+00,4.850569248199462891e+00,4.691297531127929688e+00,4.542152881622314453e+00,4.402199268341064453e+00,4.270612239837646484e+00,4.146663665771484375e+00,4.029706954956054688e+00,3.919167995452880859e+00,3.814537286758422852e+00,3.715348243713378906e+00
3.099166393280029297e+00,3.177529573440551758e+00,3.259958505630493164e+00,3.346777677536010742e+00,3.438347578048706055e+00,3.535069465637207031e+00,3.637390851974487305e+00,3.745811700820922852e+00,3.860890388488769531e+00,3.983259916305541992e+00,4.113640308380126953e+00,4.252844810485839844e+00,4.401800632476806641e+00,4.561569213867187500e+00,4.733372688293457031e+00,4.918623924255371094e+00,5.000000000000000000e+00,5.000000000000000000e+00,5.000000000000000000e+00,5.000000000000000000e+00,5.000000000000000000e+00,5.000000000000000000e+00,5.000000000000000000e+00,5.000000000000000000e+00,5.000000000000000000e+00,5.000000000000000000e+00,5.000000000000000000e+00,5.000000000000000000e+00,5.000000000000000000e+00,5.000000000000000000e+00,5.000000000000000000e+00,5.000000000000000000e+00,5.000000000000000000e+00,5.000000000000000000e+00,5.000000000000000000e+00,5.000000000000000000e+00,5.000000000000000000e+00,5.000000000000000000e+00,5.000000000000000000e+00,5.000000000000000000e+00,5.000000000000000000e+00,5.000000000000000000e+00,5.000000000000000000e+00,5.000000000000000000e+00,5.000000000000000000e+00,5.000000000000000000e+00,5.000000000000000000e+00,5.000000000000000000e+00,5.000000000000000000e+00,5.000000000000000000e+00,5.000000000000000000e+00,5.000000000000000000e+00,3.733704566955566406e+00,3.688042640686035156e+00,5.000000000000000000e+00,5.000000000000000000e+00,5.000000000000000000e+00,5.000000000000000000e+00,5.000000000000000000e+00,5.000000000000000000e+00,5.000000000000000000e+00,5.000000000000000000e+00,5.000000000000000000e+00,5.000000000000000000e+00,5.000000000000000000e+00,5.000000000000000000e+00,5.000000000000000000e+00,5.000000000000000000e+00,5.000000000000000000e+00,5.000000000000000000e+00,4.850711345672607422e+00,4.691430091857910156e+00,4.542277336120605469e+00,4.402316093444824219e+00,4.270722389221191406e+00,4.146774768829345703e+00,4.029819488525390625e+00,3.919280767440795898e+00,3.814644098281860352e+00,3.715449333190917969e+00
3.099100828170776367e+00,3.177460670471191406e+00,3.259885787963867188e+00,3.346701145172119141e+00,3.438267230987548828e+00,3.534984588623046875e+00,3.637300491333007812e+00,3.745716094970703125e+00,3.860793113708496094e+00,3.983160495758056641e+00,4.113534450531005859e+00,4.252731323242187500e+00,4.401679039001464844e+00,4.561438560485839844e+00,4.733232021331787109e+00,4.918472766876220703e+00,5.000000000000000000e+00,5.000000000000000000e+00,5.000000000000000000e+00,5.000000000000000000e+00,5.000000000000000000e+00,5.000000000000000000e+00,5.000000000000000000e+00,5.000000000000000000e+00,5.000000000000000000e+00,5.000000000000000000e+00,5.000000000000000000e+00,5.000000000000000000e+00,5.000000000000000000e+00,5.000000000000000000e+00,5.000000000000000000e+00,5.000000000000000000e+00,5.000000000000000000e+00,5.000000000000000000e+00,5.000000000000000000e+00,5.000000000000000000e+00,5.000000000000000000e+00,5.000000000000000000e+00,5.000000000000000000e+00,5.000000000000000000e+00,5.000000000000000000e+00,5.000000000000000000e+00,5.000000000000000000e+00,5.000000000000000000e+00,5.000000000000000000e+00,5.000000000000000000e+00,5.000000000000000000e+00,5.000000000000000000e+00,5.000000000000000000e+00,5.000000000000000000e+00,5.000000000000000000e+00,5.000000000000000000e+00,3.803335666656494141e+00,3.719935417175292969e+00,5.000000000000000000e+00,5.000000000000000000e+00,5.000000000000000000e+00,5.000000000000000000e+00,5.000000000000000000e+00,5.000000000000000000e+00,5.000000000000000000e+00,5.000000000000000000e+00,5.000000000000000000e+00,5.000000000000000000e+00,5.000000000000000000e+00,5.000000000000000000e+00,5.000000000000000000e+00,5.000000000000000000e+00,5.000000000000000000e+00,5.000000000000000000e+00,4.850852966308593750e+00,4.691563129425048828e+00,4.542407989501953125e+00,4.402448177337646484e+00,4.270854949951171875e+00,4.146900653839111328e+00,4.029938697814941406e+00,3.919393301010131836e+00,3.814750671386718750e+00,3.715550184249877930e+00
3.099035263061523438e+00,3.177391767501831055e+00,3.259813308715820312e+00,3.346624851226806641e+00,3.438186645507812500e+00,3.534899234771728516e+00,3.637210607528686523e+00,3.745620250701904297e+00,3.860691547393798828e+00,3.983057022094726562e+00,4.113428115844726562e+00,4.252617835998535156e+00,4.401557445526123047e+00,4.561307907104492188e+00,4.733091831207275391e+00,4.918320655822753906e+00,5.000000000000000000e+00,5.000000000000000000e+00,5.000000000000000000e+00,5.000000000000000000e+00,5.000000000000000000e+00,5.000000000000000000e+00,5.000000000000000000e+00,5.000000000000000000e+00,5.000000000000000000e+00,5.000000000000000000e+00,5.000000000000000000e+00,5.000000000000000000e+00,5.000000000000000000e+00,5.000000000000000000e+00,5.000000000000000000e+00,5.000000000000000000e+00,5.000000000000000000e+00,5.000000000000000000e+00,5.000000000000000000e+00,5.000000000000000000e+00,5.000000000000000000e+00,5.000000000000000000e+00,5.000000000000000000e+00,5.000000000000000000e+00,5.000000000000000000e+00,5.000000000000000000e+00,5.000000000000000000e+00,5.000000000000000000e+00,5.000000000000000000e+00,5.000000000000000000e+00,5.000000000000000000e+00,5.000000000000000000e+00,5.000000000000000000e+00,5.000000000000000000e+00,5.000000000000000000e+00,3.771583795547485352e+00,3.725855827331542969e+00,3.790763378143310547e+00,3.742595672607421875e+00,3.777547359466552734e+00,5.000000000000000000e+00,5.000000000000000000e+00,5.000000000000000000e+00,5.000000000000000000e+00,5.000000000000000000e+00,5.000000000000000000e+00,5.000000000000000000e+00,5.000000000000000000e+00,5.000000000000000000e+00,5.000000000000000000e+00,5.000000000000000000e+00,5.000000000000000000e+00,5.000000000000000000e+00,5.000000000000000000e+00,4.851010799407958984e+00,4.691720485687255859e+00,4.542559623718261719e+00,4.402589797973632812e+00,4.270988941192626953e+00,4.147026538848876953e+00,4.030057430267333984e+00,3.919505834579467773e+00,3.814857482910156250e+00,3.715651512145996094e+00
3.098969697952270508e+00,3.177322864532470703e+00,3.259740829467773438e+00,3.346548318862915039e+00,3.438106060028076172e+00,3.534814119338989258e+00,3.637120246887207031e+00,3.745524883270263672e+00,3.860590219497680664e+00,3.982948780059814453e+00,4.113317966461181641e+00,4.252504348754882812e+00,4.401435852050781250e+00,4.561177730560302734e+00,4.732951164245605469e+00,4.918169021606445312e+00,5.000000000000000000e+00,5.000000000000000000e+00,5.000000000000000000e+00,5.000000000000000000e+00,5.000000000000000000e+00,5.000000000000000000e+00,5.000000000000000000e+00,5.000000000000000000e+00,5.000000000000000000e+00,5.000000000000000000e+00,5.000000000000000000e+00,5.000000000000000000e+00,5.000000000000000000e+00,5.000000000000000000e+00,5.000000000000000000e+00,5.000000000000000000e+00,5.000000000000000000e+00,5.000000000000000000e+00,5.000000000000000000e+00,5.000000000000000000e+00,5.000000000000000000e+00,5.000000000000000000e+00,5.000000000000000000e+00,5.000000000000000000e+00,5.000000000000000000e+00,5.000000000000000000e+00,5.000000000000000000e+00,5.000000000000000000e+00,5.000000000000000000e+00,5.000000000000000000e+00,5.000000000000000000e+00,5.000000000000000000e+00,5.000000000000000000e+00,3.773799896240234375e+00,3.753814697265625000e+00,3.727149486541748047e+00,3.715120315551757812e+00,3.708350181579589844e+00,3.713794708251953125e+00,3.737044334411621094e+00,3.767354011535644531e+00,5.000000000000000000e+00,5.000000000000000000e+00,5.000000000000000000e+00,5.000000000000000000e+00,5.000000000000000000e+00,5.000000000000000000e+00,5.000000000000000000e+00,5.000000000000000000e+00,5.000000000000000000e+00,5.000000000000000000e+00,5.000000000000000000e+00,5.000000000000000000e+00,5.000000000000000000e+00,4.851182937622070312e+00,4.691882133483886719e+00,4.542710781097412109e+00,4.402731895446777344e+00,4.271122455596923828e+00,4.147152423858642578e+00,4.030176639556884766e+00,3.919618606567382812e+00,3.814964056015014648e+00,3.715752601623535156e+00
3.098904132843017578e+00,3.177253961563110352e+00,3.259668350219726562e+00,3.346472024917602539e+00,3.438025236129760742e+00,3.534728765487670898e+00,3.637030124664306641e+00,3.745429277420043945e+00,3.860488414764404297e+00,3.982841014862060547e+00,4.113202571868896484e+00,4.252387046813964844e+00,4.401314258575439453e+00,4.561047077178955078e+00,4.732810497283935547e+00,4.918017387390136719e+00,5.000000000000000000e+00,5.000000000000000000e+00,5.000000000000000000e+00,5.000000000000000000e+00,5.000000000000000000e+00,5.000000000000000000e+00,5.000000000000000000e+00,5.000000000000000000e+00,5.000000000000000000e+00,5.000000000000000000e+00,5.000000000000000000e+00,5.000000000000000000e+00,5.000000000000000000e+00,5.000000000000000000e+00,5.000000000000000000e+00,5.000000000000000000e+00,5.000000000000000000e+00,5.000000000000000000e+00,5.000000000000000000e+00,5.000000000000000000e+00,5.000000000000000000e+00,5.000000000000000000e+00,5.000000000000000000e+00,5.000000000000000000e+00,5.000000000000000000e+00,5.000000000000000000e+00,5.000000000000000000e+00,5.000000000000000000e+00,5.000000000000000000e+00,5.000000000000000000e+00,5.000000000000000000e+00,5.000000000000000000e+00,5.000000000000000000e+00,3.782025098800659180e+00,3.770515918731689453e+00,3.714591026306152344e+00,3.685564279556274414e+00,3.683383703231811523e+00,3.684245347976684570e+00,3.735927581787109375e+00,3.788226366043090820e+00,5.000000000000000000e+00,5.000000000000000000e+00,5.000000000000000000e+00,5.000000000000000000e+00,5.000000000000000000e+00,5.000000000000000000e+00,5.000000000000000000e+00,5.000000000000000000e+00,5.000000000000000000e+00,5.000000000000000000e+00,5.000000000000000000e+00,5.000000000000000000e+00,5.000000000000000000e+00,4.851355075836181641e+00,4.692043304443359375e+00,4.542861938476562500e+00,4.402873992919921875e+00,4.271255970001220703e+00,4.147278785705566406e+00,4.030295372009277344e+00,3.919730663299560547e+00,3.815070867538452148e+00,3.715853929519653320e+00
3.098839044570922852e+00,3.177185297012329102e+00,3.259595870971679688e+00,3.346395492553710938e+00,3.437944650650024414e+00,3.534643411636352539e+00,3.636939764022827148e+00,3.745333433151245117e+00,3.860386848449707031e+00,3.982732772827148438e+00,4.113087177276611328e+00,4.252263545989990234e+00,4.401188850402832031e+00,4.560916900634765625e+00,4.732670307159423828e+00,4.917865753173828125e+00,5.000000000000000000e+00,5.000000000000000000e+00,5.000000000000000000e+00,5.000000000000000000e+00,5.000000000000000000e+00,5.000000000000000000e+00,5.000000000000000000e+00,5.000000000000000000e+00,5.000000000000000000e+00,5.000000000000000000e+00,5.000000000000000000e+00,5.000000000000000000e+00,5.000000000000000000e+00,5.000000000000000000e+00,5.000000000000000000e+00,5.000000000000000000e+00,5.000000000000000000e+00,5.000000000000000000e+00,5.000000000000000000e+00,5.000000000000000000e+00,5.000000000000000000e+00,5.000000000000000000e+00,5.000000000000000000e+00,5.000000000000000000e+00,5.000000000000000000e+00,5.000000000000000000e+00,5.000000000000000000e+00,5.000000000000000000e+00,5.000000000000000000e+00,5.000000000000000000e+00,5.000000000000000000e+00,5.000000000000000000e+00,5.000000000000000000e+00,3.790072917938232422e+00,3.765994548797607422e+00,3.725903034210205078e+00,3.694142341613769531e+00,3.679323911666870117e+00,3.691231966018676758e+00,3.778972625732421875e+00,3.797972679138183594e+00,5.000000000000000000e+00,5.000000000000000000e+00,5.000000000000000000e+00,5.000000000000000000e+00,5.000000000000000000e+00,5.000000000000000000e+00,5.000000000000000000e+00,5.000000000000000000e+00,5.000000000000000000e+00,5.000000000000000000e+00,5.000000000000000000e+00,5.000000000000000000e+00,5.000000000000000000e+00,4.851527690887451172e+00,4.692204475402832031e+00,4.543013095855712891e+00,4.403016090393066406e+00,4.271389961242675781e+00,4.147404670715332031e+00,4.030414581298828125e+00,3.919843435287475586e+00,3.815176963806152344e+00,3.715955018997192383e+00
3.098773479461669922e+00,3.177116394042968750e+00,3.259523630142211914e+00,3.346319437026977539e+00,3.437864065170288086e+00,3.534558296203613281e+00,3.636849403381347656e+00,3.745237827301025391e+00,3.860285043716430664e+00,3.982624530792236328e+00,4.112971782684326172e+00,4.252140522003173828e+00,4.401056766510009766e+00,4.560781955718994141e+00,4.732529640197753906e+00,4.917713642120361328e+00,5.000000000000000000e+00,5.000000000000000000e+00,5.000000000000000000e+00,5.000000000000000000e+00,5.000000000000000000e+00,5.000000000000000000e+00,5.000000000000000000e+00,5.000000000000000000e+00,5.000000000000000000e+00,5.000000000000000000e+00,5.000000000000000000e+00,5.000000000000000000e+00,5.000000000000000000e+00,5.000000000000000000e+00,5.000000000000000000e+00,5.000000000000000000e+00,5.000000000000000000e+00,5.000000000000000000e+00,5.000000000000000000e+00,5.000000000000000000e+00,5.000000000000000000e+00,5.000000000000000000e+00,5.000000000000000000e+00,5.000000000000000000e+00,5.000000000000000000e+00,5.000000000000000000e+00,5.000000000000000000e+00,5.000000000000000000e+00,5.000000000000000000e+00,5.000000000000000000e+00,5.000000000000000000e+00,5.000000000000000000e+00,5.000000000000000000e+00,3.783633708953857422e+00,3.750674724578857422e+00,3.740593433380126953e+00,3.692608118057250977e+00,3.679225683212280273e+00,3.687096834182739258e+00,3.813677072525024414e+00,3.809895038604736328e+00,5.000000000000000000e+00,5.000000000000000000e+00,5.000000000000000000e+00,5.000000000000000000e+00,5.000000000000000000e+00,5.000000000000000000e+00,5.000000000000000000e+00,5.000000000000000000e+00,5.000000000000000000e+00,5.000000000000000000e+00,5.000000000000000000e+00,5.000000000000000000e+00,5.000000000000000000e+00,4.851699829101562500e+00,4.692365646362304688e+00,4.543164253234863281e+00,4.403158187866210938e+00,4.271523475646972656e+00,4.147530555725097656e+00,4.030533313751220703e+00,3.919955968856811523e+00,3.815283775329589844e+00,3.716056346893310547e+00
3.098762989044189453e+00,3.177073717117309570e+00,3.259451150894165039e+00,3.346243143081665039e+00,3.437783718109130859e+00,3.534472942352294922e+00,3.636759281158447266e+00,3.745141983032226562e+00,3.860183477401733398e+00,3.982516288757324219e+00,4.112856388092041016e+00,4.252017021179199219e+00,4.400924205780029297e+00,4.560639858245849609e+00,4.732384681701660156e+00,4.917562007904052734e+00,5.000000000000000000e+00,5.000000000000000000e+00,5.000000000000000000e+00,5.000000000000000000e+00,5.000000000000000000e+00,5.000000000000000000e+00,5.000000000000000000e+00,5.000000000000000000e+00,5.000000000000000000e+00,5.000000000000000000e+00,5.000000000000000000e+00,5.000000000000000000e+00,5.000000000000000000e+00,5.000000000000000000e+00,5.000000000000000000e+00,5.000000000000000000e+00,5.000000000000000000e+00,5.000000000000000000e+00,5.000000000000000000e+00,5.000000000000000000e+00,5.000000000000000000e+00,5.000000000000000000e+00,5.000000000000000000e+00,5.000000000000000000e+00,5.000000000000000000e+00,5.000000000000000000e+00,5.000000000000000000e+00,5.000000000000000000e+00,5.000000000000000000e+00,5.000000000000000000e+00,5.000000000000000000e+00,5.000000000000000000e+00,5.000000000000000000e+00,3.782121419906616211e+00,3.757855415344238281e+00,3.737299680709838867e+00,3.687642335891723633e+00,3.685248136520385742e+00,3.679157257080078125e+00,3.835289478302001953e+00,3.827174425125122070e+00,5.000000000000000000e+00,5.000000000000000000e+00,5.000000000000000000e+00,5.000000000000000000e+00,5.000000000000000000e+00,5.000000000000000000e+00,5.000000000000000000e+00,5.000000000000000000e+00,5.000000000000000000e+00,5.000000000000000000e+00,5.000000000000000000e+00,5.000000000000000000e+00,5.000000000000000000e+00,4.851872444152832031e+00,4.692527294158935547e+00,4.543315410614013672e+00,4.403300285339355469e+00,4.271656990051269531e+00,4.147656917572021484e+00,4.030652523040771484e+00,3.920068740844726562e+00,3.815390586853027344e+00,3.716157197952270508e+00
3.098762989044189453e+00,3.177073717117309570e+00,3.259445190429687500e+00,3.346201658248901367e+00,3.437702894210815430e+00,3.534388065338134766e+00,3.636669397354125977e+00,3.745046377182006836e+00,3.860081672668457031e+00,3.982408046722412109e+00,4.112740993499755859e+00,4.251893997192382812e+00,4.400792121887207031e+00,4.560498237609863281e+00,4.732232093811035156e+00,4.917405605316162109e+00,5.000000000000000000e+00,5.000000000000000000e+00,5.000000000000000000e+00,5.000000000000000000e+00,5.000000000000000000e+00,5.000000000000000000e+00,5.000000000000000000e+00,5.000000000000000000e+00,5.000000000000000000e+00,5.000000000000000000e+00,5.000000000000000000e+00,5.000000000000000000e+00,5.000000000000000000e+00,5.000000000000000000e+00,5.000000000000000000e+00,5.000000000000000000e+00,5.000000000000000000e+00,5.000000000000000000e+00,5.000000000000000000e+00,5.000000000000000000e+00,5.000000000000000000e+00,5.000000000000000000e+00,5.000000000000000000e+00,5.000000000000000000e+00,5.000000000000000000e+00,5.000000000000000000e+00,5.000000000000000000e+00,5.000000000000000000e+00,5.000000000000000000e+00,5.000000000000000000e+00,5.000000000000000000e+00,5.000000000000000000e+00,5.000000000000000000e+00,3.763340473175048828e+00,3.745512485504150391e+00,3.737696647644042969e+00,3.697029829025268555e+00,3.679786205291748047e+00,3.696423768997192383e+00,3.778699159622192383e+00,3.823127031326293945e+00,5.000000000000000000e+00,5.000000000000000000e+00,5.000000000000000000e+00,5.000000000000000000e+00,5.000000000000000000e+00,5.000000000000000000e+00,5.000000000000000000e+00,5.000000000000000000e+00,5.000000000000000000e+00,5.000000000000000000e+00,5.000000000000000000e+00,5.000000000000000000e+00,5.000000000000000000e+00,4.852045059204101562e+00,4.692688465118408203e+00,4.543466567993164062e+00,4.403442382812500000e+00,4.271790981292724609e+00,4.147782802581787109e+00,4.030771255493164062e+00,3.920181274414062500e+00,3.815497159957885742e+00,3.716258287429809570e+00
3.098762989044189453e+00,3.177073717117309570e+00,3.259445190429687500e+00,3.346201658248901367e+00,3.437702655792236328e+00,3.534348726272583008e+00,3.636585712432861328e+00,3.744951009750366211e+00,3.859980344772338867e+00,3.982299804687500000e+00,4.112625598907470703e+00,4.251770496368408203e+00,4.400660514831542969e+00,4.560356616973876953e+00,4.732079029083251953e+00,4.917240619659423828e+00,5.000000000000000000e+00,5.000000000000000000e+00,5.000000000000000000e+00,5.000000000000000000e+00,5.000000000000000000e+00,5.000000000000000000e+00,5.000000000000000000e+00,5.000000000000000000e+00,5.000000000000000000e+00,5.000000000000000000e+00,5.000000000000000000e+00,5.000000000000000000e+00,5.000000000000000000e+00,5.000000000000000000e+00,5.000000000000000000e+00,5.000000000000000000e+00,5.000000000000000000e+00,5.000000000000000000e+00,5.000000000000000000e+00,5.000000000000000000e+00,5.000000000000000000e+00,5.000000000000000000e+00,5.000000000000000000e+00,5.000000000000000000e+00,5.000000000000000000e+00,5.000000000000000000e+00,5.000000000000000000e+00,5.000000000000000000e+00,5.000000000000000000e+00,5.000000000000000000e+00,5.000000000000000000e+00,5.000000000000000000e+00,5.000000000000000000e+00,3.716181278228759766e+00,3.694572687149047852e+00,3.732627868652343750e+00,3.701893091201782227e+00,3.695530176162719727e+00,3.704950332641601562e+00,3.837440252304077148e+00,3.812836885452270508e+00,5.000000000000000000e+00,5.000000000000000000e+00,5.000000000000000000e+00,5.000000000000000000e+00,5.000000000000000000e+00,5.000000000000000000e+00,5.000000000000000000e+00,5.000000000000000000e+00,5.000000000000000000e+00,5.000000000000000000e+00,5.000000000000000000e+00,5.000000000000000000e+00,5.000000000000000000e+00,4.852217674255371094e+00,4.692849636077880859e+00,4.543618202209472656e+00,4.403584480285644531e+00,4.271924495697021484e+00,4.147908687591552734e+00,4.030890464782714844e+00,3.920293569564819336e+00,3.815603971481323242e+00,3.716359615325927734e+00
3.098704814910888672e+00,3.177044153213500977e+00,3.259445190429687500e+00,3.346201658248901367e+00,3.437702655792236328e+00,3.534348726272583008e+00,3.636585712432861328e+00,3.744913816452026367e+00,3.859894275665283203e+00,3.982192039489746094e+00,4.112510681152343750e+00,4.251646995544433594e+00,4.400527954101562500e+00,4.560214519500732422e+00,4.731926441192626953e+00,4.917076110839843750e+00,5.000000000000000000e+00,5.000000000000000000e+00,5.000000000000000000e+00,5.000000000000000000e+00,5.000000000000000000e+00,5.000000000000000000e+00,5.000000000000000000e+00,5.000000000000000000e+00,5.000000000000000000e+00,5.000000000000000000e+00,5.000000000000000000e+00,5.000000000000000000e+00,5.000000000000000000e+00,5.000000000000000000e+00,5.000000000000000000e+00,5.000000000000000000e+00,5.000000000000000000e+00,5.000000000000000000e+00,5.000000000000000000e+00,5.000000000000000000e+00,5.000000000000000000e+00,5.000000000000000000e+00,5.000000000000000000e+00,5.000000000000000000e+00,5.000000000000000000e+00,5.000000000000000000e+00,5.000000000000000000e+00,5.000000000000000000e+00,5.000000000000000000e+00,5.000000000000000000e+00,5.000000000000000000e+00,5.000000000000000000e+00,5.000000000000000000e+00,3.675077676773071289e+00,3.655501604080200195e+00,3.738698005676269531e+00,3.733629226684570312e+00,3.699217081069946289e+00,3.635180473327636719e+00,3.658360242843627930e+00,3.798997402191162109e+00,5.000000000000000000e+00,5.000000000000000000e+00,5.000000000000000000e+00,5.000000000000000000e+00,5.000000000000000000e+00,5.000000000000000000e+00,5.000000000000000000e+00,5.000000000000000000e+00,5.000000000000000000e+00,5.000000000000000000e+00,5.000000000000000000e+00,5.000000000000000000e+00,5.000000000000000000e+00,4.852390289306640625e+00,4.693011283874511719e+00,4.543768882751464844e+00,4.403726577758789062e+00,4.272058010101318359e+00,4.148035049438476562e+00,4.031009674072265625e+00,3.920406341552734375e+00,3.815710783004760742e+00,3.716460943222045898e+00
3.098639249801635742e+00,3.176975488662719727e+00,3.259375333786010742e+00,3.346163749694824219e+00,3.437699794769287109e+00,3.534348726272583008e+00,3.636585712432861328e+00,3.744913816452026367e+00,3.859894275665283203e+00,3.982158422470092773e+00,4.112421512603759766e+00,4.251523971557617188e+00,4.400395870208740234e+00,4.560072422027587891e+00,4.731773853302001953e+00,4.916911125183105469e+00,5.000000000000000000e+00,5.000000000000000000e+00,5.000000000000000000e+00,5.000000000000000000e+00,5.000000000000000000e+00,5.000000000000000000e+00,5.000000000000000000e+00,5.000000000000000000e+00,5.000000000000000000e+00,5.000000000000000000e+00,5.000000000000000000e+00,5.000000000000000000e+00,5.000000000000000000e+00,5.000000000000000000e+00,5.000000000000000000e+00,5.000000000000000000e+00,5.000000000000000000e+00,5.000000000000000000e+00,5.000000000000000000e+00,5.000000000000000000e+00,5.000000000000000000e+00,5.000000000000000000e+00,5.000000000000000000e+00,5.000000000000000000e+00,5.000000000000000000e+00,5.000000000000000000e+00,5.000000000000000000e+00,5.000000000000000000e+00,5.000000000000000000e+00,5.000000000000000000e+00,5.000000000000000000e+00,5.000000000000000000e+00,5.000000000000000000e+00,3.642583847045898438e+00,3.586574077606201172e+00,3.743243455886840820e+00,3.735492229461669922e+00,3.676402568817138672e+00,3.608640193939208984e+00,3.618976354598999023e+00,3.801413536071777344e+00,5.000000000000000000e+00,5.000000000000000000e+00,5.000000000000000000e+00,5.000000000000000000e+00,5.000000000000000000e+00,5.000000000000000000e+00,5.000000000000000000e+00,5.000000000000000000e+00,5.000000000000000000e+00,5.000000000000000000e+00,5.000000000000000000e+00,5.000000000000000000e+00,5.000000000000000000e+00,4.852562904357910156e+00,4.693172454833984375e+00,4.543920516967773438e+00,4.403868198394775391e+00,4.272192001342773438e+00,4.148160934448242188e+00,4.031128406524658203e+00,3.920518875122070312e+00,3.815817117691040039e+00,3.716562271118164062e+00
3.098573684692382812e+00,3.176906585693359375e+00,3.259302854537963867e+00,3.346087217330932617e+00,3.437619209289550781e+00,3.534299850463867188e+00,3.636575937271118164e+00,3.744913816452026367e+00,3.859894275665283203e+00,3.982158422470092773e+00,4.112421512603759766e+00,4.251495361328125000e+00,4.400304794311523438e+00,4.559930801391601562e+00,4.731620788574218750e+00,4.916746139526367188e+00,5.000000000000000000e+00,5.000000000000000000e+00,5.000000000000000000e+00,5.000000000000000000e+00,5.000000000000000000e+00,5.000000000000000000e+00,5.000000000000000000e+00,5.000000000000000000e+00,5.000000000000000000e+00,5.000000000000000000e+00,5.000000000000000000e+00,5.000000000000000000e+00,5.000000000000000000e+00,5.000000000000000000e+00,5.000000000000000000e+00,5.000000000000000000e+00,5.000000000000000000e+00,5.000000000000000000e+00,5.000000000000000000e+00,5.000000000000000000e+00,5.000000000000000000e+00,5.000000000000000000e+00,5.000000000000000000e+00,5.000000000000000000e+00,5.000000000000000000e+00,5.000000000000000000e+00,5.000000000000000000e+00,5.000000000000000000e+00,5.000000000000000000e+00,5.000000000000000000e+00,5.000000000000000000e+00,5.000000000000000000e+00,5.000000000000000000e+00,3.597889661788940430e+00,5.000000000000000000e+00,3.761316537857055664e+00,3.748310804367065430e+00,3.673044443130493164e+00,3.583976507186889648e+00,3.586508989334106445e+00,3.773733854293823242e+00,5.000000000000000000e+00,5.000000000000000000e+00,5.000000000000000000e+00,5.000000000000000000e+00,5.000000000000000000e+00,5.000000000000000000e+00,5.000000000000000000e+00,5.000000000000000000e+00,5.000000000000000000e+00,5.000000000000000000e+00,5.000000000000000000e+00,5.000000000000000000e+00,5.000000000000000000e+00,4.852735042572021484e+00,4.693334102630615234e+00,4.544071674346923828e+00,4.404010772705078125e+00,4.272325992584228516e+00,4.148286819458007812e+00,4.031247615814208984e+00,3.920631647109985352e+00,3.815923690795898438e+00,3.716663360595703125e+00
3.098508119583129883e+00,3.176837682723999023e+00,3.259230375289916992e+00,3.346010446548461914e+00,3.437538623809814453e+00,3.534214735031127930e+00,3.636485815048217773e+00,3.744852304458618164e+00,3.859875679016113281e+00,3.982158422470092773e+00,4.112421512603759766e+00,4.251495361328125000e+00,4.400304794311523438e+00,4.559909343719482422e+00,4.731527328491210938e+00,4.916581630706787109e+00,5.000000000000000000e+00,5.000000000000000000e+00,5.000000000000000000e+00,5.000000000000000000e+00,5.000000000000000000e+00,5.000000000000000000e+00,5.000000000000000000e+00,5.000000000000000000e+00,5.000000000000000000e+00,5.000000000000000000e+00,5.000000000000000000e+00,5.000000000000000000e+00,5.000000000000000000e+00,5.000000000000000000e+00,5.000000000000000000e+00,5.000000000000000000e+00,5.000000000000000000e+00,5.000000000000000000e+00,5.000000000000000000e+00,5.000000000000000000e+00,5.000000000000000000e+00,5.000000000000000000e+00,5.000000000000000000e+00,5.000000000000000000e+00,5.000000000000000000e+00,5.000000000000000000e+00,5.000000000000000000e+00,5.000000000000000000e+00,5.000000000000000000e+00,5.000000000000000000e+00,5.000000000000000000e+00,5.000000000000000000e+00,5.000000000000000000e+00,5.000000000000000000e+00,5.000000000000000000e+00,3.785148143768310547e+00,3.774678707122802734e+00,5.000000000000000000e+00,3.557364225387573242e+00,3.542451620101928711e+00,3.759287834167480469e+00,5.000000000000000000e+00,5.000000000000000000e+00,5.000000000000000000e+00,5.000000000000000000e+00,5.000000000000000000e+00,5.000000000000000000e+00,5.000000000000000000e+00,5.000000000000000000e+00,5.000000000000000000e+00,5.000000000000000000e+00,5.000000000000000000e+00,5.000000000000000000e+00,5.000000000000000000e+00,4.852907657623291016e+00,4.693495273590087891e+00,4.544222831726074219e+00,4.404152870178222656e+00,4.272459506988525391e+00,4.148413181304931641e+00,4.031366825103759766e+00,3.920744419097900391e+00,3.816030502319335938e+00,3.716763019561767578e+00
3.098442554473876953e+00,3.176768779754638672e+00,3.259157896041870117e+00,3.345934152603149414e+00,3.437457799911499023e+00,3.534129381179809570e+00,3.636395454406738281e+00,3.744756698608398438e+00,3.859773874282836914e+00,3.982080936431884766e+00,4.112392425537109375e+00,4.251495361328125000e+00,4.400304794311523438e+00,4.559909343719482422e+00,4.731527328491210938e+00,4.916568756103515625e+00,5.000000000000000000e+00,5.000000000000000000e+00,5.000000000000000000e+00,5.000000000000000000e+00,5.000000000000000000e+00,5.000000000000000000e+00,5.000000000000000000e+00,5.000000000000000000e+00,5.000000000000000000e+00,5.000000000000000000e+00,5.000000000000000000e+00,5.000000000000000000e+00,5.000000000000000000e+00,5.000000000000000000e+00,5.000000000000000000e+00,5.000000000000000000e+00,5.000000000000000000e+00,5.000000000000000000e+00,5.000000000000000000e+00,5.000000000000000000e+00,5.000000000000000000e+00,5.000000000000000000e+00,5.000000000000000000e+00,5.000000000000000000e+00,5.000000000000000000e+00,5.000000000000000000e+00,5.000000000000000000e+00,5.000000000000000000e+00,5.000000000000000000e+00,5.000000000000000000e+00,5.000000000000000000e+00,5.000000000000000000e+00,5.000000000000000000e+00,5.000000000000000000e+00,5.000000000000000000e+00,3.808891773223876953e+00,3.798064708709716797e+00,5.000000000000000000e+00,3.525737524032592773e+00,3.504404544830322266e+00,5.000000000000000000e+00,5.000000000000000000e+00,5.000000000000000000e+00,5.000000000000000000e+00,5.000000000000000000e+00,5.000000000000000000e+00,5.000000000000000000e+00,5.000000000000000000e+00,5.000000000000000000e+00,5.000000000000000000e+00,5.000000000000000000e+00,5.000000000000000000e+00,5.000000000000000000e+00,5.000000000000000000e+00,4.853080272674560547e+00,4.693656444549560547e+00,4.544374465942382812e+00,4.404294490814208984e+00,4.272593021392822266e+00,4.148539543151855469e+00,4.031485557556152344e+00,3.920850276947021484e+00,3.816123485565185547e+00,3.716845750808715820e+00
3.098376989364624023e+00,3.176699876785278320e+00,3.259085416793823242e+00,3.345857620239257812e+00,3.437377214431762695e+00,3.534044265747070312e+00,3.636305332183837891e+00,3.744660854339599609e+00,3.859672307968139648e+00,3.981972694396972656e+00,4.112277030944824219e+00,4.251398086547851562e+00,4.400261402130126953e+00,4.559909343719482422e+00,4.731527328491210938e+00,4.916568756103515625e+00,5.000000000000000000e+00,5.000000000000000000e+00,5.000000000000000000e+00,5.000000000000000000e+00,5.000000000000000000e+00,5.000000000000000000e+00,5.000000000000000000e+00,5.000000000000000000e+00,5.000000000000000000e+00,5.000000000000000000e+00,5.000000000000000000e+00,5.000000000000000000e+00,5.000000000000000000e+00,5.000000000000000000e+00,5.000000000000000000e+00,5.000000000000000000e+00,5.000000000000000000e+00,5.000000000000000000e+00,5.000000000000000000e+00,5.000000000000000000e+00,5.000000000000000000e+00,5.000000000000000000e+00,5.000000000000000000e+00,5.000000000000000000e+00,5.000000000000000000e+00,5.000000000000000000e+00,5.000000000000000000e+00,5.000000000000000000e+00,5.000000000000000000e+00,5.000000000000000000e+00,5.000000000000000000e+00,5.000000000000000000e+00,5.000000000000000000e+00,5.000000000000000000e+00,5.000000000000000000e+00,3.833177566528320312e+00,3.819916963577270508e+00,5.000000000000000000e+00,3.522175073623657227e+00,3.501414775848388672e+00,5.000000000000000000e+00,5.000000000000000000e+00,5.000000000000000000e+00,5.000000000000000000e+00,5.000000000000000000e+00,5.000000000000000000e+00,5.000000000000000000e+00,5.000000000000000000e+00,5.000000000000000000e+00,5.000000000000000000e+00,5.000000000000000000e+00,5.000000000000000000e+00,5.000000000000000000e+00,5.000000000000000000e+00,4.853252410888671875e+00,4.693818092346191406e+00,4.544525623321533203e+00,4.404437065124511719e+00,4.272721767425537109e+00,4.148652076721191406e+00,4.031584262847900391e+00,3.920942306518554688e+00,3.816210985183715820e+00,3.716928482055664062e+00
3.098311662673950195e+00,3.176630973815917969e+00,3.259012937545776367e+00,3.345781326293945312e+00,3.437296628952026367e+00,3.533958911895751953e+00,3.636214971542358398e+00,3.744565248489379883e+00,3.859570741653442383e+00,3.981864452362060547e+00,4.112161636352539062e+00,4.251274585723876953e+00,4.400129318237304688e+00,4.559786796569824219e+00,4.731466293334960938e+00,4.916568756103515625e+00,5.000000000000000000e+00,5.000000000000000000e+00,5.000000000000000000e+00,5.000000000000000000e+00,5.000000000000000000e+00,5.000000000000000000e+00,5.000000000000000000e+00,5.000000000000000000e+00,5.000000000000000000e+00,5.000000000000000000e+00,5.000000000000000000e+00,5.000000000000000000e+00,5.000000000000000000e+00,5.000000000000000000e+00,5.000000000000000000e+00,5.000000000000000000e+00,5.000000000000000000e+00,5.000000000000000000e+00,5.000000000000000000e+00,5.000000000000000000e+00,5.000000000000000000e+00,5.000000000000000000e+00,5.000000000000000000e+00,5.000000000000000000e+00,5.000000000000000000e+00,5.000000000000000000e+00,5.000000000000000000e+00,5.000000000000000000e+00,5.000000000000000000e+00,5.000000000000000000e+00,5.000000000000000000e+00,5.000000000000000000e+00,5.000000000000000000e+00,5.000000000000000000e+00,5.000000000000000000e+00,3.870398044586181641e+00,3.840869426727294922e+00,5.000000000000000000e+00,3.541495800018310547e+00,3.522023439407348633e+00,5.000000000000000000e+00,5.000000000000000000e+00,5.000000000000000000e+00,5.000000000000000000e+00,5.000000000000000000e+00,5.000000000000000000e+00,5.000000000000000000e+00,5.000000000000000000e+00,5.000000000000000000e+00,5.000000000000000000e+00,5.000000000000000000e+00,5.000000000000000000e+00,5.000000000000000000e+00,5.000000000000000000e+00,4.853425502777099609e+00,4.693976879119873047e+00,4.544664382934570312e+00,4.404557704925537109e+00,4.272831439971923828e+00,4.148755073547363281e+00,4.031681537628173828e+00,3.921034336090087891e+00,3.816298246383666992e+00,3.717011690139770508e+00
3.098246097564697266e+00,3.176562070846557617e+00,3.258940458297729492e+00,3.345705032348632812e+00,3.437216043472290039e+00,3.533873319625854492e+00,3.636124849319458008e+00,3.744469642639160156e+00,3.859468936920166016e+00,3.981756210327148438e+00,4.112046241760253906e+00,4.251151084899902344e+00,4.399997234344482422e+00,4.559644699096679688e+00,4.731313228607177734e+00,4.916414260864257812e+00,5.000000000000000000e+00,5.000000000000000000e+00,5.000000000000000000e+00,5.000000000000000000e+00,5.000000000000000000e+00,5.000000000000000000e+00,5.000000000000000000e+00,5.000000000000000000e+00,5.000000000000000000e+00,5.000000000000000000e+00,5.000000000000000000e+00,5.000000000000000000e+00,5.000000000000000000e+00,5.000000000000000000e+00,5.000000000000000000e+00,5.000000000000000000e+00,5.000000000000000000e+00,5.000000000000000000e+00,5.000000000000000000e+00,5.000000000000000000e+00,5.000000000000000000e+00,5.000000000000000000e+00,5.000000000000000000e+00,5.000000000000000000e+00,5.000000000000000000e+00,5.000000000000000000e+00,5.000000000000000000e+00,5.000000000000000000e+00,5.000000000000000000e+00,5.000000000000000000e+00,5.000000000000000000e+00,5.000000000000000000e+00,5.000000000000000000e+00,5.000000000000000000e+00,5.000000000000000000e+00,3.929138183593750000e+00,3.926598787307739258e+00,5.000000000000000000e+00,3.548940420150756836e+00,3.518341779708862305e+00,5.000000000000000000e+00,5.000000000000000000e+00,5.000000000000000000e+00,5.000000000000000000e+00,5.000000000000000000e+00,5.000000000000000000e+00,5.000000000000000000e+00,5.000000000000000000e+00,5.000000000000000000e+00,5.000000000000000000e+00,5.000000000000000000e+00,5.000000000000000000e+00,5.000000000000000000e+00,5.000000000000000000e+00,4.853575706481933594e+00,4.694108963012695312e+00,4.544787883758544922e+00,4.404674053192138672e+00,4.272940635681152344e+00,4.148858547210693359e+00,4.031779289245605469e+00,3.921126842498779297e+00,3.816385507583618164e+00,3.717094421386718750e+00
3.098180532455444336e+00,3.176493167877197266e+00,3.258867979049682617e+00,3.345628499984741211e+00,3.437135457992553711e+00,3.533788204193115234e+00,3.636034488677978516e+00,3.744373798370361328e+00,3.859367370605468750e+00,3.981647968292236328e+00,4.111930847167968750e+00,4.251028060913085938e+00,4.399865150451660156e+00,4.559502601623535156e+00,4.731160640716552734e+00,4.916249275207519531e+00,5.000000000000000000e+00,5.000000000000000000e+00,5.000000000000000000e+00,5.000000000000000000e+00,5.000000000000000000e+00,5.000000000000000000e+00,5.000000000000000000e+00,5.000000000000000000e+00,5.000000000000000000e+00,5.000000000000000000e+00,5.000000000000000000e+00,5.000000000000000000e+00,5.000000000000000000e+00,5.000000000000000000e+00,5.000000000000000000e+00,5.000000000000000000e+00,5.000000000000000000e+00,5.000000000000000000e+00,5.000000000000000000e+00,5.000000000000000000e+00,5.000000000000000000e+00,5.000000000000000000e+00,5.000000000000000000e+00,5.000000000000000000e+00,5.000000000000000000e+00,5.000000000000000000e+00,5.000000000000000000e+00,5.000000000000000000e+00,5.000000000000000000e+00,5.000000000000000000e+00,5.000000000000000000e+00,5.000000000000000000e+00,5.000000000000000000e+00,5.000000000000000000e+00,5.000000000000000000e+00,3.975430727005004883e+00,3.980148077011108398e+00,5.000000000000000000e+00,3.541180849075317383e+00,3.502501249313354492e+00,5.000000000000000000e+00,5.000000000000000000e+00,5.000000000000000000e+00,5.000000000000000000e+00,5.000000000000000000e+00,5.000000000000000000e+00,5.000000000000000000e+00,5.000000000000000000e+00,5.000000000000000000e+00,5.000000000000000000e+00,5.000000000000000000e+00,5.000000000000000000e+00,5.000000000000000000e+00,5.000000000000000000e+00,4.853716850280761719e+00,4.694241523742675781e+00,4.544911861419677734e+00,4.404790401458740234e+00,4.273050308227539062e+00,4.148961544036865234e+00,4.031877040863037109e+00,3.921219110488891602e+00,3.816473245620727539e+00,3.717177629470825195e+00
3.098114967346191406e+00,3.176424503326416016e+00,3.258795499801635742e+00,3.345552206039428711e+00,3.437054634094238281e+00,3.533702850341796875e+00,3.635944366455078125e+00,3.744278192520141602e+00,3.859265565872192383e+00,3.981539964675903320e+00,4.111815452575683594e+00,4.250904560089111328e+00,4.399733066558837891e+00,4.559360980987548828e+00,4.731008052825927734e+00,4.916084289550781250e+00,5.000000000000000000e+00,5.000000000000000000e+00,5.000000000000000000e+00,5.000000000000000000e+00,5.000000000000000000e+00,5.000000000000000000e+00,5.000000000000000000e+00,5.000000000000000000e+00,5.000000000000000000e+00,5.000000000000000000e+00,5.000000000000000000e+00,5.000000000000000000e+00,5.000000000000000000e+00,5.000000000000000000e+00,5.000000000000000000e+00,5.000000000000000000e+00,5.000000000000000000e+00,5.000000000000000000e+00,5.000000000000000000e+00,5.000000000000000000e+00,5.000000000000000000e+00,5.000000000000000000e+00,5.000000000000000000e+00,5.000000000000000000e+00,5.000000000000000000e+00,5.000000000000000000e+00,5.000000000000000000e+00,5.000000000000000000e+00,5.000000000000000000e+00,5.000000000000000000e+00,5.000000000000000000e+00,5.000000000000000000e+00,5.000000000000000000e+00,5.000000000000000000e+00,5.000000000000000000e+00,4.020566463470458984e+00,4.015074729919433594e+00,5.000000000000000000e+00,3.541703701019287109e+00,3.492052316665649414e+00,5.000000000000000000e+00,5.000000000000000000e+00,5.000000000000000000e+00,5.000000000000000000e+00,5.000000000000000000e+00,5.000000000000000000e+00,5.000000000000000000e+00,5.000000000000000000e+00,5.000000000000000000e+00,5.000000000000000000e+00,5.000000000000000000e+00,5.000000000000000000e+00,5.000000000000000000e+00,5.000000000000000000e+00,4.853857994079589844e+00,4.694373607635498047e+00,4.545035839080810547e+00,4.404906749725341797e+00,4.273159980773925781e+00,4.149065017700195312e+00,4.031974315643310547e+00,3.921311616897583008e+00,3.816560506820678711e+00,3.717260360717773438e+00
3.098049640655517578e+00,3.176355600357055664e+00,3.258723020553588867e+00,3.345475673675537109e+00,3.436974048614501953e+00,3.533617734909057617e+00,3.635854005813598633e+00,3.744182586669921875e+00,3.859163999557495117e+00,3.981431722640991211e+00,4.111700057983398438e+00,4.250781059265136719e+00,4.399600982666015625e+00,4.559218883514404297e+00,4.730854988098144531e+00,4.915919303894042969e+00,5.000000000000000000e+00,5.000000000000000000e+00,5.000000000000000000e+00,5.000000000000000000e+00,5.000000000000000000e+00,5.000000000000000000e+00,5.000000000000000000e+00,5.000000000000000000e+00,5.000000000000000000e+00,5.000000000000000000e+00,5.000000000000000000e+00,5.000000000000000000e+00,5.000000000000000000e+00,5.000000000000000000e+00,5.000000000000000000e+00,5.000000000000000000e+00,5.000000000000000000e+00,5.000000000000000000e+00,5.000000000000000000e+00,5.000000000000000000e+00,5.000000000000000000e+00,5.000000000000000000e+00,5.000000000000000000e+00,5.000000000000000000e+00,5.000000000000000000e+00,5.000000000000000000e+00,5.000000000000000000e+00,5.000000000000000000e+00,5.000000000000000000e+00,5.000000000000000000e+00,5.000000000000000000e+00,5.000000000000000000e+00,5.000000000000000000e+00,5.000000000000000000e+00,5.000000000000000000e+00,4.075009346008300781e+00,4.069624900817871094e+00,5.000000000000000000e+00,3.548609972000122070e+00,3.497564554214477539e+00,5.000000000000000000e+00,5.000000000000000000e+00,5.000000000000000000e+00,5.000000000000000000e+00,5.000000000000000000e+00,5.000000000000000000e+00,5.000000000000000000e+00,5.000000000000000000e+00,5.000000000000000000e+00,5.000000000000000000e+00,5.000000000000000000e+00,5.000000000000000000e+00,5.000000000000000000e+00,5.000000000000000000e+00,4.853999614715576172e+00,4.694505691528320312e+00,4.545160293579101562e+00,4.405023097991943359e+00,4.273269653320312500e+00,4.149168491363525391e+00,4.032072067260742188e+00,3.921403646469116211e+00,3.816648244857788086e+00,3.717343330383300781e+00
3.097984075546264648e+00,3.176286697387695312e+00,3.258650541305541992e+00,3.345399379730224609e+00,3.436893463134765625e+00,3.533532381057739258e+00,3.635763883590698242e+00,3.744086503982543945e+00,3.859062433242797852e+00,3.981323480606079102e+00,4.111584663391113281e+00,4.250658035278320312e+00,4.399468898773193359e+00,4.559077262878417969e+00,4.730702400207519531e+00,4.915754795074462891e+00,5.000000000000000000e+00,5.000000000000000000e+00,5.000000000000000000e+00,5.000000000000000000e+00,5.000000000000000000e+00,5.000000000000000000e+00,5.000000000000000000e+00,5.000000000000000000e+00,5.000000000000000000e+00,5.000000000000000000e+00,5.000000000000000000e+00,5.000000000000000000e+00,5.000000000000000000e+00,5.000000000000000000e+00,5.000000000000000000e+00,5.000000000000000000e+00,5.000000000000000000e+00,5.000000000000000000e+00,5.000000000000000000e+00,5.000000000000000000e+00,5.000000000000000000e+00,5.000000000000000000e+00,5.000000000000000000e+00,5.000000000000000000e+00,5.000000000000000000e+00,5.000000000000000000e+00,5.000000000000000000e+00,5.000000000000000000e+00,5.000000000000000000e+00,5.000000000000000000e+00,5.000000000000000000e+00,5.000000000000000000e+00,5.000000000000000000e+00,5.000000000000000000e+00,5.000000000000000000e+00,5.000000000000000000e+00,5.000000000000000000e+00,5.000000000000000000e+00,5.000000000000000000e+00,3.488801479339599609e+00,5.000000000000000000e+00,5.000000000000000000e+00,5.000000000000000000e+00,5.000000000000000000e+00,5.000000000000000000e+00,5.000000000000000000e+00,5.000000000000000000e+00,5.000000000000000000e+00,5.000000000000000000e+00,5.000000000000000000e+00,5.000000000000000000e+00,5.000000000000000000e+00,5.000000000000000000e+00,5.000000000000000000e+00,4.854141235351562500e+00,4.694637775421142578e+00,4.545283794403076172e+00,4.405139923095703125e+00,4.273379325866699219e+00,4.149271488189697266e+00,4.032169818878173828e+00,3.921495914459228516e+00,3.816735506057739258e+00,3.717426300048828125e+00
3.097918510437011719e+00,3.176217794418334961e+00,3.258578062057495117e+00,3.345323085784912109e+00,3.436812877655029297e+00,3.533447265625000000e+00,3.635673761367797852e+00,3.743990659713745117e+00,3.858960866928100586e+00,3.981215238571166992e+00,4.111469268798828125e+00,4.250534534454345703e+00,4.399336814880371094e+00,4.558935165405273438e+00,4.730549812316894531e+00,4.854303359985351562e+00,4.853110313415527344e+00,4.851917743682861328e+00,4.850725650787353516e+00,4.849534511566162109e+00,4.848343849182128906e+00,4.847153663635253906e+00,4.845964431762695312e+00,4.844775199890136719e+00,4.843586444854736328e+00,4.842399120330810547e+00,4.841211795806884766e+00,4.840024948120117188e+00,4.838839054107666016e+00,4.837653160095214844e+00,4.836468696594238281e+00,4.835284233093261719e+00,4.834100723266601562e+00,4.832917213439941406e+00,4.831734657287597656e+00,4.830552577972412109e+00,4.829370975494384766e+00,4.828190326690673828e+00,4.827010154724121094e+00,4.825830459594726562e+00,4.824651241302490234e+00,4.823472499847412109e+00,4.822295188903808594e+00,4.821117401123046875e+00,4.819941043853759766e+00,4.818764209747314453e+00,4.817588806152343750e+00,4.816413879394531250e+00,4.815238952636718750e+00,4.814065456390380859e+00,4.812891960144042969e+00,4.098613739013671875e+00,4.036888122558593750e+00,4.809374809265136719e+00,4.808204174041748047e+00,3.337539196014404297e+00,4.805863380432128906e+00,4.804694175720214844e+00,4.803524971008300781e+00,4.802357196807861328e+00,4.801189422607421875e+00,4.800022125244140625e+00,4.798855781555175781e+00,4.797689437866210938e+00,4.796524524688720703e+00,4.795359611511230469e+00,4.794195175170898438e+00,4.793031692504882812e+00,4.791868209838867188e+00,4.790705680847167969e+00,4.789543628692626953e+00,4.694770336151123047e+00,4.545407772064208984e+00,4.405255794525146484e+00,4.273488998413085938e+00,4.149374961853027344e+00,4.032267093658447266e+00,3.921588420867919922e+00,3.816822767257690430e+00,3.717509269714355469e+00
3.097852945327758789e+00,3.176148891448974609e+00,3.258505582809448242e+00,3.345246553421020508e+00,3.436732292175292969e+00,3.533361911773681641e+00,3.635583400726318359e+00,3.743895053863525391e+00,3.770723104476928711e+00,3.770003318786621094e+00,3.769283771514892578e+00,3.768563985824584961e+00,3.767845153808593750e+00,3.767126321792602539e+00,3.766407966613769531e+00,3.765689373016357422e+00,3.764971494674682617e+00,3.764253854751586914e+00,3.763536214828491211e+00,3.762819051742553711e+00,3.762102365493774414e+00,3.761385440826416016e+00,3.760669231414794922e+00,3.759953260421752930e+00,3.759237527847290039e+00,3.758521795272827148e+00,3.757806539535522461e+00,3.757091760635375977e+00,3.756376743316650391e+00,3.755662441253662109e+00,3.754948377609252930e+00,3.754234075546264648e+00,3.753520488739013672e+00,3.752807378768920898e+00,3.752094268798828125e+00,3.751381158828735352e+00,3.750668764114379883e+00,3.749956607818603516e+00,3.749244213104248047e+00,3.748532533645629883e+00,3.747821331024169922e+00,3.747110128402709961e+00,3.746398925781250000e+00,3.745688438415527344e+00,3.744978189468383789e+00,3.744267702102661133e+00,3.743557929992675781e+00,3.742848634719848633e+00,3.742138862609863281e+00,3.741430044174194336e+00,3.740721464157104492e+00,3.740013122558593750e+00,3.739304542541503906e+00,3.738596677780151367e+00,3.737889051437377930e+00,3.519137859344482422e+00,3.736474275588989258e+00,3.735767602920532227e+00,3.735060691833496094e+00,3.734354257583618164e+00,3.733648300170898438e+00,3.732942581176757812e+00,3.732236862182617188e+00,3.731531620025634766e+00,3.730826616287231445e+00,3.730121612548828125e+00,3.729417324066162109e+00,3.728713035583496094e+00,3.728009223937988281e+00,3.727305173873901367e+00,3.726601839065551758e+00,3.725898981094360352e+00,3.725195646286010742e+00,3.724493026733398438e+00,3.723790884017944336e+00,3.723088502883911133e+00,3.722386837005615234e+00,3.721685171127319336e+00,3.720983982086181641e+00,3.717592000961303711e+00
3.083100318908691406e+00,3.082619190216064453e+00,3.082138061523437500e+00,3.081656932830810547e+00,3.081176042556762695e+00,3.080695390701293945e+00,3.080214977264404297e+00,3.079734325408935547e+00,3.079254150390625000e+00,3.078774213790893555e+00,3.078294277191162109e+00,3.077814579010009766e+00,3.077334642410278320e+00,3.076855182647705078e+00,3.076375961303710938e+00,3.075896739959716797e+00,3.075417757034301758e+00,3.074938774108886719e+00,3.074460029602050781e+00,3.073981523513793945e+00,3.073502779006958008e+00,3.073024511337280273e+00,3.072546482086181641e+00,3.072068214416503906e+00,3.071590423583984375e+00,3.071112871170043945e+00,3.070635318756103516e+00,3.070157766342163086e+00,3.069680452346801758e+00,3.069203376770019531e+00,3.068726301193237305e+00,3.068249464035034180e+00,3.067772865295410156e+00,3.067296504974365234e+00,3.066819906234741211e+00,3.066343784332275391e+00,3.065867662429809570e+00,3.065391540527343750e+00,3.064915895462036133e+00,3.064440250396728516e+00,3.063964605331420898e+00,3.063489437103271484e+00,3.063014268875122070e+00,3.062539339065551758e+00,3.062064170837402344e+00,3.061589479446411133e+00,3.061115026473999023e+00,3.060640335083007812e+00,3.060166120529174805e+00,3.059691905975341797e+00,3.059217691421508789e+00,3.058743953704833984e+00,3.058270215988159180e+00,3.057796716690063477e+00,3.057322978973388672e+00,3.056849956512451172e+00,3.056376695632934570e+00,3.055903673171997070e+00,3.055430889129638672e+00,3.054958105087280273e+00,3.054485559463500977e+00,3.054013013839721680e+00,3.053540945053100586e+00,3.053068876266479492e+00,3.052596569061279297e+00,3.052124738693237305e+00,3.051653146743774414e+00,3.051181554794311523e+00,3.050710201263427734e+00,3.050239086151123047e+00,3.049767971038818359e+00,3.049296855926513672e+00,3.048825979232788086e+00,3.048355579376220703e+00,3.047884702682495117e+00,3.047414541244506836e+00,3.046944379806518555e+00,3.046473979949951172e+00,3.046004295349121094e+00,3.045534610748291016e+00
2.604833602905273438e+00,2.604490041732788086e+00,2.604146718978881836e+00,2.603803396224975586e+00,2.603459835052490234e+00,2.603116750717163086e+00,2.602773666381835938e+00,2.602430582046508789e+00,2.602087497711181641e+00,2.601744890213012695e+00,2.601402044296264648e+00,2.601059436798095703e+00,2.600716829299926758e+00,2.600374221801757812e+00,2.600032091140747070e+00,2.599689722061157227e+00,2.599347591400146484e+00,2.599005222320556641e+00,2.598663330078125000e+00,2.598321437835693359e+00,2.597979545593261719e+00,2.597637891769409180e+00,2.597295999526977539e+00,2.596954584121704102e+00,2.596613168716430664e+00,2.596271753311157227e+00,2.595930337905883789e+00,2.595589160919189453e+00,2.595247983932495117e+00,2.594906806945800781e+00,2.594565868377685547e+00,2.594225168228149414e+00,2.593884229660034180e+00,2.593543529510498047e+00,2.593203067779541016e+00,2.592862606048583984e+00,2.592521905899047852e+00,2.592181682586669922e+00,2.591841459274291992e+00,2.591501235961914062e+00,2.591161251068115234e+00,2.590821266174316406e+00,2.590481281280517578e+00,2.590141534805297852e+00,2.589801788330078125e+00,2.589462280273437500e+00,2.589122772216796875e+00,2.588783264160156250e+00,2.588443994522094727e+00,2.588104486465454102e+00,2.587765455245971680e+00,2.587426424026489258e+00,2.587087392807006836e+00,2.586748361587524414e+00,2.586409807205200195e+00,2.586071014404296875e+00,2.585732221603393555e+00,2.585393667221069336e+00,2.585055351257324219e+00,2.584716796875000000e+00,2.584378719329833984e+00,2.584040403366088867e+00,2.583702325820922852e+00,2.583364248275756836e+00,2.583026409149169922e+00,2.582688570022583008e+00,2.582350730895996094e+00,2.582013130187988281e+00,2.581675529479980469e+00,2.581337928771972656e+00,2.581000566482543945e+00,2.580663442611694336e+00,2.580326080322265625e+00,2.579988956451416016e+00,2.579651832580566406e+00,2.579314947128295898e+00,2.578978061676025391e+00,2.578641176223754883e+00,2.578304529190063477e+00,2.577968120574951172e+00
2.255022525787353516e+00,2.254765272140502930e+00,2.254507780075073242e+00,2.254250526428222656e+00,2.253993034362792969e+00,2.253735780715942383e+00,2.253478765487670898e+00,2.253221511840820312e+00,2.252964258193969727e+00,2.252707481384277344e+00,2.252450466156005859e+00,2.252193689346313477e+00,2.251936912536621094e+00,2.251679897308349609e+00,2.251423120498657227e+00,2.251166582107543945e+00,2.250910043716430664e+00,2.250653266906738281e+00,2.250396966934204102e+00,2.250140428543090820e+00,2.249884128570556641e+00,2.249627828598022461e+00,2.249371528625488281e+00,2.249115467071533203e+00,2.248859167098999023e+00,2.248603105545043945e+00,2.248347282409667969e+00,2.248091220855712891e+00,2.247835397720336914e+00,2.247579574584960938e+00,2.247323751449584961e+00,2.247067928314208984e+00,2.246812343597412109e+00,2.246556758880615234e+00,2.246300935745239258e+00,2.246045589447021484e+00,2.245790004730224609e+00,2.245534658432006836e+00,2.245279312133789062e+00,2.245023965835571289e+00,2.244768857955932617e+00,2.244513511657714844e+00,2.244258642196655273e+00,2.244003534317016602e+00,2.243748664855957031e+00,2.243493556976318359e+00,2.243238687515258789e+00,2.242984056472778320e+00,2.242729187011718750e+00,2.242474555969238281e+00,2.242219924926757812e+00,2.241965293884277344e+00,2.241710662841796875e+00,2.241456270217895508e+00,2.241201877593994141e+00,2.240947484970092773e+00,2.240693330764770508e+00,2.240438938140869141e+00,2.240184783935546875e+00,2.239930629730224609e+00,2.239676713943481445e+00,2.239422559738159180e+00,2.239168643951416016e+00,2.238914728164672852e+00,2.238661050796508789e+00,2.238407135009765625e+00,2.238153457641601562e+00,2.237899780273437500e+00,2.237646102905273438e+00,2.237392663955688477e+00,2.237139225006103516e+00,2.236885786056518555e+00,2.236632347106933594e+00,2.236379146575927734e+00,2.236125946044921875e+00,2.235872507095336914e+00,2.235619306564331055e+00,2.235366344451904297e+00,2.235113143920898438e+00,2.234860420227050781e+00
1.988042473793029785e+00,1.987842202186584473e+00,1.987642288208007812e+00,1.987442135810852051e+00,1.987242341041564941e+00,1.987042307853698730e+00,1.986842274665832520e+00,1.986642479896545410e+00,1.986442565917968750e+00,1.986242651939392090e+00,1.986043095588684082e+00,1.985843300819396973e+00,1.985643744468688965e+00,1.985443949699401855e+00,1.985244274139404297e+00,1.985044836997985840e+00,1.984845280647277832e+00,1.984645962715148926e+00,1.984446406364440918e+00,1.984246850013732910e+00,1.984047651290893555e+00,1.983848214149475098e+00,1.983648896217346191e+00,1.983449816703796387e+00,1.983250498771667480e+00,1.983051419258117676e+00,1.982852220535278320e+00,1.982653021812438965e+00,1.982454180717468262e+00,1.982255101203918457e+00,1.982056260108947754e+00,1.981857180595397949e+00,1.981658458709716797e+00,1.981459617614746094e+00,1.981260657310485840e+00,1.981062054634094238e+00,1.980863213539123535e+00,1.980664491653442383e+00,1.980466008186340332e+00,1.980267286300659180e+00,1.980068564414978027e+00,1.979870200157165527e+00,1.979671597480773926e+00,1.979473114013671875e+00,1.979274868965148926e+00,1.979076385498046875e+00,1.978878140449523926e+00,1.978679776191711426e+00,1.978481411933898926e+00,1.978283405303955078e+00,1.978085160255432129e+00,1.977886915206909180e+00,1.977688908576965332e+00,1.977490782737731934e+00,1.977292656898498535e+00,1.977094888687133789e+00,1.976896882057189941e+00,1.976698875427246094e+00,1.976501226425170898e+00,1.976303219795227051e+00,1.976105451583862305e+00,1.975907802581787109e+00,1.975710034370422363e+00,1.975512504577636719e+00,1.975314736366271973e+00,1.975117087364196777e+00,1.974919795989990234e+00,1.974722146987915039e+00,1.974524617195129395e+00,1.974327325820922852e+00,1.974129915237426758e+00,1.973932385444641113e+00,1.973735332489013672e+00,1.973537921905517578e+00,1.973340630531311035e+00,1.973143577575683594e+00,1.972946405410766602e+00,1.972749114036560059e+00,1.972552180290222168e+00,1.972355127334594727e+00
1.777587532997131348e+00,1.777427434921264648e+00,1.777267575263977051e+00,1.777107596397399902e+00,1.776947736740112305e+00,1.776787877082824707e+00,1.776627898216247559e+00,1.776468157768249512e+00,1.776308298110961914e+00,1.776148676872253418e+00,1.775988817214965820e+00,1.775829076766967773e+00,1.775669455528259277e+00,1.775509715080261230e+00,1.775350093841552734e+00,1.775190591812133789e+00,1.775030970573425293e+00,1.774871468544006348e+00,1.774711966514587402e+00,1.774552345275878906e+00,1.774393081665039062e+00,1.774233579635620117e+00,1.774074196815490723e+00,1.773914813995361328e+00,1.773755431175231934e+00,1.773596167564392090e+00,1.773436784744262695e+00,1.773277521133422852e+00,1.773118376731872559e+00,1.772959113121032715e+00,1.772800087928771973e+00,1.772640824317932129e+00,1.772481679916381836e+00,1.772322654724121094e+00,1.772163629531860352e+00,1.772004604339599609e+00,1.771845579147338867e+00,1.771686673164367676e+00,1.771527767181396484e+00,1.771368741989135742e+00,1.771209955215454102e+00,1.771051049232482910e+00,1.770892143249511719e+00,1.770733475685119629e+00,1.770574569702148438e+00,1.770415782928466797e+00,1.770257115364074707e+00,1.770098447799682617e+00,1.769939899444580078e+00,1.769781112670898438e+00,1.769622445106506348e+00,1.769464015960693359e+00,1.769305467605590820e+00,1.769146800041198730e+00,1.768988490104675293e+00,1.768829941749572754e+00,1.768671393394470215e+00,1.768513083457946777e+00,1.768354654312133789e+00,1.768196225166320801e+00,1.768038034439086914e+00,1.767879724502563477e+00,1.767721414566040039e+00,1.767563223838806152e+00,1.767405033111572266e+00,1.767246961593627930e+00,1.767088651657104492e+00,1.766930460929870605e+00,1.766772508621215820e+00,1.766614437103271484e+00,1.766456365585327148e+00,1.766298413276672363e+00,1.766140341758728027e+00,1.765982389450073242e+00,1.765824556350708008e+00,1.765666604042053223e+00,1.765508651733398438e+00,1.765350937843322754e+00,1.765193104743957520e+00,1.765035271644592285e+00
1.607424974441528320e+00,1.607293963432312012e+00,1.607163310050964355e+00,1.607032418251037598e+00,1.606901764869689941e+00,1.606770992279052734e+00,1.606640219688415527e+00,1.606509566307067871e+00,1.606378793716430664e+00,1.606248259544372559e+00,1.606117486953735352e+00,1.605986833572387695e+00,1.605856299400329590e+00,1.605725646018981934e+00,1.605595111846923828e+00,1.605464696884155273e+00,1.605334043502807617e+00,1.605203628540039062e+00,1.605073094367980957e+00,1.604942560195922852e+00,1.604812264442443848e+00,1.604681849479675293e+00,1.604551553726196289e+00,1.604421138763427734e+00,1.604290723800659180e+00,1.604160428047180176e+00,1.604030132293701172e+00,1.603899836540222168e+00,1.603769540786743164e+00,1.603639245033264160e+00,1.603509187698364258e+00,1.603378891944885254e+00,1.603248596191406250e+00,1.603118538856506348e+00,1.602988362312316895e+00,1.602858304977416992e+00,1.602728247642517090e+00,1.602598071098327637e+00,1.602468132972717285e+00,1.602338075637817383e+00,1.602208137512207031e+00,1.602078080177307129e+00,1.601948142051696777e+00,1.601818203926086426e+00,1.601688265800476074e+00,1.601558446884155273e+00,1.601428508758544922e+00,1.601298689842224121e+00,1.601168751716613770e+00,1.601038932800292969e+00,1.600909233093261719e+00,1.600779414176940918e+00,1.600649595260620117e+00,1.600519895553588867e+00,1.600390195846557617e+00,1.600260376930236816e+00,1.600130796432495117e+00,1.600001096725463867e+00,1.599871397018432617e+00,1.599741816520690918e+00,1.599612236022949219e+00,1.599482655525207520e+00,1.599353194236755371e+00,1.599223613739013672e+00,1.599094033241271973e+00,1.598964571952819824e+00,1.598835110664367676e+00,1.598705768585205078e+00,1.598576307296752930e+00,1.598446846008300781e+00,1.598317503929138184e+00,1.598188161849975586e+00,1.598058700561523438e+00,1.597929477691650391e+00,1.597800135612487793e+00,1.597670793533325195e+00,1.597541689872741699e+00,1.597412347793579102e+00,1.597283124923706055e+00,1.597154021263122559e+00
1.466994404792785645e+00,1.466885447502136230e+00,1.466776490211486816e+00,1.466667413711547852e+00,1.466558575630187988e+00,1.466449618339538574e+00,1.466340661048889160e+00,1.466231942176818848e+00,1.466122984886169434e+00,1.466014266014099121e+00,1.465905308723449707e+00,1.465796470642089844e+00,1.465687751770019531e+00,1.465578913688659668e+00,1.465470194816589355e+00,1.465361475944519043e+00,1.465252637863159180e+00,1.465144038200378418e+00,1.465035200119018555e+00,1.464926481246948242e+00,1.464817881584167480e+00,1.464709281921386719e+00,1.464600682258605957e+00,1.464491963386535645e+00,1.464383363723754883e+00,1.464274883270263672e+00,1.464166164398193359e+00,1.464057683944702148e+00,1.463949203491210938e+00,1.463840603828430176e+00,1.463732123374938965e+00,1.463623642921447754e+00,1.463515043258666992e+00,1.463406682014465332e+00,1.463298201560974121e+00,1.463189840316772461e+00,1.463081359863281250e+00,1.462972998619079590e+00,1.462864637374877930e+00,1.462756276130676270e+00,1.462648034095764160e+00,1.462539553642272949e+00,1.462431192398071289e+00,1.462323069572448730e+00,1.462214708328247070e+00,1.462106466293334961e+00,1.461998224258422852e+00,1.461890101432800293e+00,1.461781740188598633e+00,1.461673736572265625e+00,1.461565494537353516e+00,1.461457252502441406e+00,1.461349129676818848e+00,1.461241006851196289e+00,1.461132764816284180e+00,1.461024761199951172e+00,1.460916638374328613e+00,1.460808515548706055e+00,1.460700511932373047e+00,1.460592389106750488e+00,1.460484385490417480e+00,1.460376381874084473e+00,1.460268378257751465e+00,1.460160374641418457e+00,1.460052490234375000e+00,1.459944486618041992e+00,1.459836483001708984e+00,1.459728717803955078e+00,1.459620714187622070e+00,1.459512948989868164e+00,1.459404945373535156e+00,1.459297060966491699e+00,1.459189295768737793e+00,1.459081530570983887e+00,1.458973646163940430e+00,1.458865880966186523e+00,1.458758115768432617e+00,1.458650350570678711e+00,1.458542585372924805e+00,1.458434820175170898e+00
1.349129438400268555e+00,1.349037289619445801e+00,1.348945140838623047e+00,1.348852872848510742e+00,1.348760843276977539e+00,1.348668694496154785e+00,1.348576664924621582e+00,1.348484516143798828e+00,1.348392367362976074e+00,1.348300337791442871e+00,1.348208308219909668e+00,1.348116159439086914e+00,1.348024249076843262e+00,1.347932219505310059e+00,1.347840309143066406e+00,1.347748279571533203e+00,1.347656250000000000e+00,1.347564339637756348e+00,1.347472310066223145e+00,1.347380399703979492e+00,1.347288489341735840e+00,1.347196578979492188e+00,1.347104668617248535e+00,1.347012758255004883e+00,1.346920847892761230e+00,1.346829056739807129e+00,1.346737146377563477e+00,1.346645355224609375e+00,1.346553564071655273e+00,1.346461653709411621e+00,1.346369862556457520e+00,1.346278071403503418e+00,1.346186399459838867e+00,1.346094608306884766e+00,1.346002817153930664e+00,1.345911145210266113e+00,1.345819354057312012e+00,1.345727562904357910e+00,1.345635890960693359e+00,1.345544219017028809e+00,1.345452547073364258e+00,1.345360875129699707e+00,1.345269203186035156e+00,1.345177650451660156e+00,1.345085978507995605e+00,1.344994425773620605e+00,1.344902753829956055e+00,1.344811081886291504e+00,1.344719648361206055e+00,1.344627976417541504e+00,1.344536423683166504e+00,1.344444870948791504e+00,1.344353437423706055e+00,1.344261884689331055e+00,1.344170451164245605e+00,1.344078898429870605e+00,1.343987345695495605e+00,1.343896031379699707e+00,1.343804478645324707e+00,1.343713045120239258e+00,1.343621611595153809e+00,1.343530178070068359e+00,1.343438744544982910e+00,1.343347430229187012e+00,1.343255996704101562e+00,1.343164563179016113e+00,1.343073248863220215e+00,1.342981934547424316e+00,1.342890620231628418e+00,1.342799305915832520e+00,1.342707991600036621e+00,1.342616677284240723e+00,1.342525362968444824e+00,1.342434048652648926e+00,1.342342853546142578e+00,1.342251539230346680e+00,1.342160344123840332e+00,1.342069149017333984e+00,1.341977953910827637e+00,1.341886639595031738e+00
1.248795509338378906e+00,1.248716592788696289e+00,1.248637676239013672e+00,1.248558640480041504e+00,1.248479723930358887e+00,1.248400807380676270e+00,1.248322010040283203e+00,1.248242974281311035e+00,1.248164057731628418e+00,1.248085260391235352e+00,1.248006343841552734e+00,1.247927546501159668e+00,1.247848629951477051e+00,1.247769713401794434e+00,1.247690916061401367e+00,1.247612118721008301e+00,1.247533202171325684e+00,1.247454524040222168e+00,1.247375607490539551e+00,1.247296929359436035e+00,1.247218132019042969e+00,1.247139334678649902e+00,1.247060537338256836e+00,1.246981739997863770e+00,1.246903061866760254e+00,1.246824383735656738e+00,1.246745586395263672e+00,1.246666908264160156e+00,1.246588230133056641e+00,1.246509432792663574e+00,1.246430873870849609e+00,1.246352195739746094e+00,1.246273517608642578e+00,1.246194839477539062e+00,1.246116161346435547e+00,1.246037602424621582e+00,1.245958924293518066e+00,1.245880365371704102e+00,1.245801806449890137e+00,1.245723128318786621e+00,1.245644569396972656e+00,1.245566010475158691e+00,1.245487451553344727e+00,1.245408892631530762e+00,1.245330333709716797e+00,1.245251893997192383e+00,1.245173335075378418e+00,1.245094776153564453e+00,1.245016336441040039e+00,1.244937777519226074e+00,1.244859337806701660e+00,1.244780898094177246e+00,1.244702339172363281e+00,1.244623899459838867e+00,1.244545459747314453e+00,1.244467020034790039e+00,1.244388580322265625e+00,1.244310259819030762e+00,1.244231820106506348e+00,1.244153499603271484e+00,1.244075059890747070e+00,1.243996739387512207e+00,1.243918418884277344e+00,1.243839979171752930e+00,1.243761658668518066e+00,1.243683338165283203e+00,1.243605017662048340e+00,1.243526577949523926e+00,1.243448376655578613e+00,1.243370056152343750e+00,1.243291854858398438e+00,1.243213534355163574e+00,1.243135213851928711e+00,1.243057012557983398e+00,1.242978692054748535e+00,1.242900490760803223e+00,1.242822289466857910e+00,1.242744088172912598e+00,1.242665767669677734e+00,1.242587685585021973e+00
1.162352204322814941e+00,1.162283897399902344e+00,1.162215471267700195e+00,1.162147045135498047e+00,1.162078619003295898e+00,1.162010192871093750e+00,1.161941885948181152e+00,1.161873459815979004e+00,1.161805152893066406e+00,1.161736845970153809e+00,1.161668419837951660e+00,1.161600112915039062e+00,1.161531805992126465e+00,1.161463499069213867e+00,1.161395192146301270e+00,1.161326885223388672e+00,1.161258578300476074e+00,1.161190271377563477e+00,1.161121964454650879e+00,1.161053776741027832e+00,1.160985469818115234e+00,1.160917162895202637e+00,1.160848975181579590e+00,1.160780668258666992e+00,1.160712480545043945e+00,1.160644292831420898e+00,1.160575985908508301e+00,1.160507917404174805e+00,1.160439610481262207e+00,1.160371541976928711e+00,1.160303235054016113e+00,1.160235047340393066e+00,1.160166978836059570e+00,1.160098791122436523e+00,1.160030603408813477e+00,1.159962534904479980e+00,1.159894347190856934e+00,1.159826278686523438e+00,1.159758090972900391e+00,1.159689903259277344e+00,1.159621953964233398e+00,1.159553766250610352e+00,1.159485697746276855e+00,1.159417629241943359e+00,1.159349560737609863e+00,1.159281492233276367e+00,1.159213423728942871e+00,1.159145355224609375e+00,1.159077405929565430e+00,1.159009337425231934e+00,1.158941268920898438e+00,1.158873319625854492e+00,1.158805251121520996e+00,1.158737301826477051e+00,1.158669233322143555e+00,1.158601284027099609e+00,1.158533334732055664e+00,1.158465266227722168e+00,1.158397436141967773e+00,1.158329486846923828e+00,1.158261537551879883e+00,1.158193588256835938e+00,1.158125638961791992e+00,1.158057808876037598e+00,1.157989859580993652e+00,1.157922029495239258e+00,1.157854080200195312e+00,1.157786250114440918e+00,1.157718300819396973e+00,1.157650351524353027e+00,1.157582640647888184e+00,1.157514691352844238e+00,1.157446861267089844e+00,1.157379031181335449e+00,1.157311201095581055e+00,1.157243371009826660e+00,1.157175540924072266e+00,1.157107710838317871e+00,1.157039999961853027e+00,1.156972169876098633e+00
1.087101578712463379e+00,1.087041735649108887e+00,1.086981892585754395e+00,1.086922049522399902e+00,1.086862206459045410e+00,1.086802363395690918e+00,1.086742639541625977e+00,1.086682796478271484e+00,1.086622953414916992e+00,1.086563229560852051e+00,1.086503386497497559e+00,1.086443662643432617e+00,1.086383819580078125e+00,1.086324095726013184e+00,1.086264371871948242e+00,1.086204528808593750e+00,1.086144924163818359e+00,1.086085081100463867e+00,1.086025357246398926e+00,1.085965633392333984e+00,1.085905909538269043e+00,1.085846304893493652e+00,1.085786581039428711e+00,1.085726857185363770e+00,1.085667133331298828e+00,1.085607409477233887e+00,1.085547685623168945e+00,1.085488080978393555e+00,1.085428476333618164e+00,1.085368752479553223e+00,1.085309147834777832e+00,1.085249423980712891e+00,1.085189819335937500e+00,1.085130214691162109e+00,1.085070610046386719e+00,1.085011005401611328e+00,1.084951281547546387e+00,1.084891796112060547e+00,1.084832191467285156e+00,1.084772467613220215e+00,1.084712982177734375e+00,1.084653377532958984e+00,1.084593772888183594e+00,1.084534168243408203e+00,1.084474682807922363e+00,1.084415078163146973e+00,1.084355592727661133e+00,1.084296107292175293e+00,1.084236502647399902e+00,1.084176898002624512e+00,1.084117412567138672e+00,1.084057927131652832e+00,1.083998322486877441e+00,1.083938956260681152e+00,1.083879351615905762e+00,1.083819985389709473e+00,1.083760499954223633e+00,1.083700895309448242e+00,1.083641529083251953e+00,1.083582043647766113e+00,1.083522558212280273e+00,1.083463191986083984e+00,1.083403706550598145e+00,1.083344221115112305e+00,1.083284854888916016e+00,1.083225369453430176e+00,1.083166003227233887e+00,1.083106517791748047e+00,1.083047151565551758e+00,1.082987785339355469e+00,1.082928419113159180e+00,1.082869052886962891e+00,1.082809686660766602e+00,1.082750320434570312e+00,1.082690954208374023e+00,1.082631587982177734e+00,1.082572221755981445e+00,1.082512855529785156e+00,1.082453489303588867e+00,1.082394123077392578e+00
1.021001815795898438e+00,1.020949125289916992e+00,1.020896315574645996e+00,1.020843625068664551e+00,1.020790815353393555e+00,1.020738005638122559e+00,1.020685315132141113e+00,1.020632505416870117e+00,1.020579814910888672e+00,1.020527005195617676e+00,1.020474195480346680e+00,1.020421504974365234e+00,1.020368814468383789e+00,1.020316004753112793e+00,1.020263433456420898e+00,1.020210623741149902e+00,1.020157933235168457e+00,1.020105242729187012e+00,1.020052552223205566e+00,1.019999861717224121e+00,1.019947171211242676e+00,1.019894480705261230e+00,1.019841790199279785e+00,1.019789099693298340e+00,1.019736528396606445e+00,1.019683837890625000e+00,1.019631147384643555e+00,1.019578576087951660e+00,1.019525885581970215e+00,1.019473314285278320e+00,1.019420623779296875e+00,1.019368052482604980e+00,1.019315361976623535e+00,1.019262790679931641e+00,1.019210219383239746e+00,1.019157528877258301e+00,1.019104957580566406e+00,1.019052386283874512e+00,1.018999814987182617e+00,1.018947243690490723e+00,1.018894672393798828e+00,1.018842101097106934e+00,1.018789529800415039e+00,1.018736958503723145e+00,1.018684387207031250e+00,1.018631815910339355e+00,1.018579363822937012e+00,1.018526792526245117e+00,1.018474221229553223e+00,1.018421649932861328e+00,1.018369197845458984e+00,1.018316626548767090e+00,1.018264174461364746e+00,1.018211722373962402e+00,1.018159151077270508e+00,1.018106698989868164e+00,1.018054127693176270e+00,1.018001675605773926e+00,1.017949223518371582e+00,1.017896771430969238e+00,1.017844319343566895e+00,1.017791867256164551e+00,1.017739295959472656e+00,1.017686963081359863e+00,1.017634510993957520e+00,1.017582058906555176e+00,1.017529606819152832e+00,1.017477154731750488e+00,1.017424821853637695e+00,1.017372369766235352e+00,1.017319917678833008e+00,1.017267465591430664e+00,1.017215132713317871e+00,1.017162799835205078e+00,1.017110347747802734e+00,1.017058014869689941e+00,1.017005681991577148e+00,1.016953229904174805e+00,1.016900777816772461e+00,1.016848564147949219e+00
9.624797701835632324e-01,9.624328613281250000e-01,9.623858928680419922e-01,9.623389840126037598e-01,9.622920751571655273e-01,9.622451663017272949e-01,9.621983766555786133e-01,9.621514678001403809e-01,9.621045589447021484e-01,9.620576500892639160e-01,9.620108008384704590e-01,9.619640111923217773e-01,9.619171619415283203e-01,9.618702530860900879e-01,9.618234038352966309e-01,9.617764949798583984e-01,9.617297649383544922e-01,9.616829156875610352e-01,9.616360664367675781e-01,9.615892171859741211e-01,9.615423679351806641e-01,9.614956378936767578e-01,9.614487886428833008e-01,9.614019989967346191e-01,9.613551497459411621e-01,9.613083600997924805e-01,9.612616300582885742e-01,9.612148404121398926e-01,9.611679911613464355e-01,9.611212015151977539e-01,9.610744118690490723e-01,9.610276222229003906e-01,9.609809517860412598e-01,9.609341621398925781e-01,9.608873724937438965e-01,9.608405828475952148e-01,9.607937932014465332e-01,9.607471823692321777e-01,9.607003927230834961e-01,9.606536626815795898e-01,9.606068730354309082e-01,9.605601429939270020e-01,9.605135321617126465e-01,9.604667425155639648e-01,9.604200124740600586e-01,9.603732824325561523e-01,9.603265523910522461e-01,9.602799415588378906e-01,9.602332711219787598e-01,9.601865410804748535e-01,9.601398110389709473e-01,9.600931406021118164e-01,9.600465297698974609e-01,9.599998593330383301e-01,9.599531292915344238e-01,9.599064588546752930e-01,9.598597884178161621e-01,9.598132371902465820e-01,9.597665667533874512e-01,9.597198963165283203e-01,9.596732258796691895e-01,9.596265554428100586e-01,9.595798850059509277e-01,9.595333337783813477e-01,9.594867229461669922e-01,9.594400525093078613e-01,9.593934416770935059e-01,9.593468308448791504e-01,9.593002796173095703e-01,9.592536687850952148e-01,9.592070579528808594e-01,9.591604471206665039e-01,9.591138362884521484e-01,9.590673446655273438e-01,9.590207338333129883e-01,9.589741230010986328e-01,9.589275717735290527e-01,9.588809609413146973e-01,9.588344693183898926e-01,9.587879180908203125e-01
9.103026390075683594e-01,9.102606177330017090e-01,9.102186560630798340e-01,9.101768136024475098e-01,9.101348519325256348e-01,9.100928306579589844e-01,9.100508689880371094e-01,9.100089669227600098e-01,9.099670648574829102e-01,9.099251031875610352e-01,9.098832011222839355e-01,9.098412394523620605e-01,9.097993373870849609e-01,9.097574949264526367e-01,9.097155332565307617e-01,9.096736311912536621e-01,9.096316695213317871e-01,9.095897674560546875e-01,9.095479846000671387e-01,9.095060229301452637e-01,9.094641208648681641e-01,9.094222187995910645e-01,9.093803167343139648e-01,9.093384146690368652e-01,9.092966318130493164e-01,9.092547297477722168e-01,9.092128872871398926e-01,9.091709852218627930e-01,9.091291427612304688e-01,9.090873599052429199e-01,9.090454578399658203e-01,9.090036153793334961e-01,9.089617729187011719e-01,9.089198708534240723e-01,9.088781476020812988e-01,9.088363051414489746e-01,9.087944626808166504e-01,9.087526202201843262e-01,9.087107777595520020e-01,9.086690545082092285e-01,9.086272120475769043e-01,9.085853695869445801e-01,9.085435271263122559e-01,9.085017442703247070e-01,9.084600210189819336e-01,9.084181785583496094e-01,9.083763957023620605e-01,9.083346128463745117e-01,9.082927703857421875e-01,9.082509875297546387e-01,9.082093238830566406e-01,9.081675410270690918e-01,9.081257581710815430e-01,9.080839753150939941e-01,9.080421924591064453e-01,9.080005288124084473e-01,9.079587459564208984e-01,9.079169631004333496e-01,9.078752398490905762e-01,9.078334569931030273e-01,9.077917933464050293e-01,9.077500700950622559e-01,9.077082872390747070e-01,9.076665639877319336e-01,9.076248407363891602e-01,9.075831770896911621e-01,9.075414538383483887e-01,9.074997305870056152e-01,9.074580073356628418e-01,9.074162840843200684e-01,9.073746800422668457e-01,9.073329567909240723e-01,9.072912335395812988e-01,9.072495698928833008e-01,9.072078466415405273e-01,9.071662425994873047e-01,9.071245789527893066e-01,9.070828557014465332e-01,9.070411920547485352e-01,9.069995284080505371e-01
8.634918332099914551e-01,8.634540438652038574e-01,8.634162545204162598e-01,8.633785247802734375e-01,8.633407354354858398e-01,8.633030652999877930e-01,8.632653355598449707e-01,8.632275462150573730e-01,8.631898164749145508e-01,8.631520271301269531e-01,8.631144165992736816e-01,8.630766868591308594e-01,8.630388975143432617e-01,8.630011677742004395e-01,8.629634380340576172e-01,8.629257082939147949e-01,8.628880977630615234e-01,8.628503680229187012e-01,8.628126382827758789e-01,8.627749085426330566e-01,8.627372384071350098e-01,8.626996278762817383e-01,8.626618981361389160e-01,8.626241683959960938e-01,8.625864982604980469e-01,8.625488281250000000e-01,8.625112175941467285e-01,8.624734878540039062e-01,8.624358177185058594e-01,8.623981475830078125e-01,8.623604774475097656e-01,8.623228669166564941e-01,8.622851967811584473e-01,8.622475266456604004e-01,8.622098565101623535e-01,8.621721863746643066e-01,8.621346354484558105e-01,8.620969653129577637e-01,8.620593547821044922e-01,8.620216846466064453e-01,8.619840145111083984e-01,8.619464039802551270e-01,8.619088530540466309e-01,8.618711829185485840e-01,8.618335723876953125e-01,8.617959618568420410e-01,8.617582917213439941e-01,8.617208003997802734e-01,8.616831898689270020e-01,8.616455197334289551e-01,8.616079092025756836e-01,8.615702986717224121e-01,8.615328073501586914e-01,8.614951968193054199e-01,8.614575862884521484e-01,8.614200353622436523e-01,8.613824248313903809e-01,8.613449335098266602e-01,8.613073229789733887e-01,8.612697124481201172e-01,8.612321615219116211e-01,8.611946105957031250e-01,8.611571192741394043e-01,8.611195087432861328e-01,8.610819578170776367e-01,8.610444068908691406e-01,8.610068559646606445e-01,8.609693050384521484e-01,8.609318137168884277e-01,8.608942627906799316e-01,8.608567118644714355e-01,8.608191609382629395e-01,8.607816100120544434e-01,8.607441782951354980e-01,8.607066273689270020e-01,8.606691360473632812e-01,8.606315851211547852e-01,8.605940937995910645e-01,8.605566024780273438e-01,8.605191111564636230e-01
8.212597966194152832e-01,8.212256431579589844e-01,8.211914896965026855e-01,8.211573958396911621e-01,8.211232423782348633e-01,8.210890889167785645e-01,8.210549354553222656e-01,8.210207819938659668e-01,8.209866881370544434e-01,8.209525346755981445e-01,8.209183812141418457e-01,8.208842277526855469e-01,8.208501338958740234e-01,8.208160400390625000e-01,8.207819461822509766e-01,8.207477927207946777e-01,8.207136988639831543e-01,8.206795454025268555e-01,8.206455111503601074e-01,8.206114172935485840e-01,8.205772638320922852e-01,8.205431699752807617e-01,8.205090761184692383e-01,8.204750418663024902e-01,8.204409480094909668e-01,8.204068541526794434e-01,8.203727602958679199e-01,8.203386068344116211e-01,8.203046321868896484e-01,8.202705383300781250e-01,8.202364444732666016e-01,8.202023506164550781e-01,8.201682567596435547e-01,8.201342225074768066e-01,8.201001882553100586e-01,8.200661540031433105e-01,8.200320601463317871e-01,8.199979662895202637e-01,8.199639320373535156e-01,8.199299573898315430e-01,8.198958635330200195e-01,8.198618292808532715e-01,8.198277950286865234e-01,8.197937011718750000e-01,8.197597861289978027e-01,8.197256922721862793e-01,8.196916580200195312e-01,8.196576237678527832e-01,8.196235895156860352e-01,8.195896148681640625e-01,8.195556402206420898e-01,8.195216059684753418e-01,8.194875717163085938e-01,8.194535374641418457e-01,8.194196224212646484e-01,8.193855881690979004e-01,8.193515539169311523e-01,8.193175792694091797e-01,8.192835450172424316e-01,8.192495107650756836e-01,8.192155957221984863e-01,8.191816210746765137e-01,8.191476464271545410e-01,8.191136121749877930e-01,8.190796375274658203e-01,8.190457224845886230e-01,8.190117478370666504e-01,8.189777731895446777e-01,8.189437985420227051e-01,8.189098238945007324e-01,8.188759088516235352e-01,8.188419342041015625e-01,8.188079595565795898e-01,8.187739849090576172e-01,8.187400102615356445e-01,8.187061548233032227e-01,8.186721801757812500e-01,8.186382055282592773e-01,8.186042904853820801e-01,8.185703158378601074e-01
7.829662561416625977e-01,7.829352021217346191e-01,7.829041481018066406e-01,7.828730940818786621e-01,7.828420400619506836e-01,7.828110456466674805e-01,7.827800512313842773e-01,7.827489972114562988e-01,7.827179431915283203e-01,7.826868891716003418e-01,7.826559543609619141e-01,7.826249003410339355e-01,7.825939059257507324e-01,7.825628519058227539e-01,7.825317978858947754e-01,7.825008630752563477e-01,7.824698686599731445e-01,7.824388146400451660e-01,7.824078202247619629e-01,7.823768258094787598e-01,7.823457717895507812e-01,7.823148369789123535e-01,7.822838425636291504e-01,7.822528481483459473e-01,7.822218537330627441e-01,7.821908593177795410e-01,7.821599245071411133e-01,7.821289300918579102e-01,7.820979356765747070e-01,7.820669412612915039e-01,7.820359468460083008e-01,7.820050716400146484e-01,7.819740772247314453e-01,7.819430828094482422e-01,7.819120883941650391e-01,7.818811535835266113e-01,7.818502187728881836e-01,7.818192839622497559e-01,7.817882895469665527e-01,7.817573547363281250e-01,7.817263603210449219e-01,7.816954851150512695e-01,7.816645503044128418e-01,7.816335558891296387e-01,7.816026210784912109e-01,7.815716862678527832e-01,7.815408110618591309e-01,7.815098762512207031e-01,7.814788818359375000e-01,7.814479470252990723e-01,7.814170122146606445e-01,7.813860774040222168e-01,7.813552618026733398e-01,7.813243269920349121e-01,7.812933921813964844e-01,7.812624573707580566e-01,7.812315225601196289e-01,7.812007069587707520e-01,7.811697721481323242e-01,7.811388373374938965e-01,7.811079621315002441e-01,7.810770273208618164e-01,7.810462117195129395e-01,7.810152769088745117e-01,7.809844017028808594e-01,7.809534668922424316e-01,7.809225916862487793e-01,7.808917760848999023e-01,7.808608412742614746e-01,7.808299660682678223e-01,7.807990908622741699e-01,7.807682156562805176e-01,7.807374000549316406e-01,7.807065248489379883e-01,7.806756496429443359e-01,7.806447744369506836e-01,7.806138992309570312e-01,7.805830240249633789e-01,7.805522084236145020e-01,7.805213332176208496e-01
