2.249804258346557617e+00,2.255276203155517578e+00,2.260775327682495117e+00,2.266300678253173828e+00,2.271853685379028320e+00,2.277433395385742188e+00,2.283041000366210938e+00,2.288676023483276367e+00,2.294339179992675781e+00,2.300030231475830078e+00,2.305749893188476562e+00,2.311497688293457031e+00,2.317274570465087891e+00,2.323080062866210938e+00,2.328915119171142578e+00,2.334779024124145508e+00,2.340672969818115234e+00,2.346596717834472656e+00,2.352550268173217773e+00,2.358534336090087891e+00,2.364548683166503906e+00,2.370594024658203125e+00,2.376670360565185547e+00,2.382777929306030273e+00,2.388916730880737305e+00,2.395087480545043945e+00,2.401289939880371094e+00,2.407524824142456055e+00,2.413792133331298828e+00,2.420092105865478516e+00,2.426424980163574219e+00,2.432791233062744141e+00,2.439190864562988281e+00,2.445624589920043945e+00,2.452091932296752930e+00,2.458593606948852539e+00,2.465130329132080078e+00,2.471701383590698242e+00,2.478307723999023438e+00,2.484949350357055664e+00,2.491626739501953125e+00,2.498340129852294922e+00,2.505089998245239258e+00,2.511876106262207031e+00,2.518699169158935547e+00,2.525559425354003906e+00,2.532457351684570312e+00,2.539392709732055664e+00,2.546366453170776367e+00,2.553378582000732422e+00,2.560429334640502930e+00,2.567519187927246094e+00,2.574648380279541016e+00,2.581817150115966797e+00,2.589026212692260742e+00,2.596275568008422852e+00,2.603565454483032227e+00,2.610896587371826172e+00,2.618268966674804688e+00,2.625683307647705078e+00,2.633139610290527344e+00,2.640638589859008789e+00,2.648180007934570312e+00,2.655764818191528320e+00,2.663393259048461914e+00,2.671065807342529297e+00,2.678782224655151367e+00,2.686543703079223633e+00,2.694350242614746094e+00,2.702202320098876953e+00,2.710100173950195312e+00,2.718044519424438477e+00,2.726035356521606445e+00,2.734073400497436523e+00,2.742159128189086914e+00,2.750292539596557617e+00,2.758474588394165039e+00,2.766705274581909180e+00,2.774985313415527344e+00,2.783314943313598633e+00
2.249786853790283203e+00,2.255258798599243164e+00,2.260757684707641602e+00,2.266283035278320312e+00,2.271835803985595703e+00,2.277415752410888672e+00,2.283023118972778320e+00,2.288658142089843750e+00,2.294321060180664062e+00,2.300012111663818359e+00,2.305731534957885742e+00,2.311479568481445312e+00,2.317255973815917969e+00,2.323061704635620117e+00,2.328896284103393555e+00,2.334760427474975586e+00,2.340654134750366211e+00,2.346577644348144531e+00,2.352531433105468750e+00,2.358515262603759766e+00,2.364529609680175781e+00,2.370574712753295898e+00,2.376651048660278320e+00,2.382758140563964844e+00,2.388897180557250977e+00,2.395067691802978516e+00,2.401270151138305664e+00,2.407504796981811523e+00,2.413772106170654297e+00,2.420071840286254883e+00,2.426404953002929688e+00,2.432770729064941406e+00,2.439170598983764648e+00,2.445603847503662109e+00,2.452071189880371094e+00,2.458573102951049805e+00,2.465109109878540039e+00,2.471680402755737305e+00,2.478286504745483398e+00,2.484928131103515625e+00,2.491605281829833984e+00,2.498318672180175781e+00,2.505068302154541016e+00,2.511854410171508789e+00,2.518677234649658203e+00,2.525537729263305664e+00,2.532435178756713867e+00,2.539370775222778320e+00,2.546344041824340820e+00,2.553356170654296875e+00,2.560406684875488281e+00,2.567496538162231445e+00,2.574625492095947266e+00,2.581794261932373047e+00,2.589003086090087891e+00,2.596252202987670898e+00,2.603542327880859375e+00,2.610873222351074219e+00,2.618245601654052734e+00,2.625659465789794922e+00,2.633115768432617188e+00,2.640614271163940430e+00,2.648155927658081055e+00,2.655740499496459961e+00,2.663368940353393555e+00,2.671041011810302734e+00,2.678757667541503906e+00,2.686518907546997070e+00,2.694325447082519531e+00,2.702177047729492188e+00,2.710074901580810547e+00,2.718018770217895508e+00,2.726009845733642578e+00,2.734047651290893555e+00,2.742133140563964844e+00,2.750266551971435547e+00,2.758448123931884766e+00,2.766679048538208008e+00,2.774958848953247070e+00,2.783288478851318359e+00
2.249769449234008789e+00,2.255241394042968750e+00,2.260740041732788086e+00,2.266265392303466797e+00,2.271818161010742188e+00,2.277397871017456055e+00,2.283005237579345703e+00,2.288640022277832031e+00,2.294302940368652344e+00,2.299993991851806641e+00,2.305713176727294922e+00,2.311460971832275391e+00,2.317237615585327148e+00,2.323043107986450195e+00,2.328877687454223633e+00,2.334741592407226562e+00,2.340635299682617188e+00,2.346558809280395508e+00,2.352512121200561523e+00,2.358496189117431641e+00,2.364510297775268555e+00,2.370555400848388672e+00,2.376631498336791992e+00,2.382738828659057617e+00,2.388877391815185547e+00,2.395047903060913086e+00,2.401250123977661133e+00,2.407485008239746094e+00,2.413751840591430664e+00,2.420051813125610352e+00,2.426384449005126953e+00,2.432750463485717773e+00,2.439149856567382812e+00,2.445583343505859375e+00,2.452050447463989258e+00,2.458552122116088867e+00,2.465088367462158203e+00,2.471659183502197266e+00,2.478265523910522461e+00,2.484906911849975586e+00,2.491584062576293945e+00,2.498297214508056641e+00,2.505046844482421875e+00,2.511832714080810547e+00,2.518655538558959961e+00,2.525515556335449219e+00,2.532413244247436523e+00,2.539348363876342773e+00,2.546321868896484375e+00,2.553333759307861328e+00,2.560384273529052734e+00,2.567473649978637695e+00,2.574602842330932617e+00,2.581771612167358398e+00,2.588979959487915039e+00,2.596229076385498047e+00,2.603518962860107422e+00,2.610849857330322266e+00,2.618221998214721680e+00,2.625635862350463867e+00,2.633091926574707031e+00,2.640590429306030273e+00,2.648131847381591797e+00,2.655716419219970703e+00,2.663344383239746094e+00,2.671016693115234375e+00,2.678732872009277344e+00,2.686494112014770508e+00,2.694300174713134766e+00,2.702152013778686523e+00,2.710049390792846680e+00,2.717993497848510742e+00,2.725984334945678711e+00,2.734021902084350586e+00,2.742107391357421875e+00,2.750240564346313477e+00,2.758422136306762695e+00,2.766652584075927734e+00,2.774932384490966797e+00,2.783261775970458984e+00
2.249752283096313477e+00,2.255223989486694336e+00,2.260722637176513672e+00,2.266247749328613281e+00,2.271800518035888672e+00,2.277379989624023438e+00,2.282987117767333984e+00,2.288622140884399414e+00,2.294284820556640625e+00,2.299975872039794922e+00,2.305694818496704102e+00,2.311442613601684570e+00,2.317219018936157227e+00,2.323024511337280273e+00,2.328858852386474609e+00,2.334722995758056641e+00,2.340616464614868164e+00,2.346539735794067383e+00,2.352493286132812500e+00,2.358476877212524414e+00,2.364491224288940430e+00,2.370536088943481445e+00,2.376611948013305664e+00,2.382719039916992188e+00,2.388857841491699219e+00,2.395028114318847656e+00,2.401230335235595703e+00,2.407464981079101562e+00,2.413732051849365234e+00,2.420031547546386719e+00,2.426364421844482422e+00,2.432730197906494141e+00,2.439129590988159180e+00,2.445562601089477539e+00,2.452029943466186523e+00,2.458531379699707031e+00,2.465067386627197266e+00,2.471638202667236328e+00,2.478244304656982422e+00,2.484885692596435547e+00,2.491562604904174805e+00,2.498275756835937500e+00,2.505025148391723633e+00,2.511811017990112305e+00,2.518633604049682617e+00,2.525493621826171875e+00,2.532391071319580078e+00,2.539326190948486328e+00,2.546299457550048828e+00,2.553311347961425781e+00,2.560361623764038086e+00,2.567451238632202148e+00,2.574579715728759766e+00,2.581748485565185547e+00,2.588957071304321289e+00,2.596205949783325195e+00,2.603495597839355469e+00,2.610826253890991211e+00,2.618198394775390625e+00,2.625612020492553711e+00,2.633068084716796875e+00,2.640566349029541016e+00,2.648107767105102539e+00,2.655692100524902344e+00,2.663320064544677734e+00,2.670991897583007812e+00,2.678708314895629883e+00,2.686469078063964844e+00,2.694275379180908203e+00,2.702126741409301758e+00,2.710024356842041016e+00,2.717968225479125977e+00,2.725958585739135742e+00,2.733996152877807617e+00,2.742081403732299805e+00,2.750214576721191406e+00,2.758395910263061523e+00,2.766626358032226562e+00,2.774905681610107422e+00,2.783235073089599609e+00
2.249734878540039062e+00,2.255206584930419922e+00,2.260704994201660156e+00,2.266230106353759766e+00,2.271782636642456055e+00,2.277362108230590820e+00,2.282969474792480469e+00,2.288604021072387695e+00,2.294266939163208008e+00,2.299957752227783203e+00,2.305676698684692383e+00,2.311424255371093750e+00,2.317200660705566406e+00,2.323005914688110352e+00,2.328840255737304688e+00,2.334704160690307617e+00,2.340597629547119141e+00,2.346520900726318359e+00,2.352474212646484375e+00,2.358457803726196289e+00,2.364471673965454102e+00,2.370516777038574219e+00,2.376592636108398438e+00,2.382699728012084961e+00,2.388838052749633789e+00,2.395008325576782227e+00,2.401210546493530273e+00,2.407444953918457031e+00,2.413711786270141602e+00,2.420011520385742188e+00,2.426343917846679688e+00,2.432709693908691406e+00,2.439109086990356445e+00,2.445542097091674805e+00,2.452009201049804688e+00,2.458510398864746094e+00,2.465046644210815430e+00,2.471617221832275391e+00,2.478223085403442383e+00,2.484864234924316406e+00,2.491541385650634766e+00,2.498254060745239258e+00,2.505003452301025391e+00,2.511789321899414062e+00,2.518611907958984375e+00,2.525471687316894531e+00,2.532369136810302734e+00,2.539304018020629883e+00,2.546277284622192383e+00,2.553288698196411133e+00,2.560339212417602539e+00,2.567428350448608398e+00,2.574557065963745117e+00,2.581725597381591797e+00,2.588933944702148438e+00,2.596182823181152344e+00,2.603472232818603516e+00,2.610802888870239258e+00,2.618174791336059570e+00,2.625588417053222656e+00,2.633044242858886719e+00,2.640542507171630859e+00,2.648083448410034180e+00,2.655667781829833984e+00,2.663295507431030273e+00,2.670967578887939453e+00,2.678683519363403320e+00,2.686444520950317383e+00,2.694250345230102539e+00,2.702101707458496094e+00,2.709998846054077148e+00,2.717942714691162109e+00,2.725933074951171875e+00,2.733970403671264648e+00,2.742055654525756836e+00,2.750188350677490234e+00,2.758369684219360352e+00,2.766599893569946289e+00,2.774879455566406250e+00,2.783208370208740234e+00
2.249717473983764648e+00,2.255189180374145508e+00,2.260687589645385742e+00,2.266212701797485352e+00,2.271764993667602539e+00,2.277344703674316406e+00,2.282951593399047852e+00,2.288586139678955078e+00,2.294248819351196289e+00,2.299939632415771484e+00,2.305658578872680664e+00,2.311406135559082031e+00,2.317182064056396484e+00,2.322987556457519531e+00,2.328821659088134766e+00,2.334685564041137695e+00,2.340578794479370117e+00,2.346501827239990234e+00,2.352455139160156250e+00,2.358438730239868164e+00,2.364452600479125977e+00,2.370497226715087891e+00,2.376573085784912109e+00,2.382679939270019531e+00,2.388818502426147461e+00,2.394988536834716797e+00,2.401190757751464844e+00,2.407424926757812500e+00,2.413691759109497070e+00,2.419991254806518555e+00,2.426323890686035156e+00,2.432689428329467773e+00,2.439088582992553711e+00,2.445521593093872070e+00,2.451988458633422852e+00,2.458489656448364258e+00,2.465025424957275391e+00,2.471596240997314453e+00,2.478201866149902344e+00,2.484843254089355469e+00,2.491519927978515625e+00,2.498232841491699219e+00,2.504981756210327148e+00,2.511767625808715820e+00,2.518589973449707031e+00,2.525449752807617188e+00,2.532346963882446289e+00,2.539281845092773438e+00,2.546254873275756836e+00,2.553266525268554688e+00,2.560316562652587891e+00,2.567405700683593750e+00,2.574534416198730469e+00,2.581702709197998047e+00,2.588910818099975586e+00,2.596159458160400391e+00,2.603448867797851562e+00,2.610779285430908203e+00,2.618151187896728516e+00,2.625564575195312500e+00,2.633020401000976562e+00,2.640518426895141602e+00,2.648059368133544922e+00,2.655643463134765625e+00,2.663271188735961914e+00,2.670942783355712891e+00,2.678658962249755859e+00,2.686419486999511719e+00,2.694225311279296875e+00,2.702076435089111328e+00,2.709973812103271484e+00,2.717917442321777344e+00,2.725907325744628906e+00,2.733944892883300781e+00,2.742029666900634766e+00,2.750162363052368164e+00,2.758343458175659180e+00,2.766573667526245117e+00,2.774852752685546875e+00,2.783181905746459961e+00
2.249700307846069336e+00,2.255171775817871094e+00,2.260670185089111328e+00,2.266195058822631836e+00,2.271747350692749023e+00,2.277326822280883789e+00,2.282933712005615234e+00,2.288568496704101562e+00,2.294230937957763672e+00,2.299921274185180664e+00,2.305640459060668945e+00,2.311387777328491211e+00,2.317163944244384766e+00,2.322968959808349609e+00,2.328803062438964844e+00,2.334666967391967773e+00,2.340559959411621094e+00,2.346483230590820312e+00,2.352436304092407227e+00,2.358419656753540039e+00,2.364433526992797852e+00,2.370478153228759766e+00,2.376553773880004883e+00,2.382660627365112305e+00,2.388798952102661133e+00,2.394968986511230469e+00,2.401170730590820312e+00,2.407405138015747070e+00,2.413671731948852539e+00,2.419971227645874023e+00,2.426303386688232422e+00,2.432669162750244141e+00,2.439068078994750977e+00,2.445501089096069336e+00,2.451967954635620117e+00,2.458468914031982422e+00,2.465004682540893555e+00,2.471575021743774414e+00,2.478180885314941406e+00,2.484821796417236328e+00,2.491498708724975586e+00,2.498211145401000977e+00,2.504960298538208008e+00,2.511745691299438477e+00,2.518568277359008789e+00,2.525427818298339844e+00,2.532325029373168945e+00,2.539259672164916992e+00,2.546232700347900391e+00,2.553243875503540039e+00,2.560293912887573242e+00,2.567383050918579102e+00,2.574511528015136719e+00,2.581679821014404297e+00,2.588887691497802734e+00,2.596136331558227539e+00,2.603425502777099609e+00,2.610755920410156250e+00,2.618127584457397461e+00,2.625540971755981445e+00,2.632996559143066406e+00,2.640494585037231445e+00,2.648035287857055664e+00,2.655619144439697266e+00,2.663246631622314453e+00,2.670918464660644531e+00,2.678634166717529297e+00,2.686394691467285156e+00,2.694200277328491211e+00,2.702051401138305664e+00,2.709948539733886719e+00,2.717891931533813477e+00,2.725882053375244141e+00,2.733918905258178711e+00,2.742003679275512695e+00,2.750136375427246094e+00,2.758317470550537109e+00,2.766547203063964844e+00,2.774826288223266602e+00,2.783154964447021484e+00
2.249682903289794922e+00,2.255154371261596680e+00,2.260652542114257812e+00,2.266177415847778320e+00,2.271729707717895508e+00,2.277308940887451172e+00,2.282915830612182617e+00,2.288550376892089844e+00,2.294212818145751953e+00,2.299903392791748047e+00,2.305622100830078125e+00,2.311369419097900391e+00,2.317145586013793945e+00,2.322950601577758789e+00,2.328784704208374023e+00,2.334648132324218750e+00,2.340541362762451172e+00,2.346464395523071289e+00,2.352417230606079102e+00,2.358400583267211914e+00,2.364414215087890625e+00,2.370459079742431641e+00,2.376534461975097656e+00,2.382641077041625977e+00,2.388779401779174805e+00,2.394949197769165039e+00,2.401151180267333984e+00,2.407385349273681641e+00,2.413651704788208008e+00,2.419951200485229492e+00,2.426283359527587891e+00,2.432648897171020508e+00,2.439047574996948242e+00,2.445480585098266602e+00,2.451946973800659180e+00,2.458448171615600586e+00,2.464983701705932617e+00,2.471554279327392578e+00,2.478159666061401367e+00,2.484800577163696289e+00,2.491477251052856445e+00,2.498189687728881836e+00,2.504938602447509766e+00,2.511724233627319336e+00,2.518546342849731445e+00,2.525405883789062500e+00,2.532302856445312500e+00,2.539237499237060547e+00,2.546210289001464844e+00,2.553221464157104492e+00,2.560271263122558594e+00,2.567360401153564453e+00,2.574488639831542969e+00,2.581656694412231445e+00,2.588864803314208984e+00,2.596112966537475586e+00,2.603402376174926758e+00,2.610732316970825195e+00,2.618103981018066406e+00,2.625517129898071289e+00,2.632972717285156250e+00,2.640470504760742188e+00,2.648011207580566406e+00,2.655594825744628906e+00,2.663222312927246094e+00,2.670893669128417969e+00,2.678609609603881836e+00,2.686369895935058594e+00,2.694175481796264648e+00,2.702026367187500000e+00,2.709923267364501953e+00,2.717866659164428711e+00,2.725856304168701172e+00,2.733893394470214844e+00,2.741977691650390625e+00,2.750110387802124023e+00,2.758291006088256836e+00,2.766520977020263672e+00,2.774799823760986328e+00,2.783128499984741211e+00
2.249665498733520508e+00,2.255136966705322266e+00,2.260635137557983398e+00,2.266160011291503906e+00,2.271712064743041992e+00,2.277291297912597656e+00,2.282898187637329102e+00,2.288532495498657227e+00,2.294194698333740234e+00,2.299885272979736328e+00,2.305603981018066406e+00,2.311351299285888672e+00,2.317126989364624023e+00,2.322932243347167969e+00,2.328766107559204102e+00,2.334629535675048828e+00,2.340522527694702148e+00,2.346445322036743164e+00,2.352398395538330078e+00,2.358381509780883789e+00,2.364395141601562500e+00,2.370439767837524414e+00,2.376515150070190430e+00,2.382621765136718750e+00,2.388759851455688477e+00,2.394929647445678711e+00,2.401131391525268555e+00,2.407365322113037109e+00,2.413631916046142578e+00,2.419931173324584961e+00,2.426263093948364258e+00,2.432628393173217773e+00,2.439027309417724609e+00,2.445460081100463867e+00,2.451926469802856445e+00,2.458427429199218750e+00,2.464962959289550781e+00,2.471533060073852539e+00,2.478138685226440430e+00,2.484779357910156250e+00,2.491455793380737305e+00,2.498168230056762695e+00,2.504917144775390625e+00,2.511702299118041992e+00,2.518524646759033203e+00,2.525383949279785156e+00,2.532280683517456055e+00,2.539215326309204102e+00,2.546188116073608398e+00,2.553199052810668945e+00,2.560248851776123047e+00,2.567337751388549805e+00,2.574465751647949219e+00,2.581633806228637695e+00,2.588841676712036133e+00,2.596090078353881836e+00,2.603378772735595703e+00,2.610708951950073242e+00,2.618080377578735352e+00,2.625493526458740234e+00,2.632948637008666992e+00,2.640446424484252930e+00,2.647986888885498047e+00,2.655570745468139648e+00,2.663197994232177734e+00,2.670869350433349609e+00,2.678584814071655273e+00,2.686345100402832031e+00,2.694150447845458984e+00,2.702001333236694336e+00,2.709897994995117188e+00,2.717840909957885742e+00,2.725830793380737305e+00,2.733867406845092773e+00,2.741951942443847656e+00,2.750084161758422852e+00,2.758265018463134766e+00,2.766494512557983398e+00,2.774773359298706055e+00,2.783101797103881836e+00
2.249648332595825195e+00,2.255119562149047852e+00,2.260617494583129883e+00,2.266142368316650391e+00,2.271694421768188477e+00,2.277273416519165039e+00,2.282880306243896484e+00,2.288514614105224609e+00,2.294176816940307617e+00,2.299867153167724609e+00,2.305585861206054688e+00,2.311332941055297852e+00,2.317108631134033203e+00,2.322913646697998047e+00,2.328747510910034180e+00,2.334610939025878906e+00,2.340503931045532227e+00,2.346426486968994141e+00,2.352379560470581055e+00,2.358362436294555664e+00,2.364376068115234375e+00,2.370420455932617188e+00,2.376495838165283203e+00,2.382602453231811523e+00,2.388740301132202148e+00,2.394910097122192383e+00,2.401111602783203125e+00,2.407345533370971680e+00,2.413611888885498047e+00,2.419910907745361328e+00,2.426243066787719727e+00,2.432608127593994141e+00,2.439007043838500977e+00,2.445439577102661133e+00,2.451905965805053711e+00,2.458406686782836914e+00,2.464941978454589844e+00,2.471512317657470703e+00,2.478117465972900391e+00,2.484758138656616211e+00,2.491434574127197266e+00,2.498146772384643555e+00,2.504895687103271484e+00,2.511680841445922852e+00,2.518502712249755859e+00,2.525362014770507812e+00,2.532258510589599609e+00,2.539193153381347656e+00,2.546165704727172852e+00,2.553176641464233398e+00,2.560226202011108398e+00,2.567315101623535156e+00,2.574443101882934570e+00,2.581610918045043945e+00,2.588818550109863281e+00,2.596066713333129883e+00,2.603355646133422852e+00,2.610685348510742188e+00,2.618056774139404297e+00,2.625469684600830078e+00,2.632925033569335938e+00,2.640422344207763672e+00,2.647962808609008789e+00,2.655546426773071289e+00,2.663173675537109375e+00,2.670844554901123047e+00,2.678560018539428711e+00,2.686320066452026367e+00,2.694125413894653320e+00,2.701976299285888672e+00,2.709872722625732422e+00,2.717815637588500977e+00,2.725805044174194336e+00,2.733841896057128906e+00,2.741925954818725586e+00,2.750058412551879883e+00,2.758238792419433594e+00,2.766468286514282227e+00,2.774746656417846680e+00,2.783075094223022461e+00
2.249631166458129883e+00,2.255102157592773438e+00,2.260600090026855469e+00,2.266124963760375977e+00,2.271676778793334961e+00,2.277255773544311523e+00,2.282862424850463867e+00,2.288496732711791992e+00,2.294158935546875000e+00,2.299849033355712891e+00,2.305567741394042969e+00,2.311314582824707031e+00,2.317090511322021484e+00,2.322895288467407227e+00,2.328728914260864258e+00,2.334592342376708984e+00,2.340485095977783203e+00,2.346407890319824219e+00,2.352360486984252930e+00,2.358343362808227539e+00,2.364356994628906250e+00,2.370401144027709961e+00,2.376476526260375977e+00,2.382582902908325195e+00,2.388720750808715820e+00,2.394890546798706055e+00,2.401092052459716797e+00,2.407325983047485352e+00,2.413592100143432617e+00,2.419891119003295898e+00,2.426223039627075195e+00,2.432587862014770508e+00,2.438986539840698242e+00,2.445419073104858398e+00,2.451885461807250977e+00,2.458385944366455078e+00,2.464921236038208008e+00,2.471491336822509766e+00,2.478096485137939453e+00,2.484737157821655273e+00,2.491413354873657227e+00,2.498125553131103516e+00,2.504874229431152344e+00,2.511659145355224609e+00,2.518481016159057617e+00,2.525340080261230469e+00,2.532236814498901367e+00,2.539170980453491211e+00,2.546143293380737305e+00,2.553154230117797852e+00,2.560203790664672852e+00,2.567292451858520508e+00,2.574420213699340820e+00,2.581588029861450195e+00,2.588795423507690430e+00,2.596043586730957031e+00,2.603332281112670898e+00,2.610661983489990234e+00,2.618033170700073242e+00,2.625446081161499023e+00,2.632900953292846680e+00,2.640398502349853516e+00,2.647938728332519531e+00,2.655522108078002930e+00,2.663149118423461914e+00,2.670820236206054688e+00,2.678535223007202148e+00,2.686295509338378906e+00,2.694100379943847656e+00,2.701951026916503906e+00,2.709847450256347656e+00,2.717790126800537109e+00,2.725779533386230469e+00,2.733816146850585938e+00,2.741900205612182617e+00,2.750032186508178711e+00,2.758212566375732422e+00,2.766441822052001953e+00,2.774720430374145508e+00,2.783048391342163086e+00
2.249613761901855469e+00,2.255084753036499023e+00,2.260582685470581055e+00,2.266107320785522461e+00,2.271659135818481445e+00,2.277238130569458008e+00,2.282844543457031250e+00,2.288478851318359375e+00,2.294140815734863281e+00,2.299831151962280273e+00,2.305549383163452148e+00,2.311296463012695312e+00,2.317072153091430664e+00,2.322876691818237305e+00,2.328710556030273438e+00,2.334573507308959961e+00,2.340466260910034180e+00,2.346389055252075195e+00,2.352341651916503906e+00,2.358324527740478516e+00,2.364337921142578125e+00,2.370381832122802734e+00,2.376457214355468750e+00,2.382563591003417969e+00,2.388701438903808594e+00,2.394870758056640625e+00,2.401072263717651367e+00,2.407305955886840820e+00,2.413572072982788086e+00,2.419871091842651367e+00,2.426202774047851562e+00,2.432567834854125977e+00,2.438966274261474609e+00,2.445398569107055664e+00,2.451864719390869141e+00,2.458365201950073242e+00,2.464900493621826172e+00,2.471470355987548828e+00,2.478075504302978516e+00,2.484715938568115234e+00,2.491392135620117188e+00,2.498104333877563477e+00,2.504852533340454102e+00,2.511637687683105469e+00,2.518459320068359375e+00,2.525318384170532227e+00,2.532214879989624023e+00,2.539149045944213867e+00,2.546121358871459961e+00,2.553132057189941406e+00,2.560181379318237305e+00,2.567269802093505859e+00,2.574397563934326172e+00,2.581565141677856445e+00,2.588772535324096680e+00,2.596020221710205078e+00,2.603308916091918945e+00,2.610638618469238281e+00,2.618009567260742188e+00,2.625422239303588867e+00,2.632877349853515625e+00,2.640374422073364258e+00,2.647914648056030273e+00,2.655497789382934570e+00,2.663124799728393555e+00,2.670795440673828125e+00,2.678510665893554688e+00,2.686270475387573242e+00,2.694075584411621094e+00,2.701925992965698242e+00,2.709822177886962891e+00,2.717764854431152344e+00,2.725754022598266602e+00,2.733790397644042969e+00,2.741874217987060547e+00,2.750006198883056641e+00,2.758186340332031250e+00,2.766415596008300781e+00,2.774693727493286133e+00,2.783021926879882812e+00
2.249596357345581055e+00,2.255067348480224609e+00,2.260565280914306641e+00,2.266089677810668945e+00,2.271641492843627930e+00,2.277220249176025391e+00,2.282826900482177734e+00,2.288460969924926758e+00,2.294122695922851562e+00,2.299813032150268555e+00,2.305531263351440430e+00,2.311278104782104492e+00,2.317053556442260742e+00,2.322858333587646484e+00,2.328691959381103516e+00,2.334554910659790039e+00,2.340447664260864258e+00,2.346369981765747070e+00,2.352322816848754883e+00,2.358305454254150391e+00,2.364318609237670898e+00,2.370362758636474609e+00,2.376437902450561523e+00,2.382544279098510742e+00,2.388681888580322266e+00,2.394851207733154297e+00,2.401052713394165039e+00,2.407286167144775391e+00,2.413552284240722656e+00,2.419851064682006836e+00,2.426182508468627930e+00,2.432547569274902344e+00,2.438945770263671875e+00,2.445378065109252930e+00,2.451844215393066406e+00,2.458344697952270508e+00,2.464879751205444336e+00,2.471449375152587891e+00,2.478054523468017578e+00,2.484694957733154297e+00,2.491370916366577148e+00,2.498082876205444336e+00,2.504831075668334961e+00,2.511615991592407227e+00,2.518437623977661133e+00,2.525296688079833984e+00,2.532192945480346680e+00,2.539126873016357422e+00,2.546099185943603516e+00,2.553109645843505859e+00,2.560158967971801758e+00,2.567247152328491211e+00,2.574374675750732422e+00,2.581542253494262695e+00,2.588749408721923828e+00,2.595997333526611328e+00,2.603285789489746094e+00,2.610615253448486328e+00,2.617986202239990234e+00,2.625398635864257812e+00,2.632853507995605469e+00,2.640350580215454102e+00,2.647890567779541016e+00,2.655473709106445312e+00,2.663100242614746094e+00,2.670771121978759766e+00,2.678485870361328125e+00,2.686245679855346680e+00,2.694050550460815430e+00,2.701900720596313477e+00,2.709796905517578125e+00,2.717739343643188477e+00,2.725728511810302734e+00,2.733764648437500000e+00,2.741848468780517578e+00,2.749980211257934570e+00,2.758160352706909180e+00,2.766389131546020508e+00,2.774667263031005859e+00,2.782994985580444336e+00
2.249578952789306641e+00,2.255049943923950195e+00,2.260547637939453125e+00,2.266072273254394531e+00,2.271623849868774414e+00,2.277202606201171875e+00,2.282809019088745117e+00,2.288442850112915039e+00,2.294104814529418945e+00,2.299794912338256836e+00,2.305513143539428711e+00,2.311259984970092773e+00,2.317035198211669922e+00,2.322839975357055664e+00,2.328673362731933594e+00,2.334536314010620117e+00,2.340428829193115234e+00,2.346351146697998047e+00,2.352303743362426758e+00,2.358286380767822266e+00,2.364299774169921875e+00,2.370343685150146484e+00,2.376418590545654297e+00,2.382524728775024414e+00,2.388662338256835938e+00,2.394831657409667969e+00,2.401032924652099609e+00,2.407266378402709961e+00,2.413532257080078125e+00,2.419830799102783203e+00,2.426162481307983398e+00,2.432527303695678711e+00,2.438925504684448242e+00,2.445357799530029297e+00,2.451823711395263672e+00,2.458323955535888672e+00,2.464859008789062500e+00,2.471428632736206055e+00,2.478033542633056641e+00,2.484673738479614258e+00,2.491349697113037109e+00,2.498061418533325195e+00,2.504809856414794922e+00,2.511594533920288086e+00,2.518415927886962891e+00,2.525274753570556641e+00,2.532171010971069336e+00,2.539104938507080078e+00,2.546077013015747070e+00,2.553087234497070312e+00,2.560136556625366211e+00,2.567224740982055664e+00,2.574352264404296875e+00,2.581519365310668945e+00,2.588726758956909180e+00,2.595974206924438477e+00,2.603262424468994141e+00,2.610591888427734375e+00,2.617962598800659180e+00,2.625375270843505859e+00,2.632829666137695312e+00,2.640326499938964844e+00,2.647866487503051758e+00,2.655449390411376953e+00,2.663076162338256836e+00,2.670746564865112305e+00,2.678461313247680664e+00,2.686220884323120117e+00,2.694025516510009766e+00,2.701875686645507812e+00,2.709771633148193359e+00,2.717714071273803711e+00,2.725702762603759766e+00,2.733738899230957031e+00,2.741822481155395508e+00,2.749954223632812500e+00,2.758133888244628906e+00,2.766362905502319336e+00,2.774640798568725586e+00,2.782968521118164062e+00
2.249561786651611328e+00,2.255032539367675781e+00,2.260530233383178711e+00,2.266054630279541016e+00,2.271606206893920898e+00,2.277184963226318359e+00,2.282791137695312500e+00,2.288424968719482422e+00,2.294086933135986328e+00,2.299776792526245117e+00,2.305495023727416992e+00,2.311241626739501953e+00,2.317017078399658203e+00,2.322821378707885742e+00,2.328654766082763672e+00,2.334517717361450195e+00,2.340410232543945312e+00,2.346332550048828125e+00,2.352284908294677734e+00,2.358267307281494141e+00,2.364280462265014648e+00,2.370324373245239258e+00,2.376399278640747070e+00,2.382505178451538086e+00,2.388642787933349609e+00,2.394812107086181641e+00,2.401013135910034180e+00,2.407246589660644531e+00,2.413512468338012695e+00,2.419810771942138672e+00,2.426142454147338867e+00,2.432507038116455078e+00,2.438905239105224609e+00,2.445337295532226562e+00,2.451803207397460938e+00,2.458303451538085938e+00,2.464838027954101562e+00,2.471407890319824219e+00,2.478012561798095703e+00,2.484652757644653320e+00,2.491328477859497070e+00,2.498040199279785156e+00,2.504788398742675781e+00,2.511572837829589844e+00,2.518394231796264648e+00,2.525252819061279297e+00,2.532148838043212891e+00,2.539082765579223633e+00,2.546054601669311523e+00,2.553065061569213867e+00,2.560114145278930664e+00,2.567202329635620117e+00,2.574329614639282227e+00,2.581496715545654297e+00,2.588703870773315430e+00,2.595951080322265625e+00,2.603239536285400391e+00,2.610568761825561523e+00,2.617939233779907227e+00,2.625351667404174805e+00,2.632806062698364258e+00,2.640302896499633789e+00,2.647842645645141602e+00,2.655425310134887695e+00,2.663051843643188477e+00,2.670722246170043945e+00,2.678436994552612305e+00,2.686196327209472656e+00,2.694000720977783203e+00,2.701850652694702148e+00,2.709746360778808594e+00,2.717688560485839844e+00,2.725677251815795898e+00,2.733713388442993164e+00,2.741796731948852539e+00,2.749927997589111328e+00,2.758107900619506836e+00,2.766336441040039062e+00,2.774614334106445312e+00,2.782941818237304688e+00
2.249544382095336914e+00,2.255015134811401367e+00,2.260512828826904297e+00,2.266036987304687500e+00,2.271588563919067383e+00,2.277167081832885742e+00,2.282773256301879883e+00,2.288407087326049805e+00,2.294068813323974609e+00,2.299758672714233398e+00,2.305476665496826172e+00,2.311223268508911133e+00,2.316998720169067383e+00,2.322803020477294922e+00,2.328636407852172852e+00,2.334499120712280273e+00,2.340391397476196289e+00,2.346313714981079102e+00,2.352265834808349609e+00,2.358248472213745117e+00,2.364261388778686523e+00,2.370305061340332031e+00,2.376379966735839844e+00,2.382485866546630859e+00,2.388623237609863281e+00,2.394792318344116211e+00,2.400993347167968750e+00,2.407226800918579102e+00,2.413492441177368164e+00,2.419790983200073242e+00,2.426122188568115234e+00,2.432486772537231445e+00,2.438884973526000977e+00,2.445316791534423828e+00,2.451782703399658203e+00,2.458282709121704102e+00,2.464817523956298828e+00,2.471386909484863281e+00,2.477991342544555664e+00,2.484631538391113281e+00,2.491307258605957031e+00,2.498018980026245117e+00,2.504766702651977539e+00,2.511551141738891602e+00,2.518372535705566406e+00,2.525231122970581055e+00,2.532127141952514648e+00,2.539060831069946289e+00,2.546032667160034180e+00,2.553042888641357422e+00,2.560091495513916016e+00,2.567179679870605469e+00,2.574306726455688477e+00,2.581474065780639648e+00,2.588680744171142578e+00,2.595928192138671875e+00,2.603216171264648438e+00,2.610545396804809570e+00,2.617915868759155273e+00,2.625327825546264648e+00,2.632782220840454102e+00,2.640279054641723633e+00,2.647818565368652344e+00,2.655401229858398438e+00,2.663027524948120117e+00,2.670697689056396484e+00,2.678412437438964844e+00,2.686171531677246094e+00,2.693975925445556641e+00,2.701825618743896484e+00,2.709721326828002930e+00,2.717663288116455078e+00,2.725651979446411133e+00,2.733687877655029297e+00,2.741770982742309570e+00,2.749902486801147461e+00,2.758081912994384766e+00,2.766310214996337891e+00,2.774588108062744141e+00,2.782915115356445312e+00
2.249527215957641602e+00,2.254997730255126953e+00,2.260495424270629883e+00,2.266019344329833984e+00,2.271570920944213867e+00,2.277149438858032227e+00,2.282755613327026367e+00,2.288389205932617188e+00,2.294050693511962891e+00,2.299740552902221680e+00,2.305458545684814453e+00,2.311205148696899414e+00,2.316980123519897461e+00,2.322784423828125000e+00,2.328617811203002930e+00,2.334480285644531250e+00,2.340372800827026367e+00,2.346294879913330078e+00,2.352246999740600586e+00,2.358229398727416992e+00,2.364242315292358398e+00,2.370285987854003906e+00,2.376360654830932617e+00,2.382466316223144531e+00,2.388603687286376953e+00,2.394772768020629883e+00,2.400973796844482422e+00,2.407206773757934570e+00,2.413472652435302734e+00,2.419770956039428711e+00,2.426102161407470703e+00,2.432466506958007812e+00,2.438864469528198242e+00,2.445296287536621094e+00,2.451761960983276367e+00,2.458261966705322266e+00,2.464796543121337891e+00,2.471365928649902344e+00,2.477970600128173828e+00,2.484610319137573242e+00,2.491285800933837891e+00,2.497997522354125977e+00,2.504745244979858398e+00,2.511529684066772461e+00,2.518350839614868164e+00,2.525209426879882812e+00,2.532105207443237305e+00,2.539038658142089844e+00,2.546010494232177734e+00,2.553020477294921875e+00,2.560069322586059570e+00,2.567157030105590820e+00,2.574284076690673828e+00,2.581451177597045898e+00,2.588657855987548828e+00,2.595905303955078125e+00,2.603193044662475586e+00,2.610522031784057617e+00,2.617892503738403320e+00,2.625304222106933594e+00,2.632758617401123047e+00,2.640255212783813477e+00,2.647794485092163086e+00,2.655377149581909180e+00,2.663003206253051758e+00,2.670673370361328125e+00,2.678387880325317383e+00,2.686146974563598633e+00,2.693951129913330078e+00,2.701800584793090820e+00,2.709696292877197266e+00,2.717638015747070312e+00,2.725626707077026367e+00,2.733662128448486328e+00,2.741745233535766602e+00,2.749876499176025391e+00,2.758055686950683594e+00,2.766284227371215820e+00,2.774561643600463867e+00,2.782888650894165039e+00
2.249509811401367188e+00,2.254980564117431641e+00,2.260477781295776367e+00,2.266001939773559570e+00,2.271553277969360352e+00,2.277131557464599609e+00,2.282737731933593750e+00,2.288371324539184570e+00,2.294032812118530273e+00,2.299722433090209961e+00,2.305440425872802734e+00,2.311186790466308594e+00,2.316961765289306641e+00,2.322766065597534180e+00,2.328599214553833008e+00,2.334461688995361328e+00,2.340353965759277344e+00,2.346275806427001953e+00,2.352228164672851562e+00,2.358210325241088867e+00,2.364223241806030273e+00,2.370266675949096680e+00,2.376341342926025391e+00,2.382447004318237305e+00,2.388584136962890625e+00,2.394753217697143555e+00,2.400954008102416992e+00,2.407186985015869141e+00,2.413452625274658203e+00,2.419750928878784180e+00,2.426082134246826172e+00,2.432446241378784180e+00,2.438844203948974609e+00,2.445275783538818359e+00,2.451741456985473633e+00,2.458241462707519531e+00,2.464775800704956055e+00,2.471344947814941406e+00,2.477949619293212891e+00,2.484589338302612305e+00,2.491264820098876953e+00,2.497976064682006836e+00,2.504724025726318359e+00,2.511508226394653320e+00,2.518329143524169922e+00,2.525187492370605469e+00,2.532083272933959961e+00,2.539016723632812500e+00,2.545988321304321289e+00,2.552998065948486328e+00,2.560046911239624023e+00,2.567134380340576172e+00,2.574261665344238281e+00,2.581428289413452148e+00,2.588634967803955078e+00,2.595882177352905273e+00,2.603169918060302734e+00,2.610498666763305664e+00,2.617868900299072266e+00,2.625280618667602539e+00,2.632735013961791992e+00,2.640231370925903320e+00,2.647770643234252930e+00,2.655353069305419922e+00,2.662979125976562500e+00,2.670649051666259766e+00,2.678363084793090820e+00,2.686122179031372070e+00,2.693926334381103516e+00,2.701775789260864258e+00,2.709671020507812500e+00,2.717612743377685547e+00,2.725601196289062500e+00,2.733636617660522461e+00,2.741719722747802734e+00,2.749850511550903320e+00,2.758029699325561523e+00,2.766258001327514648e+00,2.774535179138183594e+00,2.782862424850463867e+00
2.249492645263671875e+00,2.254963159561157227e+00,2.260460376739501953e+00,2.265984296798706055e+00,2.271535634994506836e+00,2.277113914489746094e+00,2.282719850540161133e+00,2.288353204727172852e+00,2.294014930725097656e+00,2.299704313278198242e+00,2.305422306060791016e+00,2.311168432235717773e+00,2.316943407058715820e+00,2.322747707366943359e+00,2.328580617904663086e+00,2.334443092346191406e+00,2.340335130691528320e+00,2.346257209777832031e+00,2.352209091186523438e+00,2.358191251754760742e+00,2.364204168319702148e+00,2.370247602462768555e+00,2.376322031021118164e+00,2.382427692413330078e+00,2.388564586639404297e+00,2.394733667373657227e+00,2.400934219360351562e+00,2.407167434692382812e+00,2.413432598114013672e+00,2.419730663299560547e+00,2.426061868667602539e+00,2.432425975799560547e+00,2.438823938369750977e+00,2.445255517959594727e+00,2.451720714569091797e+00,2.458220720291137695e+00,2.464755058288574219e+00,2.471324205398559570e+00,2.477928400039672852e+00,2.484568357467651367e+00,2.491243600845336914e+00,2.497954607009887695e+00,2.504702568054199219e+00,2.511486530303955078e+00,2.518307685852050781e+00,2.525165557861328125e+00,2.532061100006103516e+00,2.538994550704956055e+00,2.545966148376464844e+00,2.552975893020629883e+00,2.560024499893188477e+00,2.567111968994140625e+00,2.574239015579223633e+00,2.581405401229858398e+00,2.588612079620361328e+00,2.595859050750732422e+00,2.603146791458129883e+00,2.610475540161132812e+00,2.617845535278320312e+00,2.625257253646850586e+00,2.632711172103881836e+00,2.640207529067993164e+00,2.647746562957763672e+00,2.655328750610351562e+00,2.662954807281494141e+00,2.670624494552612305e+00,2.678338766098022461e+00,2.686097621917724609e+00,2.693901300430297852e+00,2.701750755310058594e+00,2.709645986557006836e+00,2.717587709426879883e+00,2.725575685501098633e+00,2.733610868453979492e+00,2.741693973541259766e+00,2.749824523925781250e+00,2.758003950119018555e+00,2.766231775283813477e+00,2.774509191513061523e+00,2.782835721969604492e+00
2.249475240707397461e+00,2.254945516586303711e+00,2.260442972183227539e+00,2.265966653823852539e+00,2.271517992019653320e+00,2.277096271514892578e+00,2.282701969146728516e+00,2.288335561752319336e+00,2.293996810913085938e+00,2.299686193466186523e+00,2.305403947830200195e+00,2.311150312423706055e+00,2.316925287246704102e+00,2.322729110717773438e+00,2.328562259674072266e+00,2.334424495697021484e+00,2.340316534042358398e+00,2.346238374710083008e+00,2.352190256118774414e+00,2.358172416687011719e+00,2.364184856414794922e+00,2.370228290557861328e+00,2.376302719116210938e+00,2.382408142089843750e+00,2.388545274734497070e+00,2.394713878631591797e+00,2.400914430618286133e+00,2.407147407531738281e+00,2.413412809371948242e+00,2.419710874557495117e+00,2.426041841506958008e+00,2.432405710220336914e+00,2.438803434371948242e+00,2.445235013961791992e+00,2.451700448989868164e+00,2.458199977874755859e+00,2.464734315872192383e+00,2.471303224563598633e+00,2.477907419204711914e+00,2.484547138214111328e+00,2.491222143173217773e+00,2.497933626174926758e+00,2.504680871963500977e+00,2.511464834213256836e+00,2.518285751342773438e+00,2.525143861770629883e+00,2.532039403915405273e+00,2.538972616195678711e+00,2.545943737030029297e+00,2.552953720092773438e+00,2.560001850128173828e+00,2.567089557647705078e+00,2.574216127395629883e+00,2.581382751464843750e+00,2.588589191436767578e+00,2.595835924148559570e+00,2.603123664855957031e+00,2.610452175140380859e+00,2.617822170257568359e+00,2.625233650207519531e+00,2.632687330245971680e+00,2.640183687210083008e+00,2.647722721099853516e+00,2.655304908752441406e+00,2.662930488586425781e+00,2.670600175857543945e+00,2.678314208984375000e+00,2.686072826385498047e+00,2.693876743316650391e+00,2.701725721359252930e+00,2.709620714187622070e+00,2.717562437057495117e+00,2.725550174713134766e+00,2.733585596084594727e+00,2.741668224334716797e+00,2.749799013137817383e+00,2.757977724075317383e+00,2.766205549240112305e+00,2.774482727050781250e+00,2.782809257507324219e+00
2.249457836151123047e+00,2.254928112030029297e+00,2.260425329208374023e+00,2.265949249267578125e+00,2.271500349044799805e+00,2.277078390121459961e+00,2.282684087753295898e+00,2.288317680358886719e+00,2.293978929519653320e+00,2.299668312072753906e+00,2.305385828018188477e+00,2.311131954193115234e+00,2.316906690597534180e+00,2.322710514068603516e+00,2.328543663024902344e+00,2.334405899047851562e+00,2.340297937393188477e+00,2.346219539642333984e+00,2.352171182632446289e+00,2.358153343200683594e+00,2.364165782928466797e+00,2.370209217071533203e+00,2.376283407211303711e+00,2.382388830184936523e+00,2.388525724411010742e+00,2.394694328308105469e+00,2.400894880294799805e+00,2.407127618789672852e+00,2.413392782211303711e+00,2.419690847396850586e+00,2.426021575927734375e+00,2.432385683059692383e+00,2.438783168792724609e+00,2.445214509963989258e+00,2.451679706573486328e+00,2.458179235458374023e+00,2.464713573455810547e+00,2.471282482147216797e+00,2.477886676788330078e+00,2.484525918960571289e+00,2.491200923919677734e+00,2.497912168502807617e+00,2.504659414291381836e+00,2.511443614959716797e+00,2.518264055252075195e+00,2.525121927261352539e+00,2.532017469406127930e+00,2.538950443267822266e+00,2.545921802520751953e+00,2.552931308746337891e+00,2.559979677200317383e+00,2.567066907882690430e+00,2.574193477630615234e+00,2.581360101699829102e+00,2.588566303253173828e+00,2.595813035964965820e+00,2.603100299835205078e+00,2.610428810119628906e+00,2.617798566818237305e+00,2.625210046768188477e+00,2.632663965225219727e+00,2.640159845352172852e+00,2.647698640823364258e+00,2.655280828475952148e+00,2.662906169891357422e+00,2.670575857162475586e+00,2.678289651870727539e+00,2.686048030853271484e+00,2.693851947784423828e+00,2.701700687408447266e+00,2.709595918655395508e+00,2.717536926269531250e+00,2.725525140762329102e+00,2.733559846878051758e+00,2.741642475128173828e+00,2.749773025512695312e+00,2.757951736450195312e+00,2.766179561614990234e+00,2.774456262588500977e+00,2.782782793045043945e+00
2.249440670013427734e+00,2.254910945892333984e+00,2.260407924652099609e+00,2.265931606292724609e+00,2.271482706069946289e+00,2.277060747146606445e+00,2.282666444778442383e+00,2.288299560546875000e+00,2.293961048126220703e+00,2.299650192260742188e+00,2.305367708206176758e+00,2.311113834381103516e+00,2.316888332366943359e+00,2.322692394256591797e+00,2.328525066375732422e+00,2.334387063980102539e+00,2.340279102325439453e+00,2.346200704574584961e+00,2.352152347564697266e+00,2.358134269714355469e+00,2.364146709442138672e+00,2.370189905166625977e+00,2.376264095306396484e+00,2.382369518280029297e+00,2.388506174087524414e+00,2.394674539566040039e+00,2.400875091552734375e+00,2.407107830047607422e+00,2.413372993469238281e+00,2.419670820236206055e+00,2.426001548767089844e+00,2.432365417480468750e+00,2.438762664794921875e+00,2.445194005966186523e+00,2.451659202575683594e+00,2.458158731460571289e+00,2.464692831039428711e+00,2.471261501312255859e+00,2.477865457534790039e+00,2.484504938125610352e+00,2.491179943084716797e+00,2.497890710830688477e+00,2.504637956619262695e+00,2.511421918869018555e+00,2.518242359161376953e+00,2.525100231170654297e+00,2.531995534896850586e+00,2.538928508758544922e+00,2.545899629592895508e+00,2.552908897399902344e+00,2.559957265853881836e+00,2.567044258117675781e+00,2.574171066284179688e+00,2.581337213516235352e+00,2.588543176651000977e+00,2.595789909362792969e+00,2.603077173233032227e+00,2.610405445098876953e+00,2.617775201797485352e+00,2.625186443328857422e+00,2.632640123367309570e+00,2.640136003494262695e+00,2.647674798965454102e+00,2.655256509780883789e+00,2.662881851196289062e+00,2.670551538467407227e+00,2.678265094757080078e+00,2.686023473739624023e+00,2.693826913833618164e+00,2.701675891876220703e+00,2.709570646286010742e+00,2.717511653900146484e+00,2.725499629974365234e+00,2.733534336090087891e+00,2.741616964340209961e+00,2.749747037887573242e+00,2.757925748825073242e+00,2.766153335571289062e+00,2.774430036544799805e+00,2.782756328582763672e+00
2.249423265457153320e+00,2.254893541336059570e+00,2.260390281677246094e+00,2.265914201736450195e+00,2.271465063095092773e+00,2.277043104171752930e+00,2.282648563385009766e+00,2.288281679153442383e+00,2.293942928314208984e+00,2.299632072448730469e+00,2.305349588394165039e+00,2.311095476150512695e+00,2.316869974136352539e+00,2.322673797607421875e+00,2.328506469726562500e+00,2.334368705749511719e+00,2.340260267257690430e+00,2.346181869506835938e+00,2.352133512496948242e+00,2.358115196228027344e+00,2.364127635955810547e+00,2.370170593261718750e+00,2.376244544982910156e+00,2.382349967956542969e+00,2.388486623764038086e+00,2.394655227661132812e+00,2.400855302810668945e+00,2.407088041305541992e+00,2.413352966308593750e+00,2.419650554656982422e+00,2.425981283187866211e+00,2.432345151901245117e+00,2.438742637634277344e+00,2.445173501968383789e+00,2.451638460159301758e+00,2.458137989044189453e+00,2.464671850204467773e+00,2.471240758895874023e+00,2.477844476699829102e+00,2.484483718872070312e+00,2.491158723831176758e+00,2.497869491577148438e+00,2.504616737365722656e+00,2.511400222778320312e+00,2.518220901489257812e+00,2.525078535079956055e+00,2.531973600387573242e+00,2.538906574249267578e+00,2.545877456665039062e+00,2.552886962890625000e+00,2.559934854507446289e+00,2.567021846771240234e+00,2.574148178100585938e+00,2.581314325332641602e+00,2.588520526885986328e+00,2.595766782760620117e+00,2.603053808212280273e+00,2.610382318496704102e+00,2.617751598358154297e+00,2.625163078308105469e+00,2.632616281509399414e+00,2.640111923217773438e+00,2.647650718688964844e+00,2.655232429504394531e+00,2.662857770919799805e+00,2.670526981353759766e+00,2.678240776062011719e+00,2.685998916625976562e+00,2.693802118301391602e+00,2.701650857925415039e+00,2.709545612335205078e+00,2.717486619949340820e+00,2.725474119186401367e+00,2.733508825302124023e+00,2.741591215133666992e+00,2.749721288681030273e+00,2.757899761199951172e+00,2.766127109527587891e+00,2.774403572082519531e+00,2.782729864120483398e+00
2.249406099319458008e+00,2.254876136779785156e+00,2.260373115539550781e+00,2.265896558761596680e+00,2.271447420120239258e+00,2.277025222778320312e+00,2.282630681991577148e+00,2.288263797760009766e+00,2.293924808502197266e+00,2.299613952636718750e+00,2.305331230163574219e+00,2.311077117919921875e+00,2.316851854324340820e+00,2.322655200958251953e+00,2.328487873077392578e+00,2.334349870681762695e+00,2.340241432189941406e+00,2.346163034439086914e+00,2.352114439010620117e+00,2.358096361160278320e+00,2.364108562469482422e+00,2.370151281356811523e+00,2.376225471496582031e+00,2.382330656051635742e+00,2.388467311859130859e+00,2.394635438919067383e+00,2.400835514068603516e+00,2.407068252563476562e+00,2.413332939147949219e+00,2.419630765914916992e+00,2.425961256027221680e+00,2.432324886322021484e+00,2.438722133636474609e+00,2.445153236389160156e+00,2.451618194580078125e+00,2.458117246627807617e+00,2.464651107788085938e+00,2.471219778060913086e+00,2.477823495864868164e+00,2.484462738037109375e+00,2.491137266159057617e+00,2.497848272323608398e+00,2.504595279693603516e+00,2.511378765106201172e+00,2.518199205398559570e+00,2.525056600570678711e+00,2.531951665878295898e+00,2.538884401321411133e+00,2.545855045318603516e+00,2.552864551544189453e+00,2.559912204742431641e+00,2.566999435424804688e+00,2.574125528335571289e+00,2.581291437149047852e+00,2.588497400283813477e+00,2.595743656158447266e+00,2.603030920028686523e+00,2.610358953475952148e+00,2.617728471755981445e+00,2.625139474868774414e+00,2.632592678070068359e+00,2.640088319778442383e+00,2.647626638412475586e+00,2.655208349227905273e+00,2.662833452224731445e+00,2.670502662658691406e+00,2.678216218948364258e+00,2.685974121093750000e+00,2.693777561187744141e+00,2.701626062393188477e+00,2.709520339965820312e+00,2.717461347579956055e+00,2.725448608398437500e+00,2.733483314514160156e+00,2.741565465927124023e+00,2.749695301055908203e+00,2.757873773574829102e+00,2.766100883483886719e+00,2.774377346038818359e+00,2.782703399658203125e+00
2.249388694763183594e+00,2.254858732223510742e+00,2.260355472564697266e+00,2.265878915786743164e+00,2.271429777145385742e+00,2.277007579803466797e+00,2.282612800598144531e+00,2.288245916366577148e+00,2.293906927108764648e+00,2.299595832824707031e+00,2.305313110351562500e+00,2.311058759689331055e+00,2.316833257675170898e+00,2.322636842727661133e+00,2.328469514846801758e+00,2.334331274032592773e+00,2.340222835540771484e+00,2.346144199371337891e+00,2.352095603942871094e+00,2.358077287673950195e+00,2.364089250564575195e+00,2.370132207870483398e+00,2.376206159591674805e+00,2.382311105728149414e+00,2.388447761535644531e+00,2.394615888595581055e+00,2.400815963745117188e+00,2.407048463821411133e+00,2.413313150405883789e+00,2.419610738754272461e+00,2.425940990447998047e+00,2.432304620742797852e+00,2.438701868057250977e+00,2.445132732391357422e+00,2.451597452163696289e+00,2.458096504211425781e+00,2.464630365371704102e+00,2.471198797225952148e+00,2.477802515029907227e+00,2.484441518783569336e+00,2.491116046905517578e+00,2.497826814651489258e+00,2.504573583602905273e+00,2.511357307434082031e+00,2.518177270889282227e+00,2.525034666061401367e+00,2.531929731369018555e+00,2.538862228393554688e+00,2.545833110809326172e+00,2.552842140197753906e+00,2.559889793395996094e+00,2.566976785659790039e+00,2.574102878570556641e+00,2.581268787384033203e+00,2.588474512100219727e+00,2.595720767974853516e+00,2.603007555007934570e+00,2.610335588455200195e+00,2.617704868316650391e+00,2.625115871429443359e+00,2.632569074630737305e+00,2.640064477920532227e+00,2.647602796554565430e+00,2.655184268951416016e+00,2.662809133529663086e+00,2.670478343963623047e+00,2.678191423416137695e+00,2.685949325561523438e+00,2.693752527236938477e+00,2.701601028442382812e+00,2.709495306015014648e+00,2.717436075210571289e+00,2.725423097610473633e+00,2.733457803726196289e+00,2.741539716720581055e+00,2.749669551849365234e+00,2.757847547531127930e+00,2.766074895858764648e+00,2.774351119995117188e+00,2.782676935195922852e+00
2.249371290206909180e+00,2.254841327667236328e+00,2.260338068008422852e+00,2.265861272811889648e+00,2.271412134170532227e+00,2.276989698410034180e+00,2.282595157623291016e+00,2.288228034973144531e+00,2.293888807296752930e+00,2.299577713012695312e+00,2.305294990539550781e+00,2.311040639877319336e+00,2.316814899444580078e+00,2.322618484497070312e+00,2.328450918197631836e+00,2.334312677383422852e+00,2.340204238891601562e+00,2.346125364303588867e+00,2.352076768875122070e+00,2.358058214187622070e+00,2.364070177078247070e+00,2.370113134384155273e+00,2.376186847686767578e+00,2.382291793823242188e+00,2.388428211212158203e+00,2.394596099853515625e+00,2.400796175003051758e+00,2.407028436660766602e+00,2.413293361663818359e+00,2.419590711593627930e+00,2.425920963287353516e+00,2.432284355163574219e+00,2.438681364059448242e+00,2.445112228393554688e+00,2.451576948165893555e+00,2.458076000213623047e+00,2.464609622955322266e+00,2.471177816390991211e+00,2.477781534194946289e+00,2.484420299530029297e+00,2.491095066070556641e+00,2.497805356979370117e+00,2.504552125930786133e+00,2.511335611343383789e+00,2.518155574798583984e+00,2.525012969970703125e+00,2.531907796859741211e+00,2.538840293884277344e+00,2.545810937881469727e+00,2.552819728851318359e+00,2.559867620468139648e+00,2.566954135894775391e+00,2.574080228805541992e+00,2.581245899200439453e+00,2.588451623916625977e+00,2.595697641372680664e+00,2.602984428405761719e+00,2.610312461853027344e+00,2.617681503295898438e+00,2.625092029571533203e+00,2.632545232772827148e+00,2.640040636062622070e+00,2.647578954696655273e+00,2.655160188674926758e+00,2.662784814834594727e+00,2.670454025268554688e+00,2.678166866302490234e+00,2.685925006866455078e+00,2.693727731704711914e+00,2.701575994491577148e+00,2.709470272064208984e+00,2.717410802841186523e+00,2.725398063659667969e+00,2.733432054519653320e+00,2.741513967514038086e+00,2.749643564224243164e+00,2.757821559906005859e+00,2.766048669815063477e+00,2.774324655532836914e+00,2.782650470733642578e+00
2.249354124069213867e+00,2.254823923110961914e+00,2.260320425033569336e+00,2.265843868255615234e+00,2.271394491195678711e+00,2.276972055435180664e+00,2.282577276229858398e+00,2.288210153579711914e+00,2.293870925903320312e+00,2.299559593200683594e+00,2.305276870727539062e+00,2.311022281646728516e+00,2.316796541213989258e+00,2.322599887847900391e+00,2.328432321548461914e+00,2.334294080734252930e+00,2.340185403823852539e+00,2.346106529235839844e+00,2.352057695388793945e+00,2.358039140701293945e+00,2.364051103591918945e+00,2.370093822479248047e+00,2.376167297363281250e+00,2.382272481918334961e+00,2.388408660888671875e+00,2.394576787948608398e+00,2.400776624679565430e+00,2.407008647918701172e+00,2.413273334503173828e+00,2.419570446014404297e+00,2.425900936126708984e+00,2.432264089584350586e+00,2.438661098480224609e+00,2.445091724395751953e+00,2.451556444168090820e+00,2.458055257797241211e+00,2.464588880538940430e+00,2.471157073974609375e+00,2.477760553359985352e+00,2.484399318695068359e+00,2.491073846817016602e+00,2.497784137725830078e+00,2.504530906677246094e+00,2.511313915252685547e+00,2.518133878707885742e+00,2.524991273880004883e+00,2.531885862350463867e+00,2.538818359375000000e+00,2.545788764953613281e+00,2.552797794342041016e+00,2.559845209121704102e+00,2.566931486129760742e+00,2.574057579040527344e+00,2.581223249435424805e+00,2.588428735733032227e+00,2.595674753189086914e+00,2.602961301803588867e+00,2.610289096832275391e+00,2.617657899856567383e+00,2.625068664550781250e+00,2.632521629333496094e+00,2.640016794204711914e+00,2.647554874420166016e+00,2.655135869979858398e+00,2.662760734558105469e+00,2.670429468154907227e+00,2.678142309188842773e+00,2.685900211334228516e+00,2.693702936172485352e+00,2.701551198959350586e+00,2.709444999694824219e+00,2.717385530471801758e+00,2.725372552871704102e+00,2.733406543731689453e+00,2.741488218307495117e+00,2.749617815017700195e+00,2.757795810699462891e+00,2.766022443771362305e+00,2.774298191070556641e+00,2.782624006271362305e+00
2.249336957931518555e+00,2.254806518554687500e+00,2.260303020477294922e+00,2.265826225280761719e+00,2.271376609802246094e+00,2.276954412460327148e+00,2.282559394836425781e+00,2.288192272186279297e+00,2.293852806091308594e+00,2.299541473388671875e+00,2.305258750915527344e+00,2.311004161834716797e+00,2.316778421401977539e+00,2.322581529617309570e+00,2.328413724899291992e+00,2.334275484085083008e+00,2.340166568756103516e+00,2.346087694168090820e+00,2.352038860321044922e+00,2.358020067214965820e+00,2.364032030105590820e+00,2.370074510574340820e+00,2.376148223876953125e+00,2.382252931594848633e+00,2.388389110565185547e+00,2.394556999206542969e+00,2.400756835937500000e+00,2.406988859176635742e+00,2.413253307342529297e+00,2.419550657272338867e+00,2.425880670547485352e+00,2.432243824005126953e+00,2.438640832901000977e+00,2.445071220397949219e+00,2.451535940170288086e+00,2.458034753799438477e+00,2.464567899703979492e+00,2.471136331558227539e+00,2.477739572525024414e+00,2.484378337860107422e+00,2.491052389144897461e+00,2.497762680053710938e+00,2.504509449005126953e+00,2.511292457580566406e+00,2.518112421035766602e+00,2.524969339370727539e+00,2.531863927841186523e+00,2.538796186447143555e+00,2.545766592025756836e+00,2.552775382995605469e+00,2.559822797775268555e+00,2.566909313201904297e+00,2.574034929275512695e+00,2.581200361251831055e+00,2.588405847549438477e+00,2.595651626586914062e+00,2.602938175201416016e+00,2.610265731811523438e+00,2.617634534835815430e+00,2.625045061111450195e+00,2.632497787475585938e+00,2.639992952346801758e+00,2.647530794143676758e+00,2.655111789703369141e+00,2.662736415863037109e+00,2.670405149459838867e+00,2.678117990493774414e+00,2.685875415802001953e+00,2.693678140640258789e+00,2.701526165008544922e+00,2.709419965744018555e+00,2.717360258102416992e+00,2.725347042083740234e+00,2.733381032943725586e+00,2.741462469100952148e+00,2.749591827392578125e+00,2.757769584655761719e+00,2.765996217727661133e+00,2.774272203445434570e+00,2.782597303390502930e+00
2.249319553375244141e+00,2.254789113998413086e+00,2.260285615921020508e+00,2.265808582305908203e+00,2.271359205245971680e+00,2.276936531066894531e+00,2.282541513442993164e+00,2.288174390792846680e+00,2.293834924697875977e+00,2.299523591995239258e+00,2.305240392684936523e+00,2.310985803604125977e+00,2.316759824752807617e+00,2.322562932968139648e+00,2.328395366668701172e+00,2.334256649017333984e+00,2.340147733688354492e+00,2.346068859100341797e+00,2.352019786834716797e+00,2.358001232147216797e+00,2.364012956619262695e+00,2.370055437088012695e+00,2.376128911972045898e+00,2.382233381271362305e+00,2.388369560241699219e+00,2.394537448883056641e+00,2.400737285614013672e+00,2.406969070434570312e+00,2.413233518600463867e+00,2.419530630111694336e+00,2.425860643386840820e+00,2.432223796844482422e+00,2.438620328903198242e+00,2.445050954818725586e+00,2.451515436172485352e+00,2.458014011383056641e+00,2.464547395706176758e+00,2.471115350723266602e+00,2.477718353271484375e+00,2.484357118606567383e+00,2.491031169891357422e+00,2.497741460800170898e+00,2.504487752914428711e+00,2.511270999908447266e+00,2.518090724945068359e+00,2.524947643280029297e+00,2.531841993331909180e+00,2.538774013519287109e+00,2.545744419097900391e+00,2.552752971649169922e+00,2.559800148010253906e+00,2.566886663436889648e+00,2.574012279510498047e+00,2.581177711486816406e+00,2.588382959365844727e+00,2.595628499984741211e+00,2.602915048599243164e+00,2.610242366790771484e+00,2.617611169815063477e+00,2.625021457672119141e+00,2.632473945617675781e+00,2.639969110488891602e+00,2.647506713867187500e+00,2.655087947845458984e+00,2.662712097167968750e+00,2.670380830764770508e+00,2.678093433380126953e+00,2.685850620269775391e+00,2.693653345108032227e+00,2.701501131057739258e+00,2.709394931793212891e+00,2.717334985733032227e+00,2.725321531295776367e+00,2.733355522155761719e+00,2.741436719894409180e+00,2.749566078186035156e+00,2.757743597030639648e+00,2.765969991683959961e+00,2.774245738983154297e+00,2.782570838928222656e+00
2.249302148818969727e+00,2.254771709442138672e+00,2.260268211364746094e+00,2.265791177749633789e+00,2.271341562271118164e+00,2.276918888092041016e+00,2.282523870468139648e+00,2.288156509399414062e+00,2.293816804885864258e+00,2.299505472183227539e+00,2.305222272872924805e+00,2.310967683792114258e+00,2.316741704940795898e+00,2.322544574737548828e+00,2.328376770019531250e+00,2.334238052368164062e+00,2.340129137039184570e+00,2.346050024032592773e+00,2.352000951766967773e+00,2.357982158660888672e+00,2.363993644714355469e+00,2.370036125183105469e+00,2.376109600067138672e+00,2.382214307785034180e+00,2.388350009918212891e+00,2.394517660140991211e+00,2.400717496871948242e+00,2.406949281692504883e+00,2.413213729858398438e+00,2.419510602951049805e+00,2.425840377807617188e+00,2.432203531265258789e+00,2.438600063323974609e+00,2.445030450820922852e+00,2.451494693756103516e+00,2.457993268966674805e+00,2.464526653289794922e+00,2.471094369888305664e+00,2.477697610855102539e+00,2.484335899353027344e+00,2.491010189056396484e+00,2.497720003128051758e+00,2.504466295242309570e+00,2.511249303817749023e+00,2.518068790435791016e+00,2.524925947189331055e+00,2.531820058822631836e+00,2.538752079010009766e+00,2.545722246170043945e+00,2.552730798721313477e+00,2.559777975082397461e+00,2.566864013671875000e+00,2.573989391326904297e+00,2.581154823303222656e+00,2.588359832763671875e+00,2.595605611801147461e+00,2.602891683578491211e+00,2.610219240188598633e+00,2.617587804794311523e+00,2.624997854232788086e+00,2.632450580596923828e+00,2.639945268630981445e+00,2.647483110427856445e+00,2.655063629150390625e+00,2.662688016891479492e+00,2.670356273651123047e+00,2.678068876266479492e+00,2.685826301574707031e+00,2.693628549575805664e+00,2.701476097106933594e+00,2.709369897842407227e+00,2.717309713363647461e+00,2.725296258926391602e+00,2.733330011367797852e+00,2.741410970687866211e+00,2.749540328979492188e+00,2.757717609405517578e+00,2.765944004058837891e+00,2.774219274520874023e+00,2.782544612884521484e+00
2.249284744262695312e+00,2.254754304885864258e+00,2.260250568389892578e+00,2.265773773193359375e+00,2.271323919296264648e+00,2.276901006698608398e+00,2.282505989074707031e+00,2.288138389587402344e+00,2.293798923492431641e+00,2.299487352371215820e+00,2.305203914642333984e+00,2.310949325561523438e+00,2.316723108291625977e+00,2.322526216506958008e+00,2.328358173370361328e+00,2.334219455718994141e+00,2.340110540390014648e+00,2.346031188964843750e+00,2.351982116699218750e+00,2.357963085174560547e+00,2.363974809646606445e+00,2.370017051696777344e+00,2.376090288162231445e+00,2.382194757461547852e+00,2.388330459594726562e+00,2.394498348236083984e+00,2.400697708129882812e+00,2.406929492950439453e+00,2.413193702697753906e+00,2.419490575790405273e+00,2.425820350646972656e+00,2.432183265686035156e+00,2.438579559326171875e+00,2.445009946823120117e+00,2.451474189758300781e+00,2.457972764968872070e+00,2.464505672454833984e+00,2.471073627471923828e+00,2.477676630020141602e+00,2.484314918518066406e+00,2.490988731384277344e+00,2.497698783874511719e+00,2.504445075988769531e+00,2.511227846145629883e+00,2.518047094345092773e+00,2.524904012680053711e+00,2.531798124313354492e+00,2.538730144500732422e+00,2.545700073242187500e+00,2.552708387374877930e+00,2.559755563735961914e+00,2.566841363906860352e+00,2.573966979980468750e+00,2.581131935119628906e+00,2.588337182998657227e+00,2.595582485198974609e+00,2.602868556976318359e+00,2.610195875167846680e+00,2.617564201354980469e+00,2.624974489212036133e+00,2.632426738739013672e+00,2.639921426773071289e+00,2.647459030151367188e+00,2.655039548873901367e+00,2.662663936614990234e+00,2.670331954956054688e+00,2.678044319152832031e+00,2.685801506042480469e+00,2.693603515625000000e+00,2.701451301574707031e+00,2.709344625473022461e+00,2.717284440994262695e+00,2.725270986557006836e+00,2.733304262161254883e+00,2.741385459899902344e+00,2.749514341354370117e+00,2.757691621780395508e+00,2.765917778015136719e+00,2.774193048477172852e+00,2.782517910003662109e+00
2.249267578125000000e+00,2.254736900329589844e+00,2.260233163833618164e+00,2.265756130218505859e+00,2.271306037902832031e+00,2.276883363723754883e+00,2.282488107681274414e+00,2.288120508193969727e+00,2.293780803680419922e+00,2.299469232559204102e+00,2.305186033248901367e+00,2.310930967330932617e+00,2.316704988479614258e+00,2.322507619857788086e+00,2.328339576721191406e+00,2.334200859069824219e+00,2.340091705322265625e+00,2.346012592315673828e+00,2.351963043212890625e+00,2.357944011688232422e+00,2.363955497741699219e+00,2.369997739791870117e+00,2.376070976257324219e+00,2.382175207138061523e+00,2.388310909271240234e+00,2.394478559494018555e+00,2.400677919387817383e+00,2.406909704208374023e+00,2.413173675537109375e+00,2.419470310211181641e+00,2.425800323486328125e+00,2.432163000106811523e+00,2.438559532165527344e+00,2.444989442825317383e+00,2.451453685760498047e+00,2.457952022552490234e+00,2.464484930038452148e+00,2.471052646636962891e+00,2.477655410766601562e+00,2.484293937683105469e+00,2.490967512130737305e+00,2.497677326202392578e+00,2.504423618316650391e+00,2.511206150054931641e+00,2.518025636672973633e+00,2.524882078170776367e+00,2.531776189804077148e+00,2.538707971572875977e+00,2.545677900314331055e+00,2.552686214447021484e+00,2.559733152389526367e+00,2.566819190979003906e+00,2.573944330215454102e+00,2.581109285354614258e+00,2.588314294815063477e+00,2.595559358596801758e+00,2.602845430374145508e+00,2.610172510147094727e+00,2.617540836334228516e+00,2.624950885772705078e+00,2.632402896881103516e+00,2.639897584915161133e+00,2.647434949874877930e+00,2.655015468597412109e+00,2.662639617919921875e+00,2.670307397842407227e+00,2.678020000457763672e+00,2.685776710510253906e+00,2.693578720092773438e+00,2.701426267623901367e+00,2.709319591522216797e+00,2.717259407043457031e+00,2.725245475769042969e+00,2.733278989791870117e+00,2.741359710693359375e+00,2.749488353729248047e+00,2.757665634155273438e+00,2.765891551971435547e+00,2.774166822433471680e+00,2.782491445541381836e+00
2.249250411987304688e+00,2.254719495773315430e+00,2.260215759277343750e+00,2.265738487243652344e+00,2.271288394927978516e+00,2.276865720748901367e+00,2.282470464706420898e+00,2.288102626800537109e+00,2.293762922286987305e+00,2.299451351165771484e+00,2.305167675018310547e+00,2.310912609100341797e+00,2.316686630249023438e+00,2.322489261627197266e+00,2.328321218490600586e+00,2.334182262420654297e+00,2.340072870254516602e+00,2.345993518829345703e+00,2.351944208145141602e+00,2.357925176620483398e+00,2.363936424255371094e+00,2.369978427886962891e+00,2.376051664352416992e+00,2.382155895233154297e+00,2.388291597366333008e+00,2.394459009170532227e+00,2.400658130645751953e+00,2.406889915466308594e+00,2.413153648376464844e+00,2.419450521469116211e+00,2.425780057907104492e+00,2.432142972946166992e+00,2.438539028167724609e+00,2.444969177246093750e+00,2.451433181762695312e+00,2.457931280136108398e+00,2.464464187622070312e+00,2.471031904220581055e+00,2.477634429931640625e+00,2.484272718429565430e+00,2.490946292877197266e+00,2.497656106948852539e+00,2.504402160644531250e+00,2.511184453964233398e+00,2.518003940582275391e+00,2.524860382080078125e+00,2.531754493713378906e+00,2.538686037063598633e+00,2.545655727386474609e+00,2.552663803100585938e+00,2.559710502624511719e+00,2.566796541213989258e+00,2.573921680450439453e+00,2.581086635589599609e+00,2.588291168212890625e+00,2.595536231994628906e+00,2.602822303771972656e+00,2.610149145126342773e+00,2.617517471313476562e+00,2.624927282333374023e+00,2.632379293441772461e+00,2.639873743057250977e+00,2.647410869598388672e+00,2.654991388320922852e+00,2.662615299224853516e+00,2.670283079147338867e+00,2.677995204925537109e+00,2.685752153396606445e+00,2.693554162979125977e+00,2.701401233673095703e+00,2.709294557571411133e+00,2.717233896255493164e+00,2.725219964981079102e+00,2.733253240585327148e+00,2.741333961486816406e+00,2.749462842941284180e+00,2.757639646530151367e+00,2.765865325927734375e+00,2.774140357971191406e+00,2.782464981079101562e+00
2.249233007431030273e+00,2.254702091217041016e+00,2.260198354721069336e+00,2.265720844268798828e+00,2.271270990371704102e+00,2.276847839355468750e+00,2.282452583312988281e+00,2.288084745407104492e+00,2.293744802474975586e+00,2.299433231353759766e+00,2.305149555206298828e+00,2.310894489288330078e+00,2.316668272018432617e+00,2.322470664978027344e+00,2.328302621841430664e+00,2.334163665771484375e+00,2.340054273605346680e+00,2.345974683761596680e+00,2.351925134658813477e+00,2.357906103134155273e+00,2.363917350769042969e+00,2.369959354400634766e+00,2.376032352447509766e+00,2.382136344909667969e+00,2.388272047042846680e+00,2.394439220428466797e+00,2.400638580322265625e+00,2.406869888305664062e+00,2.413133859634399414e+00,2.419430494308471680e+00,2.425759792327880859e+00,2.432122707366943359e+00,2.438518762588500977e+00,2.444948673248291016e+00,2.451412439346313477e+00,2.457910537719726562e+00,2.464443445205688477e+00,2.471010923385620117e+00,2.477613687515258789e+00,2.484251499176025391e+00,2.490925073623657227e+00,2.497634649276733398e+00,2.504380464553833008e+00,2.511162996292114258e+00,2.517982244491577148e+00,2.524838685989379883e+00,2.531732320785522461e+00,2.538663864135742188e+00,2.545633554458618164e+00,2.552641630172729492e+00,2.559688329696655273e+00,2.566773891448974609e+00,2.573898792266845703e+00,2.581063747406005859e+00,2.588268280029296875e+00,2.595513343811035156e+00,2.602799177169799805e+00,2.610125780105590820e+00,2.617493867874145508e+00,2.624903678894042969e+00,2.632355690002441406e+00,2.639849901199340820e+00,2.647386789321899414e+00,2.654967308044433594e+00,2.662590980529785156e+00,2.670258760452270508e+00,2.677970647811889648e+00,2.685727596282958984e+00,2.693529129028320312e+00,2.701376199722290039e+00,2.709269523620605469e+00,2.717208623886108398e+00,2.725194692611694336e+00,2.733227729797363281e+00,2.741308212280273438e+00,2.749436855316162109e+00,2.757613420486450195e+00,2.765839338302612305e+00,2.774114131927490234e+00,2.782438516616821289e+00
2.249215602874755859e+00,2.254684925079345703e+00,2.260180711746215820e+00,2.265703439712524414e+00,2.271253347396850586e+00,2.276830196380615234e+00,2.282434701919555664e+00,2.288066864013671875e+00,2.293726921081542969e+00,2.299415111541748047e+00,2.305131435394287109e+00,2.310876369476318359e+00,2.316649675369262695e+00,2.322452545166015625e+00,2.328284025192260742e+00,2.334144830703735352e+00,2.340035438537597656e+00,2.345955848693847656e+00,2.351906299591064453e+00,2.357887029647827148e+00,2.363898277282714844e+00,2.369940042495727539e+00,2.376013040542602539e+00,2.382117033004760742e+00,2.388252496719360352e+00,2.394419908523559570e+00,2.400618791580200195e+00,2.406850099563598633e+00,2.413114070892333984e+00,2.419410467147827148e+00,2.425740003585815430e+00,2.432102441787719727e+00,2.438498258590698242e+00,2.444928169250488281e+00,2.451391935348510742e+00,2.457890033721923828e+00,2.464422702789306641e+00,2.470989942550659180e+00,2.477592468261718750e+00,2.484230279922485352e+00,2.490904092788696289e+00,2.497613430023193359e+00,2.504359245300292969e+00,2.511141538619995117e+00,2.517960548400878906e+00,2.524816751480102539e+00,2.531710386276245117e+00,2.538641929626464844e+00,2.545611381530761719e+00,2.552619218826293945e+00,2.559665918350219727e+00,2.566751241683959961e+00,2.573876380920410156e+00,2.581040859222412109e+00,2.586863756179809570e+00,2.586519241333007812e+00,2.586174964904785156e+00,2.585830688476562500e+00,2.585486412048339844e+00,2.585142374038696289e+00,2.584798574447631836e+00,2.584454536437988281e+00,2.584110736846923828e+00,2.583767175674438477e+00,2.583423614501953125e+00,2.583079814910888672e+00,2.582736492156982422e+00,2.582393169403076172e+00,2.582049846649169922e+00,2.581706762313842773e+00,2.581363677978515625e+00,2.581020593643188477e+00,2.580677747726440430e+00,2.580335140228271484e+00,2.579992294311523438e+00,2.579649686813354492e+00,2.579307317733764648e+00,2.578964948654174805e+00,2.578622341156005859e+00,2.578280210494995117e+00
2.249198436737060547e+00,2.254667520523071289e+00,2.254963636398315430e+00,2.254704236984252930e+00,2.254445075988769531e+00,2.254185676574707031e+00,2.253926515579223633e+00,2.253667593002319336e+00,2.253408432006835938e+00,2.253149509429931641e+00,2.252890586853027344e+00,2.252631664276123047e+00,2.252372980117797852e+00,2.252114057540893555e+00,2.251855611801147461e+00,2.251596927642822266e+00,2.251338243484497070e+00,2.251079797744750977e+00,2.250821352005004883e+00,2.250562906265258789e+00,2.250304460525512695e+00,2.250046253204345703e+00,2.249788045883178711e+00,2.249529838562011719e+00,2.249271869659423828e+00,2.249013662338256836e+00,2.248755931854248047e+00,2.248497962951660156e+00,2.248239994049072266e+00,2.247982263565063477e+00,2.247724533081054688e+00,2.247466802597045898e+00,2.247209072113037109e+00,2.246951818466186523e+00,2.246694087982177734e+00,2.246436595916748047e+00,2.246179342269897461e+00,2.245921850204467773e+00,2.245664834976196289e+00,2.245407342910766602e+00,2.245150327682495117e+00,2.244893312454223633e+00,2.244636058807373047e+00,2.244377374649047852e+00,2.244118213653564453e+00,2.243858814239501953e+00,2.243599891662597656e+00,2.243340730667114258e+00,2.243081569671630859e+00,2.242822647094726562e+00,2.242563724517822266e+00,2.242304801940917969e+00,2.242046117782592773e+00,2.241787433624267578e+00,2.241528749465942383e+00,2.241270065307617188e+00,2.241011619567871094e+00,2.240753173828125000e+00,2.240494489669799805e+00,2.240236282348632812e+00,2.239977836608886719e+00,2.239719629287719727e+00,2.239461421966552734e+00,2.239203214645385742e+00,2.238945245742797852e+00,2.238687038421630859e+00,2.238429307937622070e+00,2.238171339035034180e+00,2.237913370132446289e+00,2.237655639648437500e+00,2.237397909164428711e+00,2.237140178680419922e+00,2.236882686614990234e+00,2.236625194549560547e+00,2.236367702484130859e+00,2.236110210418701172e+00,2.235852956771850586e+00,2.235595464706420898e+00,2.235338211059570312e+00,2.235081195831298828e+00
1.988398432731628418e+00,1.988196849822998047e+00,1.987995386123657227e+00,1.987793684005737305e+00,1.987592101097106934e+00,1.987390637397766113e+00,1.987189173698425293e+00,1.986987948417663574e+00,1.986786484718322754e+00,1.986585140228271484e+00,1.986383795738220215e+00,1.986182451248168945e+00,1.985981464385986328e+00,1.985780239105224609e+00,1.985579133033752441e+00,1.985377907752990723e+00,1.985177159309387207e+00,1.984976053237915039e+00,1.984775066375732422e+00,1.984574079513549805e+00,1.984373092651367188e+00,1.984172463417053223e+00,1.983971595764160156e+00,1.983770847320556641e+00,1.983570098876953125e+00,1.983369350433349609e+00,1.983168840408325195e+00,1.982968211174011230e+00,1.982767701148986816e+00,1.982567071914672852e+00,1.982366561889648438e+00,1.982166290283203125e+00,1.981965899467468262e+00,1.981765508651733398e+00,1.981565117835998535e+00,1.981364846229553223e+00,1.981164693832397461e+00,1.980964541435241699e+00,1.980762481689453125e+00,1.980560660362243652e+00,1.980358600616455078e+00,1.980156898498535156e+00,1.979955077171325684e+00,1.979753136634826660e+00,1.979551553726196289e+00,1.979349732398986816e+00,1.979148030281066895e+00,1.978946566581726074e+00,1.978744864463806152e+00,1.978543281555175781e+00,1.978341937065124512e+00,1.978140354156494141e+00,1.977938890457153320e+00,1.977737665176391602e+00,1.977536320686340332e+00,1.977334856986999512e+00,1.977133750915527344e+00,1.976932525634765625e+00,1.976731300354003906e+00,1.976530313491821289e+00,1.976329088211059570e+00,1.976127982139587402e+00,1.975927114486694336e+00,1.975726127624511719e+00,1.975525259971618652e+00,1.975324392318725586e+00,1.975123405456542969e+00,1.974922776222229004e+00,1.974721908569335938e+00,1.974521160125732422e+00,1.974320650100708008e+00,1.974119901657104492e+00,1.973919153213500977e+00,1.973718762397766113e+00,1.973518133163452148e+00,1.973317623138427734e+00,1.973117351531982422e+00,1.972916841506958008e+00,1.972716450691223145e+00,1.972516298294067383e+00
1.777871251106262207e+00,1.777709960937500000e+00,1.777548789978027344e+00,1.777387499809265137e+00,1.777226567268371582e+00,1.777065396308898926e+00,1.776904344558715820e+00,1.776743292808532715e+00,1.776582241058349609e+00,1.776421308517456055e+00,1.776260375976562500e+00,1.776099443435668945e+00,1.775938510894775391e+00,1.775777578353881836e+00,1.775616884231567383e+00,1.775456070899963379e+00,1.775295257568359375e+00,1.775134444236755371e+00,1.774973630905151367e+00,1.774813175201416016e+00,1.774652481079101562e+00,1.774491786956787109e+00,1.774331092834472656e+00,1.774170517921447754e+00,1.774010062217712402e+00,1.773849487304687500e+00,1.773689031600952148e+00,1.773528575897216797e+00,1.773368000984191895e+00,1.773207783699035645e+00,1.773047327995300293e+00,1.772886991500854492e+00,1.772726416587829590e+00,1.772564649581909180e+00,1.772403001785278320e+00,1.772241234779357910e+00,1.772079467773437500e+00,1.771918058395385742e+00,1.771756291389465332e+00,1.771594643592834473e+00,1.771433234214782715e+00,1.771271705627441406e+00,1.771110057830810547e+00,1.770948767662048340e+00,1.770787239074707031e+00,1.770625829696655273e+00,1.770464539527893066e+00,1.770303130149841309e+00,1.770141720771789551e+00,1.769980549812316895e+00,1.769819259643554688e+00,1.769657969474792480e+00,1.769496917724609375e+00,1.769335627555847168e+00,1.769174575805664062e+00,1.769013404846191406e+00,1.768852353096008301e+00,1.768691420555114746e+00,1.768530249595642090e+00,1.768369197845458984e+00,1.768208384513854980e+00,1.768047332763671875e+00,1.767886400222778320e+00,1.767725706100463867e+00,1.767564773559570312e+00,1.767403841018676758e+00,1.767243146896362305e+00,1.767082333564758301e+00,1.766921639442443848e+00,1.766761064529418945e+00,1.766600251197814941e+00,1.766439557075500488e+00,1.766279101371765137e+00,1.766118407249450684e+00,1.765957832336425781e+00,1.765797376632690430e+00,1.765636801719665527e+00,1.765476584434509277e+00,1.765316009521484375e+00,1.765155553817749023e+00
1.607656002044677734e+00,1.607524156570434570e+00,1.607392430305480957e+00,1.607260584831237793e+00,1.607128858566284180e+00,1.606997013092041016e+00,1.606865286827087402e+00,1.606733679771423340e+00,1.606601953506469727e+00,1.606470346450805664e+00,1.606338620185852051e+00,1.606207013130187988e+00,1.606075525283813477e+00,1.605943918228149414e+00,1.605812430381774902e+00,1.605680823326110840e+00,1.605549454689025879e+00,1.605417966842651367e+00,1.605286478996276855e+00,1.605154991149902344e+00,1.605023503303527832e+00,1.604892253875732422e+00,1.604760885238647461e+00,1.604629516601562500e+00,1.604498147964477539e+00,1.604366779327392578e+00,1.604235649108886719e+00,1.604103803634643555e+00,1.603971362113952637e+00,1.603838801383972168e+00,1.603706598281860352e+00,1.603574156761169434e+00,1.603441715240478516e+00,1.603309512138366699e+00,1.603177070617675781e+00,1.603044748306274414e+00,1.602912545204162598e+00,1.602780222892761230e+00,1.602648019790649414e+00,1.602515816688537598e+00,1.602383613586425781e+00,1.602251529693603516e+00,1.602119326591491699e+00,1.601987242698669434e+00,1.601855158805847168e+00,1.601723074913024902e+00,1.601590991020202637e+00,1.601459026336669922e+00,1.601326942443847656e+00,1.601194977760314941e+00,1.601063013076782227e+00,1.600931048393249512e+00,1.600799083709716797e+00,1.600667238235473633e+00,1.600535392761230469e+00,1.600403428077697754e+00,1.600271701812744141e+00,1.600139856338500977e+00,1.600008010864257812e+00,1.599876284599304199e+00,1.599744439125061035e+00,1.599612712860107422e+00,1.599481105804443359e+00,1.599349379539489746e+00,1.599217772483825684e+00,1.599086046218872070e+00,1.598954439163208008e+00,1.598822951316833496e+00,1.598691225051879883e+00,1.598559617996215820e+00,1.598428249359130859e+00,1.598296642303466797e+00,1.598165154457092285e+00,1.598033785820007324e+00,1.597902297973632812e+00,1.597770810127258301e+00,1.597639441490173340e+00,1.597508072853088379e+00,1.597376585006713867e+00,1.597245335578918457e+00
1.467186093330383301e+00,1.467076301574707031e+00,1.466966509819030762e+00,1.466856718063354492e+00,1.466747045516967773e+00,1.466637372970581055e+00,1.466527581214904785e+00,1.466417908668518066e+00,1.466308116912841797e+00,1.466198563575744629e+00,1.466088891029357910e+00,1.465979218482971191e+00,1.465869545936584473e+00,1.465759992599487305e+00,1.465650439262390137e+00,1.465540885925292969e+00,1.465431332588195801e+00,1.465321779251098633e+00,1.465212225914001465e+00,1.465102791786193848e+00,1.464993238449096680e+00,1.464883804321289062e+00,1.464773654937744141e+00,1.464663267135620117e+00,1.464552879333496094e+00,1.464442372322082520e+00,1.464332103729248047e+00,1.464221715927124023e+00,1.464111328125000000e+00,1.464001059532165527e+00,1.463890671730041504e+00,1.463780403137207031e+00,1.463670134544372559e+00,1.463559746742248535e+00,1.463449597358703613e+00,1.463339328765869141e+00,1.463229060173034668e+00,1.463118910789489746e+00,1.463008642196655273e+00,1.462898492813110352e+00,1.462788343429565430e+00,1.462678194046020508e+00,1.462568044662475586e+00,1.462458014488220215e+00,1.462347865104675293e+00,1.462237715721130371e+00,1.462127804756164551e+00,1.462017655372619629e+00,1.461907625198364258e+00,1.461797714233398438e+00,1.461687684059143066e+00,1.461577653884887695e+00,1.461467742919921875e+00,1.461357831954956055e+00,1.461247920989990234e+00,1.461138010025024414e+00,1.461028099060058594e+00,1.460918307304382324e+00,1.460808396339416504e+00,1.460698485374450684e+00,1.460588693618774414e+00,1.460478901863098145e+00,1.460369110107421875e+00,1.460259318351745605e+00,1.460149526596069336e+00,1.460039734840393066e+00,1.459930181503295898e+00,1.459820389747619629e+00,1.459710597991943359e+00,1.459601044654846191e+00,1.459491372108459473e+00,1.459381699562072754e+00,1.459272146224975586e+00,1.459162473678588867e+00,1.459052801132202148e+00,1.458943247795104980e+00,1.458833694458007812e+00,1.458724260330200195e+00,1.458614706993103027e+00,1.458505153656005859e+00
1.349290966987609863e+00,1.349198102951049805e+00,1.349105358123779297e+00,1.349012494087219238e+00,1.348919630050659180e+00,1.348826766014099121e+00,1.348733901977539062e+00,1.348641276359558105e+00,1.348548412322998047e+00,1.348455667495727539e+00,1.348362922668457031e+00,1.348270177841186523e+00,1.348177552223205566e+00,1.348084807395935059e+00,1.347992062568664551e+00,1.347899317741394043e+00,1.347806811332702637e+00,1.347713351249694824e+00,1.347619891166687012e+00,1.347526431083679199e+00,1.347432971000671387e+00,1.347339510917663574e+00,1.347246050834655762e+00,1.347152590751647949e+00,1.347059249877929688e+00,1.346965789794921875e+00,1.346872448921203613e+00,1.346779108047485352e+00,1.346685647964477539e+00,1.346592307090759277e+00,1.346499085426330566e+00,1.346405744552612305e+00,1.346312284469604492e+00,1.346219062805175781e+00,1.346125721931457520e+00,1.346032500267028809e+00,1.345939278602600098e+00,1.345845937728881836e+00,1.345752716064453125e+00,1.345659613609313965e+00,1.345566272735595703e+00,1.345473170280456543e+00,1.345379948616027832e+00,1.345286726951599121e+00,1.345193624496459961e+00,1.345100522041320801e+00,1.345007300376892090e+00,1.344914317131042480e+00,1.344821095466613770e+00,1.344727993011474609e+00,1.344635009765625000e+00,1.344541907310485840e+00,1.344448804855346680e+00,1.344355821609497070e+00,1.344262719154357910e+00,1.344169735908508301e+00,1.344076752662658691e+00,1.343983769416809082e+00,1.343890666961669922e+00,1.343797802925109863e+00,1.343704819679260254e+00,1.343611836433410645e+00,1.343518972396850586e+00,1.343425989151000977e+00,1.343333244323730469e+00,1.343240261077880859e+00,1.343147397041320801e+00,1.343054533004760742e+00,1.342961668968200684e+00,1.342868804931640625e+00,1.342776060104370117e+00,1.342683196067810059e+00,1.342590332031250000e+00,1.342497706413269043e+00,1.342404842376708984e+00,1.342312097549438477e+00,1.342219352722167969e+00,1.342126607894897461e+00,1.342033863067626953e+00,1.341941237449645996e+00
1.248933434486389160e+00,1.248853921890258789e+00,1.248774409294128418e+00,1.248694777488708496e+00,1.248615384101867676e+00,1.248535752296447754e+00,1.248456239700317383e+00,1.248376727104187012e+00,1.248297214508056641e+00,1.248217821121215820e+00,1.248138308525085449e+00,1.248058915138244629e+00,1.247978687286376953e+00,1.247898459434509277e+00,1.247818350791931152e+00,1.247738122940063477e+00,1.247658014297485352e+00,1.247577905654907227e+00,1.247497797012329102e+00,1.247417688369750977e+00,1.247337579727172852e+00,1.247257471084594727e+00,1.247177362442016602e+00,1.247097373008728027e+00,1.247017264366149902e+00,1.246937155723571777e+00,1.246857285499572754e+00,1.246777176856994629e+00,1.246697187423706055e+00,1.246617197990417480e+00,1.246537208557128906e+00,1.246457219123840332e+00,1.246377229690551758e+00,1.246297240257263184e+00,1.246217370033264160e+00,1.246137380599975586e+00,1.246057391166687012e+00,1.245977520942687988e+00,1.245897650718688965e+00,1.245817661285400391e+00,1.245737791061401367e+00,1.245657920837402344e+00,1.245578050613403320e+00,1.245498180389404297e+00,1.245418310165405273e+00,1.245338439941406250e+00,1.245258688926696777e+00,1.245178818702697754e+00,1.245098948478698730e+00,1.245019316673278809e+00,1.244939446449279785e+00,1.244859576225280762e+00,1.244779944419860840e+00,1.244700074195861816e+00,1.244620442390441895e+00,1.244540691375732422e+00,1.244460940361022949e+00,1.244381308555603027e+00,1.244301557540893555e+00,1.244221806526184082e+00,1.244142174720764160e+00,1.244062423706054688e+00,1.243982791900634766e+00,1.243903160095214844e+00,1.243823528289794922e+00,1.243743777275085449e+00,1.243664264678955078e+00,1.243584632873535156e+00,1.243505001068115234e+00,1.243425488471984863e+00,1.243345856666564941e+00,1.243266224861145020e+00,1.243186712265014648e+00,1.243107080459594727e+00,1.243027567863464355e+00,1.242948055267333984e+00,1.242868542671203613e+00,1.242789030075073242e+00,1.242709517478942871e+00,1.242630004882812500e+00
1.162471294403076172e+00,1.162402272224426270e+00,1.162333488464355469e+00,1.162264585494995117e+00,1.162195563316345215e+00,1.162126660346984863e+00,1.162057638168334961e+00,1.161988139152526855e+00,1.161918640136718750e+00,1.161849141120910645e+00,1.161779642105102539e+00,1.161710143089294434e+00,1.161640644073486328e+00,1.161571264266967773e+00,1.161501765251159668e+00,1.161432385444641113e+00,1.161363005638122559e+00,1.161293506622314453e+00,1.161224126815795898e+00,1.161154627799987793e+00,1.161085247993469238e+00,1.161015868186950684e+00,1.160946488380432129e+00,1.160877108573913574e+00,1.160807728767395020e+00,1.160738348960876465e+00,1.160668969154357910e+00,1.160599708557128906e+00,1.160530328750610352e+00,1.160460948944091797e+00,1.160391688346862793e+00,1.160322427749633789e+00,1.160253047943115234e+00,1.160183787345886230e+00,1.160114526748657227e+00,1.160045146942138672e+00,1.159976005554199219e+00,1.159906625747680664e+00,1.159837365150451660e+00,1.159768223762512207e+00,1.159698963165283203e+00,1.159629702568054199e+00,1.159560561180114746e+00,1.159491300582885742e+00,1.159422159194946289e+00,1.159352898597717285e+00,1.159283638000488281e+00,1.159214496612548828e+00,1.159145355224609375e+00,1.159076094627380371e+00,1.159007072448730469e+00,1.158937811851501465e+00,1.158868670463562012e+00,1.158799648284912109e+00,1.158730506896972656e+00,1.158661365509033203e+00,1.158592224121093750e+00,1.158523201942443848e+00,1.158454060554504395e+00,1.158385038375854492e+00,1.158315896987915039e+00,1.158246874809265137e+00,1.158177852630615234e+00,1.158108830451965332e+00,1.158039808273315430e+00,1.157970786094665527e+00,1.157901644706726074e+00,1.157832741737365723e+00,1.157763719558715820e+00,1.157694697380065918e+00,1.157625675201416016e+00,1.157556772232055664e+00,1.157487750053405762e+00,1.157418847084045410e+00,1.157349824905395508e+00,1.157280802726745605e+00,1.157211899757385254e+00,1.157142996788024902e+00,1.157074093818664551e+00,1.157005190849304199e+00
1.087205290794372559e+00,1.087144732475280762e+00,1.087083816528320312e+00,1.087023019790649414e+00,1.086962223052978516e+00,1.086901426315307617e+00,1.086840629577636719e+00,1.086779832839965820e+00,1.086719036102294922e+00,1.086658239364624023e+00,1.086597442626953125e+00,1.086536645889282227e+00,1.086475849151611328e+00,1.086415052413940430e+00,1.086354374885559082e+00,1.086293578147888184e+00,1.086232900619506836e+00,1.086172103881835938e+00,1.086111426353454590e+00,1.086050629615783691e+00,1.085989952087402344e+00,1.085929274559020996e+00,1.085868597030639648e+00,1.085807919502258301e+00,1.085747122764587402e+00,1.085686445236206055e+00,1.085625886917114258e+00,1.085565209388732910e+00,1.085504531860351562e+00,1.085443854331970215e+00,1.085383176803588867e+00,1.085322618484497070e+00,1.085261940956115723e+00,1.085201263427734375e+00,1.085140705108642578e+00,1.085080146789550781e+00,1.085019469261169434e+00,1.084958910942077637e+00,1.084898233413696289e+00,1.084837675094604492e+00,1.084777116775512695e+00,1.084716558456420898e+00,1.084655880928039551e+00,1.084595441818237305e+00,1.084534883499145508e+00,1.084474325180053711e+00,1.084413766860961914e+00,1.084353208541870117e+00,1.084292650222778320e+00,1.084232211112976074e+00,1.084171652793884277e+00,1.084111094474792480e+00,1.084050655364990234e+00,1.083990216255187988e+00,1.083929777145385742e+00,1.083869218826293945e+00,1.083808779716491699e+00,1.083748340606689453e+00,1.083687901496887207e+00,1.083627343177795410e+00,1.083567023277282715e+00,1.083506464958190918e+00,1.083446025848388672e+00,1.083385705947875977e+00,1.083325266838073730e+00,1.083264827728271484e+00,1.083204507827758789e+00,1.083144068717956543e+00,1.083083629608154297e+00,1.083023309707641602e+00,1.082962870597839355e+00,1.082902431488037109e+00,1.082842111587524414e+00,1.082781791687011719e+00,1.082721352577209473e+00,1.082661151885986328e+00,1.082600712776184082e+00,1.082540512084960938e+00,1.082480072975158691e+00,1.082419753074645996e+00
1.021090745925903320e+00,1.021037101745605469e+00,1.020983457565307617e+00,1.020929694175720215e+00,1.020876169204711914e+00,1.020822405815124512e+00,1.020768761634826660e+00,1.020715236663818359e+00,1.020661592483520508e+00,1.020607948303222656e+00,1.020554304122924805e+00,1.020500659942626953e+00,1.020447015762329102e+00,1.020393490791320801e+00,1.020339846611022949e+00,1.020286321640014648e+00,1.020232677459716797e+00,1.020179152488708496e+00,1.020125627517700195e+00,1.020071983337402344e+00,1.020018458366394043e+00,1.019964933395385742e+00,1.019911289215087891e+00,1.019857764244079590e+00,1.019804239273071289e+00,1.019750714302062988e+00,1.019697189331054688e+00,1.019643664360046387e+00,1.019590139389038086e+00,1.019536614418029785e+00,1.019483208656311035e+00,1.019429683685302734e+00,1.019376158714294434e+00,1.019322633743286133e+00,1.019269108772277832e+00,1.019215703010559082e+00,1.019162178039550781e+00,1.019108772277832031e+00,1.019055247306823730e+00,1.019001841545104980e+00,1.018948316574096680e+00,1.018895030021667480e+00,1.018841505050659180e+00,1.018788099288940430e+00,1.018734693527221680e+00,1.018681168556213379e+00,1.018627762794494629e+00,1.018574476242065430e+00,1.018520951271057129e+00,1.018467545509338379e+00,1.018414258956909180e+00,1.018360853195190430e+00,1.018307447433471680e+00,1.018254041671752930e+00,1.018200635910034180e+00,1.018147230148315430e+00,1.018093943595886230e+00,1.018040537834167480e+00,1.017987251281738281e+00,1.017933964729309082e+00,1.017880558967590332e+00,1.017827153205871582e+00,1.017773866653442383e+00,1.017720580101013184e+00,1.017667293548583984e+00,1.017614006996154785e+00,1.017560601234436035e+00,1.017507433891296387e+00,1.017454028129577637e+00,1.017400741577148438e+00,1.017347574234008789e+00,1.017294168472290039e+00,1.017240881919860840e+00,1.017187714576721191e+00,1.017134428024291992e+00,1.017081141471862793e+00,1.017027974128723145e+00,1.016974687576293945e+00,1.016921401023864746e+00,1.016868233680725098e+00
9.625561237335205078e-01,9.625083804130554199e-01,9.624606966972351074e-01,9.624131321907043457e-01,9.623653888702392578e-01,9.623177051544189453e-01,9.622700214385986328e-01,9.622223377227783203e-01,9.621747732162475586e-01,9.621270895004272461e-01,9.620794057846069336e-01,9.620317220687866211e-01,9.619840979576110840e-01,9.619364142417907715e-01,9.618889093399047852e-01,9.618412256240844727e-01,9.617936015129089355e-01,9.617459774017333984e-01,9.616983532905578613e-01,9.616507291793823242e-01,9.616032242774963379e-01,9.615556001663208008e-01,9.615079760551452637e-01,9.614603519439697266e-01,9.614127874374389648e-01,9.613651633262634277e-01,9.613177180290222168e-01,9.612700939178466797e-01,9.612225294113159180e-01,9.611749649047851562e-01,9.611273407936096191e-01,9.610798954963684082e-01,9.610323309898376465e-01,9.609847664833068848e-01,9.609372019767761230e-01,9.608896970748901367e-01,9.608421325683593750e-01,9.607946872711181641e-01,9.607471823692321777e-01,9.606996178627014160e-01,9.606521129608154297e-01,9.606045484542846680e-01,9.605570435523986816e-01,9.605096578598022461e-01,9.604621529579162598e-01,9.604146480560302734e-01,9.603671431541442871e-01,9.603196382522583008e-01,9.602721333503723145e-01,9.602248072624206543e-01,9.601773023605346680e-01,9.601298570632934570e-01,9.600823521614074707e-01,9.600349068641662598e-01,9.599875211715698242e-01,9.599400758743286133e-01,9.598926305770874023e-01,9.598451852798461914e-01,9.597977399826049805e-01,9.597502946853637695e-01,9.597029685974121094e-01,9.596555233001708984e-01,9.596081376075744629e-01,9.595606923103332520e-01,9.595133066177368164e-01,9.594658613204956055e-01,9.594185948371887207e-01,9.593711495399475098e-01,9.593237638473510742e-01,9.592763781547546387e-01,9.592289924621582031e-01,9.591816067695617676e-01,9.591343402862548828e-01,9.590869545936584473e-01,9.590395689010620117e-01,9.589922428131103516e-01,9.589448571205139160e-01,9.588976502418518066e-01,9.588502645492553711e-01,9.588029384613037109e-01
9.103686213493347168e-01,9.103260636329650879e-01,9.102833867073059082e-01,9.102407097816467285e-01,9.101980328559875488e-01,9.101553559303283691e-01,9.101126790046691895e-01,9.100701808929443359e-01,9.100275039672851562e-01,9.099848270416259766e-01,9.099422097206115723e-01,9.098995923995971680e-01,9.098569154739379883e-01,9.098144173622131348e-01,9.097718000411987305e-01,9.097291827201843262e-01,9.096865653991699219e-01,9.096439480781555176e-01,9.096013903617858887e-01,9.095588326454162598e-01,9.095162153244018555e-01,9.094735980033874512e-01,9.094309806823730469e-01,9.093884229660034180e-01,9.093459248542785645e-01,9.093033671379089355e-01,9.092607498168945312e-01,9.092181921005249023e-01,9.091756343841552734e-01,9.091330766677856445e-01,9.090905785560607910e-01,9.090480208396911621e-01,9.090054631233215332e-01,9.089629054069519043e-01,9.089204072952270508e-01,9.088778495788574219e-01,9.088354110717773438e-01,9.087928533554077148e-01,9.087503552436828613e-01,9.087077975273132324e-01,9.086652994155883789e-01,9.086228609085083008e-01,9.085803627967834473e-01,9.085378646850585938e-01,9.084953069686889648e-01,9.084528088569641113e-01,9.084103107452392578e-01,9.083679318428039551e-01,9.083254337310791016e-01,9.082829356193542480e-01,9.082404971122741699e-01,9.081979990005493164e-01,9.081555008888244629e-01,9.081131815910339355e-01,9.080706834793090820e-01,9.080282449722290039e-01,9.079857468605041504e-01,9.079433083534240723e-01,9.079008698463439941e-01,9.078584909439086914e-01,9.078160524368286133e-01,9.077736139297485352e-01,9.077311754226684570e-01,9.076887369155883789e-01,9.076464176177978516e-01,9.076039791107177734e-01,9.075616002082824707e-01,9.075191617012023926e-01,9.074767827987670898e-01,9.074343442916870117e-01,9.073920249938964844e-01,9.073496460914611816e-01,9.073072671890258789e-01,9.072648882865905762e-01,9.072224497795104980e-01,9.071800708770751953e-01,9.071378111839294434e-01,9.070954322814941406e-01,9.070530533790588379e-01,9.070106744766235352e-01
