2.510912418365478516e+00,2.551080942153930664e+00,2.592555761337280273e+00,2.635401248931884766e+00,2.679686784744262695e+00,2.725486040115356445e+00,2.772878170013427734e+00,2.821947574615478516e+00,2.872784852981567383e+00,2.925487518310546875e+00,2.980159997940063477e+00,3.036914825439453125e+00,3.095873355865478516e+00,3.157166481018066406e+00,3.220935583114624023e+00,3.287333965301513672e+00,3.356527328491210938e+00,3.428695917129516602e+00,3.504036188125610352e+00,3.582761049270629883e+00,3.665104866027832031e+00,3.751322984695434570e+00,3.841695070266723633e+00,3.936529397964477539e+00,4.036163330078125000e+00,4.140972137451171875e+00,4.251369476318359375e+00,4.367814540863037109e+00,4.490817546844482422e+00,4.620949745178222656e+00,4.758848190307617188e+00,4.905230998992919922e+00,5.000000000000000000e+00,5.000000000000000000e+00,5.000000000000000000e+00,5.000000000000000000e+00,5.000000000000000000e+00,5.000000000000000000e+00,5.000000000000000000e+00,5.000000000000000000e+00,5.000000000000000000e+00,5.000000000000000000e+00,5.000000000000000000e+00,5.000000000000000000e+00,5.000000000000000000e+00,5.000000000000000000e+00,5.000000000000000000e+00,5.000000000000000000e+00,5.000000000000000000e+00,5.000000000000000000e+00,5.000000000000000000e+00,5.000000000000000000e+00,5.000000000000000000e+00,5.000000000000000000e+00,5.000000000000000000e+00,5.000000000000000000e+00,5.000000000000000000e+00,5.000000000000000000e+00,5.000000000000000000e+00,5.000000000000000000e+00,5.000000000000000000e+00,5.000000000000000000e+00,5.000000000000000000e+00,5.000000000000000000e+00,5.000000000000000000e+00,5.000000000000000000e+00,5.000000000000000000e+00,5.000000000000000000e+00,5.000000000000000000e+00,5.000000000000000000e+00,5.000000000000000000e+00,5.000000000000000000e+00,5.000000000000000000e+00,5.000000000000000000e+00,5.000000000000000000e+00,5.000000000000000000e+00,5.000000000000000000e+00,5.000000000000000000e+00,5.000000000000000000e+00,5.000000000000000000e+00
2.510872125625610352e+00,2.551039457321166992e+00,2.592512845993041992e+00,2.635357141494750977e+00,2.679641008377075195e+00,2.725438594818115234e+00,2.772829055786132812e+00,2.821896791458129883e+00,2.872732162475585938e+00,2.925432920455932617e+00,2.980103254318237305e+00,3.036855936050415039e+00,3.095812320709228516e+00,3.157102823257446289e+00,3.220869541168212891e+00,3.287265062332153320e+00,3.356455564498901367e+00,3.428621292114257812e+00,3.503958463668823242e+00,3.582679986953735352e+00,3.665019989013671875e+00,3.751234054565429688e+00,3.841602325439453125e+00,3.936431407928466797e+00,4.036060333251953125e+00,4.140863895416259766e+00,4.251255512237548828e+00,4.367694377899169922e+00,4.490690708160400391e+00,4.620814800262451172e+00,4.758705615997314453e+00,4.905078887939453125e+00,5.000000000000000000e+00,5.000000000000000000e+00,5.000000000000000000e+00,5.000000000000000000e+00,5.000000000000000000e+00,5.000000000000000000e+00,5.000000000000000000e+00,5.000000000000000000e+00,5.000000000000000000e+00,5.000000000000000000e+00,5.000000000000000000e+00,5.000000000000000000e+00,5.000000000000000000e+00,5.000000000000000000e+00,5.000000000000000000e+00,5.000000000000000000e+00,5.000000000000000000e+00,5.000000000000000000e+00,5.000000000000000000e+00,5.000000000000000000e+00,5.000000000000000000e+00,5.000000000000000000e+00,5.000000000000000000e+00,5.000000000000000000e+00,5.000000000000000000e+00,5.000000000000000000e+00,5.000000000000000000e+00,5.000000000000000000e+00,5.000000000000000000e+00,5.000000000000000000e+00,5.000000000000000000e+00,5.000000000000000000e+00,5.000000000000000000e+00,5.000000000000000000e+00,5.000000000000000000e+00,5.000000000000000000e+00,5.000000000000000000e+00,5.000000000000000000e+00,5.000000000000000000e+00,5.000000000000000000e+00,5.000000000000000000e+00,5.000000000000000000e+00,5.000000000000000000e+00,5.000000000000000000e+00,5.000000000000000000e+00,5.000000000000000000e+00,5.000000000000000000e+00,5.000000000000000000e+00
2.510832071304321289e+00,2.550997972488403320e+00,2.592469930648803711e+00,2.635312795639038086e+00,2.679595232009887695e+00,2.725391387939453125e+00,2.772780179977416992e+00,2.821846008300781250e+00,2.872679710388183594e+00,2.925378322601318359e+00,2.980046749114990234e+00,3.036797285079956055e+00,3.095751285552978516e+00,3.157039403915405273e+00,3.220803260803222656e+00,3.287195920944213867e+00,3.356383562088012695e+00,3.428546428680419922e+00,3.503880262374877930e+00,3.582598924636840820e+00,3.664935111999511719e+00,3.751145601272583008e+00,3.841509103775024414e+00,3.936333417892456055e+00,4.035957813262939453e+00,4.140755653381347656e+00,4.251141548156738281e+00,4.367573738098144531e+00,4.490562915802001953e+00,4.620680332183837891e+00,4.758562564849853516e+00,4.904927253723144531e+00,5.000000000000000000e+00,5.000000000000000000e+00,5.000000000000000000e+00,5.000000000000000000e+00,5.000000000000000000e+00,5.000000000000000000e+00,5.000000000000000000e+00,5.000000000000000000e+00,5.000000000000000000e+00,5.000000000000000000e+00,5.000000000000000000e+00,5.000000000000000000e+00,5.000000000000000000e+00,5.000000000000000000e+00,5.000000000000000000e+00,5.000000000000000000e+00,5.000000000000000000e+00,5.000000000000000000e+00,5.000000000000000000e+00,5.000000000000000000e+00,5.000000000000000000e+00,5.000000000000000000e+00,5.000000000000000000e+00,5.000000000000000000e+00,5.000000000000000000e+00,5.000000000000000000e+00,5.000000000000000000e+00,5.000000000000000000e+00,5.000000000000000000e+00,5.000000000000000000e+00,5.000000000000000000e+00,5.000000000000000000e+00,5.000000000000000000e+00,5.000000000000000000e+00,5.000000000000000000e+00,5.000000000000000000e+00,5.000000000000000000e+00,5.000000000000000000e+00,5.000000000000000000e+00,5.000000000000000000e+00,5.000000000000000000e+00,5.000000000000000000e+00,5.000000000000000000e+00,5.000000000000000000e+00,5.000000000000000000e+00,5.000000000000000000e+00,5.000000000000000000e+00,5.000000000000000000e+00
2.510791778564453125e+00,2.550956487655639648e+00,2.592427015304565430e+00,2.635268449783325195e+00,2.679549455642700195e+00,2.725343942642211914e+00,2.772731065750122070e+00,2.821795225143432617e+00,2.872627019882202148e+00,2.925323724746704102e+00,2.979990005493164062e+00,3.036738395690917969e+00,3.095690011978149414e+00,3.156975746154785156e+00,3.220737218856811523e+00,3.287127017974853516e+00,3.356311798095703125e+00,3.428471326828002930e+00,3.503801822662353516e+00,3.582517147064208984e+00,3.664850473403930664e+00,3.751056671142578125e+00,3.841415882110595703e+00,3.936235666275024414e+00,4.035854816436767578e+00,4.140647411346435547e+00,4.251027107238769531e+00,4.367453575134277344e+00,4.490436077117919922e+00,4.620545387268066406e+00,4.758419990539550781e+00,4.904775142669677734e+00,5.000000000000000000e+00,5.000000000000000000e+00,5.000000000000000000e+00,5.000000000000000000e+00,5.000000000000000000e+00,5.000000000000000000e+00,5.000000000000000000e+00,5.000000000000000000e+00,5.000000000000000000e+00,5.000000000000000000e+00,5.000000000000000000e+00,5.000000000000000000e+00,5.000000000000000000e+00,5.000000000000000000e+00,5.000000000000000000e+00,5.000000000000000000e+00,5.000000000000000000e+00,5.000000000000000000e+00,5.000000000000000000e+00,5.000000000000000000e+00,5.000000000000000000e+00,5.000000000000000000e+00,5.000000000000000000e+00,5.000000000000000000e+00,5.000000000000000000e+00,5.000000000000000000e+00,5.000000000000000000e+00,5.000000000000000000e+00,5.000000000000000000e+00,5.000000000000000000e+00,5.000000000000000000e+00,5.000000000000000000e+00,5.000000000000000000e+00,5.000000000000000000e+00,5.000000000000000000e+00,5.000000000000000000e+00,5.000000000000000000e+00,5.000000000000000000e+00,5.000000000000000000e+00,5.000000000000000000e+00,5.000000000000000000e+00,5.000000000000000000e+00,5.000000000000000000e+00,5.000000000000000000e+00,5.000000000000000000e+00,5.000000000000000000e+00,5.000000000000000000e+00,5.000000000000000000e+00
2.510751724243164062e+00,2.550915002822875977e+00,2.592384099960327148e+00,2.635224103927612305e+00,2.679503679275512695e+00,2.725296497344970703e+00,2.772681951522827148e+00,2.821744441986083984e+00,2.872574329376220703e+00,2.925269126892089844e+00,2.979933500289916992e+00,3.036679506301879883e+00,3.095628976821899414e+00,3.156912088394165039e+00,3.220670938491821289e+00,3.287058115005493164e+00,3.356240034103393555e+00,3.428396463394165039e+00,3.503723621368408203e+00,3.582435131072998047e+00,3.664764642715454102e+00,3.750967264175415039e+00,3.841322660446166992e+00,3.936138153076171875e+00,4.035752296447753906e+00,4.140539169311523438e+00,4.250913619995117188e+00,4.367332935333251953e+00,4.490308761596679688e+00,4.620410442352294922e+00,4.758276939392089844e+00,4.904623508453369141e+00,5.000000000000000000e+00,5.000000000000000000e+00,5.000000000000000000e+00,5.000000000000000000e+00,5.000000000000000000e+00,5.000000000000000000e+00,5.000000000000000000e+00,5.000000000000000000e+00,5.000000000000000000e+00,5.000000000000000000e+00,5.000000000000000000e+00,5.000000000000000000e+00,5.000000000000000000e+00,5.000000000000000000e+00,5.000000000000000000e+00,5.000000000000000000e+00,5.000000000000000000e+00,5.000000000000000000e+00,5.000000000000000000e+00,5.000000000000000000e+00,5.000000000000000000e+00,5.000000000000000000e+00,5.000000000000000000e+00,5.000000000000000000e+00,5.000000000000000000e+00,5.000000000000000000e+00,5.000000000000000000e+00,5.000000000000000000e+00,5.000000000000000000e+00,5.000000000000000000e+00,5.000000000000000000e+00,5.000000000000000000e+00,5.000000000000000000e+00,5.000000000000000000e+00,5.000000000000000000e+00,5.000000000000000000e+00,5.000000000000000000e+00,5.000000000000000000e+00,5.000000000000000000e+00,5.000000000000000000e+00,5.000000000000000000e+00,5.000000000000000000e+00,5.000000000000000000e+00,5.000000000000000000e+00,5.000000000000000000e+00,5.000000000000000000e+00,5.000000000000000000e+00,5.000000000000000000e+00
2.510711431503295898e+00,2.550873517990112305e+00,2.592341423034667969e+00,2.635179758071899414e+00,2.679457902908325195e+00,2.725249290466308594e+00,2.772633075714111328e+00,2.821693658828735352e+00,2.872521638870239258e+00,2.925214529037475586e+00,2.979876756668090820e+00,3.036620855331420898e+00,3.095567941665649414e+00,3.156848669052124023e+00,3.220604896545410156e+00,3.286989212036132812e+00,3.356168031692504883e+00,3.428321599960327148e+00,3.503645420074462891e+00,3.582353353500366211e+00,3.664679050445556641e+00,3.750877618789672852e+00,3.841228961944580078e+00,3.936040401458740234e+00,4.035649299621582031e+00,4.140430927276611328e+00,4.250799179077148438e+00,4.367212772369384766e+00,4.490181446075439453e+00,4.620275974273681641e+00,4.758133888244628906e+00,4.904471397399902344e+00,5.000000000000000000e+00,5.000000000000000000e+00,5.000000000000000000e+00,5.000000000000000000e+00,5.000000000000000000e+00,5.000000000000000000e+00,5.000000000000000000e+00,5.000000000000000000e+00,5.000000000000000000e+00,5.000000000000000000e+00,5.000000000000000000e+00,5.000000000000000000e+00,5.000000000000000000e+00,5.000000000000000000e+00,5.000000000000000000e+00,5.000000000000000000e+00,5.000000000000000000e+00,5.000000000000000000e+00,5.000000000000000000e+00,5.000000000000000000e+00,5.000000000000000000e+00,5.000000000000000000e+00,5.000000000000000000e+00,5.000000000000000000e+00,5.000000000000000000e+00,5.000000000000000000e+00,5.000000000000000000e+00,5.000000000000000000e+00,5.000000000000000000e+00,5.000000000000000000e+00,5.000000000000000000e+00,5.000000000000000000e+00,5.000000000000000000e+00,5.000000000000000000e+00,5.000000000000000000e+00,5.000000000000000000e+00,5.000000000000000000e+00,5.000000000000000000e+00,5.000000000000000000e+00,5.000000000000000000e+00,5.000000000000000000e+00,5.000000000000000000e+00,5.000000000000000000e+00,5.000000000000000000e+00,5.000000000000000000e+00,5.000000000000000000e+00,5.000000000000000000e+00,5.000000000000000000e+00
2.510666608810424805e+00,2.550832033157348633e+00,2.592298507690429688e+00,2.635135650634765625e+00,2.679412126541137695e+00,2.725201845169067383e+00,2.772583961486816406e+00,2.821642875671386719e+00,2.872469186782836914e+00,2.925159931182861328e+00,2.979820251464843750e+00,3.036561965942382812e+00,3.095506668090820312e+00,3.156785011291503906e+00,3.220538854598999023e+00,3.286920309066772461e+00,3.356096267700195312e+00,3.428246498107910156e+00,3.503566980361938477e+00,3.582271575927734375e+00,3.664593458175659180e+00,3.750787734985351562e+00,3.841134786605834961e+00,3.935941457748413086e+00,4.035546302795410156e+00,4.140322685241699219e+00,4.250685214996337891e+00,4.367092132568359375e+00,4.490054130554199219e+00,4.620141029357910156e+00,4.757990837097167969e+00,4.904319763183593750e+00,5.000000000000000000e+00,5.000000000000000000e+00,5.000000000000000000e+00,5.000000000000000000e+00,5.000000000000000000e+00,5.000000000000000000e+00,5.000000000000000000e+00,5.000000000000000000e+00,5.000000000000000000e+00,5.000000000000000000e+00,5.000000000000000000e+00,5.000000000000000000e+00,5.000000000000000000e+00,5.000000000000000000e+00,5.000000000000000000e+00,5.000000000000000000e+00,5.000000000000000000e+00,5.000000000000000000e+00,5.000000000000000000e+00,5.000000000000000000e+00,5.000000000000000000e+00,5.000000000000000000e+00,5.000000000000000000e+00,5.000000000000000000e+00,5.000000000000000000e+00,5.000000000000000000e+00,5.000000000000000000e+00,5.000000000000000000e+00,5.000000000000000000e+00,5.000000000000000000e+00,5.000000000000000000e+00,5.000000000000000000e+00,5.000000000000000000e+00,5.000000000000000000e+00,5.000000000000000000e+00,5.000000000000000000e+00,5.000000000000000000e+00,5.000000000000000000e+00,5.000000000000000000e+00,5.000000000000000000e+00,5.000000000000000000e+00,5.000000000000000000e+00,5.000000000000000000e+00,5.000000000000000000e+00,5.000000000000000000e+00,5.000000000000000000e+00,5.000000000000000000e+00,5.000000000000000000e+00
2.510599613189697266e+00,2.550767898559570312e+00,2.592242479324340820e+00,2.635088205337524414e+00,2.679366350173950195e+00,2.725154399871826172e+00,2.772535085678100586e+00,2.821592092514038086e+00,2.872416496276855469e+00,2.925105571746826172e+00,2.979763507843017578e+00,3.036503076553344727e+00,3.095445632934570312e+00,3.156721591949462891e+00,3.220472574234008789e+00,3.286851406097412109e+00,3.356024503707885742e+00,3.428171634674072266e+00,3.503488779067993164e+00,3.582189798355102539e+00,3.664507865905761719e+00,3.750698089599609375e+00,3.841040611267089844e+00,3.935842752456665039e+00,4.035442352294921875e+00,4.140214443206787109e+00,4.250571250915527344e+00,4.366971969604492188e+00,4.489926815032958984e+00,4.620006561279296875e+00,4.757848262786865234e+00,4.904168128967285156e+00,5.000000000000000000e+00,5.000000000000000000e+00,5.000000000000000000e+00,5.000000000000000000e+00,5.000000000000000000e+00,5.000000000000000000e+00,5.000000000000000000e+00,5.000000000000000000e+00,5.000000000000000000e+00,5.000000000000000000e+00,5.000000000000000000e+00,5.000000000000000000e+00,5.000000000000000000e+00,5.000000000000000000e+00,5.000000000000000000e+00,5.000000000000000000e+00,5.000000000000000000e+00,5.000000000000000000e+00,5.000000000000000000e+00,5.000000000000000000e+00,5.000000000000000000e+00,5.000000000000000000e+00,5.000000000000000000e+00,5.000000000000000000e+00,5.000000000000000000e+00,5.000000000000000000e+00,5.000000000000000000e+00,5.000000000000000000e+00,5.000000000000000000e+00,5.000000000000000000e+00,5.000000000000000000e+00,5.000000000000000000e+00,5.000000000000000000e+00,5.000000000000000000e+00,5.000000000000000000e+00,5.000000000000000000e+00,5.000000000000000000e+00,5.000000000000000000e+00,5.000000000000000000e+00,5.000000000000000000e+00,5.000000000000000000e+00,5.000000000000000000e+00,5.000000000000000000e+00,5.000000000000000000e+00,5.000000000000000000e+00,5.000000000000000000e+00,5.000000000000000000e+00,5.000000000000000000e+00
2.510532855987548828e+00,2.550698757171630859e+00,2.592171192169189453e+00,2.635014295578002930e+00,2.679297447204589844e+00,2.725094556808471680e+00,2.772484540939331055e+00,2.821541309356689453e+00,2.872363805770874023e+00,2.925050973892211914e+00,2.979707002639770508e+00,3.036444425582885742e+00,3.095384597778320312e+00,3.156657934188842773e+00,3.220406532287597656e+00,3.286782503128051758e+00,3.355952739715576172e+00,3.428096532821655273e+00,3.503410577774047852e+00,3.582107782363891602e+00,3.664422035217285156e+00,3.750608444213867188e+00,3.840946674346923828e+00,3.935743808746337891e+00,4.035338401794433594e+00,4.140104770660400391e+00,4.250456333160400391e+00,4.366851329803466797e+00,4.489799499511718750e+00,4.619871616363525391e+00,4.757705211639404297e+00,4.904016494750976562e+00,5.000000000000000000e+00,5.000000000000000000e+00,5.000000000000000000e+00,5.000000000000000000e+00,5.000000000000000000e+00,5.000000000000000000e+00,5.000000000000000000e+00,5.000000000000000000e+00,5.000000000000000000e+00,5.000000000000000000e+00,5.000000000000000000e+00,5.000000000000000000e+00,5.000000000000000000e+00,5.000000000000000000e+00,5.000000000000000000e+00,5.000000000000000000e+00,5.000000000000000000e+00,5.000000000000000000e+00,5.000000000000000000e+00,5.000000000000000000e+00,5.000000000000000000e+00,5.000000000000000000e+00,5.000000000000000000e+00,5.000000000000000000e+00,5.000000000000000000e+00,5.000000000000000000e+00,5.000000000000000000e+00,5.000000000000000000e+00,5.000000000000000000e+00,5.000000000000000000e+00,5.000000000000000000e+00,5.000000000000000000e+00,5.000000000000000000e+00,5.000000000000000000e+00,5.000000000000000000e+00,5.000000000000000000e+00,5.000000000000000000e+00,5.000000000000000000e+00,5.000000000000000000e+00,5.000000000000000000e+00,5.000000000000000000e+00,5.000000000000000000e+00,5.000000000000000000e+00,5.000000000000000000e+00,5.000000000000000000e+00,5.000000000000000000e+00,5.000000000000000000e+00,5.000000000000000000e+00
2.510490894317626953e+00,2.550645589828491211e+00,2.592105865478515625e+00,2.634940624237060547e+00,2.679221153259277344e+00,2.725015640258789062e+00,2.772402763366699219e+00,2.821467399597167969e+00,2.872299432754516602e+00,2.924996376037597656e+00,2.979650259017944336e+00,3.036385536193847656e+00,3.095323324203491211e+00,3.156594514846801758e+00,3.220340251922607422e+00,3.286713600158691406e+00,3.355880737304687500e+00,3.428021669387817383e+00,3.503332138061523438e+00,3.582026004791259766e+00,3.664336442947387695e+00,3.750518560409545898e+00,3.840852499008178711e+00,3.935645103454589844e+00,4.035234928131103516e+00,4.139995574951171875e+00,4.250341415405273438e+00,4.366730213165283203e+00,4.489672660827636719e+00,4.619737148284912109e+00,4.757562637329101562e+00,4.903864383697509766e+00,5.000000000000000000e+00,5.000000000000000000e+00,5.000000000000000000e+00,5.000000000000000000e+00,5.000000000000000000e+00,5.000000000000000000e+00,5.000000000000000000e+00,5.000000000000000000e+00,5.000000000000000000e+00,5.000000000000000000e+00,5.000000000000000000e+00,5.000000000000000000e+00,5.000000000000000000e+00,5.000000000000000000e+00,5.000000000000000000e+00,5.000000000000000000e+00,5.000000000000000000e+00,5.000000000000000000e+00,5.000000000000000000e+00,5.000000000000000000e+00,5.000000000000000000e+00,5.000000000000000000e+00,5.000000000000000000e+00,5.000000000000000000e+00,5.000000000000000000e+00,5.000000000000000000e+00,5.000000000000000000e+00,5.000000000000000000e+00,5.000000000000000000e+00,5.000000000000000000e+00,5.000000000000000000e+00,5.000000000000000000e+00,5.000000000000000000e+00,5.000000000000000000e+00,5.000000000000000000e+00,5.000000000000000000e+00,5.000000000000000000e+00,5.000000000000000000e+00,5.000000000000000000e+00,5.000000000000000000e+00,5.000000000000000000e+00,5.000000000000000000e+00,5.000000000000000000e+00,5.000000000000000000e+00,5.000000000000000000e+00,5.000000000000000000e+00,5.000000000000000000e+00,5.000000000000000000e+00
2.510451078414916992e+00,2.550604581832885742e+00,2.592063426971435547e+00,2.634892463684082031e+00,2.679160356521606445e+00,2.724941492080688477e+00,2.772321224212646484e+00,2.821382761001586914e+00,2.872211933135986328e+00,2.924906253814697266e+00,2.979570150375366211e+00,3.036316394805908203e+00,3.095262289047241211e+00,3.156530857086181641e+00,3.220274209976196289e+00,3.286644697189331055e+00,3.355808973312377930e+00,3.427946805953979492e+00,3.503253936767578125e+00,3.581944227218627930e+00,3.664250850677490234e+00,3.750428915023803711e+00,3.840758562088012695e+00,3.935546398162841797e+00,4.035130977630615234e+00,4.139886379241943359e+00,4.250226020812988281e+00,4.366608619689941406e+00,4.489543914794921875e+00,4.619602203369140625e+00,4.757419586181640625e+00,4.903712749481201172e+00,5.000000000000000000e+00,5.000000000000000000e+00,5.000000000000000000e+00,5.000000000000000000e+00,5.000000000000000000e+00,5.000000000000000000e+00,5.000000000000000000e+00,5.000000000000000000e+00,5.000000000000000000e+00,5.000000000000000000e+00,5.000000000000000000e+00,5.000000000000000000e+00,5.000000000000000000e+00,5.000000000000000000e+00,5.000000000000000000e+00,5.000000000000000000e+00,5.000000000000000000e+00,5.000000000000000000e+00,5.000000000000000000e+00,5.000000000000000000e+00,5.000000000000000000e+00,5.000000000000000000e+00,5.000000000000000000e+00,5.000000000000000000e+00,5.000000000000000000e+00,5.000000000000000000e+00,5.000000000000000000e+00,5.000000000000000000e+00,5.000000000000000000e+00,5.000000000000000000e+00,5.000000000000000000e+00,5.000000000000000000e+00,5.000000000000000000e+00,5.000000000000000000e+00,5.000000000000000000e+00,5.000000000000000000e+00,5.000000000000000000e+00,5.000000000000000000e+00,5.000000000000000000e+00,5.000000000000000000e+00,5.000000000000000000e+00,5.000000000000000000e+00,5.000000000000000000e+00,5.000000000000000000e+00,5.000000000000000000e+00,5.000000000000000000e+00,5.000000000000000000e+00,5.000000000000000000e+00
2.510411262512207031e+00,2.550563335418701172e+00,2.592020988464355469e+00,2.634848594665527344e+00,2.679115056991577148e+00,2.724894523620605469e+00,2.772265672683715820e+00,2.821313142776489258e+00,2.872127056121826172e+00,2.924815416336059570e+00,2.979475975036621094e+00,3.036218166351318359e+00,3.095164060592651367e+00,3.156443595886230469e+00,3.220199108123779297e+00,3.286576032638549805e+00,3.355737209320068359e+00,3.427871704101562500e+00,3.503175735473632812e+00,3.581862449645996094e+00,3.664165258407592773e+00,3.750339269638061523e+00,3.840664386749267578e+00,3.935447454452514648e+00,4.035027027130126953e+00,4.139777183532714844e+00,4.250111103057861328e+00,4.366487026214599609e+00,4.489415645599365234e+00,4.619465827941894531e+00,4.757276058197021484e+00,4.903561115264892578e+00,5.000000000000000000e+00,5.000000000000000000e+00,5.000000000000000000e+00,5.000000000000000000e+00,5.000000000000000000e+00,5.000000000000000000e+00,5.000000000000000000e+00,5.000000000000000000e+00,5.000000000000000000e+00,5.000000000000000000e+00,5.000000000000000000e+00,5.000000000000000000e+00,5.000000000000000000e+00,5.000000000000000000e+00,5.000000000000000000e+00,5.000000000000000000e+00,5.000000000000000000e+00,5.000000000000000000e+00,5.000000000000000000e+00,5.000000000000000000e+00,5.000000000000000000e+00,5.000000000000000000e+00,5.000000000000000000e+00,5.000000000000000000e+00,5.000000000000000000e+00,5.000000000000000000e+00,5.000000000000000000e+00,5.000000000000000000e+00,5.000000000000000000e+00,5.000000000000000000e+00,5.000000000000000000e+00,5.000000000000000000e+00,5.000000000000000000e+00,5.000000000000000000e+00,5.000000000000000000e+00,5.000000000000000000e+00,5.000000000000000000e+00,5.000000000000000000e+00,5.000000000000000000e+00,5.000000000000000000e+00,5.000000000000000000e+00,5.000000000000000000e+00,5.000000000000000000e+00,5.000000000000000000e+00,5.000000000000000000e+00,5.000000000000000000e+00,5.000000000000000000e+00,5.000000000000000000e+00
2.510371446609497070e+00,2.550522327423095703e+00,2.591978549957275391e+00,2.634804725646972656e+00,2.679069757461547852e+00,2.724847555160522461e+00,2.772217035293579102e+00,2.821262836456298828e+00,2.872075080871582031e+00,2.924751043319702148e+00,2.979395389556884766e+00,3.036120653152465820e+00,3.095062494277954102e+00,3.156337976455688477e+00,3.220088958740234375e+00,3.286468029022216797e+00,3.355641841888427734e+00,3.427789926528930664e+00,3.503097295761108398e+00,3.581780672073364258e+00,3.664079666137695312e+00,3.750249624252319336e+00,3.840570211410522461e+00,3.935348749160766602e+00,4.034923076629638672e+00,4.139667510986328125e+00,4.249995708465576172e+00,4.366365432739257812e+00,4.489286899566650391e+00,4.619329929351806641e+00,4.757132053375244141e+00,4.903408050537109375e+00,5.000000000000000000e+00,5.000000000000000000e+00,5.000000000000000000e+00,5.000000000000000000e+00,5.000000000000000000e+00,5.000000000000000000e+00,5.000000000000000000e+00,5.000000000000000000e+00,5.000000000000000000e+00,5.000000000000000000e+00,5.000000000000000000e+00,5.000000000000000000e+00,5.000000000000000000e+00,5.000000000000000000e+00,5.000000000000000000e+00,5.000000000000000000e+00,5.000000000000000000e+00,5.000000000000000000e+00,5.000000000000000000e+00,5.000000000000000000e+00,5.000000000000000000e+00,5.000000000000000000e+00,5.000000000000000000e+00,5.000000000000000000e+00,5.000000000000000000e+00,5.000000000000000000e+00,5.000000000000000000e+00,5.000000000000000000e+00,5.000000000000000000e+00,5.000000000000000000e+00,5.000000000000000000e+00,5.000000000000000000e+00,5.000000000000000000e+00,5.000000000000000000e+00,5.000000000000000000e+00,5.000000000000000000e+00,5.000000000000000000e+00,5.000000000000000000e+00,5.000000000000000000e+00,5.000000000000000000e+00,5.000000000000000000e+00,5.000000000000000000e+00,5.000000000000000000e+00,5.000000000000000000e+00,5.000000000000000000e+00,5.000000000000000000e+00,5.000000000000000000e+00,5.000000000000000000e+00
2.510331630706787109e+00,2.550481319427490234e+00,2.591936111450195312e+00,2.634760856628417969e+00,2.679024457931518555e+00,2.724800586700439453e+00,2.772168636322021484e+00,2.821212530136108398e+00,2.872022867202758789e+00,2.924696922302246094e+00,2.979339361190795898e+00,3.036062479019165039e+00,3.094987392425537109e+00,3.156244754791259766e+00,3.219978570938110352e+00,3.286353588104248047e+00,3.355522155761718750e+00,3.427665233612060547e+00,3.502978086471557617e+00,3.581675529479980469e+00,3.663989543914794922e+00,3.750159978866577148e+00,3.840476274490356445e+00,3.935250043869018555e+00,4.034819126129150391e+00,4.139558315277099609e+00,4.249880313873291016e+00,4.366243839263916016e+00,4.489158630371093750e+00,4.619194030761718750e+00,4.756987571716308594e+00,4.903254985809326172e+00,5.000000000000000000e+00,5.000000000000000000e+00,5.000000000000000000e+00,5.000000000000000000e+00,5.000000000000000000e+00,5.000000000000000000e+00,5.000000000000000000e+00,5.000000000000000000e+00,5.000000000000000000e+00,5.000000000000000000e+00,5.000000000000000000e+00,5.000000000000000000e+00,5.000000000000000000e+00,5.000000000000000000e+00,5.000000000000000000e+00,5.000000000000000000e+00,5.000000000000000000e+00,5.000000000000000000e+00,5.000000000000000000e+00,5.000000000000000000e+00,5.000000000000000000e+00,5.000000000000000000e+00,5.000000000000000000e+00,5.000000000000000000e+00,5.000000000000000000e+00,5.000000000000000000e+00,5.000000000000000000e+00,5.000000000000000000e+00,5.000000000000000000e+00,5.000000000000000000e+00,5.000000000000000000e+00,5.000000000000000000e+00,5.000000000000000000e+00,5.000000000000000000e+00,5.000000000000000000e+00,5.000000000000000000e+00,5.000000000000000000e+00,5.000000000000000000e+00,5.000000000000000000e+00,5.000000000000000000e+00,5.000000000000000000e+00,5.000000000000000000e+00,5.000000000000000000e+00,5.000000000000000000e+00,5.000000000000000000e+00,5.000000000000000000e+00,5.000000000000000000e+00,5.000000000000000000e+00
2.510291814804077148e+00,2.550440073013305664e+00,2.591893672943115234e+00,2.634716987609863281e+00,2.678979158401489258e+00,2.724753856658935547e+00,2.772120237350463867e+00,2.821162223815917969e+00,2.871970653533935547e+00,2.924643039703369141e+00,2.979283332824707031e+00,3.036004304885864258e+00,3.094926834106445312e+00,3.156181812286376953e+00,3.219910383224487305e+00,3.286265611648559570e+00,3.355413436889648438e+00,3.427540302276611328e+00,3.502847909927368164e+00,3.581538915634155273e+00,3.663847208023071289e+00,3.750026941299438477e+00,3.840359210968017578e+00,3.935150861740112305e+00,4.034715652465820312e+00,4.139449119567871094e+00,4.249765396118164062e+00,4.366122245788574219e+00,4.489029884338378906e+00,4.619057655334472656e+00,4.756843090057373047e+00,4.903101444244384766e+00,5.000000000000000000e+00,5.000000000000000000e+00,5.000000000000000000e+00,5.000000000000000000e+00,5.000000000000000000e+00,5.000000000000000000e+00,5.000000000000000000e+00,5.000000000000000000e+00,5.000000000000000000e+00,5.000000000000000000e+00,5.000000000000000000e+00,5.000000000000000000e+00,5.000000000000000000e+00,5.000000000000000000e+00,5.000000000000000000e+00,5.000000000000000000e+00,5.000000000000000000e+00,5.000000000000000000e+00,5.000000000000000000e+00,5.000000000000000000e+00,5.000000000000000000e+00,5.000000000000000000e+00,5.000000000000000000e+00,5.000000000000000000e+00,5.000000000000000000e+00,5.000000000000000000e+00,5.000000000000000000e+00,5.000000000000000000e+00,5.000000000000000000e+00,5.000000000000000000e+00,5.000000000000000000e+00,5.000000000000000000e+00,5.000000000000000000e+00,5.000000000000000000e+00,5.000000000000000000e+00,5.000000000000000000e+00,5.000000000000000000e+00,5.000000000000000000e+00,5.000000000000000000e+00,5.000000000000000000e+00,5.000000000000000000e+00,5.000000000000000000e+00,5.000000000000000000e+00,5.000000000000000000e+00,5.000000000000000000e+00,5.000000000000000000e+00,5.000000000000000000e+00,5.000000000000000000e+00
2.510251998901367188e+00,2.550399065017700195e+00,2.591851234436035156e+00,2.634673118591308594e+00,2.678933620452880859e+00,2.724707126617431641e+00,2.772071599960327148e+00,2.821111917495727539e+00,2.871918678283691406e+00,2.924588918685913086e+00,2.979227304458618164e+00,3.035945892333984375e+00,3.094866275787353516e+00,3.156118869781494141e+00,3.219844818115234375e+00,3.286197423934936523e+00,3.355342149734497070e+00,3.427459239959716797e+00,3.502744436264038086e+00,3.581411361694335938e+00,3.663704633712768555e+00,3.749877691268920898e+00,3.840202808380126953e+00,3.934986114501953125e+00,4.034566402435302734e+00,4.139317989349365234e+00,4.249650001525878906e+00,4.366000652313232422e+00,4.488901615142822266e+00,4.618921756744384766e+00,4.756699085235595703e+00,4.902948379516601562e+00,5.000000000000000000e+00,5.000000000000000000e+00,5.000000000000000000e+00,5.000000000000000000e+00,5.000000000000000000e+00,5.000000000000000000e+00,5.000000000000000000e+00,5.000000000000000000e+00,5.000000000000000000e+00,5.000000000000000000e+00,5.000000000000000000e+00,5.000000000000000000e+00,5.000000000000000000e+00,5.000000000000000000e+00,5.000000000000000000e+00,5.000000000000000000e+00,5.000000000000000000e+00,5.000000000000000000e+00,5.000000000000000000e+00,5.000000000000000000e+00,5.000000000000000000e+00,5.000000000000000000e+00,5.000000000000000000e+00,5.000000000000000000e+00,5.000000000000000000e+00,5.000000000000000000e+00,5.000000000000000000e+00,5.000000000000000000e+00,5.000000000000000000e+00,5.000000000000000000e+00,5.000000000000000000e+00,5.000000000000000000e+00,5.000000000000000000e+00,5.000000000000000000e+00,5.000000000000000000e+00,5.000000000000000000e+00,5.000000000000000000e+00,5.000000000000000000e+00,5.000000000000000000e+00,5.000000000000000000e+00,5.000000000000000000e+00,5.000000000000000000e+00,5.000000000000000000e+00,5.000000000000000000e+00,5.000000000000000000e+00,5.000000000000000000e+00,5.000000000000000000e+00,5.000000000000000000e+00
2.510212182998657227e+00,2.550358057022094727e+00,2.591808795928955078e+00,2.634629249572753906e+00,2.678888320922851562e+00,2.724660158157348633e+00,2.772022962570190430e+00,2.821061611175537109e+00,2.871866464614868164e+00,2.924535036087036133e+00,2.979171276092529297e+00,3.035887718200683594e+00,3.094805717468261719e+00,3.156055927276611328e+00,3.219779491424560547e+00,3.286129236221313477e+00,3.355271100997924805e+00,3.427385091781616211e+00,3.502666950225830078e+00,3.581330299377441406e+00,3.663607835769653320e+00,3.749755382537841797e+00,3.840051651000976562e+00,3.934821844100952148e+00,4.034393787384033203e+00,4.139136314392089844e+00,4.249462604522705078e+00,4.365831375122070312e+00,4.488752841949462891e+00,4.618785858154296875e+00,4.756554603576660156e+00,4.902794837951660156e+00,5.000000000000000000e+00,5.000000000000000000e+00,5.000000000000000000e+00,5.000000000000000000e+00,5.000000000000000000e+00,5.000000000000000000e+00,5.000000000000000000e+00,5.000000000000000000e+00,5.000000000000000000e+00,5.000000000000000000e+00,5.000000000000000000e+00,5.000000000000000000e+00,5.000000000000000000e+00,5.000000000000000000e+00,5.000000000000000000e+00,5.000000000000000000e+00,5.000000000000000000e+00,5.000000000000000000e+00,5.000000000000000000e+00,5.000000000000000000e+00,5.000000000000000000e+00,5.000000000000000000e+00,5.000000000000000000e+00,5.000000000000000000e+00,5.000000000000000000e+00,5.000000000000000000e+00,5.000000000000000000e+00,5.000000000000000000e+00,5.000000000000000000e+00,5.000000000000000000e+00,5.000000000000000000e+00,5.000000000000000000e+00,5.000000000000000000e+00,5.000000000000000000e+00,5.000000000000000000e+00,5.000000000000000000e+00,5.000000000000000000e+00,5.000000000000000000e+00,5.000000000000000000e+00,5.000000000000000000e+00,5.000000000000000000e+00,5.000000000000000000e+00,5.000000000000000000e+00,5.000000000000000000e+00,5.000000000000000000e+00,5.000000000000000000e+00,5.000000000000000000e+00,5.000000000000000000e+00
2.510172367095947266e+00,2.550316810607910156e+00,2.591766357421875000e+00,2.634585380554199219e+00,2.678843021392822266e+00,2.724613189697265625e+00,2.771974563598632812e+00,2.821011304855346680e+00,2.871814489364624023e+00,2.924480915069580078e+00,2.979115009307861328e+00,3.035829544067382812e+00,3.094745397567749023e+00,3.155992984771728516e+00,3.219713926315307617e+00,3.286061048507690430e+00,3.355200052261352539e+00,3.427310943603515625e+00,3.502589464187622070e+00,3.581249237060546875e+00,3.663523197174072266e+00,3.749666690826416016e+00,3.839958429336547852e+00,3.934705972671508789e+00,4.034246921539306641e+00,4.138955593109130859e+00,4.249270915985107422e+00,4.365629196166992188e+00,4.488539218902587891e+00,4.618570327758789062e+00,4.756360054016113281e+00,4.902624607086181641e+00,5.000000000000000000e+00,5.000000000000000000e+00,5.000000000000000000e+00,5.000000000000000000e+00,5.000000000000000000e+00,5.000000000000000000e+00,5.000000000000000000e+00,5.000000000000000000e+00,5.000000000000000000e+00,5.000000000000000000e+00,5.000000000000000000e+00,5.000000000000000000e+00,5.000000000000000000e+00,5.000000000000000000e+00,5.000000000000000000e+00,5.000000000000000000e+00,5.000000000000000000e+00,5.000000000000000000e+00,5.000000000000000000e+00,5.000000000000000000e+00,5.000000000000000000e+00,5.000000000000000000e+00,5.000000000000000000e+00,5.000000000000000000e+00,5.000000000000000000e+00,5.000000000000000000e+00,5.000000000000000000e+00,5.000000000000000000e+00,5.000000000000000000e+00,5.000000000000000000e+00,5.000000000000000000e+00,5.000000000000000000e+00,5.000000000000000000e+00,5.000000000000000000e+00,5.000000000000000000e+00,5.000000000000000000e+00,5.000000000000000000e+00,5.000000000000000000e+00,5.000000000000000000e+00,5.000000000000000000e+00,5.000000000000000000e+00,5.000000000000000000e+00,5.000000000000000000e+00,5.000000000000000000e+00,5.000000000000000000e+00,5.000000000000000000e+00,5.000000000000000000e+00,5.000000000000000000e+00
2.510132551193237305e+00,2.550275802612304688e+00,2.591723918914794922e+00,2.634541511535644531e+00,2.678797960281372070e+00,2.724566221237182617e+00,2.771925926208496094e+00,2.820960998535156250e+00,2.871762275695800781e+00,2.924426794052124023e+00,2.979058980941772461e+00,3.035771369934082031e+00,3.094684839248657227e+00,3.155930042266845703e+00,3.219648361206054688e+00,3.285992622375488281e+00,3.355128765106201172e+00,3.427236557006835938e+00,3.502511978149414062e+00,3.581168174743652344e+00,3.663438796997070312e+00,3.749577760696411133e+00,3.839865446090698242e+00,3.934608221054077148e+00,4.034143924713134766e+00,4.138847351074218750e+00,4.249130249023437500e+00,4.365451335906982422e+00,4.488325119018554688e+00,4.618343353271484375e+00,4.756119728088378906e+00,4.902369022369384766e+00,5.000000000000000000e+00,5.000000000000000000e+00,5.000000000000000000e+00,5.000000000000000000e+00,5.000000000000000000e+00,5.000000000000000000e+00,5.000000000000000000e+00,5.000000000000000000e+00,5.000000000000000000e+00,5.000000000000000000e+00,5.000000000000000000e+00,5.000000000000000000e+00,5.000000000000000000e+00,5.000000000000000000e+00,5.000000000000000000e+00,5.000000000000000000e+00,5.000000000000000000e+00,5.000000000000000000e+00,5.000000000000000000e+00,5.000000000000000000e+00,5.000000000000000000e+00,5.000000000000000000e+00,5.000000000000000000e+00,5.000000000000000000e+00,5.000000000000000000e+00,5.000000000000000000e+00,5.000000000000000000e+00,5.000000000000000000e+00,5.000000000000000000e+00,5.000000000000000000e+00,5.000000000000000000e+00,5.000000000000000000e+00,5.000000000000000000e+00,5.000000000000000000e+00,5.000000000000000000e+00,5.000000000000000000e+00,5.000000000000000000e+00,5.000000000000000000e+00,5.000000000000000000e+00,5.000000000000000000e+00,5.000000000000000000e+00,5.000000000000000000e+00,5.000000000000000000e+00,5.000000000000000000e+00,5.000000000000000000e+00,5.000000000000000000e+00,5.000000000000000000e+00,5.000000000000000000e+00
2.510092735290527344e+00,2.550234794616699219e+00,2.591681480407714844e+00,2.634497642517089844e+00,2.678752660751342773e+00,2.724519491195678711e+00,2.771877288818359375e+00,2.820910930633544922e+00,2.871710300445556641e+00,2.924372911453247070e+00,2.979002952575683594e+00,3.035712957382202148e+00,3.094624280929565430e+00,3.155867099761962891e+00,3.219582796096801758e+00,3.285924434661865234e+00,3.355057716369628906e+00,3.427162408828735352e+00,3.502434492111206055e+00,3.581087112426757812e+00,3.663353919982910156e+00,3.749489068984985352e+00,3.839772224426269531e+00,3.934510231018066406e+00,4.034041404724121094e+00,4.138739109039306641e+00,4.249016284942626953e+00,4.365331172943115234e+00,4.488193035125732422e+00,4.618171215057373047e+00,4.755902290344238281e+00,4.902113914489746094e+00,5.000000000000000000e+00,5.000000000000000000e+00,5.000000000000000000e+00,5.000000000000000000e+00,5.000000000000000000e+00,5.000000000000000000e+00,5.000000000000000000e+00,5.000000000000000000e+00,5.000000000000000000e+00,5.000000000000000000e+00,5.000000000000000000e+00,5.000000000000000000e+00,5.000000000000000000e+00,5.000000000000000000e+00,5.000000000000000000e+00,5.000000000000000000e+00,5.000000000000000000e+00,5.000000000000000000e+00,5.000000000000000000e+00,5.000000000000000000e+00,5.000000000000000000e+00,5.000000000000000000e+00,5.000000000000000000e+00,5.000000000000000000e+00,5.000000000000000000e+00,5.000000000000000000e+00,5.000000000000000000e+00,5.000000000000000000e+00,5.000000000000000000e+00,5.000000000000000000e+00,5.000000000000000000e+00,5.000000000000000000e+00,5.000000000000000000e+00,5.000000000000000000e+00,5.000000000000000000e+00,5.000000000000000000e+00,5.000000000000000000e+00,5.000000000000000000e+00,5.000000000000000000e+00,5.000000000000000000e+00,5.000000000000000000e+00,5.000000000000000000e+00,5.000000000000000000e+00,5.000000000000000000e+00,5.000000000000000000e+00,5.000000000000000000e+00,5.000000000000000000e+00,5.000000000000000000e+00
2.510052919387817383e+00,2.550193548202514648e+00,2.591639041900634766e+00,2.634454011917114258e+00,2.678707122802734375e+00,2.724472522735595703e+00,2.771828889846801758e+00,2.820860624313354492e+00,2.871658086776733398e+00,2.924318790435791016e+00,2.978946924209594727e+00,3.035654783248901367e+00,3.094563722610473633e+00,3.155804157257080078e+00,3.219517469406127930e+00,3.285856246948242188e+00,3.354986667633056641e+00,3.427088260650634766e+00,3.502357006072998047e+00,3.581006526947021484e+00,3.663269281387329102e+00,3.749400138854980469e+00,3.839679002761840820e+00,3.934412479400634766e+00,4.033938407897949219e+00,4.138630867004394531e+00,4.248902320861816406e+00,4.365211009979248047e+00,4.488065719604492188e+00,4.618036746978759766e+00,4.755759716033935547e+00,4.901949405670166016e+00,5.000000000000000000e+00,5.000000000000000000e+00,5.000000000000000000e+00,5.000000000000000000e+00,5.000000000000000000e+00,5.000000000000000000e+00,5.000000000000000000e+00,5.000000000000000000e+00,5.000000000000000000e+00,5.000000000000000000e+00,5.000000000000000000e+00,5.000000000000000000e+00,5.000000000000000000e+00,5.000000000000000000e+00,5.000000000000000000e+00,5.000000000000000000e+00,5.000000000000000000e+00,5.000000000000000000e+00,5.000000000000000000e+00,5.000000000000000000e+00,5.000000000000000000e+00,5.000000000000000000e+00,5.000000000000000000e+00,5.000000000000000000e+00,5.000000000000000000e+00,5.000000000000000000e+00,5.000000000000000000e+00,5.000000000000000000e+00,5.000000000000000000e+00,5.000000000000000000e+00,5.000000000000000000e+00,5.000000000000000000e+00,5.000000000000000000e+00,5.000000000000000000e+00,5.000000000000000000e+00,5.000000000000000000e+00,5.000000000000000000e+00,5.000000000000000000e+00,5.000000000000000000e+00,5.000000000000000000e+00,5.000000000000000000e+00,5.000000000000000000e+00,5.000000000000000000e+00,5.000000000000000000e+00,5.000000000000000000e+00,5.000000000000000000e+00,5.000000000000000000e+00,5.000000000000000000e+00
2.510013103485107422e+00,2.550152540206909180e+00,2.591596603393554688e+00,2.634410142898559570e+00,2.678661823272705078e+00,2.724425554275512695e+00,2.771780252456665039e+00,2.820810317993164062e+00,2.871606111526489258e+00,2.924264669418334961e+00,2.978890895843505859e+00,3.035596609115600586e+00,3.094503164291381836e+00,3.155741214752197266e+00,3.219451904296875000e+00,3.285788059234619141e+00,3.354915380477905273e+00,3.427014112472534180e+00,3.502279520034790039e+00,3.580925464630126953e+00,3.663184404373168945e+00,3.749311208724975586e+00,3.839585781097412109e+00,3.934314727783203125e+00,4.033835411071777344e+00,4.138522624969482422e+00,4.248787879943847656e+00,4.365090370178222656e+00,4.487938880920410156e+00,4.617901802062988281e+00,4.755616664886474609e+00,4.901797771453857422e+00,5.000000000000000000e+00,5.000000000000000000e+00,5.000000000000000000e+00,5.000000000000000000e+00,5.000000000000000000e+00,5.000000000000000000e+00,5.000000000000000000e+00,5.000000000000000000e+00,5.000000000000000000e+00,5.000000000000000000e+00,5.000000000000000000e+00,5.000000000000000000e+00,5.000000000000000000e+00,5.000000000000000000e+00,5.000000000000000000e+00,5.000000000000000000e+00,5.000000000000000000e+00,5.000000000000000000e+00,5.000000000000000000e+00,5.000000000000000000e+00,5.000000000000000000e+00,5.000000000000000000e+00,5.000000000000000000e+00,5.000000000000000000e+00,5.000000000000000000e+00,5.000000000000000000e+00,5.000000000000000000e+00,5.000000000000000000e+00,5.000000000000000000e+00,5.000000000000000000e+00,5.000000000000000000e+00,5.000000000000000000e+00,5.000000000000000000e+00,5.000000000000000000e+00,5.000000000000000000e+00,5.000000000000000000e+00,5.000000000000000000e+00,5.000000000000000000e+00,5.000000000000000000e+00,5.000000000000000000e+00,5.000000000000000000e+00,5.000000000000000000e+00,5.000000000000000000e+00,5.000000000000000000e+00,5.000000000000000000e+00,5.000000000000000000e+00,5.000000000000000000e+00,5.000000000000000000e+00
2.509973287582397461e+00,2.550111293792724609e+00,2.591554403305053711e+00,2.634366273880004883e+00,2.678616523742675781e+00,2.724378824234008789e+00,2.771731853485107422e+00,2.820760011672973633e+00,2.871553897857666016e+00,2.924210786819458008e+00,2.978834867477416992e+00,3.035538434982299805e+00,3.094442844390869141e+00,3.155678272247314453e+00,3.219386339187622070e+00,3.285719871520996094e+00,3.354844331741333008e+00,3.426939725875854492e+00,3.502202272415161133e+00,3.580844402313232422e+00,3.663099527359008789e+00,3.749222517013549805e+00,3.839492797851562500e+00,3.934216976165771484e+00,4.033732891082763672e+00,4.138414382934570312e+00,4.248674392700195312e+00,4.364970207214355469e+00,4.487811565399169922e+00,4.617766857147216797e+00,4.755473613739013672e+00,4.901645660400390625e+00,5.000000000000000000e+00,5.000000000000000000e+00,5.000000000000000000e+00,5.000000000000000000e+00,5.000000000000000000e+00,5.000000000000000000e+00,5.000000000000000000e+00,5.000000000000000000e+00,5.000000000000000000e+00,5.000000000000000000e+00,5.000000000000000000e+00,5.000000000000000000e+00,5.000000000000000000e+00,5.000000000000000000e+00,5.000000000000000000e+00,5.000000000000000000e+00,5.000000000000000000e+00,5.000000000000000000e+00,5.000000000000000000e+00,5.000000000000000000e+00,5.000000000000000000e+00,5.000000000000000000e+00,5.000000000000000000e+00,5.000000000000000000e+00,5.000000000000000000e+00,5.000000000000000000e+00,5.000000000000000000e+00,5.000000000000000000e+00,5.000000000000000000e+00,5.000000000000000000e+00,5.000000000000000000e+00,5.000000000000000000e+00,5.000000000000000000e+00,5.000000000000000000e+00,5.000000000000000000e+00,5.000000000000000000e+00,5.000000000000000000e+00,5.000000000000000000e+00,5.000000000000000000e+00,5.000000000000000000e+00,5.000000000000000000e+00,5.000000000000000000e+00,5.000000000000000000e+00,5.000000000000000000e+00,5.000000000000000000e+00,5.000000000000000000e+00,5.000000000000000000e+00,5.000000000000000000e+00
2.509933471679687500e+00,2.550070285797119141e+00,2.591511964797973633e+00,2.634322643280029297e+00,2.678571224212646484e+00,2.724331855773925781e+00,2.771683216094970703e+00,2.820709705352783203e+00,2.871501922607421875e+00,2.924156665802001953e+00,2.978778600692749023e+00,3.035480260848999023e+00,3.094382286071777344e+00,3.155615329742431641e+00,3.219321012496948242e+00,3.285651683807373047e+00,3.354773283004760742e+00,3.426865577697753906e+00,3.502124786376953125e+00,3.580763578414916992e+00,3.663014888763427734e+00,3.749133586883544922e+00,3.839399576187133789e+00,3.934119224548339844e+00,4.033629894256591797e+00,4.138306140899658203e+00,4.248560428619384766e+00,4.364849567413330078e+00,4.487684249877929688e+00,4.617632389068603516e+00,4.755331039428710938e+00,4.901494026184082031e+00,5.000000000000000000e+00,5.000000000000000000e+00,5.000000000000000000e+00,5.000000000000000000e+00,5.000000000000000000e+00,5.000000000000000000e+00,5.000000000000000000e+00,5.000000000000000000e+00,5.000000000000000000e+00,5.000000000000000000e+00,5.000000000000000000e+00,5.000000000000000000e+00,5.000000000000000000e+00,5.000000000000000000e+00,5.000000000000000000e+00,5.000000000000000000e+00,5.000000000000000000e+00,5.000000000000000000e+00,5.000000000000000000e+00,5.000000000000000000e+00,5.000000000000000000e+00,5.000000000000000000e+00,5.000000000000000000e+00,5.000000000000000000e+00,5.000000000000000000e+00,5.000000000000000000e+00,5.000000000000000000e+00,5.000000000000000000e+00,5.000000000000000000e+00,5.000000000000000000e+00,5.000000000000000000e+00,5.000000000000000000e+00,5.000000000000000000e+00,5.000000000000000000e+00,5.000000000000000000e+00,5.000000000000000000e+00,5.000000000000000000e+00,5.000000000000000000e+00,5.000000000000000000e+00,5.000000000000000000e+00,5.000000000000000000e+00,5.000000000000000000e+00,5.000000000000000000e+00,5.000000000000000000e+00,5.000000000000000000e+00,5.000000000000000000e+00,5.000000000000000000e+00,5.000000000000000000e+00
2.509893655776977539e+00,2.550029516220092773e+00,2.591469526290893555e+00,2.634278774261474609e+00,2.678525924682617188e+00,2.724284887313842773e+00,2.771634817123413086e+00,2.820659399032592773e+00,2.871449708938598633e+00,2.924102783203125000e+00,2.978722572326660156e+00,3.035421848297119141e+00,3.094321727752685547e+00,3.155552387237548828e+00,3.219255447387695312e+00,3.285583496093750000e+00,3.354702234268188477e+00,3.426791906356811523e+00,3.502047300338745117e+00,3.580682516098022461e+00,3.662930011749267578e+00,3.749044895172119141e+00,3.839306354522705078e+00,3.934021472930908203e+00,4.033527374267578125e+00,4.138198375701904297e+00,4.248445987701416016e+00,4.364729404449462891e+00,4.487556934356689453e+00,4.617497444152832031e+00,4.755187988281250000e+00,4.901342391967773438e+00,5.000000000000000000e+00,5.000000000000000000e+00,5.000000000000000000e+00,5.000000000000000000e+00,5.000000000000000000e+00,5.000000000000000000e+00,5.000000000000000000e+00,5.000000000000000000e+00,5.000000000000000000e+00,5.000000000000000000e+00,5.000000000000000000e+00,5.000000000000000000e+00,5.000000000000000000e+00,5.000000000000000000e+00,5.000000000000000000e+00,5.000000000000000000e+00,5.000000000000000000e+00,5.000000000000000000e+00,5.000000000000000000e+00,5.000000000000000000e+00,5.000000000000000000e+00,5.000000000000000000e+00,5.000000000000000000e+00,5.000000000000000000e+00,5.000000000000000000e+00,5.000000000000000000e+00,5.000000000000000000e+00,5.000000000000000000e+00,5.000000000000000000e+00,5.000000000000000000e+00,5.000000000000000000e+00,5.000000000000000000e+00,5.000000000000000000e+00,5.000000000000000000e+00,5.000000000000000000e+00,5.000000000000000000e+00,5.000000000000000000e+00,5.000000000000000000e+00,5.000000000000000000e+00,5.000000000000000000e+00,5.000000000000000000e+00,5.000000000000000000e+00,5.000000000000000000e+00,5.000000000000000000e+00,5.000000000000000000e+00,5.000000000000000000e+00,5.000000000000000000e+00,5.000000000000000000e+00
2.509853839874267578e+00,2.549988269805908203e+00,2.591427087783813477e+00,2.634234905242919922e+00,2.678480625152587891e+00,2.724238157272338867e+00,2.771586179733276367e+00,2.820609092712402344e+00,2.871397733688354492e+00,2.924048662185668945e+00,2.978666543960571289e+00,3.035363674163818359e+00,3.094261169433593750e+00,3.155489683151245117e+00,3.219189882278442383e+00,3.285515308380126953e+00,3.354630947113037109e+00,3.426717519760131836e+00,3.501969814300537109e+00,3.580601453781127930e+00,3.662845373153686523e+00,3.748955965042114258e+00,3.839213371276855469e+00,3.933923482894897461e+00,4.033424377441406250e+00,4.138090133666992188e+00,4.248332023620605469e+00,4.364608764648437500e+00,4.487429618835449219e+00,4.617362976074218750e+00,4.755044937133789062e+00,4.836021900177001953e+00,4.834825515747070312e+00,4.833630084991455078e+00,4.832434654235839844e+00,4.831240653991699219e+00,4.830046653747558594e+00,4.828853607177734375e+00,4.827661037445068359e+00,4.826468467712402344e+00,4.825277328491210938e+00,4.824086189270019531e+00,4.822896003723144531e+00,4.821705818176269531e+00,4.820517063140869141e+00,4.819328308105468750e+00,4.818140506744384766e+00,4.816953182220458984e+00,4.815765857696533203e+00,4.814579963684082031e+00,4.813394069671630859e+00,4.812209129333496094e+00,4.811024665832519531e+00,4.809840679168701172e+00,4.808657646179199219e+00,4.807474613189697266e+00,4.806292533874511719e+00,4.805110931396484375e+00,4.803929805755615234e+00,4.802749633789062500e+00,4.801569461822509766e+00,4.800390243530273438e+00,4.799211502075195312e+00,4.798033714294433594e+00,4.796856403350830078e+00,4.795679092407226562e+00,4.794502735137939453e+00,4.793326854705810547e+00,4.792151927947998047e+00,4.790977001190185547e+00,4.789803028106689453e+00,4.788630008697509766e+00,4.787456989288330078e+00,4.786284923553466797e+00,4.785112857818603516e+00,4.783941745758056641e+00,4.782770633697509766e+00,4.781600952148437500e+00,4.780431747436523438e+00,4.779262542724609375e+00
2.509814262390136719e+00,2.549947261810302734e+00,2.591384649276733398e+00,2.634191036224365234e+00,2.678435325622558594e+00,2.724191188812255859e+00,2.771537542343139648e+00,2.820559024810791016e+00,2.871345520019531250e+00,2.923994541168212891e+00,2.978610515594482422e+00,3.035305500030517578e+00,3.094200849533081055e+00,3.155426740646362305e+00,3.219124555587768555e+00,3.285447120666503906e+00,3.354559898376464844e+00,3.426643371582031250e+00,3.501892328262329102e+00,3.580520391464233398e+00,3.662760496139526367e+00,3.748867273330688477e+00,3.761178016662597656e+00,3.760454177856445312e+00,3.759730815887451172e+00,3.759007930755615234e+00,3.758285045623779297e+00,3.757562398910522461e+00,3.756840229034423828e+00,3.756118535995483398e+00,3.755396604537963867e+00,3.754675149917602539e+00,3.753954410552978516e+00,3.753233432769775391e+00,3.752512693405151367e+00,3.751792192459106445e+00,3.751072645187377930e+00,3.750352621078491211e+00,3.749633073806762695e+00,3.748914241790771484e+00,3.748195171356201172e+00,3.747476339340209961e+00,3.746757984161376953e+00,3.746040105819702148e+00,3.745322227478027344e+00,3.744604587554931641e+00,3.743887662887573242e+00,3.743170499801635742e+00,3.742453575134277344e+00,3.741737127304077148e+00,3.741021156311035156e+00,3.740305185317993164e+00,3.739589452743530273e+00,3.738874435424804688e+00,3.738159418106079102e+00,3.737444400787353516e+00,3.736729860305786133e+00,3.736015796661376953e+00,3.735301733016967773e+00,3.734587907791137695e+00,3.733874797821044922e+00,3.733161449432373047e+00,3.732448577880859375e+00,3.731735706329345703e+00,3.731023788452148438e+00,3.730311632156372070e+00,3.729599714279174805e+00,3.728888511657714844e+00,3.728177070617675781e+00,3.727465867996215820e+00,3.726755142211914062e+00,3.726044893264770508e+00,3.725334644317626953e+00,3.724624633789062500e+00,3.723915338516235352e+00,3.723205804824829102e+00,3.722496509552001953e+00,3.721788167953491211e+00,3.721079349517822266e+00,3.720371007919311523e+00
2.509774446487426758e+00,2.549906253814697266e+00,2.591342210769653320e+00,2.634147167205810547e+00,2.678390026092529297e+00,2.724144220352172852e+00,2.771489143371582031e+00,2.820508718490600586e+00,2.871293544769287109e+00,2.923940658569335938e+00,2.978554487228393555e+00,3.035247325897216797e+00,3.077722311019897461e+00,3.077237606048583984e+00,3.076753139495849609e+00,3.076268672943115234e+00,3.075784921646118164e+00,3.075300931930541992e+00,3.074816942214965820e+00,3.074333429336547852e+00,3.073849916458129883e+00,3.073366641998291016e+00,3.072883367538452148e+00,3.072400569915771484e+00,3.071917533874511719e+00,3.071434736251831055e+00,3.070952415466308594e+00,3.070469856262207031e+00,3.069987535476684570e+00,3.069505214691162109e+00,3.069023609161376953e+00,3.068541526794433594e+00,3.068059921264648438e+00,3.067578554153442383e+00,3.067097187042236328e+00,3.066615819931030273e+00,3.066134691238403320e+00,3.065654039382934570e+00,3.065173149108886719e+00,3.064692497253417969e+00,3.064212322235107422e+00,3.063731908798217773e+00,3.063251733779907227e+00,3.062771558761596680e+00,3.062291860580444336e+00,3.061812162399291992e+00,3.061332464218139648e+00,3.060853242874145508e+00,3.060374021530151367e+00,3.059894800186157227e+00,3.059415817260742188e+00,3.058937072753906250e+00,3.058458328247070312e+00,3.057979822158813477e+00,3.057501554489135742e+00,3.057023286819458008e+00,3.056545257568359375e+00,3.056067466735839844e+00,3.055589675903320312e+00,3.055111885070800781e+00,3.054634332656860352e+00,3.054157257080078125e+00,3.053680181503295898e+00,3.053202867507934570e+00,3.052726268768310547e+00,3.052249431610107422e+00,3.051772832870483398e+00,3.051296472549438477e+00,3.050820350646972656e+00,3.050343990325927734e+00,3.049868106842041016e+00,3.049392461776733398e+00,3.048916578292846680e+00,3.048441171646118164e+00,3.047965526580810547e+00,3.047490596771240234e+00,3.047015428543090820e+00,3.046540498733520508e+00,3.046065807342529297e+00,3.045591115951538086e+00
2.509734630584716797e+00,2.549865007400512695e+00,2.591299772262573242e+00,2.604110717773437500e+00,2.603763818740844727e+00,2.603416919708251953e+00,2.603070259094238281e+00,2.602723598480224609e+00,2.602376937866210938e+00,2.602030515670776367e+00,2.601684331893920898e+00,2.601337909698486328e+00,2.600991725921630859e+00,2.600645780563354492e+00,2.600299835205078125e+00,2.599953889846801758e+00,2.599607944488525391e+00,2.599262475967407227e+00,2.598916769027709961e+00,2.598571062088012695e+00,2.598225831985473633e+00,2.597880363464355469e+00,2.597535133361816406e+00,2.597189903259277344e+00,2.596844911575317383e+00,2.596499919891357422e+00,2.596154928207397461e+00,2.595810413360595703e+00,2.595465660095214844e+00,2.595120906829833984e+00,2.594776391983032227e+00,2.594432115554809570e+00,2.594087839126586914e+00,2.593743562698364258e+00,2.593399524688720703e+00,2.593055248260498047e+00,2.592711210250854492e+00,2.592367649078369141e+00,2.592023849487304688e+00,2.591680049896240234e+00,2.591336250305175781e+00,2.590992927551269531e+00,2.590649604797363281e+00,2.590306043624877930e+00,2.589962959289550781e+00,2.589619874954223633e+00,2.589276790618896484e+00,2.588933706283569336e+00,2.588590860366821289e+00,2.588248014450073242e+00,2.587905406951904297e+00,2.587562799453735352e+00,2.587220430374145508e+00,2.586877822875976562e+00,2.586535453796386719e+00,2.586193323135375977e+00,2.585851192474365234e+00,2.585509061813354492e+00,2.585167407989501953e+00,2.584825277328491211e+00,2.584483623504638672e+00,2.584141731262207031e+00,2.583800315856933594e+00,2.583458662033081055e+00,2.583117246627807617e+00,2.582776069641113281e+00,2.582434892654418945e+00,2.582093477249145508e+00,2.581752538681030273e+00,2.581411600112915039e+00,2.581070661544799805e+00,2.580729722976684570e+00,2.580389261245727539e+00,2.580048561096191406e+00,2.579708099365234375e+00,2.579367399215698242e+00,2.579027414321899414e+00,2.578686952590942383e+00,2.578346729278564453e+00,2.578006744384765625e+00
2.255259990692138672e+00,2.254999637603759766e+00,2.254739522933959961e+00,2.254479408264160156e+00,2.254219532012939453e+00,2.253959655761718750e+00,2.253699541091918945e+00,2.253439903259277344e+00,2.253180027008056641e+00,2.252920389175415039e+00,2.252660751342773438e+00,2.252401113510131836e+00,2.252141714096069336e+00,2.251882076263427734e+00,2.251622915267944336e+00,2.251363515853881836e+00,2.251104116439819336e+00,2.250844955444335938e+00,2.250585794448852539e+00,2.250326633453369141e+00,2.250067472457885742e+00,2.249808549880981445e+00,2.249549627304077148e+00,2.249290704727172852e+00,2.249032020568847656e+00,2.248773097991943359e+00,2.248514413833618164e+00,2.248255729675292969e+00,2.247997283935546875e+00,2.247738838195800781e+00,2.247480154037475586e+00,2.247221946716308594e+00,2.246963500976562500e+00,2.246705293655395508e+00,2.246447086334228516e+00,2.246188879013061523e+00,2.245930910110473633e+00,2.245672702789306641e+00,2.245414733886718750e+00,2.245156764984130859e+00,2.244899034500122070e+00,2.244641065597534180e+00,2.244383335113525391e+00,2.244125604629516602e+00,2.243868112564086914e+00,2.243610620498657227e+00,2.243353128433227539e+00,2.243095636367797852e+00,2.242838144302368164e+00,2.242580890655517578e+00,2.242323637008666992e+00,2.242066383361816406e+00,2.241809368133544922e+00,2.241552114486694336e+00,2.241295099258422852e+00,2.241038084030151367e+00,2.240781307220458984e+00,2.240524291992187500e+00,2.240267515182495117e+00,2.240010738372802734e+00,2.239754199981689453e+00,2.239497423171997070e+00,2.239240884780883789e+00,2.238984346389770508e+00,2.238727807998657227e+00,2.238471508026123047e+00,2.238215208053588867e+00,2.237958908081054688e+00,2.237702608108520508e+00,2.237446546554565430e+00,2.237190485000610352e+00,2.236934423446655273e+00,2.236678361892700195e+00,2.236422538757324219e+00,2.236166715621948242e+00,2.235910892486572266e+00,2.235655069351196289e+00,2.235399484634399414e+00,2.235143661499023438e+00,2.234888076782226562e+00
1.988225817680358887e+00,1.988023638725280762e+00,1.987821578979492188e+00,1.987619280815124512e+00,1.987417221069335938e+00,1.987215280532836914e+00,1.987013101577758789e+00,1.986811161041259766e+00,1.986609339714050293e+00,1.986407279968261719e+00,1.986205577850341797e+00,1.986003756523132324e+00,1.985801935195922852e+00,1.985600233078002930e+00,1.985398411750793457e+00,1.985196828842163086e+00,1.984995365142822266e+00,1.984793663024902344e+00,1.984592199325561523e+00,1.984390735626220703e+00,1.984189152717590332e+00,1.983987808227539062e+00,1.983786582946777344e+00,1.983585119247436523e+00,1.983383893966674805e+00,1.983182668685913086e+00,1.982981324195861816e+00,1.982780337333679199e+00,1.982578992843627930e+00,1.982378005981445312e+00,1.982177138328552246e+00,1.981975913047790527e+00,1.981775045394897461e+00,1.981574296951293945e+00,1.981373190879821777e+00,1.981172442436218262e+00,1.980971813201904297e+00,1.980770826339721680e+00,1.980570197105407715e+00,1.980369687080383301e+00,1.980168819427490234e+00,1.979968309402465820e+00,1.979767680168151855e+00,1.979567170143127441e+00,1.979366779327392578e+00,1.979166269302368164e+00,1.978965997695922852e+00,1.978765726089477539e+00,1.978565216064453125e+00,1.978365063667297363e+00,1.978164911270141602e+00,1.977964520454406738e+00,1.977764487266540527e+00,1.977564454078674316e+00,1.977364301681518555e+00,1.977164268493652344e+00,1.976964235305786133e+00,1.976764321327209473e+00,1.976564526557922363e+00,1.976364493370056152e+00,1.976164698600769043e+00,1.975965023040771484e+00,1.975765109062194824e+00,1.975565552711486816e+00,1.975365996360778809e+00,1.975166201591491699e+00,1.974966645240783691e+00,1.974767208099365234e+00,1.974567651748657227e+00,1.974368214607238770e+00,1.974168658256530762e+00,1.973969340324401855e+00,1.973770141601562500e+00,1.973570704460144043e+00,1.973371505737304688e+00,1.973172307014465332e+00,1.972972989082336426e+00,1.972774028778076172e+00,1.972574949264526367e+00,1.972375750541687012e+00
1.777733325958251953e+00,1.777571678161621094e+00,1.777410149574279785e+00,1.777248382568359375e+00,1.777086853981018066e+00,1.776925444602966309e+00,1.776763796806335449e+00,1.776602268218994141e+00,1.776440739631652832e+00,1.776279330253601074e+00,1.776118040084838867e+00,1.775956511497497559e+00,1.775795221328735352e+00,1.775633931159973145e+00,1.775472521781921387e+00,1.775311350822448730e+00,1.775150179862976074e+00,1.774988889694213867e+00,1.774827718734741211e+00,1.774666666984558105e+00,1.774505496025085449e+00,1.774344444274902344e+00,1.774183273315429688e+00,1.774022340774536133e+00,1.773861408233642578e+00,1.773700237274169922e+00,1.773539423942565918e+00,1.773378491401672363e+00,1.773217558860778809e+00,1.773056745529174805e+00,1.772895932197570801e+00,1.772735118865966797e+00,1.772574424743652344e+00,1.772413730621337891e+00,1.772252917289733887e+00,1.772092223167419434e+00,1.771931529045104980e+00,1.771770954132080078e+00,1.771610379219055176e+00,1.771449685096740723e+00,1.771289229393005371e+00,1.771128773689270020e+00,1.770968198776245117e+00,1.770807862281799316e+00,1.770647525787353516e+00,1.770486950874328613e+00,1.770326614379882812e+00,1.770166397094726562e+00,1.770005941390991211e+00,1.769845724105834961e+00,1.769685387611389160e+00,1.769525289535522461e+00,1.769365072250366211e+00,1.769204854965209961e+00,1.769044756889343262e+00,1.768884778022766113e+00,1.768724560737609863e+00,1.768564581871032715e+00,1.768404603004455566e+00,1.768244504928588867e+00,1.768084645271301270e+00,1.767924785614013672e+00,1.767764806747436523e+00,1.767604947090148926e+00,1.767445206642150879e+00,1.767285227775573730e+00,1.767125606536865234e+00,1.766965746879577637e+00,1.766806006431579590e+00,1.766646385192871094e+00,1.766486644744873047e+00,1.766327023506164551e+00,1.766167521476745605e+00,1.766007781028747559e+00,1.765848398208618164e+00,1.765688896179199219e+00,1.765529274940490723e+00,1.765369892120361328e+00,1.765210509300231934e+00,1.765051007270812988e+00
1.607543468475341797e+00,1.607411384582519531e+00,1.607279062271118164e+00,1.607146978378295898e+00,1.607014894485473633e+00,1.606882691383361816e+00,1.606750607490539551e+00,1.606618642807006836e+00,1.606486439704895020e+00,1.606354475021362305e+00,1.606222510337829590e+00,1.606090426445007324e+00,1.605958580970764160e+00,1.605826735496520996e+00,1.605694651603698730e+00,1.605562806129455566e+00,1.605430841445922852e+00,1.605298995971679688e+00,1.605167269706726074e+00,1.605035305023193359e+00,1.604903578758239746e+00,1.604771852493286133e+00,1.604640007019042969e+00,1.604508399963378906e+00,1.604376792907714844e+00,1.604244947433471680e+00,1.604113340377807617e+00,1.603981733322143555e+00,1.603850007057189941e+00,1.603718519210815430e+00,1.603586792945861816e+00,1.603455305099487305e+00,1.603323817253112793e+00,1.603192210197448730e+00,1.603060841560363770e+00,1.602929472923278809e+00,1.602797865867614746e+00,1.602666497230529785e+00,1.602535128593444824e+00,1.602403640747070312e+00,1.602272391319274902e+00,1.602141141891479492e+00,1.602009654045104980e+00,1.601878404617309570e+00,1.601747274398803711e+00,1.601615905761718750e+00,1.601484656333923340e+00,1.601353406906127930e+00,1.601222276687622070e+00,1.601091146469116211e+00,1.600959897041320801e+00,1.600828886032104492e+00,1.600697875022888184e+00,1.600566625595092773e+00,1.600435614585876465e+00,1.600304722785949707e+00,1.600173592567443848e+00,1.600042581558227539e+00,1.599911689758300781e+00,1.599780559539794922e+00,1.599649786949157715e+00,1.599518775939941406e+00,1.599387884140014648e+00,1.599257111549377441e+00,1.599126219749450684e+00,1.598995447158813477e+00,1.598864674568176270e+00,1.598733782768249512e+00,1.598603129386901855e+00,1.598472356796264648e+00,1.598341584205627441e+00,1.598210930824279785e+00,1.598080277442932129e+00,1.597949624061584473e+00,1.597818970680236816e+00,1.597688317298889160e+00,1.597557783126831055e+00,1.597427248954772949e+00,1.597296595573425293e+00,1.597166180610656738e+00
1.467092633247375488e+00,1.466982603073120117e+00,1.466872334480285645e+00,1.466762304306030273e+00,1.466652274131774902e+00,1.466542243957519531e+00,1.466432213783264160e+00,1.466322183609008789e+00,1.466212153434753418e+00,1.466102242469787598e+00,1.465992212295532227e+00,1.465882301330566406e+00,1.465772390365600586e+00,1.465662360191345215e+00,1.465552568435668945e+00,1.465442657470703125e+00,1.465332746505737305e+00,1.465222954750061035e+00,1.465113162994384766e+00,1.465003252029418945e+00,1.464893579483032227e+00,1.464783787727355957e+00,1.464673995971679688e+00,1.464564204216003418e+00,1.464454531669616699e+00,1.464344739913940430e+00,1.464235067367553711e+00,1.464125275611877441e+00,1.464015722274780273e+00,1.463906049728393555e+00,1.463796377182006836e+00,1.463686823844909668e+00,1.463577270507812500e+00,1.463467597961425781e+00,1.463358044624328613e+00,1.463248610496520996e+00,1.463138937950134277e+00,1.463029503822326660e+00,1.462920069694519043e+00,1.462810397148132324e+00,1.462701082229614258e+00,1.462591528892517090e+00,1.462482094764709473e+00,1.462372779846191406e+00,1.462263226509094238e+00,1.462153911590576172e+00,1.462044596672058105e+00,1.461935162544250488e+00,1.461825847625732422e+00,1.461716532707214355e+00,1.461607217788696289e+00,1.461498022079467773e+00,1.461388707160949707e+00,1.461279392242431641e+00,1.461170196533203125e+00,1.461060881614685059e+00,1.460951685905456543e+00,1.460842609405517578e+00,1.460733294486999512e+00,1.460624217987060547e+00,1.460515141487121582e+00,1.460405945777893066e+00,1.460296869277954102e+00,1.460187792778015137e+00,1.460078597068786621e+00,1.459969639778137207e+00,1.459860682487487793e+00,1.459751486778259277e+00,1.459642529487609863e+00,1.459533452987670898e+00,1.459424495697021484e+00,1.459315657615661621e+00,1.459206581115722656e+00,1.459097743034362793e+00,1.458988904953002930e+00,1.458879828453063965e+00,1.458770990371704102e+00,1.458662271499633789e+00,1.458553314208984375e+00,1.458444476127624512e+00
1.349212050437927246e+00,1.349118947982788086e+00,1.349025845527648926e+00,1.348932743072509766e+00,1.348839640617370605e+00,1.348746538162231445e+00,1.348653554916381836e+00,1.348560333251953125e+00,1.348467350006103516e+00,1.348374366760253906e+00,1.348281264305114746e+00,1.348188400268554688e+00,1.348095417022705078e+00,1.348002314567565918e+00,1.347909450531005859e+00,1.347816586494445801e+00,1.347723484039306641e+00,1.347630620002746582e+00,1.347537755966186523e+00,1.347444772720336914e+00,1.347352027893066406e+00,1.347259044647216797e+00,1.347166299819946289e+00,1.347073435783386230e+00,1.346980571746826172e+00,1.346887707710266113e+00,1.346794962882995605e+00,1.346702098846435547e+00,1.346609354019165039e+00,1.346516609191894531e+00,1.346423864364624023e+00,1.346331119537353516e+00,1.346238493919372559e+00,1.346145629882812500e+00,1.346053004264831543e+00,1.345960259437561035e+00,1.345867633819580078e+00,1.345775008201599121e+00,1.345682263374328613e+00,1.345589637756347656e+00,1.345497012138366699e+00,1.345404386520385742e+00,1.345311760902404785e+00,1.345219254493713379e+00,1.345126628875732422e+00,1.345034122467041016e+00,1.344941496849060059e+00,1.344848990440368652e+00,1.344756484031677246e+00,1.344663858413696289e+00,1.344571352005004883e+00,1.344478964805603027e+00,1.344386458396911621e+00,1.344293951988220215e+00,1.344201564788818359e+00,1.344109058380126953e+00,1.344016671180725098e+00,1.343924283981323242e+00,1.343831896781921387e+00,1.343739509582519531e+00,1.343647122383117676e+00,1.343554735183715820e+00,1.343462347984313965e+00,1.343369960784912109e+00,1.343277692794799805e+00,1.343185424804687500e+00,1.343093037605285645e+00,1.343000769615173340e+00,1.342908620834350586e+00,1.342816233634948730e+00,1.342724084854125977e+00,1.342631816864013672e+00,1.342539548873901367e+00,1.342447400093078613e+00,1.342355251312255859e+00,1.342262983322143555e+00,1.342170834541320801e+00,1.342078685760498047e+00,1.341986536979675293e+00,1.341894388198852539e+00
1.248865962028503418e+00,1.248786091804504395e+00,1.248706459999084473e+00,1.248626708984375000e+00,1.248546838760375977e+00,1.248467087745666504e+00,1.248387455940246582e+00,1.248307704925537109e+00,1.248227953910827637e+00,1.248148322105407715e+00,1.248068571090698242e+00,1.247988820075988770e+00,1.247909188270568848e+00,1.247829437255859375e+00,1.247749924659729004e+00,1.247670173645019531e+00,1.247590541839599609e+00,1.247510910034179688e+00,1.247431278228759766e+00,1.247351765632629395e+00,1.247272133827209473e+00,1.247192502021789551e+00,1.247112989425659180e+00,1.247033476829528809e+00,1.246953845024108887e+00,1.246874332427978516e+00,1.246794819831848145e+00,1.246715188026428223e+00,1.246635675430297852e+00,1.246556162834167480e+00,1.246476650238037109e+00,1.246397256851196289e+00,1.246317744255065918e+00,1.246238231658935547e+00,1.246158838272094727e+00,1.246079325675964355e+00,1.245999932289123535e+00,1.245920538902282715e+00,1.245841026306152344e+00,1.245761752128601074e+00,1.245682358741760254e+00,1.245602846145629883e+00,1.245523571968078613e+00,1.245444178581237793e+00,1.245364785194396973e+00,1.245285511016845703e+00,1.245206117630004883e+00,1.245126843452453613e+00,1.245047569274902344e+00,1.244968175888061523e+00,1.244888901710510254e+00,1.244809627532958984e+00,1.244730353355407715e+00,1.244651079177856445e+00,1.244571924209594727e+00,1.244492530822753906e+00,1.244413375854492188e+00,1.244334220886230469e+00,1.244254946708679199e+00,1.244175791740417480e+00,1.244096517562866211e+00,1.244017362594604492e+00,1.243938207626342773e+00,1.243858933448791504e+00,1.243779897689819336e+00,1.243700742721557617e+00,1.243621587753295898e+00,1.243542432785034180e+00,1.243463397026062012e+00,1.243384242057800293e+00,1.243305206298828125e+00,1.243226170539855957e+00,1.243147015571594238e+00,1.243067979812622070e+00,1.242988824844360352e+00,1.242909908294677734e+00,1.242830872535705566e+00,1.242751836776733398e+00,1.242672801017761230e+00,1.242593884468078613e+00
1.162412881851196289e+00,1.162343740463256836e+00,1.162274718284606934e+00,1.162205576896667480e+00,1.162136435508728027e+00,1.162067413330078125e+00,1.161998271942138672e+00,1.161929130554199219e+00,1.161860108375549316e+00,1.161791086196899414e+00,1.161722064018249512e+00,1.161653041839599609e+00,1.161583900451660156e+00,1.161514878273010254e+00,1.161445975303649902e+00,1.161376833915710449e+00,1.161307930946350098e+00,1.161238908767700195e+00,1.161169886589050293e+00,1.161100864410400391e+00,1.161031961441040039e+00,1.160962939262390137e+00,1.160894036293029785e+00,1.160825014114379883e+00,1.160756111145019531e+00,1.160687208175659180e+00,1.160618305206298828e+00,1.160549402236938477e+00,1.160480499267578125e+00,1.160411596298217773e+00,1.160342693328857422e+00,1.160273790359497070e+00,1.160204887390136719e+00,1.160136103630065918e+00,1.160067200660705566e+00,1.159998297691345215e+00,1.159929513931274414e+00,1.159860730171203613e+00,1.159791827201843262e+00,1.159723043441772461e+00,1.159654259681701660e+00,1.159585475921630859e+00,1.159516692161560059e+00,1.159447789192199707e+00,1.159379124641418457e+00,1.159310340881347656e+00,1.159241557121276855e+00,1.159172773361206055e+00,1.159104108810424805e+00,1.159035325050354004e+00,1.158966660499572754e+00,1.158897876739501953e+00,1.158829212188720703e+00,1.158760428428649902e+00,1.158691763877868652e+00,1.158623099327087402e+00,1.158554434776306152e+00,1.158485770225524902e+00,1.158417105674743652e+00,1.158348441123962402e+00,1.158279776573181152e+00,1.158211231231689453e+00,1.158142566680908203e+00,1.158073902130126953e+00,1.158005356788635254e+00,1.157936811447143555e+00,1.157868146896362305e+00,1.157799601554870605e+00,1.157730937004089355e+00,1.157662391662597656e+00,1.157593846321105957e+00,1.157525300979614258e+00,1.157456755638122559e+00,1.157388210296630859e+00,1.157319664955139160e+00,1.157251119613647461e+00,1.157182693481445312e+00,1.157114148139953613e+00,1.157045602798461914e+00,1.156977176666259766e+00
1.087154388427734375e+00,1.087093830108642578e+00,1.087033390998840332e+00,1.086972951889038086e+00,1.086912512779235840e+00,1.086852073669433594e+00,1.086791634559631348e+00,1.086731195449829102e+00,1.086670756340026855e+00,1.086610317230224609e+00,1.086549997329711914e+00,1.086489558219909668e+00,1.086429119110107422e+00,1.086368799209594727e+00,1.086308479309082031e+00,1.086248040199279785e+00,1.086187720298767090e+00,1.086127400398254395e+00,1.086066961288452148e+00,1.086006641387939453e+00,1.085946321487426758e+00,1.085886001586914062e+00,1.085825681686401367e+00,1.085765361785888672e+00,1.085705041885375977e+00,1.085644721984863281e+00,1.085584402084350586e+00,1.085524082183837891e+00,1.085463881492614746e+00,1.085403561592102051e+00,1.085343360900878906e+00,1.085283041000366211e+00,1.085222721099853516e+00,1.085162520408630371e+00,1.085102319717407227e+00,1.085041999816894531e+00,1.084981799125671387e+00,1.084921598434448242e+00,1.084861397743225098e+00,1.084801197052001953e+00,1.084740877151489258e+00,1.084680795669555664e+00,1.084620594978332520e+00,1.084560394287109375e+00,1.084500193595886230e+00,1.084440112113952637e+00,1.084379911422729492e+00,1.084319710731506348e+00,1.084259510040283203e+00,1.084199428558349609e+00,1.084139347076416016e+00,1.084079146385192871e+00,1.084019064903259277e+00,1.083958983421325684e+00,1.083898782730102539e+00,1.083838701248168945e+00,1.083778619766235352e+00,1.083718538284301758e+00,1.083658456802368164e+00,1.083598375320434570e+00,1.083538293838500977e+00,1.083478212356567383e+00,1.083418130874633789e+00,1.083358168601989746e+00,1.083298087120056152e+00,1.083238005638122559e+00,1.083178043365478516e+00,1.083117961883544922e+00,1.083057999610900879e+00,1.082997918128967285e+00,1.082937955856323242e+00,1.082877993583679199e+00,1.082818031311035156e+00,1.082758069038391113e+00,1.082697987556457520e+00,1.082638025283813477e+00,1.082578063011169434e+00,1.082518100738525391e+00,1.082458138465881348e+00,1.082398176193237305e+00
1.021048188209533691e+00,1.020994901657104492e+00,1.020941495895385742e+00,1.020888209342956543e+00,1.020834922790527344e+00,1.020781636238098145e+00,1.020728230476379395e+00,1.020674943923950195e+00,1.020621657371520996e+00,1.020568370819091797e+00,1.020515084266662598e+00,1.020461797714233398e+00,1.020408511161804199e+00,1.020355224609375000e+00,1.020301938056945801e+00,1.020248770713806152e+00,1.020195484161376953e+00,1.020142197608947754e+00,1.020089030265808105e+00,1.020035743713378906e+00,1.019982576370239258e+00,1.019929289817810059e+00,1.019876122474670410e+00,1.019822835922241211e+00,1.019769668579101562e+00,1.019716501235961914e+00,1.019663214683532715e+00,1.019610047340393066e+00,1.019556879997253418e+00,1.019503712654113770e+00,1.019450545310974121e+00,1.019397377967834473e+00,1.019344210624694824e+00,1.019291043281555176e+00,1.019237875938415527e+00,1.019184708595275879e+00,1.019131660461425781e+00,1.019078493118286133e+00,1.019025325775146484e+00,1.018972277641296387e+00,1.018919110298156738e+00,1.018866062164306641e+00,1.018812894821166992e+00,1.018759727478027344e+00,1.018706679344177246e+00,1.018653631210327148e+00,1.018600463867187500e+00,1.018547415733337402e+00,1.018494367599487305e+00,1.018441319465637207e+00,1.018388271331787109e+00,1.018335103988647461e+00,1.018282175064086914e+00,1.018229126930236816e+00,1.018176078796386719e+00,1.018123030662536621e+00,1.018069982528686523e+00,1.018016934394836426e+00,1.017963886260986328e+00,1.017910838127136230e+00,1.017857909202575684e+00,1.017804861068725586e+00,1.017751932144165039e+00,1.017698884010314941e+00,1.017645955085754395e+00,1.017592906951904297e+00,1.017539978027343750e+00,1.017487049102783203e+00,1.017434000968933105e+00,1.017381072044372559e+00,1.017328143119812012e+00,1.017275214195251465e+00,1.017222285270690918e+00,1.017169237136840820e+00,1.017116308212280273e+00,1.017063498497009277e+00,1.017010450363159180e+00,1.016957640647888184e+00,1.016904711723327637e+00,1.016851782798767090e+00
9.625206589698791504e-01,9.624732732772827148e-01,9.624258875846862793e-01,9.623783826828002930e-01,9.623310565948486328e-01,9.622836709022521973e-01,9.622363448143005371e-01,9.621890187263488770e-01,9.621415138244628906e-01,9.620941877365112305e-01,9.620468616485595703e-01,9.619995355606079102e-01,9.619522094726562500e-01,9.619048833847045898e-01,9.618574380874633789e-01,9.618101716041564941e-01,9.617628455162048340e-01,9.617155790328979492e-01,9.616682529449462891e-01,9.616209864616394043e-01,9.615735411643981934e-01,9.615262746810913086e-01,9.614790081977844238e-01,9.614317417144775391e-01,9.613844752311706543e-01,9.613370895385742188e-01,9.612898230552673340e-01,9.612425565719604492e-01,9.611952900886535645e-01,9.611480832099914551e-01,9.611008167266845703e-01,9.610534906387329102e-01,9.610062241554260254e-01,9.609590172767639160e-01,9.609118103981018066e-01,9.608646035194396973e-01,9.608172774314880371e-01,9.607700705528259277e-01,9.607228636741638184e-01,9.606756567955017090e-01,9.606284499168395996e-01,9.605812430381774902e-01,9.605339765548706055e-01,9.604867696762084961e-01,9.604396224021911621e-01,9.603924155235290527e-01,9.603452682495117188e-01,9.602981209754943848e-01,9.602508544921875000e-01,9.602037072181701660e-01,9.601565003395080566e-01,9.601094126701354980e-01,9.600622653961181641e-01,9.600149989128112793e-01,9.599678516387939453e-01,9.599207639694213867e-01,9.598736166954040527e-01,9.598265290260314941e-01,9.597793817520141602e-01,9.597321748733520508e-01,9.596850872039794922e-01,9.596379995346069336e-01,9.595908522605895996e-01,9.595437645912170410e-01,9.594966769218444824e-01,9.594495296478271484e-01,9.594024419784545898e-01,9.593553543090820312e-01,9.593083262443542480e-01,9.592612385749816895e-01,9.592140913009643555e-01,9.591670036315917969e-01,9.591199755668640137e-01,9.590729475021362305e-01,9.590259194374084473e-01,9.589788317680358887e-01,9.589317440986633301e-01,9.588847160339355469e-01,9.588376879692077637e-01,9.587906599044799805e-01
9.103389978408813477e-01,9.102966189384460449e-01,9.102542400360107422e-01,9.102118611335754395e-01,9.101694822311401367e-01,9.101270437240600586e-01,9.100846648216247559e-01,9.100422859191894531e-01,9.099999666213989258e-01,9.099575877189636230e-01,9.099152684211730957e-01,9.098728299140930176e-01,9.098305106163024902e-01,9.097881317138671875e-01,9.097458124160766602e-01,9.097034931182861328e-01,9.096611142158508301e-01,9.096187949180603027e-01,9.095764756202697754e-01,9.095341563224792480e-01,9.094918370246887207e-01,9.094495177268981934e-01,9.094071388244628906e-01,9.093648791313171387e-01,9.093225598335266113e-01,9.092803001403808594e-01,9.092379808425903320e-01,9.091957211494445801e-01,9.091533422470092773e-01,9.091110825538635254e-01,9.090688228607177734e-01,9.090265631675720215e-01,9.089843034744262695e-01,9.089419245719909668e-01,9.088997244834899902e-01,9.088574647903442383e-01,9.088152050971984863e-01,9.087730050086975098e-01,9.087307453155517578e-01,9.086884260177612305e-01,9.086461663246154785e-01,9.086039662361145020e-01,9.085617661476135254e-01,9.085195660591125488e-01,9.084773063659667969e-01,9.084350466728210449e-01,9.083928465843200684e-01,9.083506464958190918e-01,9.083084464073181152e-01,9.082662463188171387e-01,9.082239270210266113e-01,9.081817865371704102e-01,9.081395864486694336e-01,9.080974459648132324e-01,9.080552458763122559e-01,9.080131053924560547e-01,9.079708456993103027e-01,9.079286456108093262e-01,9.078865051269531250e-01,9.078443646430969238e-01,9.078022241592407227e-01,9.077599644660949707e-01,9.077178239822387695e-01,9.076756834983825684e-01,9.076335430145263672e-01,9.075914621353149414e-01,9.075493216514587402e-01,9.075071215629577637e-01,9.074649810791015625e-01,9.074228405952453613e-01,9.073807597160339355e-01,9.073386788368225098e-01,9.072965383529663086e-01,9.072543382644653320e-01,9.072122573852539062e-01,9.071701765060424805e-01,9.071280956268310547e-01,9.070860147476196289e-01,9.070438742637634277e-01,9.070017933845520020e-01
8.635243773460388184e-01,8.634862303733825684e-01,8.634480237960815430e-01,8.634098768234252930e-01,8.633717298507690430e-01,8.633336424827575684e-01,8.632954955101013184e-01,8.632574081420898438e-01,8.632192015647888184e-01,8.631811141967773438e-01,8.631429672241210938e-01,8.631048798561096191e-01,8.630667924880981445e-01,8.630286455154418945e-01,8.629905581474304199e-01,8.629524707794189453e-01,8.629143834114074707e-01,8.628762960433959961e-01,8.628382086753845215e-01,8.628000617027282715e-01,8.627619743347167969e-01,8.627238869667053223e-01,8.626858592033386230e-01,8.626477718353271484e-01,8.626097440719604492e-01,8.625715970993041992e-01,8.625335693359375000e-01,8.624954819679260254e-01,8.624574542045593262e-01,8.624194264411926270e-01,8.623812794685363770e-01,8.623432517051696777e-01,8.623052239418029785e-01,8.622671961784362793e-01,8.622291684150695801e-01,8.621911406517028809e-01,8.621530532836914062e-01,8.621150851249694824e-01,8.620770573616027832e-01,8.620390295982360840e-01,8.620010614395141602e-01,8.619629740715026855e-01,8.619249463081359863e-01,8.618869781494140625e-01,8.618490099906921387e-01,8.618109822273254395e-01,8.617730140686035156e-01,8.617349267005920410e-01,8.616969585418701172e-01,8.616589903831481934e-01,8.616210222244262695e-01,8.615830540657043457e-01,8.615450859069824219e-01,8.615070581436157227e-01,8.614690899848937988e-01,8.614311814308166504e-01,8.613932132720947266e-01,8.613552451133728027e-01,8.613172173500061035e-01,8.612793087959289551e-01,8.612413406372070312e-01,8.612034320831298828e-01,8.611655235290527344e-01,8.611275553703308105e-01,8.610895872116088867e-01,8.610516190528869629e-01,8.610137104988098145e-01,8.609758019447326660e-01,8.609378933906555176e-01,8.608999252319335938e-01,8.608620166778564453e-01,8.608241081237792969e-01,8.607861995697021484e-01,8.607483506202697754e-01,8.607104420661926270e-01,8.606724739074707031e-01,8.606345653533935547e-01,8.605967164039611816e-01,8.605588078498840332e-01,8.605209589004516602e-01
8.212890625000000000e-01,8.212545514106750488e-01,8.212200999259948730e-01,8.211855888366699219e-01,8.211511373519897461e-01,8.211165666580200195e-01,8.210820555686950684e-01,8.210476040840148926e-01,8.210130929946899414e-01,8.209786415100097656e-01,8.209441304206848145e-01,8.209096193313598633e-01,8.208751678466796875e-01,8.208407163619995117e-01,8.208062648773193359e-01,8.207718133926391602e-01,8.207373023033142090e-01,8.207028508186340332e-01,8.206683993339538574e-01,8.206339478492736816e-01,8.205994963645935059e-01,8.205649852752685547e-01,8.205305933952331543e-01,8.204961419105529785e-01,8.204616904258728027e-01,8.204272985458374023e-01,8.203928470611572266e-01,8.203583955764770508e-01,8.203239440917968750e-01,8.202895522117614746e-01,8.202551603317260742e-01,8.202207088470458984e-01,8.201863169670104980e-01,8.201518654823303223e-01,8.201174139976501465e-01,8.200830221176147461e-01,8.200486302375793457e-01,8.200142383575439453e-01,8.199797868728637695e-01,8.199453949928283691e-01,8.199110627174377441e-01,8.198766708374023438e-01,8.198422789573669434e-01,8.198078870773315430e-01,8.197734355926513672e-01,8.197391033172607422e-01,8.197047114372253418e-01,8.196703791618347168e-01,8.196359872817993164e-01,8.196015954017639160e-01,8.195672035217285156e-01,8.195328712463378906e-01,8.194985389709472656e-01,8.194642066955566406e-01,8.194298148155212402e-01,8.193954229354858398e-01,8.193610906600952148e-01,8.193267583847045898e-01,8.192924261093139648e-01,8.192580938339233398e-01,8.192237615585327148e-01,8.191893696784973145e-01,8.191550374031066895e-01,8.191207647323608398e-01,8.190864324569702148e-01,8.190521001815795898e-01,8.190177083015441895e-01,8.189834356307983398e-01,8.189491033554077148e-01,8.189148306846618652e-01,8.188805580139160156e-01,8.188462257385253906e-01,8.188118934631347656e-01,8.187775611877441406e-01,8.187432885169982910e-01,8.187090158462524414e-01,8.186747431755065918e-01,8.186404705047607422e-01,8.186061382293701172e-01,8.185718655586242676e-01
7.829927206039428711e-01,7.829613089561462402e-01,7.829299569129943848e-01,7.828986048698425293e-01,7.828672528266906738e-01,7.828359007835388184e-01,7.828045487403869629e-01,7.827731370925903320e-01,7.827418446540832520e-01,7.827104926109313965e-01,7.826791405677795410e-01,7.826478481292724609e-01,7.826164960861206055e-01,7.825850844383239746e-01,7.825537919998168945e-01,7.825224995613098145e-01,7.824911475181579590e-01,7.824598550796508789e-01,7.824284434318542480e-01,7.823971509933471680e-01,7.823658585548400879e-01,7.823345661163330078e-01,7.823032736778259277e-01,7.822719812393188477e-01,7.822405695915222168e-01,7.822092771530151367e-01,7.821779847145080566e-01,7.821466922760009766e-01,7.821154594421386719e-01,7.820841073989868164e-01,7.820528149604797363e-01,7.820215225219726562e-01,7.819902300834655762e-01,7.819589972496032715e-01,7.819277048110961914e-01,7.818963527679443359e-01,7.818651199340820312e-01,7.818338274955749512e-01,7.818025946617126465e-01,7.817713022232055664e-01,7.817400693893432617e-01,7.817087173461914062e-01,7.816774845123291016e-01,7.816462516784667969e-01,7.816150188446044922e-01,7.815837860107421875e-01,7.815524339675903320e-01,7.815212011337280273e-01,7.814899682998657227e-01,7.814587354660034180e-01,7.814275026321411133e-01,7.813962697982788086e-01,7.813649773597717285e-01,7.813337445259094238e-01,7.813025712966918945e-01,7.812713384628295898e-01,7.812401056289672852e-01,7.812088727951049805e-01,7.811776399612426758e-01,7.811464071273803711e-01,7.811152338981628418e-01,7.810840010643005371e-01,7.810528278350830078e-01,7.810215353965759277e-01,7.809903621673583984e-01,7.809591293334960938e-01,7.809279561042785645e-01,7.808967828750610352e-01,7.808656096458435059e-01,7.808343172073364258e-01,7.808031439781188965e-01,7.807719707489013672e-01,7.807407975196838379e-01,7.807096242904663086e-01,7.806783914566040039e-01,7.806472182273864746e-01,7.806160449981689453e-01,7.805848717689514160e-01,7.805537581443786621e-01,7.805225849151611328e-01
7.481086254119873047e-01,7.480800151824951172e-01,7.480514049530029297e-01,7.480227947235107422e-01,7.479941248893737793e-01,7.479655146598815918e-01,7.479369044303894043e-01,7.479082942008972168e-01,7.478796839714050293e-01,7.478510141372680664e-01,7.478224039077758789e-01,7.477937936782836914e-01,7.477651834487915039e-01,7.477366328239440918e-01,7.477080225944519043e-01,7.476793527603149414e-01,7.476508021354675293e-01,7.476221919059753418e-01,7.475935816764831543e-01,7.475650310516357422e-01,7.475364804267883301e-01,7.475078105926513672e-01,7.474792599678039551e-01,7.474506497383117676e-01,7.474220991134643555e-01,7.473935484886169434e-01,7.473648786544799805e-01,7.473363280296325684e-01,7.473077774047851562e-01,7.472792267799377441e-01,7.472506165504455566e-01,7.472220659255981445e-01,7.471934556961059570e-01,7.471649050712585449e-01,7.471363544464111328e-01,7.471078038215637207e-01,7.470792531967163086e-01,7.470507621765136719e-01,7.470221519470214844e-01,7.469936013221740723e-01,7.469650506973266602e-01,7.469365000724792480e-01,7.469080090522766113e-01,7.468793988227844238e-01,7.468508481979370117e-01,7.468223571777343750e-01,7.467938065528869629e-01,7.467653155326843262e-01,7.467367649078369141e-01,7.467082142829895020e-01,7.466796636581420898e-01,7.466511726379394531e-01,7.466226816177368164e-01,7.465941309928894043e-01,7.465655803680419922e-01,7.465370893478393555e-01,7.465085983276367188e-01,7.464801073074340820e-01,7.464515566825866699e-01,7.464230656623840332e-01,7.463945150375366211e-01,7.463660240173339844e-01,7.463375329971313477e-01,7.463090419769287109e-01,7.462806105613708496e-01,7.462521195411682129e-01,7.462235689163208008e-01,7.461950778961181641e-01,7.461665868759155273e-01,7.461381554603576660e-01,7.461096644401550293e-01,7.460811138153076172e-01,7.460526823997497559e-01,7.460241913795471191e-01,7.459957599639892578e-01,7.459672689437866211e-01,7.459388375282287598e-01,7.459102869033813477e-01,7.458818554878234863e-01,7.458534240722656250e-01
7.162004113197326660e-01,7.161740660667419434e-01,7.161478400230407715e-01,7.161216139793395996e-01,7.160953879356384277e-01,7.160691618919372559e-01,7.160428762435913086e-01,7.160167098045349121e-01,7.159904837608337402e-01,7.159642577171325684e-01,7.159380316734313965e-01,7.159118056297302246e-01,7.158855795860290527e-01,7.158593535423278809e-01,7.158331274986267090e-01,7.158069610595703125e-01,7.157807350158691406e-01,7.157545089721679688e-01,7.157282829284667969e-01,7.157020568847656250e-01,7.156758904457092285e-01,7.156496644020080566e-01,7.156234979629516602e-01,7.155972719192504883e-01,7.155710458755493164e-01,7.155448794364929199e-01,7.155187129974365234e-01,7.154924869537353516e-01,7.154663205146789551e-01,7.154400944709777832e-01,7.154139280319213867e-01,7.153877615928649902e-01,7.153615951538085938e-01,7.153354287147521973e-01,7.153092026710510254e-01,7.152830362319946289e-01,7.152568697929382324e-01,7.152307033538818359e-01,7.152045369148254395e-01,7.151783704757690430e-01,7.151521444320678711e-01,7.151259779930114746e-01,7.150998115539550781e-01,7.150737047195434570e-01,7.150475382804870605e-01,7.150213718414306641e-01,7.149952054023742676e-01,7.149690389633178711e-01,7.149429321289062500e-01,7.149167656898498535e-01,7.148906588554382324e-01,7.148644328117370605e-01,7.148383259773254395e-01,7.148121595382690430e-01,7.147860527038574219e-01,7.147598862648010254e-01,7.147337794303894043e-01,7.147076129913330078e-01,7.146815061569213867e-01,7.146553397178649902e-01,7.146292328834533691e-01,7.146031260490417480e-01,7.145769596099853516e-01,7.145508527755737305e-01,7.145247459411621094e-01,7.144986391067504883e-01,7.144725322723388672e-01,7.144464254379272461e-01,7.144202589988708496e-01,7.143941521644592285e-01,7.143680453300476074e-01,7.143419384956359863e-01,7.143158316612243652e-01,7.142897844314575195e-01,7.142636179924011230e-01,7.142375111579895020e-01,7.142114043235778809e-01,7.141853570938110352e-01,7.141592502593994141e-01,7.141331434249877930e-01
6.869026422500610352e-01,6.868785023689270020e-01,6.868543624877929688e-01,6.868302226066589355e-01,6.868060827255249023e-01,6.867819428443908691e-01,6.867578029632568359e-01,6.867337226867675781e-01,6.867095828056335449e-01,6.866854429244995117e-01,6.866613030433654785e-01,6.866371631622314453e-01,6.866130828857421875e-01,6.865889430046081543e-01,6.865648031234741211e-01,6.865407228469848633e-01,6.865165829658508301e-01,6.864925026893615723e-01,6.864684224128723145e-01,6.864442825317382812e-01,6.864201426506042480e-01,6.863960623741149902e-01,6.863719820976257324e-01,6.863478422164916992e-01,6.863237619400024414e-01,6.862996816635131836e-01,6.862755417823791504e-01,6.862514615058898926e-01,6.862273812294006348e-01,6.862033009529113770e-01,6.861792206764221191e-01,6.861550807952880859e-01,6.861310005187988281e-01,6.861069202423095703e-01,6.860828399658203125e-01,6.860587596893310547e-01,6.860347390174865723e-01,6.860105991363525391e-01,6.859865188598632812e-01,6.859624385833740234e-01,6.859384179115295410e-01,6.859143376350402832e-01,6.858901977539062500e-01,6.858661770820617676e-01,6.858420968055725098e-01,6.858180165290832520e-01,6.857939958572387695e-01,6.857699155807495117e-01,6.857458353042602539e-01,6.857218146324157715e-01,6.856977343559265137e-01,6.856737136840820312e-01,6.856496334075927734e-01,6.856256127357482910e-01,6.856015324592590332e-01,6.855774521827697754e-01,6.855534315109252930e-01,6.855294108390808105e-01,6.855053901672363281e-01,6.854813098907470703e-01,6.854572296142578125e-01,6.854332089424133301e-01,6.854091882705688477e-01,6.853851675987243652e-01,6.853611469268798828e-01,6.853370666503906250e-01,6.853130459785461426e-01,6.852890253067016602e-01,6.852650046348571777e-01,6.852409839630126953e-01,6.852169632911682129e-01,6.851929426193237305e-01,6.851689219474792480e-01,6.851449012756347656e-01,6.851209402084350586e-01,6.850969195365905762e-01,6.850728392601013184e-01,6.850488781929016113e-01,6.850248575210571289e-01,6.850008368492126465e-01
