3.100511074066162109e+00,3.179205656051635742e+00,3.261996746063232422e+00,3.349215507507324219e+00,3.441226482391357422e+00,3.538435935974121094e+00,3.641297101974487305e+00,3.750317096710205078e+00,3.866067171096801758e+00,3.989189863204956055e+00,4.120412349700927734e+00,4.260561466217041016e+00,4.410580158233642578e+00,4.571549415588378906e+00,4.744712829589843750e+00,4.931511402130126953e+00,5.000000000000000000e+00,5.000000000000000000e+00,5.000000000000000000e+00,5.000000000000000000e+00,5.000000000000000000e+00,5.000000000000000000e+00,5.000000000000000000e+00,5.000000000000000000e+00,5.000000000000000000e+00,5.000000000000000000e+00,5.000000000000000000e+00,5.000000000000000000e+00,5.000000000000000000e+00,5.000000000000000000e+00,5.000000000000000000e+00,5.000000000000000000e+00,5.000000000000000000e+00,5.000000000000000000e+00,5.000000000000000000e+00,5.000000000000000000e+00,5.000000000000000000e+00,5.000000000000000000e+00,5.000000000000000000e+00,5.000000000000000000e+00,5.000000000000000000e+00,5.000000000000000000e+00,5.000000000000000000e+00,5.000000000000000000e+00,5.000000000000000000e+00,5.000000000000000000e+00,5.000000000000000000e+00,5.000000000000000000e+00,5.000000000000000000e+00,5.000000000000000000e+00,5.000000000000000000e+00,5.000000000000000000e+00,5.000000000000000000e+00,5.000000000000000000e+00,5.000000000000000000e+00,5.000000000000000000e+00,5.000000000000000000e+00,5.000000000000000000e+00,5.000000000000000000e+00,5.000000000000000000e+00,5.000000000000000000e+00,5.000000000000000000e+00,5.000000000000000000e+00,5.000000000000000000e+00,5.000000000000000000e+00,5.000000000000000000e+00,5.000000000000000000e+00,5.000000000000000000e+00,5.000000000000000000e+00,5.000000000000000000e+00,4.840105533599853516e+00,4.681828498840332031e+00,4.533576011657714844e+00,4.394500255584716797e+00,4.263726234436035156e+00,4.140510082244873047e+00,4.024215698242187500e+00,3.914276123046875000e+00,3.810183286666870117e+00,3.711483716964721680e+00
3.100445270538330078e+00,3.179142236709594727e+00,3.261931896209716797e+00,3.349147081375122070e+00,3.441154003143310547e+00,3.538359403610229492e+00,3.641216039657592773e+00,3.750231027603149414e+00,3.865975856781005859e+00,3.989092111587524414e+00,4.120308399200439453e+00,4.260450363159179688e+00,4.410461425781250000e+00,4.571421623229980469e+00,4.744575500488281250e+00,4.931363105773925781e+00,5.000000000000000000e+00,5.000000000000000000e+00,5.000000000000000000e+00,5.000000000000000000e+00,5.000000000000000000e+00,5.000000000000000000e+00,5.000000000000000000e+00,5.000000000000000000e+00,5.000000000000000000e+00,5.000000000000000000e+00,5.000000000000000000e+00,5.000000000000000000e+00,5.000000000000000000e+00,5.000000000000000000e+00,5.000000000000000000e+00,5.000000000000000000e+00,5.000000000000000000e+00,5.000000000000000000e+00,5.000000000000000000e+00,5.000000000000000000e+00,5.000000000000000000e+00,5.000000000000000000e+00,5.000000000000000000e+00,5.000000000000000000e+00,5.000000000000000000e+00,5.000000000000000000e+00,5.000000000000000000e+00,5.000000000000000000e+00,5.000000000000000000e+00,5.000000000000000000e+00,5.000000000000000000e+00,5.000000000000000000e+00,5.000000000000000000e+00,5.000000000000000000e+00,5.000000000000000000e+00,5.000000000000000000e+00,5.000000000000000000e+00,5.000000000000000000e+00,5.000000000000000000e+00,5.000000000000000000e+00,5.000000000000000000e+00,5.000000000000000000e+00,5.000000000000000000e+00,5.000000000000000000e+00,5.000000000000000000e+00,5.000000000000000000e+00,5.000000000000000000e+00,5.000000000000000000e+00,5.000000000000000000e+00,5.000000000000000000e+00,5.000000000000000000e+00,5.000000000000000000e+00,5.000000000000000000e+00,5.000000000000000000e+00,4.840107440948486328e+00,4.681830406188964844e+00,4.533672809600830078e+00,4.394615173339843750e+00,4.263834476470947266e+00,4.140612125396728516e+00,4.024312496185302734e+00,3.914367437362670898e+00,3.810269832611083984e+00,3.711565732955932617e+00
3.100379467010498047e+00,3.179073095321655273e+00,3.261865615844726562e+00,3.349078178405761719e+00,3.441081762313842773e+00,3.538282871246337891e+00,3.641134738922119141e+00,3.750145196914672852e+00,3.865884542465209961e+00,3.988994836807250977e+00,4.120204448699951172e+00,4.260339260101318359e+00,4.410342216491699219e+00,4.571293830871582031e+00,4.744437694549560547e+00,4.931213855743408203e+00,5.000000000000000000e+00,5.000000000000000000e+00,5.000000000000000000e+00,5.000000000000000000e+00,5.000000000000000000e+00,5.000000000000000000e+00,5.000000000000000000e+00,5.000000000000000000e+00,5.000000000000000000e+00,5.000000000000000000e+00,5.000000000000000000e+00,5.000000000000000000e+00,5.000000000000000000e+00,5.000000000000000000e+00,5.000000000000000000e+00,5.000000000000000000e+00,5.000000000000000000e+00,5.000000000000000000e+00,5.000000000000000000e+00,5.000000000000000000e+00,5.000000000000000000e+00,5.000000000000000000e+00,5.000000000000000000e+00,5.000000000000000000e+00,5.000000000000000000e+00,5.000000000000000000e+00,5.000000000000000000e+00,5.000000000000000000e+00,5.000000000000000000e+00,5.000000000000000000e+00,5.000000000000000000e+00,5.000000000000000000e+00,5.000000000000000000e+00,5.000000000000000000e+00,5.000000000000000000e+00,5.000000000000000000e+00,5.000000000000000000e+00,5.000000000000000000e+00,5.000000000000000000e+00,5.000000000000000000e+00,5.000000000000000000e+00,5.000000000000000000e+00,5.000000000000000000e+00,5.000000000000000000e+00,5.000000000000000000e+00,5.000000000000000000e+00,5.000000000000000000e+00,5.000000000000000000e+00,5.000000000000000000e+00,5.000000000000000000e+00,5.000000000000000000e+00,5.000000000000000000e+00,5.000000000000000000e+00,5.000000000000000000e+00,4.840112209320068359e+00,4.681948661804199219e+00,4.533795356750488281e+00,4.394730567932128906e+00,4.263943195343017578e+00,4.140714645385742188e+00,4.024409294128417969e+00,3.914458751678466797e+00,3.810356855392456055e+00,3.711647748947143555e+00
3.100313425064086914e+00,3.179003715515136719e+00,3.261792659759521484e+00,3.349008798599243164e+00,3.441009283065795898e+00,3.538206338882446289e+00,3.641053676605224609e+00,3.750059366226196289e+00,3.865792751312255859e+00,3.988897562026977539e+00,4.120100498199462891e+00,4.260228633880615234e+00,4.410223484039306641e+00,4.571166038513183594e+00,4.744299888610839844e+00,4.931065559387207031e+00,5.000000000000000000e+00,5.000000000000000000e+00,5.000000000000000000e+00,5.000000000000000000e+00,5.000000000000000000e+00,5.000000000000000000e+00,5.000000000000000000e+00,5.000000000000000000e+00,5.000000000000000000e+00,5.000000000000000000e+00,5.000000000000000000e+00,5.000000000000000000e+00,5.000000000000000000e+00,5.000000000000000000e+00,5.000000000000000000e+00,5.000000000000000000e+00,5.000000000000000000e+00,5.000000000000000000e+00,5.000000000000000000e+00,5.000000000000000000e+00,5.000000000000000000e+00,5.000000000000000000e+00,5.000000000000000000e+00,5.000000000000000000e+00,5.000000000000000000e+00,5.000000000000000000e+00,5.000000000000000000e+00,5.000000000000000000e+00,5.000000000000000000e+00,5.000000000000000000e+00,5.000000000000000000e+00,5.000000000000000000e+00,5.000000000000000000e+00,5.000000000000000000e+00,5.000000000000000000e+00,5.000000000000000000e+00,5.000000000000000000e+00,5.000000000000000000e+00,5.000000000000000000e+00,5.000000000000000000e+00,5.000000000000000000e+00,5.000000000000000000e+00,5.000000000000000000e+00,5.000000000000000000e+00,5.000000000000000000e+00,5.000000000000000000e+00,5.000000000000000000e+00,5.000000000000000000e+00,5.000000000000000000e+00,5.000000000000000000e+00,5.000000000000000000e+00,5.000000000000000000e+00,5.000000000000000000e+00,5.000000000000000000e+00,4.840251922607421875e+00,4.682079315185546875e+00,4.533917903900146484e+00,4.394845485687255859e+00,4.264051437377929688e+00,4.140816688537597656e+00,4.024505615234375000e+00,3.914550065994262695e+00,3.810443401336669922e+00,3.711730003356933594e+00
3.100247621536254883e+00,3.178934574127197266e+00,3.261719703674316406e+00,3.348931789398193359e+00,3.440936088562011719e+00,3.538129568099975586e+00,3.640972614288330078e+00,3.749973297119140625e+00,3.865701436996459961e+00,3.988800525665283203e+00,4.119996547698974609e+00,4.260117530822753906e+00,4.410104274749755859e+00,4.571038246154785156e+00,4.744162082672119141e+00,4.930916786193847656e+00,5.000000000000000000e+00,5.000000000000000000e+00,5.000000000000000000e+00,5.000000000000000000e+00,5.000000000000000000e+00,5.000000000000000000e+00,5.000000000000000000e+00,5.000000000000000000e+00,5.000000000000000000e+00,5.000000000000000000e+00,5.000000000000000000e+00,5.000000000000000000e+00,5.000000000000000000e+00,5.000000000000000000e+00,5.000000000000000000e+00,5.000000000000000000e+00,5.000000000000000000e+00,5.000000000000000000e+00,5.000000000000000000e+00,5.000000000000000000e+00,5.000000000000000000e+00,5.000000000000000000e+00,5.000000000000000000e+00,5.000000000000000000e+00,5.000000000000000000e+00,5.000000000000000000e+00,5.000000000000000000e+00,5.000000000000000000e+00,5.000000000000000000e+00,5.000000000000000000e+00,5.000000000000000000e+00,5.000000000000000000e+00,5.000000000000000000e+00,5.000000000000000000e+00,5.000000000000000000e+00,5.000000000000000000e+00,5.000000000000000000e+00,5.000000000000000000e+00,5.000000000000000000e+00,5.000000000000000000e+00,5.000000000000000000e+00,5.000000000000000000e+00,5.000000000000000000e+00,5.000000000000000000e+00,5.000000000000000000e+00,5.000000000000000000e+00,5.000000000000000000e+00,5.000000000000000000e+00,5.000000000000000000e+00,5.000000000000000000e+00,5.000000000000000000e+00,5.000000000000000000e+00,5.000000000000000000e+00,5.000000000000000000e+00,4.840391635894775391e+00,4.682210445404052734e+00,4.534040927886962891e+00,4.394960880279541016e+00,4.264159679412841797e+00,4.140919208526611328e+00,4.024602413177490234e+00,3.914641380310058594e+00,3.810529947280883789e+00,3.711812019348144531e+00
3.100181818008422852e+00,3.178865194320678711e+00,3.261646747589111328e+00,3.348855018615722656e+00,3.440854787826538086e+00,3.538052320480346680e+00,3.640891551971435547e+00,3.749886989593505859e+00,3.865610122680664062e+00,3.988703250885009766e+00,4.119893074035644531e+00,4.260006427764892578e+00,4.409985542297363281e+00,4.570910453796386719e+00,4.744024753570556641e+00,4.930768013000488281e+00,5.000000000000000000e+00,5.000000000000000000e+00,5.000000000000000000e+00,5.000000000000000000e+00,5.000000000000000000e+00,5.000000000000000000e+00,5.000000000000000000e+00,5.000000000000000000e+00,5.000000000000000000e+00,5.000000000000000000e+00,5.000000000000000000e+00,5.000000000000000000e+00,5.000000000000000000e+00,5.000000000000000000e+00,5.000000000000000000e+00,5.000000000000000000e+00,5.000000000000000000e+00,5.000000000000000000e+00,5.000000000000000000e+00,5.000000000000000000e+00,5.000000000000000000e+00,5.000000000000000000e+00,5.000000000000000000e+00,5.000000000000000000e+00,5.000000000000000000e+00,5.000000000000000000e+00,5.000000000000000000e+00,5.000000000000000000e+00,5.000000000000000000e+00,5.000000000000000000e+00,5.000000000000000000e+00,5.000000000000000000e+00,5.000000000000000000e+00,5.000000000000000000e+00,5.000000000000000000e+00,5.000000000000000000e+00,5.000000000000000000e+00,5.000000000000000000e+00,5.000000000000000000e+00,5.000000000000000000e+00,5.000000000000000000e+00,5.000000000000000000e+00,5.000000000000000000e+00,5.000000000000000000e+00,5.000000000000000000e+00,5.000000000000000000e+00,5.000000000000000000e+00,5.000000000000000000e+00,5.000000000000000000e+00,5.000000000000000000e+00,5.000000000000000000e+00,5.000000000000000000e+00,5.000000000000000000e+00,5.000000000000000000e+00,4.840531349182128906e+00,4.682341098785400391e+00,4.534163475036621094e+00,4.395076274871826172e+00,4.264268398284912109e+00,4.141021728515625000e+00,4.024699211120605469e+00,3.914733171463012695e+00,3.810620784759521484e+00,3.711904525756835938e+00
3.100115776062011719e+00,3.178796052932739258e+00,3.261573791503906250e+00,3.348778009414672852e+00,3.440773725509643555e+00,3.537966489791870117e+00,3.640810012817382812e+00,3.749801158905029297e+00,3.865518808364868164e+00,3.988605499267578125e+00,4.119789600372314453e+00,4.259895324707031250e+00,4.409866333007812500e+00,4.570782661437988281e+00,4.743887424468994141e+00,4.930619239807128906e+00,5.000000000000000000e+00,5.000000000000000000e+00,5.000000000000000000e+00,5.000000000000000000e+00,5.000000000000000000e+00,5.000000000000000000e+00,5.000000000000000000e+00,5.000000000000000000e+00,5.000000000000000000e+00,5.000000000000000000e+00,5.000000000000000000e+00,5.000000000000000000e+00,5.000000000000000000e+00,5.000000000000000000e+00,5.000000000000000000e+00,5.000000000000000000e+00,5.000000000000000000e+00,5.000000000000000000e+00,5.000000000000000000e+00,5.000000000000000000e+00,5.000000000000000000e+00,5.000000000000000000e+00,5.000000000000000000e+00,5.000000000000000000e+00,5.000000000000000000e+00,5.000000000000000000e+00,5.000000000000000000e+00,5.000000000000000000e+00,5.000000000000000000e+00,5.000000000000000000e+00,5.000000000000000000e+00,5.000000000000000000e+00,5.000000000000000000e+00,5.000000000000000000e+00,5.000000000000000000e+00,5.000000000000000000e+00,5.000000000000000000e+00,5.000000000000000000e+00,5.000000000000000000e+00,5.000000000000000000e+00,5.000000000000000000e+00,5.000000000000000000e+00,5.000000000000000000e+00,5.000000000000000000e+00,5.000000000000000000e+00,5.000000000000000000e+00,5.000000000000000000e+00,5.000000000000000000e+00,5.000000000000000000e+00,5.000000000000000000e+00,5.000000000000000000e+00,5.000000000000000000e+00,5.000000000000000000e+00,5.000000000000000000e+00,4.840671062469482422e+00,4.682471752166748047e+00,4.534286022186279297e+00,4.395191669464111328e+00,4.264376640319824219e+00,4.141125679016113281e+00,4.024804592132568359e+00,3.914839744567871094e+00,3.810724258422851562e+00,3.712002515792846680e+00
3.100049972534179688e+00,3.178726673126220703e+00,3.261500835418701172e+00,3.348701238632202148e+00,3.440692424774169922e+00,3.537880659103393555e+00,3.640718936920166016e+00,3.749714851379394531e+00,3.865427732467651367e+00,3.988508462905883789e+00,4.119685649871826172e+00,4.259784221649169922e+00,4.409747600555419922e+00,4.570654869079589844e+00,4.743749618530273438e+00,4.930470466613769531e+00,5.000000000000000000e+00,5.000000000000000000e+00,5.000000000000000000e+00,5.000000000000000000e+00,5.000000000000000000e+00,5.000000000000000000e+00,5.000000000000000000e+00,5.000000000000000000e+00,5.000000000000000000e+00,5.000000000000000000e+00,5.000000000000000000e+00,5.000000000000000000e+00,5.000000000000000000e+00,5.000000000000000000e+00,5.000000000000000000e+00,5.000000000000000000e+00,5.000000000000000000e+00,5.000000000000000000e+00,5.000000000000000000e+00,5.000000000000000000e+00,5.000000000000000000e+00,5.000000000000000000e+00,5.000000000000000000e+00,5.000000000000000000e+00,5.000000000000000000e+00,5.000000000000000000e+00,5.000000000000000000e+00,5.000000000000000000e+00,5.000000000000000000e+00,5.000000000000000000e+00,5.000000000000000000e+00,5.000000000000000000e+00,5.000000000000000000e+00,5.000000000000000000e+00,5.000000000000000000e+00,5.000000000000000000e+00,5.000000000000000000e+00,5.000000000000000000e+00,5.000000000000000000e+00,5.000000000000000000e+00,5.000000000000000000e+00,5.000000000000000000e+00,5.000000000000000000e+00,5.000000000000000000e+00,5.000000000000000000e+00,5.000000000000000000e+00,5.000000000000000000e+00,5.000000000000000000e+00,5.000000000000000000e+00,5.000000000000000000e+00,5.000000000000000000e+00,5.000000000000000000e+00,5.000000000000000000e+00,5.000000000000000000e+00,4.840811252593994141e+00,4.682602882385253906e+00,4.534408569335937500e+00,4.395314216613769531e+00,4.264500141143798828e+00,4.141247749328613281e+00,4.024919986724853516e+00,3.914949178695678711e+00,3.810827732086181641e+00,3.712101221084594727e+00
3.099983930587768555e+00,3.178657054901123047e+00,3.261427640914916992e+00,3.348623991012573242e+00,3.440611124038696289e+00,3.537794589996337891e+00,3.640627861022949219e+00,3.749618053436279297e+00,3.865335464477539062e+00,3.988411188125610352e+00,4.119581699371337891e+00,4.259673595428466797e+00,4.409628868103027344e+00,4.570527076721191406e+00,4.743611812591552734e+00,4.930322170257568359e+00,5.000000000000000000e+00,5.000000000000000000e+00,5.000000000000000000e+00,5.000000000000000000e+00,5.000000000000000000e+00,5.000000000000000000e+00,5.000000000000000000e+00,5.000000000000000000e+00,5.000000000000000000e+00,5.000000000000000000e+00,5.000000000000000000e+00,5.000000000000000000e+00,5.000000000000000000e+00,5.000000000000000000e+00,5.000000000000000000e+00,5.000000000000000000e+00,5.000000000000000000e+00,5.000000000000000000e+00,5.000000000000000000e+00,5.000000000000000000e+00,5.000000000000000000e+00,5.000000000000000000e+00,5.000000000000000000e+00,5.000000000000000000e+00,5.000000000000000000e+00,5.000000000000000000e+00,5.000000000000000000e+00,5.000000000000000000e+00,5.000000000000000000e+00,5.000000000000000000e+00,5.000000000000000000e+00,5.000000000000000000e+00,5.000000000000000000e+00,5.000000000000000000e+00,5.000000000000000000e+00,5.000000000000000000e+00,5.000000000000000000e+00,5.000000000000000000e+00,5.000000000000000000e+00,5.000000000000000000e+00,5.000000000000000000e+00,5.000000000000000000e+00,5.000000000000000000e+00,5.000000000000000000e+00,5.000000000000000000e+00,5.000000000000000000e+00,5.000000000000000000e+00,5.000000000000000000e+00,5.000000000000000000e+00,5.000000000000000000e+00,5.000000000000000000e+00,5.000000000000000000e+00,5.000000000000000000e+00,5.000000000000000000e+00,4.840955734252929688e+00,4.682747840881347656e+00,4.534554004669189453e+00,4.395452022552490234e+00,4.264630317687988281e+00,4.141370296478271484e+00,4.025035858154296875e+00,3.915058374404907227e+00,3.810931444168090820e+00,3.712199211120605469e+00
3.099917888641357422e+00,3.178587913513183594e+00,3.261354684829711914e+00,3.348547220230102539e+00,3.440529823303222656e+00,3.537708759307861328e+00,3.640537023544311523e+00,3.749521732330322266e+00,3.865232944488525391e+00,3.988314151763916016e+00,4.119477748870849609e+00,4.259562492370605469e+00,4.409509658813476562e+00,4.570399284362792969e+00,4.743474006652832031e+00,4.930173397064208984e+00,5.000000000000000000e+00,5.000000000000000000e+00,5.000000000000000000e+00,5.000000000000000000e+00,5.000000000000000000e+00,5.000000000000000000e+00,5.000000000000000000e+00,5.000000000000000000e+00,5.000000000000000000e+00,5.000000000000000000e+00,5.000000000000000000e+00,5.000000000000000000e+00,5.000000000000000000e+00,5.000000000000000000e+00,5.000000000000000000e+00,5.000000000000000000e+00,5.000000000000000000e+00,4.573971748352050781e+00,4.574362754821777344e+00,5.000000000000000000e+00,5.000000000000000000e+00,5.000000000000000000e+00,5.000000000000000000e+00,5.000000000000000000e+00,5.000000000000000000e+00,5.000000000000000000e+00,5.000000000000000000e+00,5.000000000000000000e+00,5.000000000000000000e+00,5.000000000000000000e+00,5.000000000000000000e+00,5.000000000000000000e+00,5.000000000000000000e+00,5.000000000000000000e+00,5.000000000000000000e+00,5.000000000000000000e+00,5.000000000000000000e+00,5.000000000000000000e+00,5.000000000000000000e+00,5.000000000000000000e+00,5.000000000000000000e+00,5.000000000000000000e+00,5.000000000000000000e+00,5.000000000000000000e+00,5.000000000000000000e+00,5.000000000000000000e+00,5.000000000000000000e+00,5.000000000000000000e+00,5.000000000000000000e+00,5.000000000000000000e+00,5.000000000000000000e+00,5.000000000000000000e+00,5.000000000000000000e+00,5.000000000000000000e+00,4.841123104095458984e+00,4.682904720306396484e+00,4.534700870513916016e+00,4.395589351654052734e+00,4.264759540557861328e+00,4.141492366790771484e+00,4.025151252746582031e+00,3.915167570114135742e+00,3.811034917831420898e+00,3.712297439575195312e+00
3.099852085113525391e+00,3.178518533706665039e+00,3.261281967163085938e+00,3.348470211029052734e+00,3.440448760986328125e+00,3.537622928619384766e+00,3.640446186065673828e+00,3.749425172805786133e+00,3.865130662918090820e+00,3.988204479217529297e+00,4.119374275207519531e+00,4.259451389312744141e+00,4.409390926361083984e+00,4.570271492004394531e+00,4.743336677551269531e+00,4.930024623870849609e+00,5.000000000000000000e+00,5.000000000000000000e+00,5.000000000000000000e+00,5.000000000000000000e+00,5.000000000000000000e+00,5.000000000000000000e+00,5.000000000000000000e+00,5.000000000000000000e+00,5.000000000000000000e+00,5.000000000000000000e+00,5.000000000000000000e+00,5.000000000000000000e+00,5.000000000000000000e+00,5.000000000000000000e+00,5.000000000000000000e+00,5.000000000000000000e+00,5.000000000000000000e+00,4.567252635955810547e+00,4.570127010345458984e+00,5.000000000000000000e+00,5.000000000000000000e+00,5.000000000000000000e+00,5.000000000000000000e+00,5.000000000000000000e+00,5.000000000000000000e+00,5.000000000000000000e+00,5.000000000000000000e+00,5.000000000000000000e+00,5.000000000000000000e+00,5.000000000000000000e+00,5.000000000000000000e+00,5.000000000000000000e+00,5.000000000000000000e+00,5.000000000000000000e+00,5.000000000000000000e+00,5.000000000000000000e+00,5.000000000000000000e+00,5.000000000000000000e+00,5.000000000000000000e+00,5.000000000000000000e+00,5.000000000000000000e+00,5.000000000000000000e+00,5.000000000000000000e+00,5.000000000000000000e+00,5.000000000000000000e+00,5.000000000000000000e+00,5.000000000000000000e+00,5.000000000000000000e+00,5.000000000000000000e+00,5.000000000000000000e+00,5.000000000000000000e+00,5.000000000000000000e+00,5.000000000000000000e+00,5.000000000000000000e+00,4.841289997100830078e+00,4.683060646057128906e+00,4.534847259521484375e+00,4.395727634429931641e+00,4.264889717102050781e+00,4.141614913940429688e+00,4.025266647338867188e+00,3.915277242660522461e+00,3.811138391494750977e+00,3.712395906448364258e+00
3.099786281585693359e+00,3.178449392318725586e+00,3.261209011077880859e+00,3.348393440246582031e+00,3.440367698669433594e+00,3.537537097930908203e+00,3.640355348587036133e+00,3.749328851699829102e+00,3.865028142929077148e+00,3.988095521926879883e+00,4.119257926940917969e+00,4.259340763092041016e+00,4.409272193908691406e+00,4.570143699645996094e+00,4.743199348449707031e+00,4.929876327514648438e+00,5.000000000000000000e+00,5.000000000000000000e+00,5.000000000000000000e+00,5.000000000000000000e+00,5.000000000000000000e+00,5.000000000000000000e+00,5.000000000000000000e+00,5.000000000000000000e+00,5.000000000000000000e+00,5.000000000000000000e+00,5.000000000000000000e+00,5.000000000000000000e+00,5.000000000000000000e+00,5.000000000000000000e+00,5.000000000000000000e+00,5.000000000000000000e+00,5.000000000000000000e+00,5.000000000000000000e+00,4.609479427337646484e+00,5.000000000000000000e+00,5.000000000000000000e+00,5.000000000000000000e+00,5.000000000000000000e+00,5.000000000000000000e+00,5.000000000000000000e+00,5.000000000000000000e+00,5.000000000000000000e+00,5.000000000000000000e+00,5.000000000000000000e+00,5.000000000000000000e+00,5.000000000000000000e+00,5.000000000000000000e+00,5.000000000000000000e+00,5.000000000000000000e+00,5.000000000000000000e+00,5.000000000000000000e+00,5.000000000000000000e+00,5.000000000000000000e+00,5.000000000000000000e+00,5.000000000000000000e+00,5.000000000000000000e+00,5.000000000000000000e+00,5.000000000000000000e+00,5.000000000000000000e+00,5.000000000000000000e+00,5.000000000000000000e+00,5.000000000000000000e+00,5.000000000000000000e+00,5.000000000000000000e+00,5.000000000000000000e+00,5.000000000000000000e+00,5.000000000000000000e+00,5.000000000000000000e+00,5.000000000000000000e+00,4.841457366943359375e+00,4.683217048645019531e+00,4.534994125366210938e+00,4.395865440368652344e+00,4.265019416809082031e+00,4.141737461090087891e+00,4.025382518768310547e+00,3.915386438369750977e+00,3.811242341995239258e+00,3.712494134902954102e+00
3.099720239639282227e+00,3.178380012512207031e+00,3.261136054992675781e+00,3.348316669464111328e+00,3.440286397933959961e+00,3.537451267242431641e+00,3.640264511108398438e+00,3.749232530593872070e+00,3.864925861358642578e+00,3.987986564636230469e+00,4.119141101837158203e+00,4.259216308593750000e+00,4.409153461456298828e+00,4.570016384124755859e+00,4.743061542510986328e+00,4.929727554321289062e+00,5.000000000000000000e+00,5.000000000000000000e+00,5.000000000000000000e+00,5.000000000000000000e+00,5.000000000000000000e+00,5.000000000000000000e+00,5.000000000000000000e+00,5.000000000000000000e+00,5.000000000000000000e+00,5.000000000000000000e+00,5.000000000000000000e+00,5.000000000000000000e+00,5.000000000000000000e+00,5.000000000000000000e+00,5.000000000000000000e+00,5.000000000000000000e+00,5.000000000000000000e+00,4.741608142852783203e+00,4.549503326416015625e+00,4.509256362915039062e+00,4.479256153106689453e+00,5.000000000000000000e+00,5.000000000000000000e+00,5.000000000000000000e+00,5.000000000000000000e+00,5.000000000000000000e+00,5.000000000000000000e+00,5.000000000000000000e+00,5.000000000000000000e+00,5.000000000000000000e+00,5.000000000000000000e+00,5.000000000000000000e+00,5.000000000000000000e+00,5.000000000000000000e+00,5.000000000000000000e+00,5.000000000000000000e+00,5.000000000000000000e+00,5.000000000000000000e+00,5.000000000000000000e+00,5.000000000000000000e+00,5.000000000000000000e+00,5.000000000000000000e+00,5.000000000000000000e+00,5.000000000000000000e+00,5.000000000000000000e+00,5.000000000000000000e+00,5.000000000000000000e+00,5.000000000000000000e+00,5.000000000000000000e+00,5.000000000000000000e+00,5.000000000000000000e+00,5.000000000000000000e+00,5.000000000000000000e+00,5.000000000000000000e+00,4.841624259948730469e+00,4.683373451232910156e+00,4.535140514373779297e+00,4.396003246307373047e+00,4.265149116516113281e+00,4.141859531402587891e+00,4.025497913360595703e+00,3.915495634078979492e+00,3.811345815658569336e+00,3.712592363357543945e+00
3.099654436111450195e+00,3.178310871124267578e+00,3.261063098907470703e+00,3.348239660263061523e+00,3.440205335617065430e+00,3.537365674972534180e+00,3.640173673629760742e+00,3.749136209487915039e+00,3.864823341369628906e+00,3.987877368927001953e+00,4.119024753570556641e+00,4.259091854095458984e+00,4.409020423889160156e+00,4.569888591766357422e+00,4.742924213409423828e+00,4.929578781127929688e+00,5.000000000000000000e+00,5.000000000000000000e+00,5.000000000000000000e+00,5.000000000000000000e+00,5.000000000000000000e+00,5.000000000000000000e+00,5.000000000000000000e+00,5.000000000000000000e+00,5.000000000000000000e+00,5.000000000000000000e+00,5.000000000000000000e+00,5.000000000000000000e+00,5.000000000000000000e+00,5.000000000000000000e+00,5.000000000000000000e+00,5.000000000000000000e+00,4.671864032745361328e+00,4.533534049987792969e+00,4.502778530120849609e+00,4.506636619567871094e+00,4.498163223266601562e+00,5.000000000000000000e+00,5.000000000000000000e+00,5.000000000000000000e+00,5.000000000000000000e+00,5.000000000000000000e+00,5.000000000000000000e+00,5.000000000000000000e+00,5.000000000000000000e+00,5.000000000000000000e+00,5.000000000000000000e+00,5.000000000000000000e+00,5.000000000000000000e+00,5.000000000000000000e+00,5.000000000000000000e+00,5.000000000000000000e+00,5.000000000000000000e+00,5.000000000000000000e+00,5.000000000000000000e+00,5.000000000000000000e+00,5.000000000000000000e+00,5.000000000000000000e+00,5.000000000000000000e+00,5.000000000000000000e+00,5.000000000000000000e+00,5.000000000000000000e+00,5.000000000000000000e+00,5.000000000000000000e+00,5.000000000000000000e+00,5.000000000000000000e+00,5.000000000000000000e+00,5.000000000000000000e+00,5.000000000000000000e+00,5.000000000000000000e+00,4.841791629791259766e+00,4.683529853820800781e+00,4.535287380218505859e+00,4.396141052246093750e+00,4.265278816223144531e+00,4.141982078552246094e+00,4.025613784790039062e+00,3.915605306625366211e+00,3.811449289321899414e+00,3.712690830230712891e+00
3.099588632583618164e+00,3.178241729736328125e+00,3.260990142822265625e+00,3.348162889480590820e+00,3.440124273300170898e+00,3.537279844284057617e+00,3.640082836151123047e+00,3.749039888381958008e+00,3.864721059799194336e+00,3.987768411636352539e+00,4.118908882141113281e+00,4.258967876434326172e+00,4.408886909484863281e+00,4.569746017456054688e+00,4.742786407470703125e+00,4.929430484771728516e+00,5.000000000000000000e+00,5.000000000000000000e+00,5.000000000000000000e+00,5.000000000000000000e+00,5.000000000000000000e+00,5.000000000000000000e+00,5.000000000000000000e+00,5.000000000000000000e+00,5.000000000000000000e+00,5.000000000000000000e+00,5.000000000000000000e+00,5.000000000000000000e+00,5.000000000000000000e+00,5.000000000000000000e+00,5.000000000000000000e+00,5.000000000000000000e+00,4.646299839019775391e+00,4.534247398376464844e+00,4.512812137603759766e+00,4.529989242553710938e+00,4.516044139862060547e+00,5.000000000000000000e+00,5.000000000000000000e+00,5.000000000000000000e+00,5.000000000000000000e+00,5.000000000000000000e+00,5.000000000000000000e+00,5.000000000000000000e+00,5.000000000000000000e+00,5.000000000000000000e+00,5.000000000000000000e+00,5.000000000000000000e+00,5.000000000000000000e+00,5.000000000000000000e+00,5.000000000000000000e+00,5.000000000000000000e+00,5.000000000000000000e+00,5.000000000000000000e+00,5.000000000000000000e+00,5.000000000000000000e+00,5.000000000000000000e+00,5.000000000000000000e+00,5.000000000000000000e+00,5.000000000000000000e+00,5.000000000000000000e+00,5.000000000000000000e+00,5.000000000000000000e+00,5.000000000000000000e+00,5.000000000000000000e+00,5.000000000000000000e+00,5.000000000000000000e+00,5.000000000000000000e+00,5.000000000000000000e+00,5.000000000000000000e+00,4.841958999633789062e+00,4.683686733245849609e+00,4.535434246063232422e+00,4.396278858184814453e+00,4.265408515930175781e+00,4.142104625701904297e+00,4.025729179382324219e+00,3.915714502334594727e+00,3.811552762985229492e+00,3.712789058685302734e+00
3.099484443664550781e+00,3.178154706954956055e+00,3.260917425155639648e+00,3.348086118698120117e+00,3.440043210983276367e+00,3.537194013595581055e+00,3.639991998672485352e+00,3.748943567276000977e+00,3.864618778228759766e+00,3.987659454345703125e+00,4.118792533874511719e+00,4.258843421936035156e+00,4.408753871917724609e+00,4.569602966308593750e+00,4.742633342742919922e+00,4.929281711578369141e+00,5.000000000000000000e+00,5.000000000000000000e+00,5.000000000000000000e+00,5.000000000000000000e+00,5.000000000000000000e+00,5.000000000000000000e+00,5.000000000000000000e+00,5.000000000000000000e+00,5.000000000000000000e+00,5.000000000000000000e+00,5.000000000000000000e+00,5.000000000000000000e+00,5.000000000000000000e+00,5.000000000000000000e+00,5.000000000000000000e+00,5.000000000000000000e+00,4.731704235076904297e+00,4.528424263000488281e+00,4.503077030181884766e+00,4.537539005279541016e+00,4.527348995208740234e+00,4.566959857940673828e+00,5.000000000000000000e+00,5.000000000000000000e+00,5.000000000000000000e+00,5.000000000000000000e+00,5.000000000000000000e+00,5.000000000000000000e+00,5.000000000000000000e+00,5.000000000000000000e+00,5.000000000000000000e+00,5.000000000000000000e+00,5.000000000000000000e+00,5.000000000000000000e+00,5.000000000000000000e+00,5.000000000000000000e+00,5.000000000000000000e+00,5.000000000000000000e+00,5.000000000000000000e+00,5.000000000000000000e+00,5.000000000000000000e+00,5.000000000000000000e+00,5.000000000000000000e+00,5.000000000000000000e+00,5.000000000000000000e+00,5.000000000000000000e+00,5.000000000000000000e+00,5.000000000000000000e+00,5.000000000000000000e+00,5.000000000000000000e+00,5.000000000000000000e+00,5.000000000000000000e+00,5.000000000000000000e+00,5.000000000000000000e+00,4.842125892639160156e+00,4.683842658996582031e+00,4.535580635070800781e+00,4.396416664123535156e+00,4.265538215637207031e+00,4.142226696014404297e+00,4.025844573974609375e+00,3.915823698043823242e+00,3.811656713485717773e+00,3.712887287139892578e+00
3.099369287490844727e+00,3.178033590316772461e+00,3.260795116424560547e+00,3.347982168197631836e+00,3.439960002899169922e+00,3.537107944488525391e+00,3.639900684356689453e+00,3.748846769332885742e+00,3.864515781402587891e+00,3.987550020217895508e+00,4.118675708770751953e+00,4.258718967437744141e+00,4.408620357513427734e+00,4.569459438323974609e+00,4.742478847503662109e+00,4.929116249084472656e+00,5.000000000000000000e+00,5.000000000000000000e+00,5.000000000000000000e+00,5.000000000000000000e+00,5.000000000000000000e+00,5.000000000000000000e+00,5.000000000000000000e+00,5.000000000000000000e+00,5.000000000000000000e+00,5.000000000000000000e+00,5.000000000000000000e+00,5.000000000000000000e+00,5.000000000000000000e+00,5.000000000000000000e+00,5.000000000000000000e+00,5.000000000000000000e+00,4.731208801269531250e+00,4.517416000366210938e+00,4.493377685546875000e+00,4.522224903106689453e+00,4.563692569732666016e+00,4.579500198364257812e+00,5.000000000000000000e+00,5.000000000000000000e+00,5.000000000000000000e+00,5.000000000000000000e+00,5.000000000000000000e+00,5.000000000000000000e+00,5.000000000000000000e+00,5.000000000000000000e+00,5.000000000000000000e+00,5.000000000000000000e+00,5.000000000000000000e+00,5.000000000000000000e+00,5.000000000000000000e+00,5.000000000000000000e+00,5.000000000000000000e+00,5.000000000000000000e+00,5.000000000000000000e+00,5.000000000000000000e+00,5.000000000000000000e+00,5.000000000000000000e+00,5.000000000000000000e+00,5.000000000000000000e+00,5.000000000000000000e+00,5.000000000000000000e+00,5.000000000000000000e+00,5.000000000000000000e+00,5.000000000000000000e+00,5.000000000000000000e+00,5.000000000000000000e+00,5.000000000000000000e+00,5.000000000000000000e+00,5.000000000000000000e+00,4.842293262481689453e+00,4.683999538421630859e+00,4.535727500915527344e+00,4.396554470062255859e+00,4.265667915344238281e+00,4.142349243164062500e+00,4.025960445404052734e+00,3.915933370590209961e+00,3.811760187149047852e+00,3.712985992431640625e+00
3.099265575408935547e+00,3.177912712097167969e+00,3.260667562484741211e+00,3.347847938537597656e+00,3.439818143844604492e+00,3.536984205245971680e+00,3.639799118041992188e+00,3.748750448226928711e+00,3.864413499832153320e+00,3.987441062927246094e+00,4.118559360504150391e+00,4.258594512939453125e+00,4.408486843109130859e+00,4.569316387176513672e+00,4.742324829101562500e+00,4.928949832916259766e+00,5.000000000000000000e+00,5.000000000000000000e+00,5.000000000000000000e+00,5.000000000000000000e+00,5.000000000000000000e+00,5.000000000000000000e+00,5.000000000000000000e+00,5.000000000000000000e+00,5.000000000000000000e+00,5.000000000000000000e+00,5.000000000000000000e+00,5.000000000000000000e+00,5.000000000000000000e+00,5.000000000000000000e+00,5.000000000000000000e+00,5.000000000000000000e+00,4.715617179870605469e+00,4.529727935791015625e+00,4.500457763671875000e+00,4.521666526794433594e+00,4.544322013854980469e+00,4.573148727416992188e+00,5.000000000000000000e+00,5.000000000000000000e+00,5.000000000000000000e+00,5.000000000000000000e+00,5.000000000000000000e+00,5.000000000000000000e+00,5.000000000000000000e+00,5.000000000000000000e+00,5.000000000000000000e+00,5.000000000000000000e+00,5.000000000000000000e+00,5.000000000000000000e+00,5.000000000000000000e+00,5.000000000000000000e+00,5.000000000000000000e+00,5.000000000000000000e+00,5.000000000000000000e+00,5.000000000000000000e+00,5.000000000000000000e+00,5.000000000000000000e+00,5.000000000000000000e+00,5.000000000000000000e+00,5.000000000000000000e+00,5.000000000000000000e+00,5.000000000000000000e+00,5.000000000000000000e+00,5.000000000000000000e+00,5.000000000000000000e+00,5.000000000000000000e+00,5.000000000000000000e+00,5.000000000000000000e+00,5.000000000000000000e+00,4.842460632324218750e+00,4.684155941009521484e+00,4.535874366760253906e+00,4.396692276000976562e+00,4.265797615051269531e+00,4.142471313476562500e+00,4.026075839996337891e+00,3.916042566299438477e+00,3.811863660812377930e+00,3.713084220886230469e+00
3.099199771881103516e+00,3.177832841873168945e+00,3.260559558868408203e+00,3.347713708877563477e+00,3.439676284790039062e+00,3.536834239959716797e+00,3.639640569686889648e+00,3.748602151870727539e+00,3.864289283752441406e+00,3.987332105636596680e+00,4.118443489074707031e+00,4.258470058441162109e+00,4.408353805541992188e+00,4.569173336029052734e+00,4.742170810699462891e+00,4.928783416748046875e+00,5.000000000000000000e+00,5.000000000000000000e+00,5.000000000000000000e+00,5.000000000000000000e+00,5.000000000000000000e+00,5.000000000000000000e+00,5.000000000000000000e+00,5.000000000000000000e+00,5.000000000000000000e+00,5.000000000000000000e+00,5.000000000000000000e+00,5.000000000000000000e+00,5.000000000000000000e+00,5.000000000000000000e+00,5.000000000000000000e+00,5.000000000000000000e+00,4.683889865875244141e+00,4.560778141021728516e+00,4.454380512237548828e+00,4.505027770996093750e+00,4.534009933471679688e+00,5.000000000000000000e+00,5.000000000000000000e+00,5.000000000000000000e+00,5.000000000000000000e+00,5.000000000000000000e+00,5.000000000000000000e+00,5.000000000000000000e+00,5.000000000000000000e+00,5.000000000000000000e+00,5.000000000000000000e+00,5.000000000000000000e+00,5.000000000000000000e+00,5.000000000000000000e+00,5.000000000000000000e+00,5.000000000000000000e+00,5.000000000000000000e+00,5.000000000000000000e+00,5.000000000000000000e+00,5.000000000000000000e+00,5.000000000000000000e+00,5.000000000000000000e+00,5.000000000000000000e+00,5.000000000000000000e+00,5.000000000000000000e+00,5.000000000000000000e+00,5.000000000000000000e+00,5.000000000000000000e+00,5.000000000000000000e+00,5.000000000000000000e+00,5.000000000000000000e+00,5.000000000000000000e+00,5.000000000000000000e+00,5.000000000000000000e+00,4.842627525329589844e+00,4.684312343597412109e+00,4.536020755767822266e+00,4.396830081939697266e+00,4.265927791595458984e+00,4.142593860626220703e+00,4.026191711425781250e+00,3.916152000427246094e+00,3.811967611312866211e+00,3.713182210922241211e+00
3.099134206771850586e+00,3.177763700485229492e+00,3.260486841201782227e+00,3.347632169723510742e+00,3.439563512802124023e+00,3.536686658859252930e+00,3.639481782913208008e+00,3.748433828353881836e+00,3.864110469818115234e+00,3.987153768539428711e+00,4.118291378021240234e+00,4.258345603942871094e+00,4.408220291137695312e+00,4.569029808044433594e+00,4.742016315460205078e+00,4.928616523742675781e+00,5.000000000000000000e+00,5.000000000000000000e+00,5.000000000000000000e+00,5.000000000000000000e+00,5.000000000000000000e+00,5.000000000000000000e+00,5.000000000000000000e+00,5.000000000000000000e+00,5.000000000000000000e+00,5.000000000000000000e+00,5.000000000000000000e+00,5.000000000000000000e+00,5.000000000000000000e+00,5.000000000000000000e+00,5.000000000000000000e+00,4.664059162139892578e+00,4.651765823364257812e+00,4.440951347351074219e+00,4.430335521697998047e+00,4.507678985595703125e+00,5.000000000000000000e+00,5.000000000000000000e+00,5.000000000000000000e+00,5.000000000000000000e+00,5.000000000000000000e+00,5.000000000000000000e+00,5.000000000000000000e+00,5.000000000000000000e+00,5.000000000000000000e+00,5.000000000000000000e+00,5.000000000000000000e+00,5.000000000000000000e+00,5.000000000000000000e+00,5.000000000000000000e+00,5.000000000000000000e+00,5.000000000000000000e+00,5.000000000000000000e+00,5.000000000000000000e+00,5.000000000000000000e+00,5.000000000000000000e+00,5.000000000000000000e+00,5.000000000000000000e+00,5.000000000000000000e+00,5.000000000000000000e+00,5.000000000000000000e+00,5.000000000000000000e+00,5.000000000000000000e+00,5.000000000000000000e+00,5.000000000000000000e+00,5.000000000000000000e+00,5.000000000000000000e+00,5.000000000000000000e+00,5.000000000000000000e+00,5.000000000000000000e+00,4.842794895172119141e+00,4.684469223022460938e+00,4.536167621612548828e+00,4.396968364715576172e+00,4.266057491302490234e+00,4.142716407775878906e+00,4.026307106018066406e+00,3.916261672973632812e+00,3.812071084976196289e+00,3.713280916213989258e+00
3.099068641662597656e+00,3.177694797515869141e+00,3.260414123535156250e+00,3.347555398941040039e+00,3.439482927322387695e+00,3.536601305007934570e+00,3.639363765716552734e+00,3.748277187347412109e+00,3.863931655883789062e+00,3.986963510513305664e+00,4.118087768554687500e+00,4.258130550384521484e+00,4.408033370971679688e+00,4.568875789642333984e+00,4.741861820220947266e+00,4.928450107574462891e+00,5.000000000000000000e+00,5.000000000000000000e+00,5.000000000000000000e+00,5.000000000000000000e+00,5.000000000000000000e+00,5.000000000000000000e+00,5.000000000000000000e+00,5.000000000000000000e+00,5.000000000000000000e+00,5.000000000000000000e+00,5.000000000000000000e+00,5.000000000000000000e+00,5.000000000000000000e+00,5.000000000000000000e+00,5.000000000000000000e+00,4.683813571929931641e+00,4.670615196228027344e+00,4.419563770294189453e+00,4.440558433532714844e+00,5.000000000000000000e+00,5.000000000000000000e+00,4.540920734405517578e+00,5.000000000000000000e+00,5.000000000000000000e+00,5.000000000000000000e+00,5.000000000000000000e+00,5.000000000000000000e+00,5.000000000000000000e+00,5.000000000000000000e+00,5.000000000000000000e+00,5.000000000000000000e+00,5.000000000000000000e+00,5.000000000000000000e+00,5.000000000000000000e+00,5.000000000000000000e+00,5.000000000000000000e+00,5.000000000000000000e+00,5.000000000000000000e+00,5.000000000000000000e+00,5.000000000000000000e+00,5.000000000000000000e+00,5.000000000000000000e+00,5.000000000000000000e+00,5.000000000000000000e+00,5.000000000000000000e+00,5.000000000000000000e+00,5.000000000000000000e+00,5.000000000000000000e+00,5.000000000000000000e+00,5.000000000000000000e+00,5.000000000000000000e+00,5.000000000000000000e+00,5.000000000000000000e+00,5.000000000000000000e+00,4.842961788177490234e+00,4.684625148773193359e+00,4.536314487457275391e+00,4.397106170654296875e+00,4.266187191009521484e+00,4.142838478088378906e+00,4.026422500610351562e+00,3.916370868682861328e+00,3.812172412872314453e+00,3.713370561599731445e+00
3.099002838134765625e+00,3.177625894546508789e+00,3.260341644287109375e+00,3.347478866577148438e+00,3.439401865005493164e+00,3.536515951156616211e+00,3.639273405075073242e+00,3.748180866241455078e+00,3.863807916641235352e+00,3.986796140670776367e+00,4.117884635925292969e+00,4.257913589477539062e+00,4.407800674438476562e+00,4.568625926971435547e+00,4.741631031036376953e+00,4.928255558013916016e+00,5.000000000000000000e+00,5.000000000000000000e+00,5.000000000000000000e+00,5.000000000000000000e+00,5.000000000000000000e+00,5.000000000000000000e+00,5.000000000000000000e+00,5.000000000000000000e+00,5.000000000000000000e+00,5.000000000000000000e+00,5.000000000000000000e+00,5.000000000000000000e+00,5.000000000000000000e+00,5.000000000000000000e+00,4.647678375244140625e+00,5.000000000000000000e+00,5.000000000000000000e+00,4.397839069366455078e+00,4.456986427307128906e+00,5.000000000000000000e+00,4.485067844390869141e+00,5.000000000000000000e+00,5.000000000000000000e+00,5.000000000000000000e+00,5.000000000000000000e+00,5.000000000000000000e+00,5.000000000000000000e+00,5.000000000000000000e+00,5.000000000000000000e+00,5.000000000000000000e+00,5.000000000000000000e+00,5.000000000000000000e+00,5.000000000000000000e+00,5.000000000000000000e+00,5.000000000000000000e+00,5.000000000000000000e+00,5.000000000000000000e+00,5.000000000000000000e+00,5.000000000000000000e+00,5.000000000000000000e+00,5.000000000000000000e+00,5.000000000000000000e+00,5.000000000000000000e+00,5.000000000000000000e+00,5.000000000000000000e+00,5.000000000000000000e+00,5.000000000000000000e+00,5.000000000000000000e+00,5.000000000000000000e+00,5.000000000000000000e+00,5.000000000000000000e+00,5.000000000000000000e+00,5.000000000000000000e+00,5.000000000000000000e+00,4.843129634857177734e+00,4.684782028198242188e+00,4.536461353302001953e+00,4.397243976593017578e+00,4.266316890716552734e+00,4.142961025238037109e+00,4.026531696319580078e+00,3.916466951370239258e+00,3.812259435653686523e+00,3.713453054428100586e+00
3.098937273025512695e+00,3.177556514739990234e+00,3.260268688201904297e+00,3.347402334213256836e+00,3.439321041107177734e+00,3.536430120468139648e+00,3.639183044433593750e+00,3.748085021972656250e+00,3.863705873489379883e+00,3.986687183380126953e+00,4.117754936218261719e+00,4.257733821868896484e+00,4.407567977905273438e+00,4.568375587463378906e+00,4.741361618041992188e+00,4.927964210510253906e+00,5.000000000000000000e+00,5.000000000000000000e+00,5.000000000000000000e+00,5.000000000000000000e+00,5.000000000000000000e+00,5.000000000000000000e+00,5.000000000000000000e+00,5.000000000000000000e+00,5.000000000000000000e+00,5.000000000000000000e+00,5.000000000000000000e+00,5.000000000000000000e+00,5.000000000000000000e+00,5.000000000000000000e+00,5.000000000000000000e+00,5.000000000000000000e+00,4.407213687896728516e+00,4.402348518371582031e+00,4.662398815155029297e+00,5.000000000000000000e+00,5.000000000000000000e+00,5.000000000000000000e+00,5.000000000000000000e+00,5.000000000000000000e+00,5.000000000000000000e+00,5.000000000000000000e+00,5.000000000000000000e+00,5.000000000000000000e+00,5.000000000000000000e+00,5.000000000000000000e+00,5.000000000000000000e+00,5.000000000000000000e+00,5.000000000000000000e+00,5.000000000000000000e+00,5.000000000000000000e+00,5.000000000000000000e+00,5.000000000000000000e+00,5.000000000000000000e+00,5.000000000000000000e+00,5.000000000000000000e+00,5.000000000000000000e+00,5.000000000000000000e+00,5.000000000000000000e+00,5.000000000000000000e+00,5.000000000000000000e+00,5.000000000000000000e+00,5.000000000000000000e+00,5.000000000000000000e+00,5.000000000000000000e+00,5.000000000000000000e+00,5.000000000000000000e+00,5.000000000000000000e+00,5.000000000000000000e+00,5.000000000000000000e+00,4.843297004699707031e+00,4.684938430786132812e+00,4.536608219146728516e+00,4.397378444671630859e+00,4.266435146331787109e+00,4.143064975738525391e+00,4.026628971099853516e+00,3.916558742523193359e+00,3.812346458435058594e+00,3.713535785675048828e+00
3.098871946334838867e+00,3.177487611770629883e+00,3.260196208953857422e+00,3.347325563430786133e+00,3.439240217208862305e+00,3.536344766616821289e+00,3.639092206954956055e+00,3.747988700866699219e+00,3.863604068756103516e+00,3.986578702926635742e+00,4.117639064788818359e+00,4.257610321044921875e+00,4.407431602478027344e+00,4.568182468414306641e+00,4.741102695465087891e+00,4.927672863006591797e+00,5.000000000000000000e+00,5.000000000000000000e+00,5.000000000000000000e+00,5.000000000000000000e+00,5.000000000000000000e+00,5.000000000000000000e+00,5.000000000000000000e+00,5.000000000000000000e+00,5.000000000000000000e+00,5.000000000000000000e+00,5.000000000000000000e+00,5.000000000000000000e+00,5.000000000000000000e+00,5.000000000000000000e+00,5.000000000000000000e+00,5.000000000000000000e+00,4.427397251129150391e+00,4.407127380371093750e+00,4.687862396240234375e+00,5.000000000000000000e+00,5.000000000000000000e+00,5.000000000000000000e+00,5.000000000000000000e+00,5.000000000000000000e+00,5.000000000000000000e+00,5.000000000000000000e+00,5.000000000000000000e+00,5.000000000000000000e+00,5.000000000000000000e+00,5.000000000000000000e+00,5.000000000000000000e+00,5.000000000000000000e+00,5.000000000000000000e+00,5.000000000000000000e+00,5.000000000000000000e+00,5.000000000000000000e+00,5.000000000000000000e+00,5.000000000000000000e+00,5.000000000000000000e+00,5.000000000000000000e+00,5.000000000000000000e+00,5.000000000000000000e+00,5.000000000000000000e+00,5.000000000000000000e+00,5.000000000000000000e+00,5.000000000000000000e+00,5.000000000000000000e+00,5.000000000000000000e+00,5.000000000000000000e+00,5.000000000000000000e+00,5.000000000000000000e+00,5.000000000000000000e+00,5.000000000000000000e+00,5.000000000000000000e+00,4.843464374542236328e+00,4.685085296630859375e+00,4.536736488342285156e+00,4.397493839263916016e+00,4.266543865203857422e+00,4.143167495727539062e+00,4.026725769042968750e+00,3.916650533676147461e+00,3.812433242797851562e+00,3.713618278503417969e+00
3.098805904388427734e+00,3.177418470382690430e+00,3.260123729705810547e+00,3.347249031066894531e+00,3.439159154891967773e+00,3.536259412765502930e+00,3.639001846313476562e+00,3.747892856597900391e+00,3.863501787185668945e+00,3.986470222473144531e+00,4.117523193359375000e+00,4.257486343383789062e+00,4.407299041748046875e+00,4.568039417266845703e+00,4.740949153900146484e+00,4.927463054656982422e+00,5.000000000000000000e+00,5.000000000000000000e+00,5.000000000000000000e+00,5.000000000000000000e+00,5.000000000000000000e+00,5.000000000000000000e+00,5.000000000000000000e+00,5.000000000000000000e+00,5.000000000000000000e+00,5.000000000000000000e+00,5.000000000000000000e+00,5.000000000000000000e+00,5.000000000000000000e+00,5.000000000000000000e+00,5.000000000000000000e+00,5.000000000000000000e+00,5.000000000000000000e+00,4.418430805206298828e+00,4.689407348632812500e+00,4.755737781524658203e+00,5.000000000000000000e+00,5.000000000000000000e+00,5.000000000000000000e+00,5.000000000000000000e+00,5.000000000000000000e+00,5.000000000000000000e+00,5.000000000000000000e+00,5.000000000000000000e+00,5.000000000000000000e+00,5.000000000000000000e+00,5.000000000000000000e+00,5.000000000000000000e+00,5.000000000000000000e+00,5.000000000000000000e+00,5.000000000000000000e+00,5.000000000000000000e+00,5.000000000000000000e+00,5.000000000000000000e+00,5.000000000000000000e+00,5.000000000000000000e+00,5.000000000000000000e+00,5.000000000000000000e+00,5.000000000000000000e+00,5.000000000000000000e+00,5.000000000000000000e+00,5.000000000000000000e+00,5.000000000000000000e+00,5.000000000000000000e+00,5.000000000000000000e+00,5.000000000000000000e+00,5.000000000000000000e+00,5.000000000000000000e+00,5.000000000000000000e+00,5.000000000000000000e+00,4.843605041503906250e+00,4.685216903686523438e+00,4.536859512329101562e+00,4.397609710693359375e+00,4.266653060913085938e+00,4.143270015716552734e+00,4.026823043823242188e+00,3.916742563247680664e+00,3.812520265579223633e+00,3.713700532913208008e+00
3.098740577697753906e+00,3.177349567413330078e+00,3.260050773620605469e+00,3.347172737121582031e+00,3.439078569412231445e+00,3.536173820495605469e+00,3.638911485671997070e+00,3.747797012329101562e+00,3.863399982452392578e+00,3.986361503601074219e+00,4.117407321929931641e+00,4.257362365722656250e+00,4.407166481018066406e+00,4.567896842956542969e+00,4.740795612335205078e+00,4.927297592163085938e+00,5.000000000000000000e+00,5.000000000000000000e+00,5.000000000000000000e+00,5.000000000000000000e+00,5.000000000000000000e+00,5.000000000000000000e+00,5.000000000000000000e+00,5.000000000000000000e+00,5.000000000000000000e+00,5.000000000000000000e+00,5.000000000000000000e+00,5.000000000000000000e+00,5.000000000000000000e+00,5.000000000000000000e+00,5.000000000000000000e+00,5.000000000000000000e+00,5.000000000000000000e+00,4.426988124847412109e+00,5.000000000000000000e+00,4.777717113494873047e+00,4.859304904937744141e+00,5.000000000000000000e+00,5.000000000000000000e+00,5.000000000000000000e+00,5.000000000000000000e+00,5.000000000000000000e+00,5.000000000000000000e+00,5.000000000000000000e+00,5.000000000000000000e+00,5.000000000000000000e+00,5.000000000000000000e+00,5.000000000000000000e+00,5.000000000000000000e+00,5.000000000000000000e+00,5.000000000000000000e+00,5.000000000000000000e+00,5.000000000000000000e+00,5.000000000000000000e+00,5.000000000000000000e+00,5.000000000000000000e+00,5.000000000000000000e+00,5.000000000000000000e+00,5.000000000000000000e+00,5.000000000000000000e+00,5.000000000000000000e+00,5.000000000000000000e+00,5.000000000000000000e+00,5.000000000000000000e+00,5.000000000000000000e+00,5.000000000000000000e+00,5.000000000000000000e+00,5.000000000000000000e+00,5.000000000000000000e+00,5.000000000000000000e+00,4.843745231628417969e+00,4.685348033905029297e+00,4.536983013153076172e+00,4.397725105285644531e+00,4.266761779785156250e+00,4.143372535705566406e+00,4.026919841766357422e+00,3.916834354400634766e+00,3.812607288360595703e+00,3.713783025741577148e+00
3.098674774169921875e+00,3.177280664443969727e+00,3.259978294372558594e+00,3.347095727920532227e+00,3.438997745513916016e+00,3.536088466644287109e+00,3.638820648193359375e+00,3.747700691223144531e+00,3.863297939300537109e+00,3.986253023147583008e+00,4.117291450500488281e+00,4.257238388061523438e+00,4.407033443450927734e+00,4.567754745483398438e+00,4.740641593933105469e+00,4.927131652832031250e+00,5.000000000000000000e+00,5.000000000000000000e+00,5.000000000000000000e+00,5.000000000000000000e+00,5.000000000000000000e+00,5.000000000000000000e+00,5.000000000000000000e+00,5.000000000000000000e+00,5.000000000000000000e+00,5.000000000000000000e+00,5.000000000000000000e+00,5.000000000000000000e+00,5.000000000000000000e+00,5.000000000000000000e+00,5.000000000000000000e+00,5.000000000000000000e+00,5.000000000000000000e+00,4.437476634979248047e+00,5.000000000000000000e+00,5.000000000000000000e+00,4.867816448211669922e+00,4.966501235961914062e+00,5.000000000000000000e+00,5.000000000000000000e+00,5.000000000000000000e+00,5.000000000000000000e+00,5.000000000000000000e+00,5.000000000000000000e+00,5.000000000000000000e+00,5.000000000000000000e+00,5.000000000000000000e+00,5.000000000000000000e+00,5.000000000000000000e+00,5.000000000000000000e+00,5.000000000000000000e+00,5.000000000000000000e+00,5.000000000000000000e+00,5.000000000000000000e+00,5.000000000000000000e+00,5.000000000000000000e+00,5.000000000000000000e+00,5.000000000000000000e+00,5.000000000000000000e+00,5.000000000000000000e+00,5.000000000000000000e+00,5.000000000000000000e+00,5.000000000000000000e+00,5.000000000000000000e+00,5.000000000000000000e+00,5.000000000000000000e+00,5.000000000000000000e+00,5.000000000000000000e+00,5.000000000000000000e+00,5.000000000000000000e+00,4.843885421752929688e+00,4.685479640960693359e+00,4.537106037139892578e+00,4.397840976715087891e+00,4.266870498657226562e+00,4.143475532531738281e+00,4.027017116546630859e+00,3.916925907135009766e+00,3.812694311141967773e+00,3.713865756988525391e+00
3.098609209060668945e+00,3.177211523056030273e+00,3.259905815124511719e+00,3.347019433975219727e+00,3.438916683197021484e+00,3.536003112792968750e+00,3.638730287551879883e+00,3.747604846954345703e+00,3.863195657730102539e+00,3.986144542694091797e+00,4.117175579071044922e+00,4.257114410400390625e+00,4.406900405883789062e+00,4.567611694335937500e+00,4.740488529205322266e+00,4.926965236663818359e+00,5.000000000000000000e+00,5.000000000000000000e+00,5.000000000000000000e+00,5.000000000000000000e+00,5.000000000000000000e+00,5.000000000000000000e+00,5.000000000000000000e+00,5.000000000000000000e+00,5.000000000000000000e+00,5.000000000000000000e+00,5.000000000000000000e+00,5.000000000000000000e+00,5.000000000000000000e+00,5.000000000000000000e+00,5.000000000000000000e+00,5.000000000000000000e+00,5.000000000000000000e+00,4.449964046478271484e+00,5.000000000000000000e+00,5.000000000000000000e+00,5.000000000000000000e+00,5.000000000000000000e+00,5.000000000000000000e+00,5.000000000000000000e+00,5.000000000000000000e+00,5.000000000000000000e+00,5.000000000000000000e+00,5.000000000000000000e+00,5.000000000000000000e+00,5.000000000000000000e+00,5.000000000000000000e+00,5.000000000000000000e+00,5.000000000000000000e+00,5.000000000000000000e+00,5.000000000000000000e+00,5.000000000000000000e+00,5.000000000000000000e+00,5.000000000000000000e+00,5.000000000000000000e+00,5.000000000000000000e+00,5.000000000000000000e+00,5.000000000000000000e+00,5.000000000000000000e+00,5.000000000000000000e+00,5.000000000000000000e+00,5.000000000000000000e+00,5.000000000000000000e+00,5.000000000000000000e+00,5.000000000000000000e+00,5.000000000000000000e+00,5.000000000000000000e+00,5.000000000000000000e+00,5.000000000000000000e+00,5.000000000000000000e+00,4.844026088714599609e+00,4.685610771179199219e+00,4.537229061126708984e+00,4.397956371307373047e+00,4.266979694366455078e+00,4.143578529357910156e+00,4.027113914489746094e+00,3.917017698287963867e+00,3.812781095504760742e+00,3.713948488235473633e+00
3.098543643951416016e+00,3.177142620086669922e+00,3.259833097457885742e+00,3.346942901611328125e+00,3.438836097717285156e+00,3.535917282104492188e+00,3.638639688491821289e+00,3.747509002685546875e+00,3.863093852996826172e+00,3.986035585403442383e+00,4.117060184478759766e+00,4.256990432739257812e+00,4.406767845153808594e+00,4.567469120025634766e+00,4.740334510803222656e+00,4.926799297332763672e+00,5.000000000000000000e+00,5.000000000000000000e+00,5.000000000000000000e+00,5.000000000000000000e+00,5.000000000000000000e+00,5.000000000000000000e+00,5.000000000000000000e+00,5.000000000000000000e+00,5.000000000000000000e+00,5.000000000000000000e+00,5.000000000000000000e+00,5.000000000000000000e+00,5.000000000000000000e+00,5.000000000000000000e+00,5.000000000000000000e+00,5.000000000000000000e+00,5.000000000000000000e+00,4.469512939453125000e+00,5.000000000000000000e+00,5.000000000000000000e+00,5.000000000000000000e+00,5.000000000000000000e+00,5.000000000000000000e+00,5.000000000000000000e+00,5.000000000000000000e+00,5.000000000000000000e+00,5.000000000000000000e+00,5.000000000000000000e+00,5.000000000000000000e+00,5.000000000000000000e+00,5.000000000000000000e+00,5.000000000000000000e+00,5.000000000000000000e+00,5.000000000000000000e+00,5.000000000000000000e+00,5.000000000000000000e+00,5.000000000000000000e+00,5.000000000000000000e+00,5.000000000000000000e+00,5.000000000000000000e+00,5.000000000000000000e+00,5.000000000000000000e+00,5.000000000000000000e+00,5.000000000000000000e+00,5.000000000000000000e+00,5.000000000000000000e+00,5.000000000000000000e+00,5.000000000000000000e+00,5.000000000000000000e+00,5.000000000000000000e+00,5.000000000000000000e+00,5.000000000000000000e+00,5.000000000000000000e+00,5.000000000000000000e+00,4.844166278839111328e+00,4.685742378234863281e+00,4.537352085113525391e+00,4.398072242736816406e+00,4.267088890075683594e+00,4.143681049346923828e+00,4.027211189270019531e+00,3.917109727859497070e+00,3.812868118286132812e+00,3.714030981063842773e+00
3.098477840423583984e+00,3.177073717117309570e+00,3.259760379791259766e+00,3.346866130828857422e+00,3.438755273818969727e+00,3.535832166671752930e+00,3.638549327850341797e+00,3.747412681579589844e+00,3.862992048263549805e+00,3.985927104949951172e+00,4.116943836212158203e+00,4.256866931915283203e+00,4.406635284423828125e+00,4.567326545715332031e+00,4.740180969238281250e+00,4.855277061462402344e+00,4.854081630706787109e+00,4.852886676788330078e+00,4.851692199707031250e+00,4.850498676300048828e+00,4.849305629730224609e+00,4.848113536834716797e+00,4.846921443939208984e+00,4.845730304718017578e+00,4.844539642333984375e+00,4.843349456787109375e+00,4.842159748077392578e+00,4.840970516204833984e+00,4.839782238006591797e+00,4.838594436645507812e+00,4.837407112121582031e+00,4.392668724060058594e+00,4.385231018066406250e+00,4.833848953247070312e+00,4.832664012908935547e+00,4.831480026245117188e+00,4.830296039581298828e+00,4.829113006591796875e+00,4.827930450439453125e+00,4.826748371124267578e+00,4.825566768646240234e+00,4.824386119842529297e+00,4.823205947875976562e+00,4.822026252746582031e+00,4.820847511291503906e+00,4.819668769836425781e+00,4.818490982055664062e+00,4.817313194274902344e+00,4.816136360168457031e+00,4.814960002899169922e+00,4.813784599304199219e+00,4.812609195709228516e+00,4.811434745788574219e+00,4.810260772705078125e+00,4.809087753295898438e+00,4.807915210723876953e+00,4.806742668151855469e+00,4.805571079254150391e+00,4.804399967193603516e+00,4.803229331970214844e+00,4.802059650421142578e+00,4.800889968872070312e+00,4.799721240997314453e+00,4.798552989959716797e+00,4.797385215759277344e+00,4.796218395233154297e+00,4.795051574707031250e+00,4.793886184692382812e+00,4.792720794677734375e+00,4.791555881500244141e+00,4.790391445159912109e+00,4.685873508453369141e+00,4.537475585937500000e+00,4.398188114166259766e+00,4.267197608947753906e+00,4.143784046173095703e+00,4.027307987213134766e+00,3.917201519012451172e+00,3.812955141067504883e+00,3.714113235473632812e+00
3.098412275314331055e+00,3.177004575729370117e+00,3.259687900543212891e+00,3.346789836883544922e+00,3.438674211502075195e+00,3.535746335983276367e+00,3.638458967208862305e+00,3.747316837310791016e+00,3.771321535110473633e+00,3.770600080490112305e+00,3.769879102706909180e+00,3.769158363342285156e+00,3.768437862396240234e+00,3.767717838287353516e+00,3.766997814178466797e+00,3.766278266906738281e+00,3.765558958053588867e+00,3.764839887619018555e+00,3.764120817184448242e+00,3.763402462005615234e+00,3.762684106826782227e+00,3.761965990066528320e+00,3.761248350143432617e+00,3.760530948638916016e+00,3.759814262390136719e+00,3.759097337722778320e+00,3.758380651473999023e+00,3.757664442062377930e+00,3.756948232650756836e+00,3.756232500076293945e+00,3.755517005920410156e+00,3.754801511764526367e+00,3.754086732864379883e+00,3.753371953964233398e+00,3.752657413482666016e+00,3.751943349838256836e+00,3.751229286193847656e+00,3.750515699386596680e+00,3.749802350997924805e+00,3.749089241027832031e+00,3.748376369476318359e+00,3.747663974761962891e+00,3.746951580047607422e+00,3.746239662170410156e+00,3.745527982711791992e+00,3.744816541671752930e+00,3.744105339050292969e+00,3.743394851684570312e+00,3.742684125900268555e+00,3.741973638534545898e+00,3.741263628005981445e+00,3.740553855895996094e+00,3.739844322204589844e+00,3.739135026931762695e+00,3.738425970077514648e+00,3.737717151641845703e+00,3.737008571624755859e+00,3.736300468444824219e+00,3.735592365264892578e+00,3.734884738922119141e+00,3.734177350997924805e+00,3.733470201492309570e+00,3.732763290405273438e+00,3.732056617736816406e+00,3.731350183486938477e+00,3.730644226074218750e+00,3.729938268661499023e+00,3.729232788085937500e+00,3.728527545928955078e+00,3.727822780609130859e+00,3.727118015289306641e+00,3.726413726806640625e+00,3.725709438323974609e+00,3.725005388259887695e+00,3.724301815032958984e+00,3.723598241806030273e+00,3.722895145416259766e+00,3.722192287445068359e+00,3.721489667892456055e+00,3.714195966720581055e+00
3.083508491516113281e+00,3.083026409149169922e+00,3.082544326782226562e+00,3.082062482833862305e+00,3.081580638885498047e+00,3.081099033355712891e+00,3.080617666244506836e+00,3.080136299133300781e+00,3.079655170440673828e+00,3.079174280166625977e+00,3.078693389892578125e+00,3.078212738037109375e+00,3.077732086181640625e+00,3.077251672744750977e+00,3.076771497726440430e+00,3.076291561126708984e+00,3.075811624526977539e+00,3.075331926345825195e+00,3.074852228164672852e+00,3.074372768402099609e+00,3.073893308639526367e+00,3.073414087295532227e+00,3.072935104370117188e+00,3.072456121444702148e+00,3.071977376937866211e+00,3.071498870849609375e+00,3.071020364761352539e+00,3.070542097091674805e+00,3.070063829421997070e+00,3.069585800170898438e+00,3.069108009338378906e+00,3.068630218505859375e+00,3.068152666091918945e+00,3.067675352096557617e+00,3.067198038101196289e+00,3.066720962524414062e+00,3.066243886947631836e+00,3.065767288208007812e+00,3.065290451049804688e+00,3.064814329147338867e+00,3.064337968826293945e+00,3.063861608505249023e+00,3.063385725021362305e+00,3.062909603118896484e+00,3.062433958053588867e+00,3.061958312988281250e+00,3.061482667922973633e+00,3.061007499694824219e+00,3.060532331466674805e+00,3.060057163238525391e+00,3.059582233428955078e+00,3.059107542037963867e+00,3.058632850646972656e+00,3.058158397674560547e+00,3.057684183120727539e+00,3.057209968566894531e+00,3.056735992431640625e+00,3.056262016296386719e+00,3.055788278579711914e+00,3.055314779281616211e+00,3.054841279983520508e+00,3.054368257522583008e+00,3.053895235061645508e+00,3.053422212600708008e+00,3.052949428558349609e+00,3.052476644515991211e+00,3.052004098892211914e+00,3.051531791687011719e+00,3.051059484481811523e+00,3.050587415695190430e+00,3.050115346908569336e+00,3.049643516540527344e+00,3.049171924591064453e+00,3.048700332641601562e+00,3.048228979110717773e+00,3.047757625579833984e+00,3.047286748886108398e+00,3.046815633773803711e+00,3.046344995498657227e+00,3.045874357223510742e+00
2.605126380920410156e+00,2.604782342910766602e+00,2.604438066482543945e+00,2.604094266891479492e+00,2.603750467300415039e+00,2.603406429290771484e+00,2.603062868118286133e+00,2.602719068527221680e+00,2.602375507354736328e+00,2.602032184600830078e+00,2.601688623428344727e+00,2.601345539093017578e+00,2.601002216339111328e+00,2.600659132003784180e+00,2.600316047668457031e+00,2.599973201751708984e+00,2.599630355834960938e+00,2.599287509918212891e+00,2.598944902420043945e+00,2.598602294921875000e+00,2.598259925842285156e+00,2.597917556762695312e+00,2.597575187683105469e+00,2.597233057022094727e+00,2.596890926361083984e+00,2.596548795700073242e+00,2.596206903457641602e+00,2.595865011215209961e+00,2.595523357391357422e+00,2.595181703567504883e+00,2.594840288162231445e+00,2.594498634338378906e+00,2.594157457351684570e+00,2.593816041946411133e+00,2.593474864959716797e+00,2.593133687973022461e+00,2.592792749404907227e+00,2.592451810836791992e+00,2.592110872268676758e+00,2.591770172119140625e+00,2.591429471969604492e+00,2.591088771820068359e+00,2.590748310089111328e+00,2.590407848358154297e+00,2.590067625045776367e+00,2.589727401733398438e+00,2.589387178421020508e+00,2.589047193527221680e+00,2.588707208633422852e+00,2.588367223739624023e+00,2.588027477264404297e+00,2.587687730789184570e+00,2.587348222732543945e+00,2.587008953094482422e+00,2.586669445037841797e+00,2.586330175399780273e+00,2.585990905761718750e+00,2.585651874542236328e+00,2.585312604904174805e+00,2.584973812103271484e+00,2.584634780883789062e+00,2.584295988082885742e+00,2.583957195281982422e+00,2.583618640899658203e+00,2.583280086517333984e+00,2.582941770553588867e+00,2.582603216171264648e+00,2.582265138626098633e+00,2.581926822662353516e+00,2.581588745117187500e+00,2.581250667572021484e+00,2.580912828445434570e+00,2.580574989318847656e+00,2.580237388610839844e+00,2.579899549484252930e+00,2.579562187194824219e+00,2.579224824905395508e+00,2.578887462615966797e+00,2.578550100326538086e+00,2.578212976455688477e+00
2.255243062973022461e+00,2.254985332489013672e+00,2.254727363586425781e+00,2.254469633102416992e+00,2.254211902618408203e+00,2.253954172134399414e+00,2.253696441650390625e+00,2.253438949584960938e+00,2.253181219100952148e+00,2.252923727035522461e+00,2.252666473388671875e+00,2.252409219741821289e+00,2.252151727676391602e+00,2.251894474029541016e+00,2.251637220382690430e+00,2.251380205154418945e+00,2.251123189926147461e+00,2.250866174697875977e+00,2.250609159469604492e+00,2.250352144241333008e+00,2.250095367431640625e+00,2.249838829040527344e+00,2.249582052230834961e+00,2.249325275421142578e+00,2.249068737030029297e+00,2.248812198638916016e+00,2.248555660247802734e+00,2.248299360275268555e+00,2.248043060302734375e+00,2.247786760330200195e+00,2.247530460357666016e+00,2.247274160385131836e+00,2.247018098831176758e+00,2.246762037277221680e+00,2.246505975723266602e+00,2.246249914169311523e+00,2.245994091033935547e+00,2.245738267898559570e+00,2.245482444763183594e+00,2.245226621627807617e+00,2.244971036911010742e+00,2.244715452194213867e+00,2.244459867477416992e+00,2.244204282760620117e+00,2.243949174880981445e+00,2.243693590164184570e+00,2.243438482284545898e+00,2.243183135986328125e+00,2.242928028106689453e+00,2.242672681808471680e+00,2.242417573928833008e+00,2.242162704467773438e+00,2.241907596588134766e+00,2.241652727127075195e+00,2.241397857666015625e+00,2.241142988204956055e+00,2.240888357162475586e+00,2.240633726119995117e+00,2.240379095077514648e+00,2.240124464035034180e+00,2.239870071411132812e+00,2.239615440368652344e+00,2.239361047744750977e+00,2.239106893539428711e+00,2.238852500915527344e+00,2.238598346710205078e+00,2.238344192504882812e+00,2.238090276718139648e+00,2.237836122512817383e+00,2.237582206726074219e+00,2.237328290939331055e+00,2.237074375152587891e+00,2.236820459365844727e+00,2.236566781997680664e+00,2.236313104629516602e+00,2.236059427261352539e+00,2.235805749893188477e+00,2.235552310943603516e+00,2.235298871994018555e+00,2.235045433044433594e+00
1.988214731216430664e+00,1.988014221191406250e+00,1.987813711166381836e+00,1.987613320350646973e+00,1.987412929534912109e+00,1.987212657928466797e+00,1.987012386322021484e+00,1.986812353134155273e+00,1.986612200736999512e+00,1.986412048339843750e+00,1.986211895942687988e+00,1.986011743545532227e+00,1.985811710357666016e+00,1.985611796379089355e+00,1.985411763191223145e+00,1.985211849212646484e+00,1.985011935234069824e+00,1.984812140464782715e+00,1.984612345695495605e+00,1.984412550926208496e+00,1.984212875366210938e+00,1.984013199806213379e+00,1.983813524246215820e+00,1.983613967895507812e+00,1.983414411544799805e+00,1.983214855194091797e+00,1.983015418052673340e+00,1.982815861701965332e+00,1.982616543769836426e+00,1.982417106628417969e+00,1.982217788696289062e+00,1.982018589973449707e+00,1.981819272041320801e+00,1.981620073318481445e+00,1.981420993804931641e+00,1.981221795082092285e+00,1.981022715568542480e+00,1.980823755264282227e+00,1.980624675750732422e+00,1.980425715446472168e+00,1.980226874351501465e+00,1.980027914047241211e+00,1.979829072952270508e+00,1.979630231857299805e+00,1.979431509971618652e+00,1.979232788085937500e+00,1.979034066200256348e+00,1.978835463523864746e+00,1.978636860847473145e+00,1.978438258171081543e+00,1.978239774703979492e+00,1.978041291236877441e+00,1.977842807769775391e+00,1.977644443511962891e+00,1.977446079254150391e+00,1.977247714996337891e+00,1.977049469947814941e+00,1.976851224899291992e+00,1.976652979850769043e+00,1.976455092430114746e+00,1.976256966590881348e+00,1.976058840751647949e+00,1.975860834121704102e+00,1.975662827491760254e+00,1.975464820861816406e+00,1.975266933441162109e+00,1.975069046020507812e+00,1.974871158599853516e+00,1.974673390388488770e+00,1.974475622177124023e+00,1.974277853965759277e+00,1.974080085754394531e+00,1.973882555961608887e+00,1.973684906959533691e+00,1.973487377166748047e+00,1.973289728164672852e+00,1.973092317581176758e+00,1.972894787788391113e+00,1.972697377204895020e+00,1.972500085830688477e+00
1.777725934982299805e+00,1.777565717697143555e+00,1.777405381202697754e+00,1.777245163917541504e+00,1.777084946632385254e+00,1.776924848556518555e+00,1.776764750480651855e+00,1.776604533195495605e+00,1.776444435119628906e+00,1.776284456253051758e+00,1.776124477386474609e+00,1.775964379310607910e+00,1.775804400444030762e+00,1.775644540786743164e+00,1.775484800338745117e+00,1.775324940681457520e+00,1.775165081024169922e+00,1.775005221366882324e+00,1.774845480918884277e+00,1.774685621261596680e+00,1.774525761604309082e+00,1.774366021156311035e+00,1.774206280708312988e+00,1.774046659469604492e+00,1.773887038230895996e+00,1.773727416992187500e+00,1.773567914962768555e+00,1.773408532142639160e+00,1.773249030113220215e+00,1.773089528083801270e+00,1.772930145263671875e+00,1.772770643234252930e+00,1.772611260414123535e+00,1.772451877593994141e+00,1.772292613983154297e+00,1.772133231163024902e+00,1.771973967552185059e+00,1.771814703941345215e+00,1.771655440330505371e+00,1.771496295928955078e+00,1.771337151527404785e+00,1.771178007125854492e+00,1.771018862724304199e+00,1.770859837532043457e+00,1.770700693130493164e+00,1.770541667938232422e+00,1.770382642745971680e+00,1.770223736763000488e+00,1.770064830780029297e+00,1.769905924797058105e+00,1.769747018814086914e+00,1.769588112831115723e+00,1.769429326057434082e+00,1.769270539283752441e+00,1.769111752510070801e+00,1.768952965736389160e+00,1.768794298171997070e+00,1.768635630607604980e+00,1.768476963043212891e+00,1.768318295478820801e+00,1.768159747123718262e+00,1.768001198768615723e+00,1.767842650413513184e+00,1.767684102058410645e+00,1.767525672912597656e+00,1.767367243766784668e+00,1.767208814620971680e+00,1.767050385475158691e+00,1.766891956329345703e+00,1.766733646392822266e+00,1.766575336456298828e+00,1.766417026519775391e+00,1.766258835792541504e+00,1.766100764274597168e+00,1.765942573547363281e+00,1.765784382820129395e+00,1.765626311302185059e+00,1.765468239784240723e+00,1.765310168266296387e+00,1.765152096748352051e+00
1.607538580894470215e+00,1.607407569885253906e+00,1.607276439666748047e+00,1.607145547866821289e+00,1.607014536857604980e+00,1.606883645057678223e+00,1.606752634048461914e+00,1.606621742248535156e+00,1.606490850448608398e+00,1.606359839439392090e+00,1.606229066848754883e+00,1.606098175048828125e+00,1.605967283248901367e+00,1.605836510658264160e+00,1.605705738067626953e+00,1.605574965476989746e+00,1.605444192886352539e+00,1.605313420295715332e+00,1.605182766914367676e+00,1.605052113533020020e+00,1.604921579360961914e+00,1.604790925979614258e+00,1.604660272598266602e+00,1.604529619216918945e+00,1.604398965835571289e+00,1.604268431663513184e+00,1.604137897491455078e+00,1.604007363319396973e+00,1.603876829147338867e+00,1.603746414184570312e+00,1.603615999221801758e+00,1.603485584259033203e+00,1.603355169296264648e+00,1.603224754333496094e+00,1.603094339370727539e+00,1.602964043617248535e+00,1.602833747863769531e+00,1.602703452110290527e+00,1.602573156356811523e+00,1.602442860603332520e+00,1.602312684059143066e+00,1.602182507514953613e+00,1.602052330970764160e+00,1.601922154426574707e+00,1.601792097091674805e+00,1.601661920547485352e+00,1.601531744003295898e+00,1.601401686668395996e+00,1.601271629333496094e+00,1.601141571998596191e+00,1.601011514663696289e+00,1.600881576538085938e+00,1.600751638412475586e+00,1.600621581077575684e+00,1.600491642951965332e+00,1.600361704826354980e+00,1.600231885910034180e+00,1.600101947784423828e+00,1.599972128868103027e+00,1.599842190742492676e+00,1.599712371826171875e+00,1.599582672119140625e+00,1.599452853202819824e+00,1.599323153495788574e+00,1.599193334579467773e+00,1.599063634872436523e+00,1.598933935165405273e+00,1.598804354667663574e+00,1.598674654960632324e+00,1.598545074462890625e+00,1.598415493965148926e+00,1.598285913467407227e+00,1.598156332969665527e+00,1.598026752471923828e+00,1.597897171974182129e+00,1.597767710685729980e+00,1.597638249397277832e+00,1.597508788108825684e+00,1.597379326820373535e+00,1.597249984741210938e+00
1.467089533805847168e+00,1.466980338096618652e+00,1.466871261596679688e+00,1.466762065887451172e+00,1.466652989387512207e+00,1.466543912887573242e+00,1.466434717178344727e+00,1.466325759887695312e+00,1.466216683387756348e+00,1.466107606887817383e+00,1.465998649597167969e+00,1.465889692306518555e+00,1.465780735015869141e+00,1.465671777725219727e+00,1.465562820434570312e+00,1.465453863143920898e+00,1.465344905853271484e+00,1.465236067771911621e+00,1.465127110481262207e+00,1.465018272399902344e+00,1.464909434318542480e+00,1.464800596237182617e+00,1.464691758155822754e+00,1.464582920074462891e+00,1.464474081993103027e+00,1.464365363121032715e+00,1.464256525039672852e+00,1.464147806167602539e+00,1.464039087295532227e+00,1.463930368423461914e+00,1.463821649551391602e+00,1.463713049888610840e+00,1.463604331016540527e+00,1.463495731353759766e+00,1.463387012481689453e+00,1.463278412818908691e+00,1.463169813156127930e+00,1.463061213493347168e+00,1.462952613830566406e+00,1.462844133377075195e+00,1.462735533714294434e+00,1.462627053260803223e+00,1.462518572807312012e+00,1.462410092353820801e+00,1.462301611900329590e+00,1.462193131446838379e+00,1.462084770202636719e+00,1.461976289749145508e+00,1.461867928504943848e+00,1.461759567260742188e+00,1.461651086807250977e+00,1.461542725563049316e+00,1.461434483528137207e+00,1.461326122283935547e+00,1.461217761039733887e+00,1.461109638214111328e+00,1.461001396179199219e+00,1.460893154144287109e+00,1.460784792900085449e+00,1.460676670074462891e+00,1.460568428039550781e+00,1.460460186004638672e+00,1.460352063179016113e+00,1.460243821144104004e+00,1.460135698318481445e+00,1.460027575492858887e+00,1.459919452667236328e+00,1.459811329841613770e+00,1.459703326225280762e+00,1.459595203399658203e+00,1.459487199783325195e+00,1.459379076957702637e+00,1.459271073341369629e+00,1.459163069725036621e+00,1.459055066108703613e+00,1.458947062492370605e+00,1.458839178085327148e+00,1.458731174468994141e+00,1.458623290061950684e+00,1.458515405654907227e+00
1.349210381507873535e+00,1.349117994308471680e+00,1.349025726318359375e+00,1.348933339118957520e+00,1.348841071128845215e+00,1.348748803138732910e+00,1.348656535148620605e+00,1.348564267158508301e+00,1.348471999168395996e+00,1.348379850387573242e+00,1.348287582397460938e+00,1.348195433616638184e+00,1.348103165626525879e+00,1.348011016845703125e+00,1.347918868064880371e+00,1.347826719284057617e+00,1.347734689712524414e+00,1.347642540931701660e+00,1.347550392150878906e+00,1.347458362579345703e+00,1.347366333007812500e+00,1.347274184226989746e+00,1.347182154655456543e+00,1.347090125083923340e+00,1.346998095512390137e+00,1.346906065940856934e+00,1.346814036369323730e+00,1.346722006797790527e+00,1.346629977226257324e+00,1.346538066864013672e+00,1.346446156501770020e+00,1.346354126930236816e+00,1.346262216567993164e+00,1.346170306205749512e+00,1.346078395843505859e+00,1.345986485481262207e+00,1.345894575119018555e+00,1.345802664756774902e+00,1.345710873603820801e+00,1.345618963241577148e+00,1.345527172088623047e+00,1.345435380935668945e+00,1.345343470573425293e+00,1.345251679420471191e+00,1.345159888267517090e+00,1.345068097114562988e+00,1.344976425170898438e+00,1.344884634017944336e+00,1.344792842864990234e+00,1.344701170921325684e+00,1.344609498977661133e+00,1.344517707824707031e+00,1.344426035881042480e+00,1.344334363937377930e+00,1.344242691993713379e+00,1.344151020050048828e+00,1.344059467315673828e+00,1.343967795372009277e+00,1.343876242637634277e+00,1.343784570693969727e+00,1.343693017959594727e+00,1.343601465225219727e+00,1.343509793281555176e+00,1.343418359756469727e+00,1.343326807022094727e+00,1.343235254287719727e+00,1.343143701553344727e+00,1.343052268028259277e+00,1.342960715293884277e+00,1.342869400978088379e+00,1.342777848243713379e+00,1.342686414718627930e+00,1.342594981193542480e+00,1.342503547668457031e+00,1.342412114143371582e+00,1.342320799827575684e+00,1.342229366302490234e+00,1.342137932777404785e+00,1.342046618461608887e+00,1.341955304145812988e+00
1.248865127563476562e+00,1.248786091804504395e+00,1.248706936836242676e+00,1.248627901077270508e+00,1.248548865318298340e+00,1.248469829559326172e+00,1.248390793800354004e+00,1.248311758041381836e+00,1.248232722282409668e+00,1.248153686523437500e+00,1.248074650764465332e+00,1.247995615005493164e+00,1.247916698455810547e+00,1.247837662696838379e+00,1.247758746147155762e+00,1.247679710388183594e+00,1.247600793838500977e+00,1.247521758079528809e+00,1.247442841529846191e+00,1.247363924980163574e+00,1.247285008430480957e+00,1.247206091880798340e+00,1.247127294540405273e+00,1.247048497200012207e+00,1.246969580650329590e+00,1.246890664100646973e+00,1.246811866760253906e+00,1.246732950210571289e+00,1.246654152870178223e+00,1.246575355529785156e+00,1.246496558189392090e+00,1.246417641639709473e+00,1.246338844299316406e+00,1.246260166168212891e+00,1.246181249618530273e+00,1.246102452278137207e+00,1.246023774147033691e+00,1.245944976806640625e+00,1.245866179466247559e+00,1.245787620544433594e+00,1.245708823204040527e+00,1.245630145072937012e+00,1.245551466941833496e+00,1.245472788810729980e+00,1.245394110679626465e+00,1.245315432548522949e+00,1.245236754417419434e+00,1.245158195495605469e+00,1.245079517364501953e+00,1.245000839233398438e+00,1.244922280311584473e+00,1.244843602180480957e+00,1.244765043258666992e+00,1.244686484336853027e+00,1.244607925415039062e+00,1.244529366493225098e+00,1.244450807571411133e+00,1.244372248649597168e+00,1.244293689727783203e+00,1.244215130805969238e+00,1.244136571884155273e+00,1.244058132171630859e+00,1.243979573249816895e+00,1.243901133537292480e+00,1.243822693824768066e+00,1.243744134902954102e+00,1.243665695190429688e+00,1.243587255477905273e+00,1.243508815765380859e+00,1.243430376052856445e+00,1.243351936340332031e+00,1.243273615837097168e+00,1.243195176124572754e+00,1.243116736412048340e+00,1.243038415908813477e+00,1.242960095405578613e+00,1.242881655693054199e+00,1.242803335189819336e+00,1.242725014686584473e+00,1.242646694183349609e+00
1.162412881851196289e+00,1.162344336509704590e+00,1.162275791168212891e+00,1.162207245826721191e+00,1.162138819694519043e+00,1.162070274353027344e+00,1.162001729011535645e+00,1.161933302879333496e+00,1.161864757537841797e+00,1.161796331405639648e+00,1.161727905273437500e+00,1.161659479141235352e+00,1.161591053009033203e+00,1.161522626876831055e+00,1.161454200744628906e+00,1.161385774612426758e+00,1.161317348480224609e+00,1.161248922348022461e+00,1.161180615425109863e+00,1.161112189292907715e+00,1.161043763160705566e+00,1.160975456237792969e+00,1.160907030105590820e+00,1.160838723182678223e+00,1.160770297050476074e+00,1.160701990127563477e+00,1.160633683204650879e+00,1.160565376281738281e+00,1.160497069358825684e+00,1.160428762435913086e+00,1.160360455513000488e+00,1.160292148590087891e+00,1.160223960876464844e+00,1.160155653953552246e+00,1.160087347030639648e+00,1.160019159317016602e+00,1.159950852394104004e+00,1.159882664680480957e+00,1.159814238548278809e+00,1.159746050834655762e+00,1.159677863121032715e+00,1.159609675407409668e+00,1.159541487693786621e+00,1.159473180770874023e+00,1.159404993057250977e+00,1.159336805343627930e+00,1.159268736839294434e+00,1.159200549125671387e+00,1.159132361412048340e+00,1.159064173698425293e+00,1.158996105194091797e+00,1.158927917480468750e+00,1.158859848976135254e+00,1.158791780471801758e+00,1.158723711967468262e+00,1.158655524253845215e+00,1.158587455749511719e+00,1.158519387245178223e+00,1.158451318740844727e+00,1.158383250236511230e+00,1.158315181732177734e+00,1.158247113227844238e+00,1.158179163932800293e+00,1.158111095428466797e+00,1.158043026924133301e+00,1.157975077629089355e+00,1.157907009124755859e+00,1.157839059829711914e+00,1.157770991325378418e+00,1.157703042030334473e+00,1.157635092735290527e+00,1.157567143440246582e+00,1.157499194145202637e+00,1.157431125640869141e+00,1.157363176345825195e+00,1.157295346260070801e+00,1.157227396965026855e+00,1.157159447669982910e+00,1.157091498374938965e+00,1.157023668289184570e+00
1.087154746055603027e+00,1.087094902992248535e+00,1.087034940719604492e+00,1.086974978446960449e+00,1.086915135383605957e+00,1.086855173110961914e+00,1.086795210838317871e+00,1.086735367774963379e+00,1.086675405502319336e+00,1.086615562438964844e+00,1.086555719375610352e+00,1.086495757102966309e+00,1.086435914039611816e+00,1.086376070976257324e+00,1.086316227912902832e+00,1.086256384849548340e+00,1.086196541786193848e+00,1.086136698722839355e+00,1.086076855659484863e+00,1.086017012596130371e+00,1.085957288742065430e+00,1.085897445678710938e+00,1.085837602615356445e+00,1.085777759552001953e+00,1.085718035697937012e+00,1.085658192634582520e+00,1.085598468780517578e+00,1.085538625717163086e+00,1.085478901863098145e+00,1.085419178009033203e+00,1.085359334945678711e+00,1.085299611091613770e+00,1.085239887237548828e+00,1.085180163383483887e+00,1.085120439529418945e+00,1.085060834884643555e+00,1.085001111030578613e+00,1.084941387176513672e+00,1.084881663322448730e+00,1.084821939468383789e+00,1.084762334823608398e+00,1.084702610969543457e+00,1.084642767906188965e+00,1.084583163261413574e+00,1.084523439407348633e+00,1.084463834762573242e+00,1.084404230117797852e+00,1.084344506263732910e+00,1.084284901618957520e+00,1.084225296974182129e+00,1.084165692329406738e+00,1.084106087684631348e+00,1.084046483039855957e+00,1.083986878395080566e+00,1.083927273750305176e+00,1.083867669105529785e+00,1.083808064460754395e+00,1.083748459815979004e+00,1.083688855171203613e+00,1.083629369735717773e+00,1.083569765090942383e+00,1.083510279655456543e+00,1.083450675010681152e+00,1.083391189575195312e+00,1.083331584930419922e+00,1.083272099494934082e+00,1.083212614059448242e+00,1.083153128623962402e+00,1.083093643188476562e+00,1.083034157752990723e+00,1.082974672317504883e+00,1.082915186882019043e+00,1.082855701446533203e+00,1.082796216011047363e+00,1.082736730575561523e+00,1.082677245140075684e+00,1.082617759704589844e+00,1.082558393478393555e+00,1.082498908042907715e+00,1.082439422607421875e+00
1.021049141883850098e+00,1.020996212959289551e+00,1.020943284034729004e+00,1.020890474319458008e+00,1.020837664604187012e+00,1.020784735679626465e+00,1.020731925964355469e+00,1.020679116249084473e+00,1.020626306533813477e+00,1.020573496818542480e+00,1.020520567893981934e+00,1.020467758178710938e+00,1.020414948463439941e+00,1.020362138748168945e+00,1.020309329032897949e+00,1.020256519317626953e+00,1.020203709602355957e+00,1.020151019096374512e+00,1.020098209381103516e+00,1.020045399665832520e+00,1.019992589950561523e+00,1.019939899444580078e+00,1.019887089729309082e+00,1.019834280014038086e+00,1.019781589508056641e+00,1.019728899002075195e+00,1.019676208496093750e+00,1.019623398780822754e+00,1.019570708274841309e+00,1.019518017768859863e+00,1.019465208053588867e+00,1.019412517547607422e+00,1.019359827041625977e+00,1.019307136535644531e+00,1.019254446029663086e+00,1.019201755523681641e+00,1.019149065017700195e+00,1.019096374511718750e+00,1.019043684005737305e+00,1.018990993499755859e+00,1.018938302993774414e+00,1.018885731697082520e+00,1.018833041191101074e+00,1.018780469894409180e+00,1.018727779388427734e+00,1.018675208091735840e+00,1.018622517585754395e+00,1.018569827079772949e+00,1.018517255783081055e+00,1.018464565277099609e+00,1.018411993980407715e+00,1.018359422683715820e+00,1.018306732177734375e+00,1.018254160881042480e+00,1.018201589584350586e+00,1.018149018287658691e+00,1.018096446990966797e+00,1.018043875694274902e+00,1.017991304397583008e+00,1.017938733100891113e+00,1.017886161804199219e+00,1.017833590507507324e+00,1.017781138420104980e+00,1.017728567123413086e+00,1.017675995826721191e+00,1.017623424530029297e+00,1.017570972442626953e+00,1.017518401145935059e+00,1.017465949058532715e+00,1.017413377761840820e+00,1.017360925674438477e+00,1.017308354377746582e+00,1.017255902290344238e+00,1.017203450202941895e+00,1.017150998115539551e+00,1.017098426818847656e+00,1.017045974731445312e+00,1.016993522644042969e+00,1.016941070556640625e+00,1.016888618469238281e+00
9.625218510627746582e-01,9.624749422073364258e-01,9.624279141426086426e-01,9.623809456825256348e-01,9.623339176177978516e-01,9.622870087623596191e-01,9.622399806976318359e-01,9.621930718421936035e-01,9.621460437774658203e-01,9.620991349220275879e-01,9.620521664619445801e-01,9.620052576065063477e-01,9.619582891464233398e-01,9.619113802909851074e-01,9.618645310401916504e-01,9.618175625801086426e-01,9.617706537246704102e-01,9.617236852645874023e-01,9.616768360137939453e-01,9.616298675537109375e-01,9.615830183029174805e-01,9.615361094474792480e-01,9.614892601966857910e-01,9.614422917366027832e-01,9.613955020904541016e-01,9.613485336303710938e-01,9.613017439842224121e-01,9.612547755241394043e-01,9.612079858779907227e-01,9.611610770225524902e-01,9.611142873764038086e-01,9.610674381256103516e-01,9.610205888748168945e-01,9.609737992286682129e-01,9.609268903732299805e-01,9.608801007270812988e-01,9.608331918716430664e-01,9.607864618301391602e-01,9.607395529747009277e-01,9.606928229331970215e-01,9.606459140777587891e-01,9.605991840362548828e-01,9.605523347854614258e-01,9.605056047439575195e-01,9.604587554931640625e-01,9.604120254516601562e-01,9.603651762008666992e-01,9.603184461593627930e-01,9.602717161178588867e-01,9.602248072624206543e-01,9.601780772209167480e-01,9.601313471794128418e-01,9.600845575332641602e-01,9.600378274917602539e-01,9.599910378456115723e-01,9.599443674087524414e-01,9.598975777626037598e-01,9.598509073257446289e-01,9.598041176795959473e-01,9.597574472427368164e-01,9.597106575965881348e-01,9.596639871597290039e-01,9.596171975135803223e-01,9.595705866813659668e-01,9.595237970352172852e-01,9.594771862030029297e-01,9.594303965568542480e-01,9.593837857246398926e-01,9.593370556831359863e-01,9.592904448509216309e-01,9.592437148094177246e-01,9.591970443725585938e-01,9.591503739356994629e-01,9.591037631034851074e-01,9.590570330619812012e-01,9.590104222297668457e-01,9.589637517929077148e-01,9.589171409606933594e-01,9.588704705238342285e-01,9.588238596916198730e-01
9.103404879570007324e-01,9.102984666824340820e-01,9.102563858032226562e-01,9.102144241333007812e-01,9.101724624633789062e-01,9.101303815841674805e-01,9.100884199142456055e-01,9.100463390350341797e-01,9.100043773651123047e-01,9.099623560905456543e-01,9.099203944206237793e-01,9.098783731460571289e-01,9.098364114761352539e-01,9.097943902015686035e-01,9.097524285316467285e-01,9.097104072570800781e-01,9.096685051918029785e-01,9.096264839172363281e-01,9.095845222473144531e-01,9.095425009727478027e-01,9.095005989074707031e-01,9.094586968421936035e-01,9.094167351722717285e-01,9.093748331069946289e-01,9.093328118324279785e-01,9.092909097671508789e-01,9.092489480972290039e-01,9.092070460319519043e-01,9.091650843620300293e-01,9.091231822967529297e-01,9.090812206268310547e-01,9.090393781661987305e-01,9.089974164962768555e-01,9.089555144309997559e-01,9.089136123657226562e-01,9.088717103004455566e-01,9.088298082351684570e-01,9.087879657745361328e-01,9.087461233139038086e-01,9.087041616439819336e-01,9.086623191833496094e-01,9.086204171180725098e-01,9.085785746574401855e-01,9.085366725921630859e-01,9.084948301315307617e-01,9.084529280662536621e-01,9.084111452102661133e-01,9.083692431449890137e-01,9.083274006843566895e-01,9.082854986190795898e-01,9.082437157630920410e-01,9.082018136978149414e-01,9.081600308418273926e-01,9.081181883811950684e-01,9.080762863159179688e-01,9.080345034599304199e-01,9.079926609992980957e-01,9.079508781433105469e-01,9.079090356826782227e-01,9.078672528266906738e-01,9.078254103660583496e-01,9.077836275100708008e-01,9.077417850494384766e-01,9.077000617980957031e-01,9.076583385467529297e-01,9.076164960861206055e-01,9.075747728347778320e-01,9.075329303741455078e-01,9.074912071228027344e-01,9.074493646621704102e-01,9.074076414108276367e-01,9.073658585548400879e-01,9.073241353034973145e-01,9.072823524475097656e-01,9.072406291961669922e-01,9.071988463401794434e-01,9.071571230888366699e-01,9.071153402328491211e-01,9.070736765861511230e-01,9.070318937301635742e-01
8.635260462760925293e-01,8.634881973266601562e-01,8.634504079818725586e-01,8.634125590324401855e-01,8.633747696876525879e-01,8.633369207382202148e-01,8.632991313934326172e-01,8.632612824440002441e-01,8.632235527038574219e-01,8.631857037544250488e-01,8.631479740142822266e-01,8.631102442741394043e-01,8.630723953247070312e-01,8.630346655845642090e-01,8.629968166351318359e-01,8.629590868949890137e-01,8.629212975502014160e-01,8.628835678100585938e-01,8.628457784652709961e-01,8.628080487251281738e-01,8.627701997756958008e-01,8.627325296401977539e-01,8.626947402954101562e-01,8.626570105552673340e-01,8.626192212104797363e-01,8.625815510749816895e-01,8.625437617301940918e-01,8.625060319900512695e-01,8.624683618545532227e-01,8.624305725097656250e-01,8.623929023742675781e-01,8.623551726341247559e-01,8.623174428939819336e-01,8.622797131538391113e-01,8.622420430183410645e-01,8.622043132781982422e-01,8.621666431427001953e-01,8.621288537979125977e-01,8.620912432670593262e-01,8.620534539222717285e-01,8.620158433914184570e-01,8.619781136512756348e-01,8.619404435157775879e-01,8.619027137756347656e-01,8.618651032447814941e-01,8.618274927139282227e-01,8.617897629737854004e-01,8.617520928382873535e-01,8.617144227027893066e-01,8.616768121719360352e-01,8.616390824317932129e-01,8.616014719009399414e-01,8.615638017654418945e-01,8.615261912345886230e-01,8.614884614944458008e-01,8.614508509635925293e-01,8.614131808280944824e-01,8.613755106925964355e-01,8.613379001617431641e-01,8.613002300262451172e-01,8.612626791000366211e-01,8.612250089645385742e-01,8.611873984336853027e-01,8.611497879028320312e-01,8.611121773719787598e-01,8.610745072364807129e-01,8.610369563102722168e-01,8.609993457794189453e-01,8.609617948532104492e-01,8.609241247177124023e-01,8.608865737915039062e-01,8.608489632606506348e-01,8.608114123344421387e-01,8.607737421989440918e-01,8.607362508773803711e-01,8.606985807418823242e-01,8.606610894203186035e-01,8.606234788894653320e-01,8.605859279632568359e-01,8.605484366416931152e-01
8.212909102439880371e-01,8.212567567825317383e-01,8.212224841117858887e-01,8.211883306503295898e-01,8.211540579795837402e-01,8.211199045181274414e-01,8.210856914520263672e-01,8.210515379905700684e-01,8.210173249244689941e-01,8.209831714630126953e-01,8.209488987922668457e-01,8.209148049354553223e-01,8.208805322647094727e-01,8.208464384078979492e-01,8.208122253417968750e-01,8.207780718803405762e-01,8.207439780235290527e-01,8.207097649574279785e-01,8.206756114959716797e-01,8.206413984298706055e-01,8.206073045730590820e-01,8.205730915069580078e-01,8.205389976501464844e-01,8.205047845840454102e-01,8.204706907272338867e-01,8.204365372657775879e-01,8.204024434089660645e-01,8.203682303428649902e-01,8.203341364860534668e-01,8.202999830245971680e-01,8.202658891677856445e-01,8.202317357063293457e-01,8.201976418495178223e-01,8.201635479927062988e-01,8.201293945312500000e-01,8.200953006744384766e-01,8.200611472129821777e-01,8.200271129608154297e-01,8.199929594993591309e-01,8.199588656425476074e-01,8.199247121810913086e-01,8.198906779289245605e-01,8.198565244674682617e-01,8.198224902153015137e-01,8.197883367538452148e-01,8.197543025016784668e-01,8.197202086448669434e-01,8.196861743927001953e-01,8.196520209312438965e-01,8.196179866790771484e-01,8.195839524269104004e-01,8.195498585700988770e-01,8.195158243179321289e-01,8.194817304611206055e-01,8.194476962089538574e-01,8.194136023521423340e-01,8.193795680999755859e-01,8.193454742431640625e-01,8.193114399909973145e-01,8.192774057388305664e-01,8.192433118820190430e-01,8.192092776298522949e-01,8.191752433776855469e-01,8.191412091255187988e-01,8.191071748733520508e-01,8.190731406211853027e-01,8.190391063690185547e-01,8.190050721168518066e-01,8.189710378646850586e-01,8.189370632171630859e-01,8.189030289649963379e-01,8.188690543174743652e-01,8.188349604606628418e-01,8.188009858131408691e-01,8.187669515609741211e-01,8.187329769134521484e-01,8.186989426612854004e-01,8.186650276184082031e-01,8.186309337615966797e-01,8.185970187187194824e-01
