1.934123516082763672e+00,1.960849404335021973e+00,1.988324522972106934e+00,2.016580343246459961e+00,2.045650959014892578e+00,2.075571775436401367e+00,2.106381177902221680e+00,2.138118743896484375e+00,2.170827388763427734e+00,2.204552412033081055e+00,2.239341735839843750e+00,2.275246858596801758e+00,2.312321901321411133e+00,2.350625514984130859e+00,2.390219449996948242e+00,2.431169748306274414e+00,2.473547935485839844e+00,2.517429590225219727e+00,2.562896490097045898e+00,2.610035896301269531e+00,2.658941745758056641e+00,2.709715604782104492e+00,2.762466192245483398e+00,2.817311048507690430e+00,2.874377965927124023e+00,2.933807611465454102e+00,2.995757341384887695e+00,3.060379505157470703e+00,3.127851247787475586e+00,3.198365211486816406e+00,3.272131681442260742e+00,3.349381446838378906e+00,3.430366516113281250e+00,3.515365362167358398e+00,3.604683160781860352e+00,3.698657989501953125e+00,3.797664165496826172e+00,3.902116060256958008e+00,4.012476444244384766e+00,4.129261493682861328e+00,4.253047466278076172e+00,4.384485244750976562e+00,5.000000000000000000e+00,5.000000000000000000e+00,5.000000000000000000e+00,5.000000000000000000e+00,5.000000000000000000e+00,5.000000000000000000e+00,5.000000000000000000e+00,5.000000000000000000e+00,5.000000000000000000e+00,5.000000000000000000e+00,5.000000000000000000e+00,5.000000000000000000e+00,5.000000000000000000e+00,5.000000000000000000e+00,5.000000000000000000e+00,5.000000000000000000e+00,1.748895406723022461e+00,1.730307340621948242e+00,1.724288105964660645e+00,1.736517310142517090e+00,1.706545591354370117e+00,1.686551213264465332e+00,1.670102000236511230e+00,1.659472227096557617e+00,1.654781937599182129e+00,1.654039502143859863e+00,1.658325195312500000e+00,1.668471813201904297e+00,1.700151324272155762e+00,1.791208028793334961e+00,1.810275077819824219e+00,5.000000000000000000e+00,5.000000000000000000e+00,5.000000000000000000e+00,5.000000000000000000e+00,5.000000000000000000e+00,5.000000000000000000e+00,5.000000000000000000e+00
1.934095263481140137e+00,1.960820555686950684e+00,1.988294601440429688e+00,2.016549587249755859e+00,2.045619249343872070e+00,2.075539350509643555e+00,2.106347799301147461e+00,2.138084411621093750e+00,2.170791864395141602e+00,2.204515695571899414e+00,2.239304065704345703e+00,2.275207757949829102e+00,2.312281608581542969e+00,2.350583791732788086e+00,2.390176296234130859e+00,2.431125164031982422e+00,2.473501682281494141e+00,2.517381906509399414e+00,2.562846899032592773e+00,2.609984397888183594e+00,2.658888578414916992e+00,2.709660053253173828e+00,2.762408494949340820e+00,2.817251205444335938e+00,2.874315738677978516e+00,2.933739900588989258e+00,2.995674133300781250e+00,3.060292959213256836e+00,3.127760648727416992e+00,3.198270559310913086e+00,3.272032976150512695e+00,3.349277496337890625e+00,3.430257797241210938e+00,3.515251159667968750e+00,3.604562759399414062e+00,3.698531627655029297e+00,3.797530412673950195e+00,3.901975393295288086e+00,4.012327671051025391e+00,4.129103660583496094e+00,4.252880096435546875e+00,4.384307384490966797e+00,4.524116992950439453e+00,5.000000000000000000e+00,5.000000000000000000e+00,5.000000000000000000e+00,5.000000000000000000e+00,5.000000000000000000e+00,5.000000000000000000e+00,5.000000000000000000e+00,5.000000000000000000e+00,5.000000000000000000e+00,5.000000000000000000e+00,5.000000000000000000e+00,5.000000000000000000e+00,5.000000000000000000e+00,5.000000000000000000e+00,5.000000000000000000e+00,1.750317573547363281e+00,1.732022643089294434e+00,1.722777247428894043e+00,1.735254645347595215e+00,1.714857220649719238e+00,1.689960479736328125e+00,1.671284675598144531e+00,1.659476041793823242e+00,1.656892657279968262e+00,1.656738877296447754e+00,1.661114931106567383e+00,1.673074722290039062e+00,1.704776167869567871e+00,1.790362834930419922e+00,1.816402673721313477e+00,5.000000000000000000e+00,5.000000000000000000e+00,5.000000000000000000e+00,5.000000000000000000e+00,5.000000000000000000e+00,5.000000000000000000e+00,5.000000000000000000e+00
1.934068918228149414e+00,1.960791468620300293e+00,1.988264918327331543e+00,2.016518831253051758e+00,2.045587778091430664e+00,2.075506925582885742e+00,2.106314182281494141e+00,2.138049840927124023e+00,2.170756340026855469e+00,2.204479217529296875e+00,2.239266157150268555e+00,2.275168657302856445e+00,2.312241554260253906e+00,2.350542306900024414e+00,2.390133142471313477e+00,2.431080579757690430e+00,2.473455667495727539e+00,2.517333984375000000e+00,2.562797307968139648e+00,2.609933376312255859e+00,2.658835172653198242e+00,2.709604740142822266e+00,2.762351036071777344e+00,2.817191362380981445e+00,2.874253511428833008e+00,2.933675050735473633e+00,2.995604991912841797e+00,3.060206651687622070e+00,3.127670288085937500e+00,3.198176145553588867e+00,3.271933555603027344e+00,3.349173784255981445e+00,3.430149078369140625e+00,3.515136480331420898e+00,3.604442834854125977e+00,3.698405265808105469e+00,3.797397136688232422e+00,3.901834726333618164e+00,4.012178421020507812e+00,4.128945827484130859e+00,4.252713203430175781e+00,4.384129524230957031e+00,4.523927211761474609e+00,4.672934532165527344e+00,5.000000000000000000e+00,5.000000000000000000e+00,5.000000000000000000e+00,5.000000000000000000e+00,5.000000000000000000e+00,5.000000000000000000e+00,5.000000000000000000e+00,5.000000000000000000e+00,5.000000000000000000e+00,5.000000000000000000e+00,5.000000000000000000e+00,5.000000000000000000e+00,5.000000000000000000e+00,5.000000000000000000e+00,1.752974867820739746e+00,1.734562158584594727e+00,1.725846290588378906e+00,1.746540665626525879e+00,1.711584568023681641e+00,1.681416869163513184e+00,1.663232207298278809e+00,1.651129603385925293e+00,1.648814916610717773e+00,1.656647086143493652e+00,1.662305235862731934e+00,1.666051268577575684e+00,1.701411366462707520e+00,1.798992395401000977e+00,1.826142191886901855e+00,5.000000000000000000e+00,5.000000000000000000e+00,5.000000000000000000e+00,5.000000000000000000e+00,5.000000000000000000e+00,5.000000000000000000e+00,5.000000000000000000e+00
1.934068918228149414e+00,1.960780024528503418e+00,1.988239407539367676e+00,2.016488313674926758e+00,2.045556306838989258e+00,2.075474500656127930e+00,2.106280803680419922e+00,2.138015508651733398e+00,2.170720815658569336e+00,2.204442501068115234e+00,2.239228487014770508e+00,2.275129795074462891e+00,2.312201261520385742e+00,2.350500583648681641e+00,2.390090227127075195e+00,2.431036233901977539e+00,2.473409414291381836e+00,2.517286300659179688e+00,2.562747955322265625e+00,2.609881877899169922e+00,2.658782005310058594e+00,2.709549427032470703e+00,2.762293577194213867e+00,2.817131519317626953e+00,2.874191284179687500e+00,2.933609962463378906e+00,2.995537757873535156e+00,3.060136079788208008e+00,3.127582073211669922e+00,3.198081254959106445e+00,3.271834850311279297e+00,3.349070310592651367e+00,3.430040121078491211e+00,3.515022516250610352e+00,3.604322910308837891e+00,3.698278427124023438e+00,3.797263860702514648e+00,3.901693582534790039e+00,4.012029647827148438e+00,4.128787994384765625e+00,4.252545833587646484e+00,4.383951663970947266e+00,4.523738384246826172e+00,4.672732353210449219e+00,4.831874847412109375e+00,5.000000000000000000e+00,5.000000000000000000e+00,5.000000000000000000e+00,5.000000000000000000e+00,5.000000000000000000e+00,5.000000000000000000e+00,5.000000000000000000e+00,5.000000000000000000e+00,5.000000000000000000e+00,5.000000000000000000e+00,5.000000000000000000e+00,5.000000000000000000e+00,5.000000000000000000e+00,1.756561994552612305e+00,1.737179040908813477e+00,1.733485937118530273e+00,1.735926747322082520e+00,1.702556967735290527e+00,1.676657438278198242e+00,1.658085942268371582e+00,1.645130276679992676e+00,1.645258426666259766e+00,1.646888494491577148e+00,1.653727412223815918e+00,1.659871816635131836e+00,1.682946443557739258e+00,1.809410452842712402e+00,1.838188648223876953e+00,5.000000000000000000e+00,5.000000000000000000e+00,5.000000000000000000e+00,5.000000000000000000e+00,5.000000000000000000e+00,5.000000000000000000e+00,5.000000000000000000e+00
1.934068918228149414e+00,1.960780024528503418e+00,1.988239169120788574e+00,2.016478538513183594e+00,2.045531511306762695e+00,2.075442075729370117e+00,2.106247425079345703e+00,2.137980937957763672e+00,2.170685291290283203e+00,2.204405784606933594e+00,2.239190578460693359e+00,2.275090932846069336e+00,2.312160968780517578e+00,2.350458860397338867e+00,2.390047073364257812e+00,2.430991649627685547e+00,2.473363399505615234e+00,2.517238378524780273e+00,2.562698602676391602e+00,2.609830617904663086e+00,2.658728599548339844e+00,2.709494113922119141e+00,2.762235879898071289e+00,2.817071676254272461e+00,2.874128818511962891e+00,2.933545112609863281e+00,2.995470046997070312e+00,3.060065507888793945e+00,3.127508163452148438e+00,3.197990894317626953e+00,3.271735906600952148e+00,3.348966360092163086e+00,3.429931402206420898e+00,3.514908313751220703e+00,3.604202508926391602e+00,3.698152065277099609e+00,3.797130346298217773e+00,3.901552915573120117e+00,4.011880874633789062e+00,4.128630638122558594e+00,4.252378463745117188e+00,4.383774280548095703e+00,4.523549079895019531e+00,4.672530174255371094e+00,4.831658840179443359e+00,5.000000000000000000e+00,5.000000000000000000e+00,5.000000000000000000e+00,5.000000000000000000e+00,5.000000000000000000e+00,5.000000000000000000e+00,5.000000000000000000e+00,5.000000000000000000e+00,5.000000000000000000e+00,5.000000000000000000e+00,5.000000000000000000e+00,5.000000000000000000e+00,5.000000000000000000e+00,1.759912014007568359e+00,1.739803552627563477e+00,1.741193532943725586e+00,1.728899478912353516e+00,1.699496150016784668e+00,1.683788537979125977e+00,1.670461177825927734e+00,1.660021901130676270e+00,1.656052112579345703e+00,1.653080463409423828e+00,1.648464679718017578e+00,1.656190156936645508e+00,1.672255754470825195e+00,1.819949865341186523e+00,5.000000000000000000e+00,5.000000000000000000e+00,5.000000000000000000e+00,5.000000000000000000e+00,5.000000000000000000e+00,5.000000000000000000e+00,5.000000000000000000e+00,5.000000000000000000e+00
1.934062004089355469e+00,1.960780024528503418e+00,1.988239169120788574e+00,2.016478538513183594e+00,2.045531511306762695e+00,2.075433969497680664e+00,2.106223583221435547e+00,2.137946367263793945e+00,2.170649766921997070e+00,2.204369306564331055e+00,2.239152908325195312e+00,2.275051832199096680e+00,2.312120437622070312e+00,2.350417137145996094e+00,2.390003919601440430e+00,2.430947065353393555e+00,2.473317146301269531e+00,2.517190694808959961e+00,2.562649011611938477e+00,2.609779119491577148e+00,2.658675432205200195e+00,2.709438800811767578e+00,2.762178421020507812e+00,2.817011833190917969e+00,2.874066591262817383e+00,2.933480501174926758e+00,2.995402336120605469e+00,3.059994935989379883e+00,3.127434492111206055e+00,3.197913646697998047e+00,3.271642684936523438e+00,3.348862648010253906e+00,3.429822683334350586e+00,3.514793872833251953e+00,3.604082345962524414e+00,3.698025703430175781e+00,3.796997070312500000e+00,3.901412248611450195e+00,4.011732101440429688e+00,4.128472805023193359e+00,4.252211570739746094e+00,4.383596420288085938e+00,4.523359775543212891e+00,4.672328472137451172e+00,4.831443309783935547e+00,5.000000000000000000e+00,5.000000000000000000e+00,5.000000000000000000e+00,5.000000000000000000e+00,5.000000000000000000e+00,5.000000000000000000e+00,5.000000000000000000e+00,5.000000000000000000e+00,5.000000000000000000e+00,5.000000000000000000e+00,5.000000000000000000e+00,5.000000000000000000e+00,5.000000000000000000e+00,1.759642243385314941e+00,1.733506321907043457e+00,1.737863302230834961e+00,1.733685731887817383e+00,1.692907929420471191e+00,1.678396821022033691e+00,1.665517449378967285e+00,1.656789660453796387e+00,1.654893994331359863e+00,1.652489662170410156e+00,1.660505175590515137e+00,1.671216368675231934e+00,1.715980291366577148e+00,1.820201039314270020e+00,5.000000000000000000e+00,5.000000000000000000e+00,5.000000000000000000e+00,5.000000000000000000e+00,5.000000000000000000e+00,5.000000000000000000e+00,5.000000000000000000e+00,5.000000000000000000e+00
1.934033393859863281e+00,1.960757017135620117e+00,1.988229751586914062e+00,2.016478538513183594e+00,2.045531511306762695e+00,2.075433969497680664e+00,2.106223583221435547e+00,2.137940645217895508e+00,2.170627593994140625e+00,2.204332590103149414e+00,2.239115238189697266e+00,2.275012731552124023e+00,2.312080144882202148e+00,2.350375652313232422e+00,2.389961004257202148e+00,2.430902481079101562e+00,2.473271131515502930e+00,2.517143011093139648e+00,2.562599420547485352e+00,2.609727859497070312e+00,2.658622026443481445e+00,2.709383487701416016e+00,2.762120962142944336e+00,2.816951990127563477e+00,2.874004602432250977e+00,2.933415651321411133e+00,2.995334625244140625e+00,3.059924364089965820e+00,3.127360820770263672e+00,3.197836637496948242e+00,3.271562099456787109e+00,3.348767042160034180e+00,3.429713726043701172e+00,3.514679670333862305e+00,3.603962421417236328e+00,3.697898864746093750e+00,3.796863794326782227e+00,3.901271343231201172e+00,4.011583328247070312e+00,4.128315448760986328e+00,4.252044200897216797e+00,4.383418560028076172e+00,4.523170471191406250e+00,4.672126293182373047e+00,4.831227302551269531e+00,5.000000000000000000e+00,5.000000000000000000e+00,5.000000000000000000e+00,5.000000000000000000e+00,5.000000000000000000e+00,5.000000000000000000e+00,5.000000000000000000e+00,5.000000000000000000e+00,5.000000000000000000e+00,5.000000000000000000e+00,5.000000000000000000e+00,5.000000000000000000e+00,5.000000000000000000e+00,1.747128009796142578e+00,1.715361595153808594e+00,1.716717004776000977e+00,1.720553636550903320e+00,1.687565684318542480e+00,1.676300406455993652e+00,1.665184736251831055e+00,1.659651517868041992e+00,1.655457854270935059e+00,1.656195521354675293e+00,1.663784384727478027e+00,1.680449485778808594e+00,1.724505305290222168e+00,1.804519534111022949e+00,1.806038856506347656e+00,5.000000000000000000e+00,5.000000000000000000e+00,5.000000000000000000e+00,5.000000000000000000e+00,5.000000000000000000e+00,5.000000000000000000e+00,5.000000000000000000e+00
1.934004902839660645e+00,1.960727930068969727e+00,1.988199591636657715e+00,2.016452074050903320e+00,2.045519113540649414e+00,2.075433969497680664e+00,2.106223583221435547e+00,2.137940645217895508e+00,2.170627355575561523e+00,2.204329252243041992e+00,2.239094018936157227e+00,2.274973869323730469e+00,2.312039852142333984e+00,2.350333929061889648e+00,2.389917850494384766e+00,2.430857896804809570e+00,2.473225116729736328e+00,2.517095327377319336e+00,2.562550067901611328e+00,2.609676599502563477e+00,2.658568859100341797e+00,2.709327936172485352e+00,2.762063264846801758e+00,2.816892385482788086e+00,2.873942375183105469e+00,2.933350801467895508e+00,2.995267152786254883e+00,3.059853792190551758e+00,3.127286911010742188e+00,3.197759389877319336e+00,3.271481275558471680e+00,3.348682880401611328e+00,3.429615974426269531e+00,3.514565467834472656e+00,3.603842020034790039e+00,3.697772741317749023e+00,3.796730279922485352e+00,3.901130676269531250e+00,4.011434555053710938e+00,4.128157615661621094e+00,4.251876831054687500e+00,4.383241176605224609e+00,4.522981166839599609e+00,4.671924591064453125e+00,4.831011295318603516e+00,5.000000000000000000e+00,5.000000000000000000e+00,5.000000000000000000e+00,5.000000000000000000e+00,5.000000000000000000e+00,5.000000000000000000e+00,5.000000000000000000e+00,5.000000000000000000e+00,5.000000000000000000e+00,5.000000000000000000e+00,5.000000000000000000e+00,5.000000000000000000e+00,5.000000000000000000e+00,1.736360073089599609e+00,1.708578348159790039e+00,1.704153776168823242e+00,1.714186310768127441e+00,1.683153152465820312e+00,1.673029780387878418e+00,1.663697242736816406e+00,1.670320987701416016e+00,1.671375274658203125e+00,1.658158659934997559e+00,1.680385589599609375e+00,1.691436648368835449e+00,1.723517656326293945e+00,1.800198554992675781e+00,1.796587824821472168e+00,5.000000000000000000e+00,5.000000000000000000e+00,5.000000000000000000e+00,5.000000000000000000e+00,5.000000000000000000e+00,5.000000000000000000e+00,5.000000000000000000e+00
1.933976650238037109e+00,1.960698604583740234e+00,1.988169670104980469e+00,2.016421079635620117e+00,2.045487403869628906e+00,2.075403690338134766e+00,2.106208086013793945e+00,2.137940645217895508e+00,2.170627355575561523e+00,2.204329013824462891e+00,2.239094018936157227e+00,2.274972915649414062e+00,2.312020540237426758e+00,2.350294828414916992e+00,2.389874696731567383e+00,2.430813312530517578e+00,2.473179101943969727e+00,2.517047643661499023e+00,2.562500476837158203e+00,2.609625101089477539e+00,2.658515453338623047e+00,2.709272623062133789e+00,2.762005805969238281e+00,2.816832780838012695e+00,2.873880147933959961e+00,2.933285951614379883e+00,2.995199441909790039e+00,3.059783220291137695e+00,3.127213239669799805e+00,3.197682380676269531e+00,3.271400928497314453e+00,3.348598241806030273e+00,3.429527282714843750e+00,3.514464616775512695e+00,3.603722095489501953e+00,3.697646379470825195e+00,3.796597242355346680e+00,3.900990009307861328e+00,4.011285305023193359e+00,4.128000259399414062e+00,4.251709938049316406e+00,4.383063316345214844e+00,4.522791862487792969e+00,4.671722888946533203e+00,4.830795764923095703e+00,5.000000000000000000e+00,5.000000000000000000e+00,5.000000000000000000e+00,5.000000000000000000e+00,5.000000000000000000e+00,5.000000000000000000e+00,5.000000000000000000e+00,5.000000000000000000e+00,5.000000000000000000e+00,5.000000000000000000e+00,5.000000000000000000e+00,5.000000000000000000e+00,5.000000000000000000e+00,1.745319962501525879e+00,1.701848626136779785e+00,1.691174149513244629e+00,1.710870027542114258e+00,1.676970958709716797e+00,1.669459104537963867e+00,1.661362886428833008e+00,1.675135135650634766e+00,1.687910676002502441e+00,1.678575634956359863e+00,1.688970446586608887e+00,1.676017522811889648e+00,1.659725666046142578e+00,1.797687053680419922e+00,1.785836338996887207e+00,5.000000000000000000e+00,5.000000000000000000e+00,5.000000000000000000e+00,5.000000000000000000e+00,5.000000000000000000e+00,5.000000000000000000e+00,5.000000000000000000e+00
1.933948040008544922e+00,1.960669517517089844e+00,1.988139510154724121e+00,2.016390323638916016e+00,2.045455455780029297e+00,2.075370788574218750e+00,2.106174468994140625e+00,2.137906074523925781e+00,2.170608520507812500e+00,2.204326629638671875e+00,2.239094018936157227e+00,2.274972915649414062e+00,2.312020540237426758e+00,2.350294589996337891e+00,2.389857292175292969e+00,2.430774688720703125e+00,2.473132848739624023e+00,2.516999721527099609e+00,2.562450885772705078e+00,2.609573841094970703e+00,2.658462047576904297e+00,2.709217309951782227e+00,2.761948347091674805e+00,2.816772937774658203e+00,2.873817682266235352e+00,2.933221101760864258e+00,2.995131731033325195e+00,3.059712648391723633e+00,3.127139568328857422e+00,3.197605371475219727e+00,3.271320343017578125e+00,3.348513841629028320e+00,3.429438591003417969e+00,3.514371633529663086e+00,3.603618383407592773e+00,3.697519540786743164e+00,3.796463966369628906e+00,3.900849103927612305e+00,4.011137008666992188e+00,4.127842426300048828e+00,4.251542568206787109e+00,4.382885456085205078e+00,4.522603034973144531e+00,4.671520709991455078e+00,4.830579757690429688e+00,5.000000000000000000e+00,5.000000000000000000e+00,5.000000000000000000e+00,5.000000000000000000e+00,5.000000000000000000e+00,5.000000000000000000e+00,5.000000000000000000e+00,5.000000000000000000e+00,5.000000000000000000e+00,5.000000000000000000e+00,5.000000000000000000e+00,5.000000000000000000e+00,5.000000000000000000e+00,5.000000000000000000e+00,1.690837383270263672e+00,1.673676967620849609e+00,1.707390189170837402e+00,1.671239852905273438e+00,1.661065816879272461e+00,1.653860688209533691e+00,1.654856920242309570e+00,1.708464145660400391e+00,1.690702319145202637e+00,1.663151502609252930e+00,1.646334052085876465e+00,1.632461905479431152e+00,1.622908473014831543e+00,1.676570057868957520e+00,1.773842930793762207e+00,5.000000000000000000e+00,5.000000000000000000e+00,5.000000000000000000e+00,5.000000000000000000e+00,5.000000000000000000e+00,5.000000000000000000e+00
1.933919787406921387e+00,1.960640192031860352e+00,1.988109350204467773e+00,2.016359329223632812e+00,2.045423746109008789e+00,2.075338125228881836e+00,2.106140613555908203e+00,2.137871265411376953e+00,2.170572519302368164e+00,2.204289674758911133e+00,2.239071130752563477e+00,2.274967432022094727e+00,2.312020540237426758e+00,2.350294589996337891e+00,2.389857292175292969e+00,2.430774688720703125e+00,2.473117589950561523e+00,2.516961812973022461e+00,2.562401533126831055e+00,2.609522581100463867e+00,2.658408880233764648e+00,2.709161996841430664e+00,2.761891126632690430e+00,2.816713094711303711e+00,2.873755455017089844e+00,2.933156251907348633e+00,2.995064258575439453e+00,3.059642076492309570e+00,3.127065658569335938e+00,3.197528600692749023e+00,3.271239519119262695e+00,3.348429203033447266e+00,3.429349899291992188e+00,3.514278411865234375e+00,3.603520393371582031e+00,3.697412729263305664e+00,3.796330451965332031e+00,3.900708436965942383e+00,4.010987758636474609e+00,4.127684593200683594e+00,4.251375198364257812e+00,4.382708072662353516e+00,4.522413730621337891e+00,4.671319007873535156e+00,4.830363750457763672e+00,5.000000000000000000e+00,5.000000000000000000e+00,5.000000000000000000e+00,5.000000000000000000e+00,5.000000000000000000e+00,5.000000000000000000e+00,5.000000000000000000e+00,5.000000000000000000e+00,5.000000000000000000e+00,5.000000000000000000e+00,5.000000000000000000e+00,5.000000000000000000e+00,5.000000000000000000e+00,5.000000000000000000e+00,1.682182788848876953e+00,1.659829020500183105e+00,1.703557252883911133e+00,1.668300747871398926e+00,1.655742287635803223e+00,1.647725701332092285e+00,1.639786481857299805e+00,1.675041556358337402e+00,1.685374259948730469e+00,1.654310584068298340e+00,1.630657434463500977e+00,1.621136069297790527e+00,1.611980319023132324e+00,1.619707107543945312e+00,1.758887052536010742e+00,5.000000000000000000e+00,5.000000000000000000e+00,5.000000000000000000e+00,5.000000000000000000e+00,5.000000000000000000e+00,5.000000000000000000e+00
1.933891177177429199e+00,1.960611104965209961e+00,1.988079428672790527e+00,2.016328334808349609e+00,2.045392036437988281e+00,2.075305461883544922e+00,2.106106996536254883e+00,2.137836456298828125e+00,2.170536756515502930e+00,2.204252719879150391e+00,2.239032983779907227e+00,2.274928092956542969e+00,2.311993122100830078e+00,2.350285768508911133e+00,2.389857292175292969e+00,2.430774688720703125e+00,2.473117589950561523e+00,2.516961812973022461e+00,2.562388658523559570e+00,2.609485626220703125e+00,2.658355474472045898e+00,2.709106683731079102e+00,2.761833429336547852e+00,2.816653251647949219e+00,2.873693227767944336e+00,2.933091402053833008e+00,2.994996547698974609e+00,3.059571504592895508e+00,3.126991987228393555e+00,3.197451353073120117e+00,3.271158933639526367e+00,3.348344564437866211e+00,3.429261207580566406e+00,3.514185190200805664e+00,3.603422403335571289e+00,3.697309732437133789e+00,3.796220779418945312e+00,3.900569200515747070e+00,4.010838985443115234e+00,4.127527236938476562e+00,4.251208305358886719e+00,4.382530212402343750e+00,4.522224426269531250e+00,4.671117305755615234e+00,4.830148220062255859e+00,5.000000000000000000e+00,5.000000000000000000e+00,5.000000000000000000e+00,5.000000000000000000e+00,5.000000000000000000e+00,5.000000000000000000e+00,5.000000000000000000e+00,5.000000000000000000e+00,5.000000000000000000e+00,5.000000000000000000e+00,5.000000000000000000e+00,5.000000000000000000e+00,5.000000000000000000e+00,5.000000000000000000e+00,1.681607127189636230e+00,1.665751695632934570e+00,1.704084396362304688e+00,1.663663625717163086e+00,1.655328989028930664e+00,1.647077322006225586e+00,1.638999581336975098e+00,1.658462762832641602e+00,1.681977748870849609e+00,1.654012918472290039e+00,1.626735091209411621e+00,1.612760066986083984e+00,1.604454278945922852e+00,1.596233248710632324e+00,1.660228490829467773e+00,5.000000000000000000e+00,5.000000000000000000e+00,5.000000000000000000e+00,5.000000000000000000e+00,5.000000000000000000e+00,5.000000000000000000e+00
1.933862924575805664e+00,1.960581779479980469e+00,1.988049268722534180e+00,2.016297578811645508e+00,2.045360088348388672e+00,2.075272560119628906e+00,2.106073141098022461e+00,2.137801647186279297e+00,2.170500755310058594e+00,2.204215764999389648e+00,2.238994836807250977e+00,2.274888753890991211e+00,2.311952590942382812e+00,2.350243806838989258e+00,2.389824867248535156e+00,2.430762052536010742e+00,2.473117589950561523e+00,2.516961812973022461e+00,2.562388658523559570e+00,2.609485626220703125e+00,2.658346176147460938e+00,2.709071159362792969e+00,2.761775970458984375e+00,2.816593408584594727e+00,2.873631000518798828e+00,2.933026552200317383e+00,2.994928836822509766e+00,3.059500932693481445e+00,3.126918554306030273e+00,3.197374343872070312e+00,3.271078109741210938e+00,3.348260164260864258e+00,3.429172515869140625e+00,3.514092206954956055e+00,3.603324651718139648e+00,3.697207212448120117e+00,3.796112298965454102e+00,3.900454521179199219e+00,4.010694503784179688e+00,4.127369880676269531e+00,4.251040935516357422e+00,4.382352828979492188e+00,4.522035598754882812e+00,4.670915603637695312e+00,4.829932689666748047e+00,5.000000000000000000e+00,5.000000000000000000e+00,5.000000000000000000e+00,5.000000000000000000e+00,5.000000000000000000e+00,5.000000000000000000e+00,5.000000000000000000e+00,5.000000000000000000e+00,5.000000000000000000e+00,5.000000000000000000e+00,5.000000000000000000e+00,5.000000000000000000e+00,5.000000000000000000e+00,5.000000000000000000e+00,1.671320676803588867e+00,1.643947839736938477e+00,1.638083815574645996e+00,1.665107607841491699e+00,1.655860900878906250e+00,1.647587537765502930e+00,1.639396429061889648e+00,1.654915809631347656e+00,1.684027314186096191e+00,1.653698444366455078e+00,1.625865459442138672e+00,1.603276371955871582e+00,1.596742868423461914e+00,1.588853120803833008e+00,1.612923264503479004e+00,5.000000000000000000e+00,5.000000000000000000e+00,5.000000000000000000e+00,5.000000000000000000e+00,5.000000000000000000e+00,5.000000000000000000e+00
1.933834433555603027e+00,1.960552453994750977e+00,1.988019347190856934e+00,2.016266584396362305e+00,2.045328378677368164e+00,2.075239896774291992e+00,2.106039524078369141e+00,2.137767076492309570e+00,2.170464992523193359e+00,2.204179048538208008e+00,2.238956689834594727e+00,2.274849414825439453e+00,2.311911821365356445e+00,2.350201845169067383e+00,2.389781475067138672e+00,2.430717229843139648e+00,2.473079442977905273e+00,2.516944885253906250e+00,2.562388658523559570e+00,2.609485626220703125e+00,2.658345937728881836e+00,2.709071159362792969e+00,2.761769771575927734e+00,2.816559314727783203e+00,2.873568773269653320e+00,2.932961463928222656e+00,2.994861364364624023e+00,3.059430122375488281e+00,3.126844882965087891e+00,3.197297334671020508e+00,3.270997524261474609e+00,3.348175525665283203e+00,3.429083824157714844e+00,3.513998985290527344e+00,3.603226661682128906e+00,3.697103977203369141e+00,3.796003580093383789e+00,3.900339841842651367e+00,4.010573387145996094e+00,4.127219676971435547e+00,4.250874042510986328e+00,4.382175445556640625e+00,4.521846294403076172e+00,4.670713424682617188e+00,4.829716682434082031e+00,4.999927043914794922e+00,5.000000000000000000e+00,5.000000000000000000e+00,5.000000000000000000e+00,5.000000000000000000e+00,5.000000000000000000e+00,5.000000000000000000e+00,5.000000000000000000e+00,5.000000000000000000e+00,5.000000000000000000e+00,5.000000000000000000e+00,5.000000000000000000e+00,5.000000000000000000e+00,5.000000000000000000e+00,1.661053299903869629e+00,1.626509785652160645e+00,1.632964968681335449e+00,1.618512272834777832e+00,1.657508969306945801e+00,1.649044036865234375e+00,1.640838503837585449e+00,1.655870556831359863e+00,1.691777586936950684e+00,1.652799606323242188e+00,1.624957680702209473e+00,1.597769737243652344e+00,1.586718082427978516e+00,1.580318450927734375e+00,1.573552608489990234e+00,1.725650310516357422e+00,5.000000000000000000e+00,5.000000000000000000e+00,5.000000000000000000e+00,5.000000000000000000e+00,5.000000000000000000e+00
1.933806061744689941e+00,1.960523366928100586e+00,1.987989187240600586e+00,2.016235828399658203e+00,2.045296430587768555e+00,2.075207233428955078e+00,2.106005907058715820e+00,2.137732267379760742e+00,2.170429229736328125e+00,2.204142093658447266e+00,2.238918542861938477e+00,2.274810075759887695e+00,2.311871290206909180e+00,2.350159883499145508e+00,2.389738082885742188e+00,2.430672168731689453e+00,2.473033189773559570e+00,2.516896724700927734e+00,2.562344551086425781e+00,2.609463691711425781e+00,2.658345937728881836e+00,2.709070920944213867e+00,2.761769771575927734e+00,2.816559314727783203e+00,2.873566627502441406e+00,2.932929754257202148e+00,2.994796752929687500e+00,3.059360027313232422e+00,3.126771211624145508e+00,3.197220087051391602e+00,3.270916700363159180e+00,3.348091125488281250e+00,3.428995132446289062e+00,3.513906002044677734e+00,3.603129148483276367e+00,3.697000980377197266e+00,3.795894861221313477e+00,3.900225162506103516e+00,4.010452270507812500e+00,4.127091407775878906e+00,4.250718116760253906e+00,4.381997585296630859e+00,4.521656990051269531e+00,4.670512199401855469e+00,4.829501152038574219e+00,4.999695777893066406e+00,5.000000000000000000e+00,5.000000000000000000e+00,5.000000000000000000e+00,5.000000000000000000e+00,5.000000000000000000e+00,5.000000000000000000e+00,5.000000000000000000e+00,5.000000000000000000e+00,5.000000000000000000e+00,5.000000000000000000e+00,5.000000000000000000e+00,5.000000000000000000e+00,5.000000000000000000e+00,1.653481483459472656e+00,1.629105567932128906e+00,1.604206562042236328e+00,1.606788396835327148e+00,1.659948587417602539e+00,1.650502920150756836e+00,1.642282962799072266e+00,1.656826257705688477e+00,1.697053432464599609e+00,1.651901960372924805e+00,1.624041080474853516e+00,1.596883535385131836e+00,1.576976180076599121e+00,1.571199297904968262e+00,1.565464615821838379e+00,1.719904422760009766e+00,5.000000000000000000e+00,5.000000000000000000e+00,5.000000000000000000e+00,5.000000000000000000e+00,5.000000000000000000e+00
1.933777570724487305e+00,1.960494041442871094e+00,1.987959265708923340e+00,2.016204833984375000e+00,2.045264720916748047e+00,2.075174570083618164e+00,2.105972051620483398e+00,2.137697458267211914e+00,2.170393466949462891e+00,2.204104900360107422e+00,2.238880395889282227e+00,2.274770736694335938e+00,2.311830520629882812e+00,2.350117683410644531e+00,2.389694690704345703e+00,2.430627346038818359e+00,2.472986698150634766e+00,2.516848564147949219e+00,2.562294721603393555e+00,2.609411954879760742e+00,2.658294439315795898e+00,2.709043741226196289e+00,2.761768102645874023e+00,2.816559314727783203e+00,2.873566627502441406e+00,2.932929515838623047e+00,2.994796752929687500e+00,3.059330463409423828e+00,3.126706123352050781e+00,3.197143077850341797e+00,3.270836114883422852e+00,3.348006486892700195e+00,3.428906440734863281e+00,3.513812780380249023e+00,3.603031396865844727e+00,3.696897983551025391e+00,3.795786380767822266e+00,3.900110483169555664e+00,4.010331153869628906e+00,4.126962661743164062e+00,4.250581741333007812e+00,4.381835460662841797e+00,4.521468162536621094e+00,4.670310020446777344e+00,4.829285144805908203e+00,4.999464511871337891e+00,5.000000000000000000e+00,5.000000000000000000e+00,5.000000000000000000e+00,5.000000000000000000e+00,5.000000000000000000e+00,5.000000000000000000e+00,5.000000000000000000e+00,5.000000000000000000e+00,5.000000000000000000e+00,5.000000000000000000e+00,5.000000000000000000e+00,5.000000000000000000e+00,5.000000000000000000e+00,1.647966504096984863e+00,1.616225838661193848e+00,1.586497187614440918e+00,1.691116213798522949e+00,1.662395477294921875e+00,1.652888417243957520e+00,1.643730044364929199e+00,1.656222820281982422e+00,1.704772591590881348e+00,1.656210780143737793e+00,1.623125553131103516e+00,1.594949364662170410e+00,1.569922447204589844e+00,1.563209295272827148e+00,1.557532668113708496e+00,1.559261441230773926e+00,1.700040102005004883e+00,5.000000000000000000e+00,5.000000000000000000e+00,5.000000000000000000e+00,5.000000000000000000e+00
1.933748960494995117e+00,1.960464954376220703e+00,1.987929224967956543e+00,2.016173839569091797e+00,2.045232772827148438e+00,2.075141668319702148e+00,2.105938196182250977e+00,2.137662887573242188e+00,2.170357704162597656e+00,2.204067945480346680e+00,2.238842248916625977e+00,2.274731397628784180e+00,2.311789751052856445e+00,2.350075721740722656e+00,2.389651298522949219e+00,2.430582284927368164e+00,2.472940206527709961e+00,2.516800403594970703e+00,2.562244415283203125e+00,2.609360218048095703e+00,2.658240795135498047e+00,2.708987712860107422e+00,2.761710166931152344e+00,2.816525220870971680e+00,2.873560428619384766e+00,2.932929515838623047e+00,2.994796514511108398e+00,3.059330463409423828e+00,3.126706123352050781e+00,3.197116613388061523e+00,3.270771503448486328e+00,3.347922086715698242e+00,3.428817987442016602e+00,3.513720035552978516e+00,3.602933406829833984e+00,3.696794748306274414e+00,3.795677661895751953e+00,3.899995803833007812e+00,4.010209560394287109e+00,4.126834392547607422e+00,4.250445842742919922e+00,4.381690502166748047e+00,4.521298885345458984e+00,4.670108318328857422e+00,4.829069614410400391e+00,4.999233722686767578e+00,5.000000000000000000e+00,5.000000000000000000e+00,5.000000000000000000e+00,5.000000000000000000e+00,5.000000000000000000e+00,5.000000000000000000e+00,5.000000000000000000e+00,5.000000000000000000e+00,5.000000000000000000e+00,5.000000000000000000e+00,5.000000000000000000e+00,5.000000000000000000e+00,5.000000000000000000e+00,1.641129136085510254e+00,1.603695154190063477e+00,1.749728202819824219e+00,1.699967145919799805e+00,1.664642810821533203e+00,1.655033707618713379e+00,1.645534753799438477e+00,1.654839992523193359e+00,5.000000000000000000e+00,1.665272951126098633e+00,1.620460271835327148e+00,1.592087388038635254e+00,1.567661046981811523e+00,1.551492214202880859e+00,1.549314498901367188e+00,1.544101715087890625e+00,1.718756675720214844e+00,5.000000000000000000e+00,5.000000000000000000e+00,5.000000000000000000e+00,5.000000000000000000e+00
1.933720707893371582e+00,1.960435628890991211e+00,1.987899303436279297e+00,2.016142845153808594e+00,2.045201063156127930e+00,2.075109004974365234e+00,2.105904579162597656e+00,2.137628078460693359e+00,2.170321941375732422e+00,2.204031229019165039e+00,2.238804340362548828e+00,2.274692296981811523e+00,2.311749219894409180e+00,2.350033760070800781e+00,2.389607906341552734e+00,2.430537462234497070e+00,2.472893714904785156e+00,2.516752243041992188e+00,2.562194585800170898e+00,2.609308481216430664e+00,2.658187150955200195e+00,2.708931922912597656e+00,2.761652231216430664e+00,2.816464900970458984e+00,2.873497486114501953e+00,2.932888031005859375e+00,2.994785070419311523e+00,3.059329986572265625e+00,3.126706123352050781e+00,3.197116613388061523e+00,3.270771026611328125e+00,3.347899675369262695e+00,3.428753376007080078e+00,3.513627052307128906e+00,3.602835655212402344e+00,3.696691751480102539e+00,3.795568943023681641e+00,3.899881124496459961e+00,4.010088443756103516e+00,4.126706123352050781e+00,4.250309467315673828e+00,4.381546020507812500e+00,4.521144866943359375e+00,4.669931888580322266e+00,4.828854084014892578e+00,4.999002456665039062e+00,5.000000000000000000e+00,5.000000000000000000e+00,5.000000000000000000e+00,5.000000000000000000e+00,5.000000000000000000e+00,5.000000000000000000e+00,5.000000000000000000e+00,5.000000000000000000e+00,5.000000000000000000e+00,5.000000000000000000e+00,5.000000000000000000e+00,5.000000000000000000e+00,5.000000000000000000e+00,5.000000000000000000e+00,5.000000000000000000e+00,1.763472914695739746e+00,1.709675192832946777e+00,1.669665217399597168e+00,1.654569387435913086e+00,1.645075917243957520e+00,1.653771758079528809e+00,5.000000000000000000e+00,1.674509167671203613e+00,1.624526143074035645e+00,1.589235544204711914e+00,1.565406084060668945e+00,1.544969797134399414e+00,1.537441611289978027e+00,1.535302996635437012e+00,5.000000000000000000e+00,5.000000000000000000e+00,5.000000000000000000e+00,5.000000000000000000e+00,5.000000000000000000e+00
1.933692216873168945e+00,1.960406541824340820e+00,1.987869143486022949e+00,2.016112089157104492e+00,2.045169353485107422e+00,2.075076103210449219e+00,2.105870962142944336e+00,2.137593269348144531e+00,2.170285940170288086e+00,2.203994274139404297e+00,2.238766193389892578e+00,2.274652719497680664e+00,2.311708688735961914e+00,2.349991798400878906e+00,2.389564514160156250e+00,2.430492639541625977e+00,2.472847223281860352e+00,2.516704082489013672e+00,2.562144756317138672e+00,2.609256744384765625e+00,2.658133506774902344e+00,2.708876132965087891e+00,2.761594057083129883e+00,2.816404819488525391e+00,2.873434782028198242e+00,2.932822704315185547e+00,2.994716882705688477e+00,3.059279918670654297e+00,3.126688003540039062e+00,3.197116613388061523e+00,3.270771026611328125e+00,3.347899436950683594e+00,3.428753376007080078e+00,3.513608932495117188e+00,3.602771282196044922e+00,3.696588754653930664e+00,3.795460462570190430e+00,3.899766445159912109e+00,4.009967327117919922e+00,4.126577854156494141e+00,4.250173568725585938e+00,4.381401062011718750e+00,4.520990848541259766e+00,4.669767379760742188e+00,4.828669071197509766e+00,4.998771190643310547e+00,5.000000000000000000e+00,5.000000000000000000e+00,5.000000000000000000e+00,5.000000000000000000e+00,5.000000000000000000e+00,5.000000000000000000e+00,5.000000000000000000e+00,5.000000000000000000e+00,5.000000000000000000e+00,5.000000000000000000e+00,5.000000000000000000e+00,5.000000000000000000e+00,5.000000000000000000e+00,5.000000000000000000e+00,5.000000000000000000e+00,5.000000000000000000e+00,1.720913529396057129e+00,1.679425120353698730e+00,1.654991269111633301e+00,1.644617080688476562e+00,1.652705192565917969e+00,5.000000000000000000e+00,5.000000000000000000e+00,1.637279152870178223e+00,1.586393952369689941e+00,1.563157439231872559e+00,1.542779445648193359e+00,1.525749325752258301e+00,1.524824023246765137e+00,1.523941755294799805e+00,5.000000000000000000e+00,5.000000000000000000e+00,5.000000000000000000e+00,5.000000000000000000e+00
1.933663845062255859e+00,1.960377216339111328e+00,1.987838983535766602e+00,2.016081094741821289e+00,2.045137643814086914e+00,2.075043439865112305e+00,2.105837106704711914e+00,2.137558698654174805e+00,2.170250177383422852e+00,2.203957319259643555e+00,2.238728046417236328e+00,2.274613380432128906e+00,2.311667919158935547e+00,2.349949836730957031e+00,2.389520883560180664e+00,2.430447578430175781e+00,2.472800731658935547e+00,2.516655921936035156e+00,2.562094926834106445e+00,2.609205007553100586e+00,2.658079624176025391e+00,2.708820343017578125e+00,2.761536121368408203e+00,2.816344261169433594e+00,2.873372077941894531e+00,2.932757377624511719e+00,2.994648456573486328e+00,3.059208869934082031e+00,3.126613855361938477e+00,3.197056055068969727e+00,3.270745515823364258e+00,3.347899436950683594e+00,3.428753137588500977e+00,3.513608932495117188e+00,3.602771282196044922e+00,3.696576595306396484e+00,3.795397281646728516e+00,3.899651765823364258e+00,4.009845733642578125e+00,4.126449584960937500e+00,4.250037193298339844e+00,4.381256103515625000e+00,4.520836830139160156e+00,4.669602870941162109e+00,4.828493595123291016e+00,4.998577594757080078e+00,5.000000000000000000e+00,5.000000000000000000e+00,5.000000000000000000e+00,5.000000000000000000e+00,5.000000000000000000e+00,5.000000000000000000e+00,5.000000000000000000e+00,5.000000000000000000e+00,5.000000000000000000e+00,5.000000000000000000e+00,5.000000000000000000e+00,5.000000000000000000e+00,5.000000000000000000e+00,5.000000000000000000e+00,5.000000000000000000e+00,5.000000000000000000e+00,1.736169219017028809e+00,1.689299941062927246e+00,1.658580303192138672e+00,1.644158720970153809e+00,1.651275277137756348e+00,5.000000000000000000e+00,5.000000000000000000e+00,5.000000000000000000e+00,1.602371692657470703e+00,1.560872316360473633e+00,1.541527390480041504e+00,1.523501515388488770e+00,1.522364854812622070e+00,1.521909356117248535e+00,5.000000000000000000e+00,5.000000000000000000e+00,5.000000000000000000e+00,5.000000000000000000e+00
1.933635354042053223e+00,1.960348129272460938e+00,1.987809062004089355e+00,2.016050338745117188e+00,2.045105695724487305e+00,2.075010776519775391e+00,2.105803489685058594e+00,2.137523889541625977e+00,2.170214414596557617e+00,2.203920364379882812e+00,2.238689899444580078e+00,2.274574041366577148e+00,2.311627388000488281e+00,2.349907875061035156e+00,2.389477491378784180e+00,2.430402755737304688e+00,2.472754240036010742e+00,2.516607761383056641e+00,2.562044858932495117e+00,2.609153270721435547e+00,2.658025741577148438e+00,2.708764791488647461e+00,2.761478185653686523e+00,2.816283941268920898e+00,2.873309373855590820e+00,2.932691812515258789e+00,2.994580268859863281e+00,3.059137582778930664e+00,3.126539468765258789e+00,3.196978330612182617e+00,3.270664215087890625e+00,3.347827196121215820e+00,3.428718805313110352e+00,3.513608694076538086e+00,3.602771282196044922e+00,3.696576595306396484e+00,3.795397281646728516e+00,3.899646759033203125e+00,4.009784698486328125e+00,4.126325607299804688e+00,4.249900817871093750e+00,4.381111621856689453e+00,4.520682811737060547e+00,4.669438838958740234e+00,4.828317642211914062e+00,4.998389720916748047e+00,5.000000000000000000e+00,5.000000000000000000e+00,5.000000000000000000e+00,5.000000000000000000e+00,5.000000000000000000e+00,5.000000000000000000e+00,5.000000000000000000e+00,5.000000000000000000e+00,5.000000000000000000e+00,5.000000000000000000e+00,5.000000000000000000e+00,5.000000000000000000e+00,5.000000000000000000e+00,5.000000000000000000e+00,5.000000000000000000e+00,5.000000000000000000e+00,1.746894717216491699e+00,1.699291586875915527e+00,1.662185072898864746e+00,1.646205782890319824e+00,1.647506237030029297e+00,5.000000000000000000e+00,5.000000000000000000e+00,5.000000000000000000e+00,1.625397086143493652e+00,1.563484907150268555e+00,1.544789314270019531e+00,1.525613546371459961e+00,1.523643851280212402e+00,1.524040460586547852e+00,5.000000000000000000e+00,5.000000000000000000e+00,5.000000000000000000e+00,5.000000000000000000e+00
1.933607101440429688e+00,1.960318803787231445e+00,1.987778902053833008e+00,2.016019344329833984e+00,2.045073747634887695e+00,2.074977874755859375e+00,2.105769872665405273e+00,2.137489080429077148e+00,2.170178651809692383e+00,2.203883409500122070e+00,2.238651752471923828e+00,2.274534702301025391e+00,2.311586856842041016e+00,2.349865913391113281e+00,2.389434099197387695e+00,2.430357933044433594e+00,2.472707748413085938e+00,2.516559600830078125e+00,2.561995029449462891e+00,2.609101533889770508e+00,2.657972097396850586e+00,2.708709001541137695e+00,2.761420249938964844e+00,2.816223621368408203e+00,2.873246669769287109e+00,2.932626485824584961e+00,2.994512319564819336e+00,3.059066534042358398e+00,3.126465320587158203e+00,3.196900606155395508e+00,3.270582914352416992e+00,3.347742080688476562e+00,3.428629398345947266e+00,3.513522624969482422e+00,3.602726459503173828e+00,3.696576118469238281e+00,3.795397281646728516e+00,3.899646759033203125e+00,4.009784698486328125e+00,4.126325130462646484e+00,4.249842643737792969e+00,4.380982398986816406e+00,4.520528793334960938e+00,4.669274330139160156e+00,4.828141689300537109e+00,4.998201370239257812e+00,5.000000000000000000e+00,5.000000000000000000e+00,5.000000000000000000e+00,5.000000000000000000e+00,5.000000000000000000e+00,5.000000000000000000e+00,5.000000000000000000e+00,5.000000000000000000e+00,5.000000000000000000e+00,5.000000000000000000e+00,5.000000000000000000e+00,5.000000000000000000e+00,5.000000000000000000e+00,5.000000000000000000e+00,5.000000000000000000e+00,5.000000000000000000e+00,1.757185935974121094e+00,1.709525585174560547e+00,1.667618393898010254e+00,1.648751258850097656e+00,1.648903131484985352e+00,5.000000000000000000e+00,5.000000000000000000e+00,5.000000000000000000e+00,1.605447173118591309e+00,1.573207378387451172e+00,1.551180839538574219e+00,1.533269762992858887e+00,1.532626748085021973e+00,1.532094717025756836e+00,5.000000000000000000e+00,5.000000000000000000e+00,5.000000000000000000e+00,5.000000000000000000e+00
1.933578491210937500e+00,1.960289478302001953e+00,1.987748980522155762e+00,2.015988588333129883e+00,2.045042037963867188e+00,2.074945211410522461e+00,2.105736017227172852e+00,2.137454271316528320e+00,2.170142650604248047e+00,2.203846454620361328e+00,2.238613605499267578e+00,2.274495363235473633e+00,2.311546087265014648e+00,2.349823951721191406e+00,2.389390707015991211e+00,2.430312871932983398e+00,2.472661256790161133e+00,2.516511440277099609e+00,2.561945199966430664e+00,2.609049558639526367e+00,2.657918453216552734e+00,2.708653211593627930e+00,2.761362075805664062e+00,2.816163301467895508e+00,2.873183965682983398e+00,2.932560920715332031e+00,2.994444131851196289e+00,3.058995485305786133e+00,3.126390695571899414e+00,3.196822881698608398e+00,3.270501613616943359e+00,3.347656488418579102e+00,3.428539991378784180e+00,3.513428688049316406e+00,3.602627515792846680e+00,3.696473598480224609e+00,3.795339822769165039e+00,3.899639844894409180e+00,4.009784698486328125e+00,4.126324653625488281e+00,4.249842166900634766e+00,4.380982398986816406e+00,4.520473957061767578e+00,4.669139862060546875e+00,4.827966690063476562e+00,4.998013019561767578e+00,5.000000000000000000e+00,5.000000000000000000e+00,5.000000000000000000e+00,5.000000000000000000e+00,5.000000000000000000e+00,5.000000000000000000e+00,5.000000000000000000e+00,5.000000000000000000e+00,5.000000000000000000e+00,5.000000000000000000e+00,5.000000000000000000e+00,5.000000000000000000e+00,5.000000000000000000e+00,5.000000000000000000e+00,5.000000000000000000e+00,5.000000000000000000e+00,1.766458392143249512e+00,1.717516779899597168e+00,1.676709413528442383e+00,1.655689835548400879e+00,1.658624887466430664e+00,5.000000000000000000e+00,5.000000000000000000e+00,1.663599133491516113e+00,1.612043857574462891e+00,1.588873624801635742e+00,1.564021110534667969e+00,1.555674910545349121e+00,1.554208517074584961e+00,5.000000000000000000e+00,5.000000000000000000e+00,5.000000000000000000e+00,5.000000000000000000e+00,5.000000000000000000e+00
1.933550238609313965e+00,1.960260391235351562e+00,1.987718820571899414e+00,2.015957593917846680e+00,2.045010328292846680e+00,2.074912548065185547e+00,2.105702400207519531e+00,2.137419462203979492e+00,2.170106887817382812e+00,2.203809738159179688e+00,2.238575696945190430e+00,2.274456024169921875e+00,2.311505556106567383e+00,2.349781990051269531e+00,2.389347314834594727e+00,2.430268049240112305e+00,2.472614765167236328e+00,2.516463279724121094e+00,2.561895370483398438e+00,2.608997821807861328e+00,2.657864809036254883e+00,2.708597421646118164e+00,2.761304140090942383e+00,2.816103219985961914e+00,2.873121261596679688e+00,2.932495594024658203e+00,2.994375944137573242e+00,3.058924198150634766e+00,3.126316308975219727e+00,3.196745395660400391e+00,3.270420551300048828e+00,3.347571372985839844e+00,3.428450822830200195e+00,3.513334989547729492e+00,3.602528810501098633e+00,3.696369647979736328e+00,3.795230388641357422e+00,3.899523973464965820e+00,4.009711742401123047e+00,4.126307964324951172e+00,4.249842166900634766e+00,4.380982398986816406e+00,4.520473957061767578e+00,4.669139862060546875e+00,4.827917098999023438e+00,4.997873306274414062e+00,5.000000000000000000e+00,5.000000000000000000e+00,5.000000000000000000e+00,5.000000000000000000e+00,5.000000000000000000e+00,5.000000000000000000e+00,5.000000000000000000e+00,5.000000000000000000e+00,5.000000000000000000e+00,5.000000000000000000e+00,5.000000000000000000e+00,5.000000000000000000e+00,5.000000000000000000e+00,5.000000000000000000e+00,5.000000000000000000e+00,5.000000000000000000e+00,1.764087677001953125e+00,1.717784285545349121e+00,1.690629243850708008e+00,1.667958378791809082e+00,1.682319998741149902e+00,5.000000000000000000e+00,1.716496109962463379e+00,1.652846217155456543e+00,1.624683260917663574e+00,1.597960472106933594e+00,1.585838675498962402e+00,1.578834056854248047e+00,5.000000000000000000e+00,5.000000000000000000e+00,5.000000000000000000e+00,5.000000000000000000e+00,5.000000000000000000e+00,5.000000000000000000e+00
1.933521747589111328e+00,1.960231065750122070e+00,1.987688899040222168e+00,2.015926599502563477e+00,2.044978380203247070e+00,2.074879884719848633e+00,2.105668544769287109e+00,2.137384891510009766e+00,2.170071125030517578e+00,2.203772544860839844e+00,2.238537549972534180e+00,2.274416923522949219e+00,2.311464786529541016e+00,2.349740028381347656e+00,2.389303922653198242e+00,2.430222988128662109e+00,2.472568273544311523e+00,2.516415119171142578e+00,2.561845541000366211e+00,2.608946084976196289e+00,2.657811164855957031e+00,2.708541631698608398e+00,2.761246204376220703e+00,2.816042900085449219e+00,2.873058319091796875e+00,2.932430267333984375e+00,2.994307756423950195e+00,3.058853149414062500e+00,3.126242160797119141e+00,3.196667671203613281e+00,3.270339250564575195e+00,3.347486257553100586e+00,3.428361415863037109e+00,3.513241052627563477e+00,3.602430105209350586e+00,3.696265935897827148e+00,3.795120954513549805e+00,3.899408340454101562e+00,4.009589195251464844e+00,4.126178264617919922e+00,4.249750614166259766e+00,4.380952358245849609e+00,4.520473480224609375e+00,4.669139862060546875e+00,4.827916622161865234e+00,4.997872829437255859e+00,5.000000000000000000e+00,5.000000000000000000e+00,5.000000000000000000e+00,5.000000000000000000e+00,5.000000000000000000e+00,5.000000000000000000e+00,5.000000000000000000e+00,5.000000000000000000e+00,5.000000000000000000e+00,5.000000000000000000e+00,5.000000000000000000e+00,5.000000000000000000e+00,5.000000000000000000e+00,5.000000000000000000e+00,5.000000000000000000e+00,5.000000000000000000e+00,1.760151863098144531e+00,1.723402261734008789e+00,1.704931020736694336e+00,1.686280608177185059e+00,5.000000000000000000e+00,5.000000000000000000e+00,1.708099007606506348e+00,1.660627007484436035e+00,1.632474422454833984e+00,1.620742082595825195e+00,1.608273267745971680e+00,5.000000000000000000e+00,5.000000000000000000e+00,5.000000000000000000e+00,5.000000000000000000e+00,5.000000000000000000e+00,5.000000000000000000e+00,5.000000000000000000e+00
1.933493137359619141e+00,1.960201978683471680e+00,1.987658739089965820e+00,2.015895605087280273e+00,2.044946670532226562e+00,2.074847221374511719e+00,2.105634927749633789e+00,2.137350082397460938e+00,2.170035362243652344e+00,2.203735589981079102e+00,2.238499402999877930e+00,2.274377584457397461e+00,2.311424255371093750e+00,2.349698066711425781e+00,2.389260530471801758e+00,2.430178165435791016e+00,2.472521781921386719e+00,2.516367197036743164e+00,2.561795473098754883e+00,2.608894348144531250e+00,2.657757282257080078e+00,2.708485603332519531e+00,2.761188268661499023e+00,2.815982580184936523e+00,2.872995376586914062e+00,2.932364940643310547e+00,2.994239568710327148e+00,3.058781862258911133e+00,3.126167774200439453e+00,3.196589946746826172e+00,3.270257472991943359e+00,3.347401142120361328e+00,3.428272008895874023e+00,3.513146877288818359e+00,3.602331638336181641e+00,3.696161985397338867e+00,3.795011043548583984e+00,3.899292707443237305e+00,4.009467124938964844e+00,4.126049041748046875e+00,4.249613285064697266e+00,4.380806922912597656e+00,4.520359039306640625e+00,4.669094085693359375e+00,4.827916622161865234e+00,4.997872352600097656e+00,5.000000000000000000e+00,5.000000000000000000e+00,5.000000000000000000e+00,5.000000000000000000e+00,5.000000000000000000e+00,5.000000000000000000e+00,5.000000000000000000e+00,5.000000000000000000e+00,5.000000000000000000e+00,5.000000000000000000e+00,5.000000000000000000e+00,5.000000000000000000e+00,5.000000000000000000e+00,5.000000000000000000e+00,5.000000000000000000e+00,5.000000000000000000e+00,1.761703133583068848e+00,1.733300209045410156e+00,1.719255685806274414e+00,1.713082551956176758e+00,5.000000000000000000e+00,5.000000000000000000e+00,1.699783444404602051e+00,1.666128039360046387e+00,1.644071698188781738e+00,1.635017156600952148e+00,1.625635743141174316e+00,5.000000000000000000e+00,5.000000000000000000e+00,5.000000000000000000e+00,5.000000000000000000e+00,5.000000000000000000e+00,5.000000000000000000e+00,5.000000000000000000e+00
1.933464884757995605e+00,1.960172653198242188e+00,1.987628936767578125e+00,2.015864849090576172e+00,2.044914960861206055e+00,2.074814319610595703e+00,2.105601072311401367e+00,2.137315511703491211e+00,2.169999599456787109e+00,2.203698873519897461e+00,2.238461256027221680e+00,2.274338245391845703e+00,2.311383724212646484e+00,2.349656105041503906e+00,2.389217138290405273e+00,2.430133342742919922e+00,2.472475290298461914e+00,2.516319036483764648e+00,2.561745405197143555e+00,2.608842611312866211e+00,2.657703638076782227e+00,2.708430051803588867e+00,2.761130332946777344e+00,2.815922260284423828e+00,2.872932672500610352e+00,2.932299613952636719e+00,2.994171619415283203e+00,3.058710813522338867e+00,3.126093626022338867e+00,3.196512222290039062e+00,3.270176410675048828e+00,3.347315788269042969e+00,3.428182840347290039e+00,3.513053178787231445e+00,3.602232933044433594e+00,3.696058273315429688e+00,3.794901609420776367e+00,3.899177312850952148e+00,4.009345054626464844e+00,4.125919342041015625e+00,4.249475955963134766e+00,4.380661010742187500e+00,4.520203590393066406e+00,4.668928623199462891e+00,4.827773571014404297e+00,4.997807025909423828e+00,5.000000000000000000e+00,5.000000000000000000e+00,5.000000000000000000e+00,5.000000000000000000e+00,5.000000000000000000e+00,5.000000000000000000e+00,5.000000000000000000e+00,5.000000000000000000e+00,5.000000000000000000e+00,5.000000000000000000e+00,5.000000000000000000e+00,5.000000000000000000e+00,5.000000000000000000e+00,5.000000000000000000e+00,5.000000000000000000e+00,5.000000000000000000e+00,1.771769285202026367e+00,1.743872165679931641e+00,1.732165813446044922e+00,1.748613595962524414e+00,5.000000000000000000e+00,5.000000000000000000e+00,1.701207399368286133e+00,1.672512292861938477e+00,1.656810045242309570e+00,1.647868394851684570e+00,5.000000000000000000e+00,5.000000000000000000e+00,5.000000000000000000e+00,5.000000000000000000e+00,5.000000000000000000e+00,5.000000000000000000e+00,5.000000000000000000e+00,5.000000000000000000e+00
1.933436393737792969e+00,1.960143566131591797e+00,1.987598776817321777e+00,2.015833854675292969e+00,2.044883251190185547e+00,2.074781656265258789e+00,2.105567455291748047e+00,2.137280702590942383e+00,2.169963598251342773e+00,2.203661918640136719e+00,2.238423347473144531e+00,2.274298667907714844e+00,2.311342954635620117e+00,2.349614143371582031e+00,2.389173746109008789e+00,2.430088281631469727e+00,2.472428798675537109e+00,2.516270637512207031e+00,2.561695575714111328e+00,2.608790874481201172e+00,2.657649993896484375e+00,2.708374261856079102e+00,2.761072397232055664e+00,2.815862178802490234e+00,2.872869968414306641e+00,2.932234287261962891e+00,2.994103431701660156e+00,3.058639526367187500e+00,3.126019239425659180e+00,3.196434736251831055e+00,3.270095109939575195e+00,3.347230672836303711e+00,3.428093433380126953e+00,3.512959241867065430e+00,3.602134227752685547e+00,3.695954322814941406e+00,3.794792175292968750e+00,3.899061679840087891e+00,4.009222984313964844e+00,4.125790119171142578e+00,4.249338626861572266e+00,4.380515098571777344e+00,4.520048141479492188e+00,4.668762683868408203e+00,4.827596187591552734e+00,4.997617244720458984e+00,5.000000000000000000e+00,5.000000000000000000e+00,5.000000000000000000e+00,5.000000000000000000e+00,5.000000000000000000e+00,5.000000000000000000e+00,5.000000000000000000e+00,5.000000000000000000e+00,5.000000000000000000e+00,5.000000000000000000e+00,5.000000000000000000e+00,5.000000000000000000e+00,5.000000000000000000e+00,5.000000000000000000e+00,5.000000000000000000e+00,5.000000000000000000e+00,1.781358122825622559e+00,1.752818703651428223e+00,1.739560604095458984e+00,1.761301517486572266e+00,5.000000000000000000e+00,1.769840955734252930e+00,1.707491397857666016e+00,1.679296612739562988e+00,1.669747471809387207e+00,1.660923361778259277e+00,5.000000000000000000e+00,5.000000000000000000e+00,5.000000000000000000e+00,5.000000000000000000e+00,5.000000000000000000e+00,5.000000000000000000e+00,5.000000000000000000e+00,5.000000000000000000e+00
1.933408021926879883e+00,1.960114240646362305e+00,1.987568616867065430e+00,2.015803098678588867e+00,2.044851303100585938e+00,2.074748754501342773e+00,2.105533838272094727e+00,2.137245893478393555e+00,2.169927835464477539e+00,2.203624963760375977e+00,2.238385200500488281e+00,2.274259328842163086e+00,2.311302423477172852e+00,2.349572181701660156e+00,2.389130353927612305e+00,2.430043458938598633e+00,2.472382307052612305e+00,2.516222476959228516e+00,2.561645746231079102e+00,2.608739137649536133e+00,2.657596111297607422e+00,2.708318471908569336e+00,2.761014461517333984e+00,2.815801620483398438e+00,2.872807264328002930e+00,2.932168722152709961e+00,2.994035005569458008e+00,3.058568477630615234e+00,3.125945091247558594e+00,3.196356773376464844e+00,3.270013809204101562e+00,3.347145557403564453e+00,3.428003787994384766e+00,3.512865543365478516e+00,3.602035760879516602e+00,3.695850133895874023e+00,3.794682741165161133e+00,3.898946285247802734e+00,4.009100437164306641e+00,4.125660896301269531e+00,4.249201297760009766e+00,4.380369186401367188e+00,4.519892692565917969e+00,4.668596744537353516e+00,4.827419281005859375e+00,4.997427463531494141e+00,5.000000000000000000e+00,5.000000000000000000e+00,5.000000000000000000e+00,5.000000000000000000e+00,5.000000000000000000e+00,5.000000000000000000e+00,5.000000000000000000e+00,5.000000000000000000e+00,5.000000000000000000e+00,5.000000000000000000e+00,5.000000000000000000e+00,5.000000000000000000e+00,5.000000000000000000e+00,5.000000000000000000e+00,5.000000000000000000e+00,5.000000000000000000e+00,1.791051506996154785e+00,1.762425184249877930e+00,1.747018694877624512e+00,1.772333741188049316e+00,5.000000000000000000e+00,1.762104749679565430e+00,1.715583324432373047e+00,1.691232681274414062e+00,1.682888388633728027e+00,1.674186587333679199e+00,5.000000000000000000e+00,5.000000000000000000e+00,5.000000000000000000e+00,5.000000000000000000e+00,5.000000000000000000e+00,5.000000000000000000e+00,5.000000000000000000e+00,5.000000000000000000e+00
1.933379530906677246e+00,1.960085153579711914e+00,1.987538695335388184e+00,2.015772104263305664e+00,2.044819593429565430e+00,2.074716091156005859e+00,2.105499982833862305e+00,2.137211322784423828e+00,2.169892072677612305e+00,2.203588008880615234e+00,2.238347053527832031e+00,2.274220228195190430e+00,2.311261892318725586e+00,2.349530220031738281e+00,2.389086961746215820e+00,2.429998636245727539e+00,2.472336053848266602e+00,2.516174316406250000e+00,2.561595916748046875e+00,2.608687400817871094e+00,2.657542467117309570e+00,2.708262681961059570e+00,2.760956525802612305e+00,2.815741300582885742e+00,2.872744560241699219e+00,2.932103395462036133e+00,2.993967056274414062e+00,3.058497428894042969e+00,3.125870704650878906e+00,3.196279048919677734e+00,3.269932508468627930e+00,3.347060441970825195e+00,3.427914619445800781e+00,3.512771844863891602e+00,3.601937055587768555e+00,3.695746421813964844e+00,3.794573307037353516e+00,3.898830652236938477e+00,4.008978366851806641e+00,4.125531196594238281e+00,4.249063968658447266e+00,4.380223274230957031e+00,4.519737720489501953e+00,4.668431282043457031e+00,4.827241897583007812e+00,4.997237682342529297e+00,5.000000000000000000e+00,5.000000000000000000e+00,5.000000000000000000e+00,5.000000000000000000e+00,5.000000000000000000e+00,5.000000000000000000e+00,5.000000000000000000e+00,5.000000000000000000e+00,5.000000000000000000e+00,5.000000000000000000e+00,5.000000000000000000e+00,5.000000000000000000e+00,5.000000000000000000e+00,5.000000000000000000e+00,5.000000000000000000e+00,5.000000000000000000e+00,1.801039099693298340e+00,1.772185444831848145e+00,1.754541039466857910e+00,1.783505201339721680e+00,5.000000000000000000e+00,1.756073713302612305e+00,1.724971175193786621e+00,1.705587863922119141e+00,1.696804642677307129e+00,5.000000000000000000e+00,5.000000000000000000e+00,5.000000000000000000e+00,5.000000000000000000e+00,5.000000000000000000e+00,5.000000000000000000e+00,5.000000000000000000e+00,5.000000000000000000e+00,5.000000000000000000e+00
1.933351278305053711e+00,1.960055828094482422e+00,1.987508535385131836e+00,2.015741348266601562e+00,2.044787645339965820e+00,2.074683427810668945e+00,2.105466365814208984e+00,2.137176513671875000e+00,2.169856309890747070e+00,2.203551054000854492e+00,2.238308906555175781e+00,2.274180889129638672e+00,2.311221122741699219e+00,2.349488019943237305e+00,2.389043569564819336e+00,2.429953813552856445e+00,2.472289323806762695e+00,2.516126394271850586e+00,2.561546087265014648e+00,2.608635425567626953e+00,2.657488822937011719e+00,2.708206892013549805e+00,2.760898590087890625e+00,2.815680980682373047e+00,2.872681856155395508e+00,2.932038068771362305e+00,2.993898868560791016e+00,3.058426380157470703e+00,3.125796556472778320e+00,3.196201562881469727e+00,3.269851207733154297e+00,3.346975326538085938e+00,3.427825212478637695e+00,3.512677907943725586e+00,3.601838588714599609e+00,3.695642709732055664e+00,3.794463872909545898e+00,3.898715257644653320e+00,4.008856296539306641e+00,4.125401973724365234e+00,4.248927116394042969e+00,4.380077362060546875e+00,4.519582271575927734e+00,4.668265819549560547e+00,4.827064514160156250e+00,4.997047424316406250e+00,5.000000000000000000e+00,5.000000000000000000e+00,5.000000000000000000e+00,5.000000000000000000e+00,5.000000000000000000e+00,5.000000000000000000e+00,5.000000000000000000e+00,5.000000000000000000e+00,5.000000000000000000e+00,5.000000000000000000e+00,5.000000000000000000e+00,5.000000000000000000e+00,5.000000000000000000e+00,5.000000000000000000e+00,5.000000000000000000e+00,5.000000000000000000e+00,1.811375856399536133e+00,1.782182574272155762e+00,1.763127326965332031e+00,1.797105312347412109e+00,5.000000000000000000e+00,1.765911221504211426e+00,1.734094262123107910e+00,1.720239520072937012e+00,1.735180735588073730e+00,5.000000000000000000e+00,5.000000000000000000e+00,5.000000000000000000e+00,5.000000000000000000e+00,5.000000000000000000e+00,5.000000000000000000e+00,5.000000000000000000e+00,5.000000000000000000e+00,5.000000000000000000e+00
1.933322668075561523e+00,1.960026621818542480e+00,1.987478613853454590e+00,2.015710353851318359e+00,2.044755935668945312e+00,2.074650764465332031e+00,2.105432748794555664e+00,2.137141704559326172e+00,2.169820547103881836e+00,2.203514337539672852e+00,2.238270759582519531e+00,2.274141550064086914e+00,2.311180591583251953e+00,2.349446058273315430e+00,2.389000177383422852e+00,2.429908990859985352e+00,2.472242832183837891e+00,2.516078233718872070e+00,2.561496257781982422e+00,2.608583688735961914e+00,2.657435178756713867e+00,2.708151340484619141e+00,2.760840415954589844e+00,2.815620899200439453e+00,2.872619152069091797e+00,2.931972503662109375e+00,2.993830680847167969e+00,3.058355331420898438e+00,3.125721931457519531e+00,3.196123838424682617e+00,3.269769906997680664e+00,3.346889972686767578e+00,3.427735805511474609e+00,3.512584209442138672e+00,3.601739645004272461e+00,3.695538759231567383e+00,3.794354438781738281e+00,3.898599147796630859e+00,4.008734226226806641e+00,4.125272274017333984e+00,4.248789310455322266e+00,4.379931449890136719e+00,4.519426822662353516e+00,4.668099880218505859e+00,4.826887607574462891e+00,4.996857643127441406e+00,5.000000000000000000e+00,5.000000000000000000e+00,5.000000000000000000e+00,5.000000000000000000e+00,5.000000000000000000e+00,5.000000000000000000e+00,5.000000000000000000e+00,5.000000000000000000e+00,5.000000000000000000e+00,5.000000000000000000e+00,5.000000000000000000e+00,5.000000000000000000e+00,5.000000000000000000e+00,5.000000000000000000e+00,5.000000000000000000e+00,5.000000000000000000e+00,1.822854995727539062e+00,1.793495655059814453e+00,1.777507901191711426e+00,5.000000000000000000e+00,5.000000000000000000e+00,1.775627374649047852e+00,1.746626853942871094e+00,1.735144972801208496e+00,5.000000000000000000e+00,5.000000000000000000e+00,5.000000000000000000e+00,5.000000000000000000e+00,5.000000000000000000e+00,5.000000000000000000e+00,5.000000000000000000e+00,5.000000000000000000e+00,5.000000000000000000e+00,5.000000000000000000e+00
1.933294177055358887e+00,1.959997534751892090e+00,1.987448573112487793e+00,2.015679597854614258e+00,2.044724225997924805e+00,2.074618101119995117e+00,2.105399131774902344e+00,2.137106895446777344e+00,2.169784784317016602e+00,2.203477382659912109e+00,2.238232851028442383e+00,2.274102210998535156e+00,2.311140060424804688e+00,2.349404096603393555e+00,2.388956785202026367e+00,2.429863929748535156e+00,2.472196340560913086e+00,2.516030073165893555e+00,2.561446428298950195e+00,2.608532190322875977e+00,2.657381534576416016e+00,2.708095550537109375e+00,2.760782480239868164e+00,2.815560579299926758e+00,2.872556447982788086e+00,2.931907176971435547e+00,2.993762493133544922e+00,3.058284044265747070e+00,3.125647783279418945e+00,3.196046113967895508e+00,3.269688844680786133e+00,3.346804618835449219e+00,3.427646636962890625e+00,3.512490510940551758e+00,3.601640939712524414e+00,3.695435047149658203e+00,3.794245004653930664e+00,3.898483753204345703e+00,4.008612155914306641e+00,4.125143051147460938e+00,4.248652458190917969e+00,4.379785537719726562e+00,4.519271850585937500e+00,4.667934417724609375e+00,4.821295261383056641e+00,4.820109367370605469e+00,4.818923950195312500e+00,4.817739009857177734e+00,4.816554546356201172e+00,4.815371036529541016e+00,4.814188003540039062e+00,4.813005447387695312e+00,4.811822891235351562e+00,4.810641765594482422e+00,4.809460639953613281e+00,4.808280467987060547e+00,4.807100772857666016e+00,4.805922031402587891e+00,4.804743289947509766e+00,4.803565502166748047e+00,4.802388191223144531e+00,4.801211357116699219e+00,1.834480524063110352e+00,1.805025696754455566e+00,1.792124748229980469e+00,4.796509742736816406e+00,1.833919882774353027e+00,1.794636011123657227e+00,1.761356711387634277e+00,4.791817665100097656e+00,4.790646076202392578e+00,4.789474964141845703e+00,4.788304805755615234e+00,4.787134647369384766e+00,4.785965442657470703e+00,4.784796714782714844e+00,4.783628463745117188e+00,4.782460689544677734e+00,4.781293392181396484e+00,4.780127048492431641e+00
1.933265924453735352e+00,1.959968209266662598e+00,1.987418651580810547e+00,2.015648603439331055e+00,2.044692277908325195e+00,2.074585199356079102e+00,2.105365276336669922e+00,2.137072324752807617e+00,2.169749021530151367e+00,2.203440427780151367e+00,2.238194704055786133e+00,2.274062871932983398e+00,2.311099290847778320e+00,2.349362134933471680e+00,2.388913393020629883e+00,2.429818868637084961e+00,2.472149848937988281e+00,2.515981912612915039e+00,2.561396360397338867e+00,2.608480453491210938e+00,2.657327890396118164e+00,2.708039522171020508e+00,2.760724544525146484e+00,2.815500259399414062e+00,2.872493743896484375e+00,2.931841850280761719e+00,2.993694543838500977e+00,3.058212995529174805e+00,3.125573396682739258e+00,3.195968627929687500e+00,3.269607543945312500e+00,3.346719503402709961e+00,3.427557468414306641e+00,3.512396812438964844e+00,3.601542472839355469e+00,3.695331335067749023e+00,3.751545190811157227e+00,3.750827312469482422e+00,3.750109672546386719e+00,3.749391794204711914e+00,3.748674631118774414e+00,3.747957706451416016e+00,3.747241258621215820e+00,3.746524572372436523e+00,3.745808362960815430e+00,3.745092391967773438e+00,3.744376897811889648e+00,3.743661165237426758e+00,3.742946386337280273e+00,3.742231130599975586e+00,3.741516351699829102e+00,3.740802288055419922e+00,3.740087985992431641e+00,3.739374399185180664e+00,3.738660812377929688e+00,3.737947940826416016e+00,3.737234592437744141e+00,3.736522197723388672e+00,3.735809564590454102e+00,3.735097646713256836e+00,3.734385490417480469e+00,3.733674049377441406e+00,1.846355319023132324e+00,1.816704988479614258e+00,1.806984066963195801e+00,3.730829954147338867e+00,1.832125782966613770e+00,1.796788692474365234e+00,1.790810346603393555e+00,3.727990627288818359e+00,3.727281570434570312e+00,3.726572513580322266e+00,3.725864171981811523e+00,3.725155591964721680e+00,3.724447727203369141e+00,3.723739624023437500e+00,3.723031759262084961e+00,3.722324848175048828e+00,3.721617460250854492e+00,3.720911026000976562e+00
1.933237433433532715e+00,1.959939122200012207e+00,1.987388491630554199e+00,2.015617609024047852e+00,2.044660568237304688e+00,2.074552536010742188e+00,2.105331420898437500e+00,2.137037515640258789e+00,2.169713258743286133e+00,2.203403472900390625e+00,2.238156557083129883e+00,2.274023532867431641e+00,2.311058759689331055e+00,2.349320173263549805e+00,2.388870000839233398e+00,2.429774045944213867e+00,2.472103595733642578e+00,2.515933990478515625e+00,2.561346292495727539e+00,2.608428716659545898e+00,2.657274246215820312e+00,2.707983732223510742e+00,2.760666608810424805e+00,2.815440177917480469e+00,2.872430801391601562e+00,2.931776523590087891e+00,2.993626356124877930e+00,3.058141708374023438e+00,3.070304870605468750e+00,3.069823980331420898e+00,3.069343328475952148e+00,3.068862438201904297e+00,3.068382024765014648e+00,3.067901611328125000e+00,3.067421197891235352e+00,3.066941261291503906e+00,3.066461324691772461e+00,3.065981388092041016e+00,3.065501928329467773e+00,3.065022468566894531e+00,3.064543247222900391e+00,3.064064025878906250e+00,3.063585042953491211e+00,3.063106298446655273e+00,3.062627315521240234e+00,3.062148809432983398e+00,3.061670541763305664e+00,3.061192035675048828e+00,3.060714006423950195e+00,3.060235738754272461e+00,3.059757947921752930e+00,3.059280157089233398e+00,3.058802604675292969e+00,3.058325052261352539e+00,3.057847976684570312e+00,3.057370662689208984e+00,3.056893825531005859e+00,3.056416749954223633e+00,3.055940389633178711e+00,3.055463552474975586e+00,3.054986953735351562e+00,3.054511070251464844e+00,1.871869683265686035e+00,1.841951966285705566e+00,1.818485856056213379e+00,3.052607536315917969e+00,1.838387370109558105e+00,1.790572762489318848e+00,1.768107771873474121e+00,3.050706386566162109e+00,3.050231218338012695e+00,3.049756526947021484e+00,3.049281835556030273e+00,3.048807144165039062e+00,3.048333168029785156e+00,3.047858715057373047e+00,3.047384977340698242e+00,3.046911001205444336e+00,3.046437263488769531e+00,3.045963525772094727e+00
1.933209061622619629e+00,1.959909796714782715e+00,1.987358331680297852e+00,2.015586853027343750e+00,2.044628858566284180e+00,2.074519872665405273e+00,2.105297803878784180e+00,2.137002944946289062e+00,2.169677495956420898e+00,2.203366518020629883e+00,2.238118410110473633e+00,2.273984193801879883e+00,2.311017990112304688e+00,2.349278211593627930e+00,2.388826608657836914e+00,2.429729223251342773e+00,2.472057104110717773e+00,2.515885829925537109e+00,2.561296463012695312e+00,2.598798036575317383e+00,2.598453521728515625e+00,2.598109245300292969e+00,2.597764492034912109e+00,2.597420215606689453e+00,2.597076177597045898e+00,2.596731901168823242e+00,2.596387863159179688e+00,2.596044063568115234e+00,2.595700025558471680e+00,2.595356225967407227e+00,2.595012664794921875e+00,2.594669103622436523e+00,2.594325304031372070e+00,2.593981981277465820e+00,2.593638896942138672e+00,2.593295335769653320e+00,2.592952251434326172e+00,2.592609405517578125e+00,2.592266321182250977e+00,2.591923475265502930e+00,2.591580629348754883e+00,2.591238021850585938e+00,2.590895414352416992e+00,2.590552806854248047e+00,2.590210437774658203e+00,2.589868068695068359e+00,2.589525938034057617e+00,2.589183807373046875e+00,2.588841915130615234e+00,2.588499784469604492e+00,2.588157892227172852e+00,2.587816238403320312e+00,2.587474346160888672e+00,2.587132692337036133e+00,2.586791038513183594e+00,2.586449861526489258e+00,2.586108207702636719e+00,2.585767030715942383e+00,2.585425853729248047e+00,2.585084676742553711e+00,2.584743738174438477e+00,2.584402799606323242e+00,1.878794074058532715e+00,1.845151543617248535e+00,1.830123901367187500e+00,2.583039999008178711e+00,2.582699537277221680e+00,1.799017310142517090e+00,1.751096129417419434e+00,1.751014709472656250e+00,2.581338405609130859e+00,2.580998420715332031e+00,2.580658435821533203e+00,2.580318689346313477e+00,2.579978704452514648e+00,2.579639196395874023e+00,2.579299449920654297e+00,2.578960180282592773e+00,2.578620672225952148e+00,2.578281402587890625e+00
1.933180570602416992e+00,1.959880709648132324e+00,1.987328529357910156e+00,2.015555858612060547e+00,2.044597148895263672e+00,2.074486970901489258e+00,2.105264186859130859e+00,2.136968135833740234e+00,2.169641494750976562e+00,2.203329563140869141e+00,2.238080501556396484e+00,2.252572059631347656e+00,2.252313137054443359e+00,2.252054214477539062e+00,2.251795530319213867e+00,2.251536846160888672e+00,2.251278162002563477e+00,2.251019477844238281e+00,2.250761032104492188e+00,2.250502586364746094e+00,2.250244140625000000e+00,2.249985694885253906e+00,2.249727487564086914e+00,2.249469041824340820e+00,2.249210834503173828e+00,2.248952865600585938e+00,2.248694658279418945e+00,2.248436689376831055e+00,2.248178720474243164e+00,2.247920989990234375e+00,2.247663021087646484e+00,2.247405290603637695e+00,2.247147560119628906e+00,2.246889829635620117e+00,2.246632337570190430e+00,2.246374845504760742e+00,2.246117353439331055e+00,2.245859861373901367e+00,2.245602607727050781e+00,2.245345354080200195e+00,2.245087862014770508e+00,2.244830846786499023e+00,2.244573593139648438e+00,2.244316577911376953e+00,2.244059562683105469e+00,2.243802547454833984e+00,2.243545532226562500e+00,2.243288755416870117e+00,2.243032217025756836e+00,2.242775440216064453e+00,2.242518663406372070e+00,2.242262125015258789e+00,2.242005586624145508e+00,2.241749048233032227e+00,2.241492748260498047e+00,2.241236448287963867e+00,2.240979909896850586e+00,2.240723848342895508e+00,2.240467548370361328e+00,2.240211486816406250e+00,2.239955186843872070e+00,2.239699125289916992e+00,1.884494066238403320e+00,1.831314682960510254e+00,1.805405378341674805e+00,1.794179320335388184e+00,2.238419771194458008e+00,2.238163948059082031e+00,1.738212585449218750e+00,1.718915581703186035e+00,1.733049750328063965e+00,2.237141847610473633e+00,2.236886501312255859e+00,2.236631155014038086e+00,2.236376047134399414e+00,2.236120700836181641e+00,2.235865592956542969e+00,2.235610246658325195e+00,2.235355138778686523e+00,2.235100269317626953e+00
1.933152318000793457e+00,1.959851384162902832e+00,1.987298369407653809e+00,1.987752795219421387e+00,1.987550973892211914e+00,1.987349390983581543e+00,1.987147927284240723e+00,1.986946463584899902e+00,1.986745119094848633e+00,1.986543655395507812e+00,1.986342430114746094e+00,1.986140847206115723e+00,1.985939621925354004e+00,1.985738396644592285e+00,1.985537290573120117e+00,1.985336184501647949e+00,1.985135078430175781e+00,1.984934091567993164e+00,1.984732866287231445e+00,1.984531879425048828e+00,1.984330892562866211e+00,1.984130024909973145e+00,1.983929157257080078e+00,1.983728408813476562e+00,1.983527421951293945e+00,1.983326673507690430e+00,1.983126044273376465e+00,1.982925415039062500e+00,1.982724785804748535e+00,1.982524275779724121e+00,1.982323765754699707e+00,1.982123017311096191e+00,1.981922507286071777e+00,1.981722116470336914e+00,1.981521844863891602e+00,1.981321454048156738e+00,1.981121182441711426e+00,1.980921030044555664e+00,1.980720520019531250e+00,1.980520486831665039e+00,1.980320334434509277e+00,1.980120301246643066e+00,1.979920268058776855e+00,1.979720234870910645e+00,1.979520082473754883e+00,1.979320168495178223e+00,1.979120254516601562e+00,1.978920459747314453e+00,1.978720664978027344e+00,1.978520870208740234e+00,1.978321194648742676e+00,1.978121280670166016e+00,1.977921605110168457e+00,1.977722048759460449e+00,1.977522492408752441e+00,1.977323055267333984e+00,1.977123498916625977e+00,1.976924061775207520e+00,1.976724505424499512e+00,1.976525187492370605e+00,1.976325869560241699e+00,1.976126551628112793e+00,1.975927114486694336e+00,1.807715296745300293e+00,1.780596852302551270e+00,1.763718962669372559e+00,1.758613228797912598e+00,1.974931359291076660e+00,1.974732398986816406e+00,1.699849724769592285e+00,1.677275657653808594e+00,1.974135398864746094e+00,1.973936557769775391e+00,1.973737835884094238e+00,1.973538875579833984e+00,1.973340153694152832e+00,1.973141431808471680e+00,1.972942590713500977e+00,1.972744107246398926e+00,1.972545504570007324e+00
1.777842402458190918e+00,1.777681112289428711e+00,1.777519702911376953e+00,1.777358531951904297e+00,1.777197360992431641e+00,1.777036309242248535e+00,1.776875138282775879e+00,1.776714086532592773e+00,1.776553034782409668e+00,1.776391863822937012e+00,1.776230812072753906e+00,1.776069879531860352e+00,1.775908946990966797e+00,1.775748014450073242e+00,1.775587201118469238e+00,1.775426149368286133e+00,1.775265336036682129e+00,1.775104522705078125e+00,1.774943828582763672e+00,1.774783134460449219e+00,1.774622440338134766e+00,1.774461746215820312e+00,1.774300932884216309e+00,1.774140238761901855e+00,1.773979663848876953e+00,1.773819208145141602e+00,1.773658633232116699e+00,1.773498177528381348e+00,1.773337721824645996e+00,1.773177027702331543e+00,1.773016691207885742e+00,1.772856235504150391e+00,1.772695899009704590e+00,1.772535562515258789e+00,1.772375345230102539e+00,1.772215008735656738e+00,1.772054672241210938e+00,1.771894454956054688e+00,1.771734237670898438e+00,1.771574139595031738e+00,1.771414041519165039e+00,1.771253943443298340e+00,1.771093606948852539e+00,1.770933628082275391e+00,1.770773649215698242e+00,1.770613670349121094e+00,1.770453691482543945e+00,1.770293831825256348e+00,1.770133852958679199e+00,1.769973874092102051e+00,1.769814014434814453e+00,1.769654273986816406e+00,1.769494414329528809e+00,1.769334673881530762e+00,1.769175052642822266e+00,1.769015312194824219e+00,1.768855452537536621e+00,1.768695831298828125e+00,1.768536210060119629e+00,1.768376708030700684e+00,1.768217086791992188e+00,1.768057584762573242e+00,1.767897963523864746e+00,1.767738461494445801e+00,1.767579078674316406e+00,1.737872242927551270e+00,1.722545504570007324e+00,1.715740323066711426e+00,1.766941547393798828e+00,1.766782164573669434e+00,1.766623020172119141e+00,1.766463518142700195e+00,1.766304373741149902e+00,1.766145229339599609e+00,1.765985846519470215e+00,1.765826821327209473e+00,1.765667676925659180e+00,1.765508651733398438e+00,1.765349507331848145e+00,1.765190482139587402e+00
1.607635498046875000e+00,1.607503652572631836e+00,1.607371807098388672e+00,1.607239961624145508e+00,1.607108235359191895e+00,1.606976389884948730e+00,1.606844663619995117e+00,1.606712818145751953e+00,1.606581091880798340e+00,1.606449365615844727e+00,1.606317758560180664e+00,1.606186151504516602e+00,1.606054544448852539e+00,1.605922698974609375e+00,1.605791211128234863e+00,1.605659604072570801e+00,1.605528116226196289e+00,1.605396628379821777e+00,1.605265140533447266e+00,1.605133652687072754e+00,1.605002045631408691e+00,1.604870557785034180e+00,1.604739189147949219e+00,1.604607820510864258e+00,1.604476451873779297e+00,1.604345083236694336e+00,1.604213833808898926e+00,1.604082345962524414e+00,1.603951096534729004e+00,1.603819847106933594e+00,1.603688597679138184e+00,1.603557467460632324e+00,1.603426218032836914e+00,1.603294849395751953e+00,1.603163719177246094e+00,1.603032588958740234e+00,1.602901577949523926e+00,1.602770447731018066e+00,1.602639436721801758e+00,1.602508425712585449e+00,1.602377176284790039e+00,1.602246165275573730e+00,1.602115273475646973e+00,1.601984262466430664e+00,1.601853370666503906e+00,1.601722478866577148e+00,1.601591587066650391e+00,1.601460576057434082e+00,1.601329684257507324e+00,1.601198911666870117e+00,1.601068139076232910e+00,1.600937366485595703e+00,1.600806593894958496e+00,1.600675821304321289e+00,1.600544929504394531e+00,1.600414276123046875e+00,1.600283622741699219e+00,1.600152969360351562e+00,1.600022315979003906e+00,1.599891662597656250e+00,1.599760890007019043e+00,1.599630355834960938e+00,1.599499821662902832e+00,1.599369287490844727e+00,1.599238753318786621e+00,1.599108338356018066e+00,1.598977923393249512e+00,1.598847270011901855e+00,1.598716855049133301e+00,1.598586440086364746e+00,1.598456144332885742e+00,1.598325610160827637e+00,1.598195314407348633e+00,1.598065018653869629e+00,1.597934722900390625e+00,1.597804307937622070e+00,1.597674012184143066e+00,1.597543835639953613e+00,1.597413539886474609e+00,1.597283244132995605e+00
1.467171669006347656e+00,1.467061877250671387e+00,1.466951966285705566e+00,1.466842174530029297e+00,1.466732501983642578e+00,1.466622591018676758e+00,1.466512799263000488e+00,1.466403126716613770e+00,1.466293454170227051e+00,1.466183662414550781e+00,1.466073989868164062e+00,1.465964198112487793e+00,1.465854644775390625e+00,1.465744972229003906e+00,1.465635418891906738e+00,1.465525746345520020e+00,1.465416193008422852e+00,1.465306639671325684e+00,1.465196967124938965e+00,1.465087413787841797e+00,1.464977979660034180e+00,1.464868426322937012e+00,1.464758992195129395e+00,1.464649558067321777e+00,1.464540123939514160e+00,1.464430570602416992e+00,1.464321136474609375e+00,1.464211702346801758e+00,1.464102387428283691e+00,1.463992953300476074e+00,1.463883638381958008e+00,1.463774204254150391e+00,1.463664889335632324e+00,1.463555574417114258e+00,1.463446259498596191e+00,1.463337063789367676e+00,1.463227748870849609e+00,1.463118553161621094e+00,1.463009238243103027e+00,1.462900042533874512e+00,1.462790846824645996e+00,1.462681651115417480e+00,1.462572455406188965e+00,1.462463378906250000e+00,1.462354302406311035e+00,1.462244987487792969e+00,1.462135910987854004e+00,1.462026834487915039e+00,1.461917877197265625e+00,1.461808800697326660e+00,1.461699724197387695e+00,1.461590647697448730e+00,1.461481690406799316e+00,1.461372733116149902e+00,1.461263775825500488e+00,1.461154818534851074e+00,1.461045861244201660e+00,1.460937023162841797e+00,1.460827946662902832e+00,1.460719108581542969e+00,1.460610270500183105e+00,1.460501432418823242e+00,1.460392594337463379e+00,1.460283756256103516e+00,1.460175037384033203e+00,1.460066080093383789e+00,1.459957361221313477e+00,1.459848523139953613e+00,1.459739804267883301e+00,1.459631085395812988e+00,1.459522485733032227e+00,1.459413766860961914e+00,1.459304928779602051e+00,1.459196329116821289e+00,1.459087729454040527e+00,1.458979129791259766e+00,1.458870410919189453e+00,1.458761811256408691e+00,1.458653211593627930e+00,1.458544492721557617e+00
1.349280953407287598e+00,1.349188089370727539e+00,1.349095106124877930e+00,1.349002242088317871e+00,1.348909378051757812e+00,1.348816633224487305e+00,1.348723769187927246e+00,1.348630905151367188e+00,1.348538160324096680e+00,1.348445296287536621e+00,1.348352551460266113e+00,1.348259806632995605e+00,1.348167061805725098e+00,1.348074316978454590e+00,1.347981572151184082e+00,1.347888827323913574e+00,1.347796082496643066e+00,1.347703456878662109e+00,1.347610712051391602e+00,1.347518086433410645e+00,1.347425460815429688e+00,1.347332835197448730e+00,1.347240209579467773e+00,1.347147583961486816e+00,1.347054958343505859e+00,1.346962332725524902e+00,1.346869826316833496e+00,1.346777319908142090e+00,1.346684694290161133e+00,1.346592068672180176e+00,1.346499562263488770e+00,1.346407055854797363e+00,1.346314549446105957e+00,1.346222162246704102e+00,1.346129655838012695e+00,1.346037268638610840e+00,1.345944643020629883e+00,1.345852255821228027e+00,1.345759868621826172e+00,1.345667481422424316e+00,1.345575094223022461e+00,1.345482707023620605e+00,1.345390319824218750e+00,1.345297932624816895e+00,1.345205545425415039e+00,1.345113277435302734e+00,1.345020890235900879e+00,1.344928622245788574e+00,1.344836354255676270e+00,1.344743967056274414e+00,1.344651699066162109e+00,1.344559431076049805e+00,1.344467163085937500e+00,1.344375014305114746e+00,1.344282746315002441e+00,1.344190597534179688e+00,1.344098329544067383e+00,1.344006180763244629e+00,1.343913912773132324e+00,1.343821883201599121e+00,1.343729734420776367e+00,1.343637585639953613e+00,1.343545436859130859e+00,1.343453288078308105e+00,1.343361139297485352e+00,1.343269109725952148e+00,1.343177080154418945e+00,1.343085050582885742e+00,1.342993021011352539e+00,1.342900872230529785e+00,1.342808842658996582e+00,1.342716813087463379e+00,1.342624902725219727e+00,1.342532873153686523e+00,1.342440962791442871e+00,1.342349052429199219e+00,1.342257022857666016e+00,1.342164993286132812e+00,1.342073082923889160e+00,1.341981291770935059e+00
1.248926639556884766e+00,1.248847126960754395e+00,1.248767614364624023e+00,1.248687982559204102e+00,1.248608469963073730e+00,1.248528957366943359e+00,1.248449444770812988e+00,1.248369812965393066e+00,1.248290300369262695e+00,1.248210787773132324e+00,1.248131275177001953e+00,1.248051762580871582e+00,1.247972369194030762e+00,1.247892856597900391e+00,1.247813344001770020e+00,1.247733950614929199e+00,1.247654438018798828e+00,1.247575044631958008e+00,1.247495651245117188e+00,1.247416257858276367e+00,1.247336745262145996e+00,1.247257351875305176e+00,1.247178077697753906e+00,1.247098684310913086e+00,1.247019290924072266e+00,1.246940016746520996e+00,1.246860623359680176e+00,1.246781229972839355e+00,1.246701955795288086e+00,1.246622681617736816e+00,1.246543407440185547e+00,1.246464133262634277e+00,1.246384859085083008e+00,1.246305584907531738e+00,1.246226191520690918e+00,1.246147036552429199e+00,1.246067762374877930e+00,1.245988607406616211e+00,1.245909333229064941e+00,1.245830178260803223e+00,1.245751023292541504e+00,1.245671749114990234e+00,1.245592594146728516e+00,1.245513319969177246e+00,1.245434284210205078e+00,1.245355129241943359e+00,1.245275974273681641e+00,1.245196819305419922e+00,1.245117664337158203e+00,1.245038509368896484e+00,1.244959473609924316e+00,1.244880437850952148e+00,1.244801402091979980e+00,1.244722247123718262e+00,1.244643092155456543e+00,1.244564175605773926e+00,1.244485139846801758e+00,1.244406104087829590e+00,1.244327068328857422e+00,1.244248032569885254e+00,1.244169116020202637e+00,1.244090080261230469e+00,1.244011044502258301e+00,1.243932127952575684e+00,1.243853211402893066e+00,1.243774294853210449e+00,1.243695259094238281e+00,1.243616342544555664e+00,1.243537425994873047e+00,1.243458509445190430e+00,1.243379592895507812e+00,1.243300795555114746e+00,1.243221879005432129e+00,1.243143081665039062e+00,1.243064165115356445e+00,1.242985248565673828e+00,1.242906451225280762e+00,1.242827653884887695e+00,1.242748856544494629e+00,1.242670059204101562e+00
1.162467002868652344e+00,1.162398099899291992e+00,1.162329196929931641e+00,1.162260293960571289e+00,1.162191390991210938e+00,1.162122368812561035e+00,1.162053465843200684e+00,1.161984562873840332e+00,1.161915659904479980e+00,1.161846756935119629e+00,1.161777973175048828e+00,1.161709070205688477e+00,1.161640167236328125e+00,1.161571264266967773e+00,1.161502480506896973e+00,1.161433577537536621e+00,1.161364793777465820e+00,1.161296010017395020e+00,1.161227107048034668e+00,1.161158323287963867e+00,1.161089539527893066e+00,1.161020755767822266e+00,1.160951972007751465e+00,1.160883188247680664e+00,1.160814404487609863e+00,1.160745620727539062e+00,1.160676836967468262e+00,1.160608172416687012e+00,1.160539388656616211e+00,1.160470724105834961e+00,1.160401940345764160e+00,1.160333275794982910e+00,1.160264492034912109e+00,1.160195827484130859e+00,1.160127162933349609e+00,1.160058498382568359e+00,1.159989833831787109e+00,1.159921169281005859e+00,1.159852504730224609e+00,1.159783840179443359e+00,1.159715175628662109e+00,1.159646630287170410e+00,1.159577965736389160e+00,1.159509420394897461e+00,1.159440755844116211e+00,1.159372091293334961e+00,1.159303545951843262e+00,1.159235000610351562e+00,1.159166455268859863e+00,1.159097909927368164e+00,1.159029245376586914e+00,1.158960819244384766e+00,1.158892154693603516e+00,1.158823609352111816e+00,1.158755064010620117e+00,1.158686637878417969e+00,1.158618092536926270e+00,1.158549666404724121e+00,1.158481121063232422e+00,1.158412575721740723e+00,1.158344149589538574e+00,1.158275723457336426e+00,1.158207297325134277e+00,1.158138871192932129e+00,1.158070445060729980e+00,1.158001899719238281e+00,1.157933473587036133e+00,1.157865047454833984e+00,1.157796740531921387e+00,1.157728314399719238e+00,1.157659888267517090e+00,1.157591581344604492e+00,1.157523036003112793e+00,1.157454729080200195e+00,1.157386422157287598e+00,1.157317996025085449e+00,1.157249689102172852e+00,1.157181382179260254e+00,1.157113075256347656e+00,1.157044649124145508e+00
1.087203025817871094e+00,1.087142705917358398e+00,1.087082386016845703e+00,1.087022066116333008e+00,1.086961746215820312e+00,1.086901545524597168e+00,1.086841225624084473e+00,1.086781024932861328e+00,1.086720705032348633e+00,1.086660504341125488e+00,1.086600184440612793e+00,1.086539864540100098e+00,1.086479663848876953e+00,1.086419463157653809e+00,1.086359262466430664e+00,1.086299061775207520e+00,1.086238741874694824e+00,1.086178541183471680e+00,1.086118340492248535e+00,1.086058139801025391e+00,1.085998058319091797e+00,1.085937857627868652e+00,1.085877656936645508e+00,1.085817456245422363e+00,1.085757255554199219e+00,1.085697174072265625e+00,1.085636973381042480e+00,1.085576891899108887e+00,1.085516810417175293e+00,1.085456609725952148e+00,1.085396409034729004e+00,1.085336327552795410e+00,1.085276246070861816e+00,1.085216164588928223e+00,1.085156083106994629e+00,1.085096001625061035e+00,1.085035920143127441e+00,1.084975838661193848e+00,1.084915757179260254e+00,1.084855675697326660e+00,1.084795713424682617e+00,1.084735631942749023e+00,1.084675550460815430e+00,1.084615468978881836e+00,1.084555506706237793e+00,1.084495425224304199e+00,1.084435462951660156e+00,1.084375500679016113e+00,1.084315419197082520e+00,1.084255456924438477e+00,1.084195375442504883e+00,1.084135413169860840e+00,1.084075450897216797e+00,1.084015488624572754e+00,1.083955645561218262e+00,1.083895683288574219e+00,1.083835601806640625e+00,1.083775758743286133e+00,1.083715796470642090e+00,1.083655834197998047e+00,1.083595991134643555e+00,1.083536028861999512e+00,1.083476185798645020e+00,1.083416223526000977e+00,1.083356261253356934e+00,1.083296418190002441e+00,1.083236575126647949e+00,1.083176732063293457e+00,1.083116769790649414e+00,1.083056926727294922e+00,1.082997083663940430e+00,1.082937240600585938e+00,1.082877397537231445e+00,1.082817554473876953e+00,1.082757711410522461e+00,1.082697868347167969e+00,1.082638144493103027e+00,1.082578301429748535e+00,1.082518458366394043e+00,1.082458615303039551e+00
1.021092295646667480e+00,1.021039128303527832e+00,1.020985841751098633e+00,1.020932674407958984e+00,1.020879507064819336e+00,1.020826339721679688e+00,1.020773172378540039e+00,1.020720005035400391e+00,1.020666837692260742e+00,1.020613670349121094e+00,1.020560503005981445e+00,1.020507335662841797e+00,1.020454287528991699e+00,1.020401120185852051e+00,1.020347952842712402e+00,1.020294785499572754e+00,1.020241737365722656e+00,1.020188570022583008e+00,1.020135521888732910e+00,1.020082473754882812e+00,1.020029306411743164e+00,1.019976139068603516e+00,1.019923090934753418e+00,1.019870042800903320e+00,1.019816994667053223e+00,1.019763946533203125e+00,1.019710898399353027e+00,1.019657850265502930e+00,1.019604682922363281e+00,1.019551634788513184e+00,1.019498586654663086e+00,1.019445657730102539e+00,1.019392609596252441e+00,1.019339561462402344e+00,1.019286513328552246e+00,1.019233465194702148e+00,1.019180536270141602e+00,1.019127488136291504e+00,1.019074559211730957e+00,1.019021511077880859e+00,1.018968582153320312e+00,1.018915534019470215e+00,1.018862605094909668e+00,1.018809556961059570e+00,1.018756628036499023e+00,1.018703699111938477e+00,1.018650770187377930e+00,1.018597841262817383e+00,1.018544793128967285e+00,1.018491864204406738e+00,1.018438935279846191e+00,1.018386006355285645e+00,1.018333077430725098e+00,1.018280267715454102e+00,1.018227219581604004e+00,1.018174409866333008e+00,1.018121480941772461e+00,1.018068552017211914e+00,1.018015742301940918e+00,1.017962813377380371e+00,1.017910003662109375e+00,1.017857074737548828e+00,1.017804145812988281e+00,1.017751336097717285e+00,1.017698526382446289e+00,1.017645597457885742e+00,1.017592787742614746e+00,1.017539978027343750e+00,1.017487049102783203e+00,1.017434239387512207e+00,1.017381429672241211e+00,1.017328619956970215e+00,1.017275810241699219e+00,1.017223000526428223e+00,1.017170190811157227e+00,1.017117381095886230e+00,1.017064571380615234e+00,1.017011880874633789e+00,1.016959071159362793e+00,1.016906261444091797e+00
9.625608325004577637e-01,9.625135660171508789e-01,9.624662995338439941e-01,9.624190926551818848e-01,9.623717665672302246e-01,9.623245596885681152e-01,9.622772932052612305e-01,9.622300267219543457e-01,9.621828198432922363e-01,9.621355533599853516e-01,9.620883464813232422e-01,9.620411396026611328e-01,9.619938135147094727e-01,9.619466066360473633e-01,9.618993997573852539e-01,9.618521928787231445e-01,9.618049860000610352e-01,9.617577791213989258e-01,9.617105722427368164e-01,9.616634249687194824e-01,9.616162180900573730e-01,9.615690708160400391e-01,9.615218639373779297e-01,9.614747166633605957e-01,9.614275693893432617e-01,9.613803625106811523e-01,9.613330960273742676e-01,9.612859487533569336e-01,9.612388014793395996e-01,9.611917138099670410e-01,9.611445665359497070e-01,9.610974192619323730e-01,9.610502719879150391e-01,9.610031843185424805e-01,9.609560370445251465e-01,9.609089493751525879e-01,9.608618021011352539e-01,9.608147144317626953e-01,9.607676267623901367e-01,9.607204198837280273e-01,9.606733322143554688e-01,9.606262445449829102e-01,9.605791568756103516e-01,9.605320692062377930e-01,9.604850411415100098e-01,9.604379534721374512e-01,9.603908658027648926e-01,9.603438377380371094e-01,9.602968096733093262e-01,9.602497220039367676e-01,9.602026939392089844e-01,9.601556658744812012e-01,9.601085186004638672e-01,9.600614905357360840e-01,9.600144624710083008e-01,9.599674344062805176e-01,9.599204063415527344e-01,9.598733782768249512e-01,9.598264098167419434e-01,9.597793817520141602e-01,9.597324132919311523e-01,9.596853852272033691e-01,9.596384167671203613e-01,9.595914483070373535e-01,9.595444202423095703e-01,9.594974517822265625e-01,9.594504237174987793e-01,9.594034552574157715e-01,9.593564867973327637e-01,9.593095183372497559e-01,9.592625498771667480e-01,9.592155814170837402e-01,9.591686725616455078e-01,9.591217041015625000e-01,9.590747952461242676e-01,9.590278863906860352e-01,9.589809179306030273e-01,9.589340090751647949e-01,9.588871002197265625e-01,9.588400721549987793e-01
