3.101765632629394531e+00,3.180257558822631836e+00,3.262821435928344727e+00,3.349786996841430664e+00,3.441515207290649414e+00,3.538408279418945312e+00,3.640915632247924805e+00,3.749539136886596680e+00,3.864843368530273438e+00,3.987464666366577148e+00,4.118121147155761719e+00,4.257630825042724609e+00,4.406923294067382812e+00,4.567067146301269531e+00,4.739288330078125000e+00,4.925007343292236328e+00,5.000000000000000000e+00,5.000000000000000000e+00,5.000000000000000000e+00,5.000000000000000000e+00,5.000000000000000000e+00,5.000000000000000000e+00,5.000000000000000000e+00,5.000000000000000000e+00,2.638978004455566406e+00,2.600538015365600586e+00,2.613872051239013672e+00,5.000000000000000000e+00,5.000000000000000000e+00,5.000000000000000000e+00,5.000000000000000000e+00,5.000000000000000000e+00,5.000000000000000000e+00,5.000000000000000000e+00,5.000000000000000000e+00,5.000000000000000000e+00,5.000000000000000000e+00,5.000000000000000000e+00,5.000000000000000000e+00,5.000000000000000000e+00,5.000000000000000000e+00,5.000000000000000000e+00,5.000000000000000000e+00,5.000000000000000000e+00,5.000000000000000000e+00,5.000000000000000000e+00,5.000000000000000000e+00,5.000000000000000000e+00,5.000000000000000000e+00,5.000000000000000000e+00,5.000000000000000000e+00,5.000000000000000000e+00,5.000000000000000000e+00,5.000000000000000000e+00,5.000000000000000000e+00,5.000000000000000000e+00,5.000000000000000000e+00,5.000000000000000000e+00,5.000000000000000000e+00,5.000000000000000000e+00,5.000000000000000000e+00,5.000000000000000000e+00,5.000000000000000000e+00,5.000000000000000000e+00,5.000000000000000000e+00,5.000000000000000000e+00,5.000000000000000000e+00,5.000000000000000000e+00,5.000000000000000000e+00,5.000000000000000000e+00,4.845601558685302734e+00,4.686706542968750000e+00,4.537900924682617188e+00,4.398239135742187500e+00,4.266880989074707031e+00,4.143141269683837891e+00,4.026376247406005859e+00,3.916012525558471680e+00,3.811537504196166992e+00,3.712492465972900391e+00
3.101699113845825195e+00,3.180190801620483398e+00,3.262754440307617188e+00,3.349716424942016602e+00,3.441440582275390625e+00,3.538329839706420898e+00,3.640832424163818359e+00,3.749450922012329102e+00,3.864749908447265625e+00,3.987364768981933594e+00,4.118014812469482422e+00,4.257516860961914062e+00,4.406801700592041016e+00,4.566936016082763672e+00,4.739146709442138672e+00,4.924854755401611328e+00,5.000000000000000000e+00,5.000000000000000000e+00,5.000000000000000000e+00,5.000000000000000000e+00,5.000000000000000000e+00,5.000000000000000000e+00,5.000000000000000000e+00,5.000000000000000000e+00,2.688037395477294922e+00,2.657252311706542969e+00,2.678552389144897461e+00,5.000000000000000000e+00,5.000000000000000000e+00,5.000000000000000000e+00,5.000000000000000000e+00,5.000000000000000000e+00,5.000000000000000000e+00,5.000000000000000000e+00,5.000000000000000000e+00,5.000000000000000000e+00,5.000000000000000000e+00,5.000000000000000000e+00,5.000000000000000000e+00,5.000000000000000000e+00,5.000000000000000000e+00,5.000000000000000000e+00,5.000000000000000000e+00,5.000000000000000000e+00,5.000000000000000000e+00,5.000000000000000000e+00,5.000000000000000000e+00,5.000000000000000000e+00,5.000000000000000000e+00,5.000000000000000000e+00,5.000000000000000000e+00,5.000000000000000000e+00,5.000000000000000000e+00,5.000000000000000000e+00,5.000000000000000000e+00,5.000000000000000000e+00,5.000000000000000000e+00,5.000000000000000000e+00,5.000000000000000000e+00,5.000000000000000000e+00,5.000000000000000000e+00,5.000000000000000000e+00,5.000000000000000000e+00,5.000000000000000000e+00,5.000000000000000000e+00,5.000000000000000000e+00,5.000000000000000000e+00,5.000000000000000000e+00,5.000000000000000000e+00,5.000000000000000000e+00,4.845818519592285156e+00,4.686909198760986328e+00,4.538067817687988281e+00,4.398356914520263672e+00,4.266991615295410156e+00,4.143245697021484375e+00,4.026474952697753906e+00,3.916106224060058594e+00,3.811626434326171875e+00,3.712576389312744141e+00
3.101632595062255859e+00,3.180120944976806641e+00,3.262684345245361328e+00,3.349645853042602539e+00,3.441366195678710938e+00,3.538251161575317383e+00,3.640748977661132812e+00,3.749362945556640625e+00,3.864655971527099609e+00,3.987264633178710938e+00,4.117908477783203125e+00,4.257402896881103516e+00,4.406679630279541016e+00,4.566804885864257812e+00,4.739006042480468750e+00,4.924702644348144531e+00,5.000000000000000000e+00,5.000000000000000000e+00,5.000000000000000000e+00,5.000000000000000000e+00,5.000000000000000000e+00,2.593485355377197266e+00,5.000000000000000000e+00,2.604543209075927734e+00,2.594589710235595703e+00,2.672326326370239258e+00,2.695123195648193359e+00,2.676142215728759766e+00,5.000000000000000000e+00,5.000000000000000000e+00,5.000000000000000000e+00,5.000000000000000000e+00,5.000000000000000000e+00,5.000000000000000000e+00,5.000000000000000000e+00,5.000000000000000000e+00,5.000000000000000000e+00,5.000000000000000000e+00,5.000000000000000000e+00,5.000000000000000000e+00,5.000000000000000000e+00,5.000000000000000000e+00,5.000000000000000000e+00,5.000000000000000000e+00,5.000000000000000000e+00,5.000000000000000000e+00,5.000000000000000000e+00,5.000000000000000000e+00,5.000000000000000000e+00,5.000000000000000000e+00,5.000000000000000000e+00,5.000000000000000000e+00,5.000000000000000000e+00,5.000000000000000000e+00,5.000000000000000000e+00,5.000000000000000000e+00,5.000000000000000000e+00,5.000000000000000000e+00,5.000000000000000000e+00,5.000000000000000000e+00,5.000000000000000000e+00,5.000000000000000000e+00,5.000000000000000000e+00,5.000000000000000000e+00,5.000000000000000000e+00,5.000000000000000000e+00,5.000000000000000000e+00,5.000000000000000000e+00,5.000000000000000000e+00,5.000000000000000000e+00,4.846035480499267578e+00,4.687078952789306641e+00,4.538193225860595703e+00,4.398474693298339844e+00,4.267102718353271484e+00,4.143350124359130859e+00,4.026573657989501953e+00,3.916199445724487305e+00,3.811714649200439453e+00,3.712660074234008789e+00
3.101566076278686523e+00,3.180051088333129883e+00,3.262610912322998047e+00,3.349571943283081055e+00,3.441292047500610352e+00,3.538172483444213867e+00,3.640665769577026367e+00,3.749274492263793945e+00,3.864562273025512695e+00,3.987165212631225586e+00,4.117801666259765625e+00,4.257288932800292969e+00,4.406557559967041016e+00,4.566674232482910156e+00,4.738864898681640625e+00,4.924550056457519531e+00,5.000000000000000000e+00,5.000000000000000000e+00,5.000000000000000000e+00,5.000000000000000000e+00,2.566601037979125977e+00,2.571396350860595703e+00,2.582908630371093750e+00,2.578970909118652344e+00,2.592969655990600586e+00,2.603209972381591797e+00,2.621915817260742188e+00,2.648690938949584961e+00,2.697355031967163086e+00,2.715750694274902344e+00,2.739461898803710938e+00,5.000000000000000000e+00,5.000000000000000000e+00,5.000000000000000000e+00,5.000000000000000000e+00,5.000000000000000000e+00,5.000000000000000000e+00,5.000000000000000000e+00,5.000000000000000000e+00,5.000000000000000000e+00,5.000000000000000000e+00,5.000000000000000000e+00,5.000000000000000000e+00,5.000000000000000000e+00,5.000000000000000000e+00,5.000000000000000000e+00,5.000000000000000000e+00,5.000000000000000000e+00,5.000000000000000000e+00,5.000000000000000000e+00,5.000000000000000000e+00,5.000000000000000000e+00,5.000000000000000000e+00,5.000000000000000000e+00,5.000000000000000000e+00,5.000000000000000000e+00,5.000000000000000000e+00,5.000000000000000000e+00,5.000000000000000000e+00,5.000000000000000000e+00,5.000000000000000000e+00,5.000000000000000000e+00,5.000000000000000000e+00,5.000000000000000000e+00,5.000000000000000000e+00,5.000000000000000000e+00,5.000000000000000000e+00,5.000000000000000000e+00,5.000000000000000000e+00,5.000000000000000000e+00,4.846208572387695312e+00,4.687212944030761719e+00,4.538318634033203125e+00,4.398592472076416016e+00,4.267213344573974609e+00,4.143454551696777344e+00,4.026672363281250000e+00,3.916292667388916016e+00,3.811803102493286133e+00,3.712743997573852539e+00
3.101499557495117188e+00,3.179980993270874023e+00,3.262537479400634766e+00,3.349494457244873047e+00,3.441214084625244141e+00,3.538093566894531250e+00,3.640582799911499023e+00,3.749186038970947266e+00,3.864468336105346680e+00,3.987065315246582031e+00,4.117695331573486328e+00,4.257175445556640625e+00,4.406435489654541016e+00,4.566543102264404297e+00,4.738723754882812500e+00,4.924397945404052734e+00,5.000000000000000000e+00,5.000000000000000000e+00,5.000000000000000000e+00,5.000000000000000000e+00,2.573056221008300781e+00,2.583667993545532227e+00,2.570178985595703125e+00,2.557979583740234375e+00,2.555042743682861328e+00,2.566189050674438477e+00,2.595709085464477539e+00,2.611376047134399414e+00,2.648956060409545898e+00,2.712873458862304688e+00,2.732522010803222656e+00,5.000000000000000000e+00,5.000000000000000000e+00,5.000000000000000000e+00,5.000000000000000000e+00,5.000000000000000000e+00,5.000000000000000000e+00,5.000000000000000000e+00,5.000000000000000000e+00,5.000000000000000000e+00,5.000000000000000000e+00,5.000000000000000000e+00,5.000000000000000000e+00,5.000000000000000000e+00,5.000000000000000000e+00,5.000000000000000000e+00,5.000000000000000000e+00,5.000000000000000000e+00,5.000000000000000000e+00,5.000000000000000000e+00,5.000000000000000000e+00,5.000000000000000000e+00,5.000000000000000000e+00,5.000000000000000000e+00,5.000000000000000000e+00,5.000000000000000000e+00,5.000000000000000000e+00,5.000000000000000000e+00,5.000000000000000000e+00,5.000000000000000000e+00,5.000000000000000000e+00,5.000000000000000000e+00,5.000000000000000000e+00,5.000000000000000000e+00,5.000000000000000000e+00,5.000000000000000000e+00,5.000000000000000000e+00,5.000000000000000000e+00,5.000000000000000000e+00,5.000000000000000000e+00,4.846351146697998047e+00,4.687346458435058594e+00,4.538443565368652344e+00,4.398710250854492188e+00,4.267323970794677734e+00,4.143559455871582031e+00,4.026771068572998047e+00,3.916385889053344727e+00,3.811891317367553711e+00,3.712827682495117188e+00
3.101433038711547852e+00,3.179911136627197266e+00,3.262464046478271484e+00,3.349416971206665039e+00,3.441132307052612305e+00,3.538011550903320312e+00,3.640499353408813477e+00,3.749097585678100586e+00,3.864374876022338867e+00,3.986965417861938477e+00,4.117588520050048828e+00,4.257061481475830078e+00,4.406313896179199219e+00,4.566411972045898438e+00,4.738582611083984375e+00,4.924245357513427734e+00,5.000000000000000000e+00,5.000000000000000000e+00,5.000000000000000000e+00,5.000000000000000000e+00,2.595581293106079102e+00,2.595768928527832031e+00,2.580134630203247070e+00,2.552908182144165039e+00,2.555714607238769531e+00,2.568062543869018555e+00,2.587671279907226562e+00,2.604610204696655273e+00,2.643634796142578125e+00,2.715857505798339844e+00,2.744840621948242188e+00,5.000000000000000000e+00,5.000000000000000000e+00,5.000000000000000000e+00,5.000000000000000000e+00,5.000000000000000000e+00,5.000000000000000000e+00,5.000000000000000000e+00,5.000000000000000000e+00,5.000000000000000000e+00,5.000000000000000000e+00,5.000000000000000000e+00,5.000000000000000000e+00,5.000000000000000000e+00,5.000000000000000000e+00,5.000000000000000000e+00,5.000000000000000000e+00,5.000000000000000000e+00,5.000000000000000000e+00,5.000000000000000000e+00,5.000000000000000000e+00,5.000000000000000000e+00,5.000000000000000000e+00,5.000000000000000000e+00,5.000000000000000000e+00,5.000000000000000000e+00,5.000000000000000000e+00,5.000000000000000000e+00,5.000000000000000000e+00,5.000000000000000000e+00,5.000000000000000000e+00,5.000000000000000000e+00,5.000000000000000000e+00,5.000000000000000000e+00,5.000000000000000000e+00,5.000000000000000000e+00,5.000000000000000000e+00,5.000000000000000000e+00,5.000000000000000000e+00,5.000000000000000000e+00,4.846494197845458984e+00,4.687479972839355469e+00,4.538569450378417969e+00,4.398828029632568359e+00,4.267435073852539062e+00,4.143663406372070312e+00,4.026869773864746094e+00,3.916479110717773438e+00,3.811979770660400391e+00,3.712911605834960938e+00
3.101366519927978516e+00,3.179841279983520508e+00,3.262390375137329102e+00,3.349339246749877930e+00,3.441050291061401367e+00,3.537925004959106445e+00,3.640412569046020508e+00,3.749009609222412109e+00,3.864280939102172852e+00,3.986865282058715820e+00,4.117482185363769531e+00,4.256947517395019531e+00,4.406191825866699219e+00,4.566280841827392578e+00,4.738441944122314453e+00,4.924093246459960938e+00,5.000000000000000000e+00,5.000000000000000000e+00,5.000000000000000000e+00,5.000000000000000000e+00,2.628998279571533203e+00,2.609057188034057617e+00,2.600582122802734375e+00,2.568954944610595703e+00,2.560930967330932617e+00,2.559568881988525391e+00,2.582009792327880859e+00,2.607480525970458984e+00,2.650848865509033203e+00,2.743168592453002930e+00,2.743783712387084961e+00,5.000000000000000000e+00,5.000000000000000000e+00,5.000000000000000000e+00,5.000000000000000000e+00,5.000000000000000000e+00,5.000000000000000000e+00,5.000000000000000000e+00,5.000000000000000000e+00,5.000000000000000000e+00,5.000000000000000000e+00,5.000000000000000000e+00,5.000000000000000000e+00,5.000000000000000000e+00,5.000000000000000000e+00,5.000000000000000000e+00,5.000000000000000000e+00,5.000000000000000000e+00,5.000000000000000000e+00,5.000000000000000000e+00,5.000000000000000000e+00,5.000000000000000000e+00,5.000000000000000000e+00,5.000000000000000000e+00,5.000000000000000000e+00,5.000000000000000000e+00,5.000000000000000000e+00,5.000000000000000000e+00,5.000000000000000000e+00,5.000000000000000000e+00,5.000000000000000000e+00,5.000000000000000000e+00,5.000000000000000000e+00,5.000000000000000000e+00,5.000000000000000000e+00,5.000000000000000000e+00,5.000000000000000000e+00,5.000000000000000000e+00,5.000000000000000000e+00,5.000000000000000000e+00,4.846637248992919922e+00,4.687613964080810547e+00,4.538694381713867188e+00,4.398945808410644531e+00,4.267545700073242188e+00,4.143767833709716797e+00,4.026968479156494141e+00,3.916572093963623047e+00,3.812064647674560547e+00,3.712989091873168945e+00
3.101300001144409180e+00,3.179771423339843750e+00,3.262316703796386719e+00,3.349261760711669922e+00,3.440968513488769531e+00,3.537838459014892578e+00,3.640320777893066406e+00,3.748917579650878906e+00,3.864187002182006836e+00,3.986765861511230469e+00,4.117375850677490234e+00,4.256833553314208984e+00,4.406069755554199219e+00,4.566150188446044922e+00,4.738300800323486328e+00,4.923940658569335938e+00,5.000000000000000000e+00,5.000000000000000000e+00,5.000000000000000000e+00,5.000000000000000000e+00,5.000000000000000000e+00,2.617782831192016602e+00,2.619854927062988281e+00,2.565198421478271484e+00,2.556967496871948242e+00,2.561802864074707031e+00,2.578202009201049805e+00,2.608663797378540039e+00,2.664643049240112305e+00,2.742037057876586914e+00,2.740580081939697266e+00,2.782159566879272461e+00,5.000000000000000000e+00,5.000000000000000000e+00,5.000000000000000000e+00,5.000000000000000000e+00,5.000000000000000000e+00,5.000000000000000000e+00,5.000000000000000000e+00,5.000000000000000000e+00,5.000000000000000000e+00,5.000000000000000000e+00,5.000000000000000000e+00,5.000000000000000000e+00,5.000000000000000000e+00,5.000000000000000000e+00,5.000000000000000000e+00,5.000000000000000000e+00,5.000000000000000000e+00,5.000000000000000000e+00,5.000000000000000000e+00,5.000000000000000000e+00,5.000000000000000000e+00,5.000000000000000000e+00,5.000000000000000000e+00,5.000000000000000000e+00,5.000000000000000000e+00,5.000000000000000000e+00,5.000000000000000000e+00,5.000000000000000000e+00,5.000000000000000000e+00,5.000000000000000000e+00,5.000000000000000000e+00,5.000000000000000000e+00,5.000000000000000000e+00,5.000000000000000000e+00,5.000000000000000000e+00,5.000000000000000000e+00,5.000000000000000000e+00,5.000000000000000000e+00,4.846780300140380859e+00,4.687747478485107422e+00,4.538819789886474609e+00,4.399063110351562500e+00,4.267656803131103516e+00,4.143868923187255859e+00,4.027060031890869141e+00,3.916656017303466797e+00,3.812144279479980469e+00,3.713064908981323242e+00
3.101233482360839844e+00,3.179701328277587891e+00,3.262243270874023438e+00,3.349184513092041016e+00,3.440886497497558594e+00,3.537751913070678711e+00,3.640229225158691406e+00,3.748820304870605469e+00,3.864089488983154297e+00,3.986665964126586914e+00,4.117269515991210938e+00,4.256720066070556641e+00,4.405948162078857422e+00,4.566019058227539062e+00,4.738159656524658203e+00,4.923788547515869141e+00,5.000000000000000000e+00,5.000000000000000000e+00,5.000000000000000000e+00,5.000000000000000000e+00,5.000000000000000000e+00,2.622588634490966797e+00,2.626717329025268555e+00,2.574719905853271484e+00,2.559174060821533203e+00,2.563606262207031250e+00,2.580346584320068359e+00,2.608362197875976562e+00,2.657634496688842773e+00,5.000000000000000000e+00,2.735184669494628906e+00,2.775231838226318359e+00,5.000000000000000000e+00,5.000000000000000000e+00,5.000000000000000000e+00,5.000000000000000000e+00,5.000000000000000000e+00,5.000000000000000000e+00,5.000000000000000000e+00,5.000000000000000000e+00,5.000000000000000000e+00,5.000000000000000000e+00,5.000000000000000000e+00,5.000000000000000000e+00,5.000000000000000000e+00,5.000000000000000000e+00,5.000000000000000000e+00,5.000000000000000000e+00,5.000000000000000000e+00,5.000000000000000000e+00,5.000000000000000000e+00,5.000000000000000000e+00,5.000000000000000000e+00,5.000000000000000000e+00,5.000000000000000000e+00,5.000000000000000000e+00,5.000000000000000000e+00,5.000000000000000000e+00,5.000000000000000000e+00,5.000000000000000000e+00,5.000000000000000000e+00,5.000000000000000000e+00,5.000000000000000000e+00,5.000000000000000000e+00,5.000000000000000000e+00,5.000000000000000000e+00,5.000000000000000000e+00,5.000000000000000000e+00,5.000000000000000000e+00,5.000000000000000000e+00,4.846922874450683594e+00,4.687881469726562500e+00,4.538941860198974609e+00,4.399174213409423828e+00,4.267756938934326172e+00,4.143963336944580078e+00,4.027149200439453125e+00,3.916740655899047852e+00,3.812224388122558594e+00,3.713140726089477539e+00
3.101167201995849609e+00,3.179631471633911133e+00,3.262169599533081055e+00,3.349107027053833008e+00,3.440804719924926758e+00,3.537665367126464844e+00,3.640137672424316406e+00,3.748723268508911133e+00,3.863986253738403320e+00,3.986562252044677734e+00,4.117163181304931641e+00,4.256606101989746094e+00,4.405826091766357422e+00,4.565888404846191406e+00,4.738018989562988281e+00,4.923636436462402344e+00,5.000000000000000000e+00,5.000000000000000000e+00,5.000000000000000000e+00,5.000000000000000000e+00,5.000000000000000000e+00,2.632874727249145508e+00,2.617380142211914062e+00,2.556821107864379883e+00,2.546155929565429688e+00,2.555807590484619141e+00,2.584435224533081055e+00,2.606737852096557617e+00,2.673984527587890625e+00,5.000000000000000000e+00,2.746625661849975586e+00,2.774111747741699219e+00,5.000000000000000000e+00,5.000000000000000000e+00,5.000000000000000000e+00,5.000000000000000000e+00,5.000000000000000000e+00,5.000000000000000000e+00,5.000000000000000000e+00,5.000000000000000000e+00,5.000000000000000000e+00,5.000000000000000000e+00,5.000000000000000000e+00,5.000000000000000000e+00,5.000000000000000000e+00,5.000000000000000000e+00,5.000000000000000000e+00,5.000000000000000000e+00,5.000000000000000000e+00,5.000000000000000000e+00,5.000000000000000000e+00,5.000000000000000000e+00,5.000000000000000000e+00,5.000000000000000000e+00,5.000000000000000000e+00,5.000000000000000000e+00,5.000000000000000000e+00,5.000000000000000000e+00,5.000000000000000000e+00,5.000000000000000000e+00,5.000000000000000000e+00,5.000000000000000000e+00,5.000000000000000000e+00,5.000000000000000000e+00,5.000000000000000000e+00,5.000000000000000000e+00,5.000000000000000000e+00,5.000000000000000000e+00,5.000000000000000000e+00,5.000000000000000000e+00,4.847058773040771484e+00,4.688003063201904297e+00,4.539055347442626953e+00,4.399280548095703125e+00,4.267857074737548828e+00,4.144057750701904297e+00,4.027238368988037109e+00,3.916824817657470703e+00,3.812304019927978516e+00,3.713216304779052734e+00
3.101100683212280273e+00,3.179561614990234375e+00,3.262096166610717773e+00,3.349029541015625000e+00,3.440722942352294922e+00,3.537578821182250977e+00,3.640046119689941406e+00,3.748625993728637695e+00,3.863883018493652344e+00,3.986452341079711914e+00,4.117052555084228516e+00,4.256492614746093750e+00,4.405704498291015625e+00,4.565757274627685547e+00,4.737877845764160156e+00,4.923484325408935547e+00,5.000000000000000000e+00,5.000000000000000000e+00,5.000000000000000000e+00,5.000000000000000000e+00,5.000000000000000000e+00,2.644613981246948242e+00,2.596580743789672852e+00,2.555585861206054688e+00,2.541382551193237305e+00,2.552678823471069336e+00,2.574559926986694336e+00,2.598584890365600586e+00,2.647746324539184570e+00,5.000000000000000000e+00,2.757207870483398438e+00,2.750220060348510742e+00,5.000000000000000000e+00,5.000000000000000000e+00,5.000000000000000000e+00,5.000000000000000000e+00,5.000000000000000000e+00,5.000000000000000000e+00,5.000000000000000000e+00,5.000000000000000000e+00,5.000000000000000000e+00,5.000000000000000000e+00,5.000000000000000000e+00,5.000000000000000000e+00,5.000000000000000000e+00,5.000000000000000000e+00,5.000000000000000000e+00,5.000000000000000000e+00,5.000000000000000000e+00,5.000000000000000000e+00,5.000000000000000000e+00,5.000000000000000000e+00,5.000000000000000000e+00,5.000000000000000000e+00,5.000000000000000000e+00,5.000000000000000000e+00,5.000000000000000000e+00,5.000000000000000000e+00,5.000000000000000000e+00,5.000000000000000000e+00,5.000000000000000000e+00,5.000000000000000000e+00,5.000000000000000000e+00,5.000000000000000000e+00,5.000000000000000000e+00,5.000000000000000000e+00,5.000000000000000000e+00,5.000000000000000000e+00,5.000000000000000000e+00,5.000000000000000000e+00,4.847187995910644531e+00,4.688124179840087891e+00,4.539168357849121094e+00,4.399386882781982422e+00,4.267957210540771484e+00,4.144152164459228516e+00,4.027327537536621094e+00,3.916909456253051758e+00,3.812384128570556641e+00,3.713292360305786133e+00
3.101034164428710938e+00,3.179491758346557617e+00,3.262022495269775391e+00,3.348951816558837891e+00,3.440641403198242188e+00,3.537492275238037109e+00,3.639954328536987305e+00,3.748528957366943359e+00,3.863779783248901367e+00,3.986342430114746094e+00,4.116935253143310547e+00,4.256374359130859375e+00,4.405582427978515625e+00,4.565626621246337891e+00,4.737737178802490234e+00,4.923331737518310547e+00,5.000000000000000000e+00,5.000000000000000000e+00,5.000000000000000000e+00,5.000000000000000000e+00,5.000000000000000000e+00,2.646018981933593750e+00,2.603900194168090820e+00,2.566474676132202148e+00,2.559504985809326172e+00,2.565846920013427734e+00,2.577202558517456055e+00,2.609538078308105469e+00,2.663837909698486328e+00,5.000000000000000000e+00,2.733395576477050781e+00,2.715306043624877930e+00,5.000000000000000000e+00,5.000000000000000000e+00,5.000000000000000000e+00,5.000000000000000000e+00,5.000000000000000000e+00,5.000000000000000000e+00,5.000000000000000000e+00,5.000000000000000000e+00,5.000000000000000000e+00,5.000000000000000000e+00,5.000000000000000000e+00,5.000000000000000000e+00,5.000000000000000000e+00,5.000000000000000000e+00,5.000000000000000000e+00,5.000000000000000000e+00,5.000000000000000000e+00,5.000000000000000000e+00,5.000000000000000000e+00,5.000000000000000000e+00,5.000000000000000000e+00,5.000000000000000000e+00,5.000000000000000000e+00,5.000000000000000000e+00,5.000000000000000000e+00,5.000000000000000000e+00,5.000000000000000000e+00,5.000000000000000000e+00,5.000000000000000000e+00,5.000000000000000000e+00,5.000000000000000000e+00,5.000000000000000000e+00,5.000000000000000000e+00,5.000000000000000000e+00,5.000000000000000000e+00,5.000000000000000000e+00,5.000000000000000000e+00,5.000000000000000000e+00,4.847317218780517578e+00,4.688244819641113281e+00,4.539281845092773438e+00,4.399493217468261719e+00,4.268057346343994141e+00,4.144246578216552734e+00,4.027416706085205078e+00,3.916993618011474609e+00,3.812463998794555664e+00,3.713367938995361328e+00
3.100967645645141602e+00,3.179421901702880859e+00,3.261948823928833008e+00,3.348874330520629883e+00,3.440559625625610352e+00,3.537405967712402344e+00,3.639862775802612305e+00,3.748431682586669922e+00,3.863676548004150391e+00,3.986232519149780273e+00,4.116817951202392578e+00,4.256249427795410156e+00,4.405456066131591797e+00,4.565495491027832031e+00,4.737596035003662109e+00,4.923179626464843750e+00,5.000000000000000000e+00,5.000000000000000000e+00,5.000000000000000000e+00,5.000000000000000000e+00,5.000000000000000000e+00,2.634466886520385742e+00,2.608243942260742188e+00,2.562265157699584961e+00,2.559270620346069336e+00,2.579577207565307617e+00,2.580115556716918945e+00,2.615237236022949219e+00,2.657954454421997070e+00,5.000000000000000000e+00,5.000000000000000000e+00,2.684370040893554688e+00,2.701138019561767578e+00,5.000000000000000000e+00,5.000000000000000000e+00,5.000000000000000000e+00,5.000000000000000000e+00,5.000000000000000000e+00,5.000000000000000000e+00,5.000000000000000000e+00,5.000000000000000000e+00,5.000000000000000000e+00,5.000000000000000000e+00,5.000000000000000000e+00,5.000000000000000000e+00,5.000000000000000000e+00,5.000000000000000000e+00,5.000000000000000000e+00,5.000000000000000000e+00,5.000000000000000000e+00,5.000000000000000000e+00,5.000000000000000000e+00,5.000000000000000000e+00,5.000000000000000000e+00,5.000000000000000000e+00,5.000000000000000000e+00,5.000000000000000000e+00,5.000000000000000000e+00,5.000000000000000000e+00,5.000000000000000000e+00,5.000000000000000000e+00,5.000000000000000000e+00,5.000000000000000000e+00,5.000000000000000000e+00,5.000000000000000000e+00,5.000000000000000000e+00,5.000000000000000000e+00,5.000000000000000000e+00,5.000000000000000000e+00,5.000000000000000000e+00,4.847446441650390625e+00,4.688365936279296875e+00,4.539395332336425781e+00,4.399599552154541016e+00,4.268157482147216797e+00,4.144340991973876953e+00,4.027505874633789062e+00,3.917078018188476562e+00,3.812544107437133789e+00,3.713443994522094727e+00
3.100901126861572266e+00,3.179352045059204102e+00,3.261875391006469727e+00,3.348796844482421875e+00,3.440477609634399414e+00,3.537319421768188477e+00,3.639771223068237305e+00,3.748334646224975586e+00,3.863573312759399414e+00,3.986122608184814453e+00,4.116700649261474609e+00,4.256124019622802734e+00,4.405322074890136719e+00,4.565360069274902344e+00,4.737454891204833984e+00,4.923027515411376953e+00,5.000000000000000000e+00,5.000000000000000000e+00,5.000000000000000000e+00,5.000000000000000000e+00,5.000000000000000000e+00,2.627485036849975586e+00,2.584123849868774414e+00,2.511378765106201172e+00,2.506409645080566406e+00,2.564228534698486328e+00,2.609202384948730469e+00,2.639942407608032227e+00,2.660646438598632812e+00,5.000000000000000000e+00,5.000000000000000000e+00,2.695798397064208984e+00,2.667777776718139648e+00,5.000000000000000000e+00,5.000000000000000000e+00,5.000000000000000000e+00,5.000000000000000000e+00,5.000000000000000000e+00,5.000000000000000000e+00,5.000000000000000000e+00,5.000000000000000000e+00,5.000000000000000000e+00,5.000000000000000000e+00,5.000000000000000000e+00,5.000000000000000000e+00,5.000000000000000000e+00,5.000000000000000000e+00,5.000000000000000000e+00,5.000000000000000000e+00,5.000000000000000000e+00,5.000000000000000000e+00,5.000000000000000000e+00,5.000000000000000000e+00,5.000000000000000000e+00,5.000000000000000000e+00,5.000000000000000000e+00,5.000000000000000000e+00,5.000000000000000000e+00,5.000000000000000000e+00,5.000000000000000000e+00,5.000000000000000000e+00,5.000000000000000000e+00,5.000000000000000000e+00,5.000000000000000000e+00,5.000000000000000000e+00,5.000000000000000000e+00,5.000000000000000000e+00,5.000000000000000000e+00,5.000000000000000000e+00,5.000000000000000000e+00,4.847575664520263672e+00,4.688486576080322266e+00,4.539508342742919922e+00,4.399706363677978516e+00,4.268257617950439453e+00,4.144435405731201172e+00,4.027595043182373047e+00,3.917162179946899414e+00,3.812623739242553711e+00,3.713519573211669922e+00
3.100807666778564453e+00,3.179269313812255859e+00,3.261801719665527344e+00,3.348719358444213867e+00,3.440395832061767578e+00,3.537233114242553711e+00,3.639679670333862305e+00,3.748237371444702148e+00,3.863470315933227539e+00,3.986012935638427734e+00,4.116583824157714844e+00,4.255998611450195312e+00,4.405187606811523438e+00,4.565216064453125000e+00,4.737309455871582031e+00,4.922874927520751953e+00,5.000000000000000000e+00,5.000000000000000000e+00,5.000000000000000000e+00,5.000000000000000000e+00,5.000000000000000000e+00,2.615406990051269531e+00,2.548103570938110352e+00,2.490518331527709961e+00,2.485523939132690430e+00,2.509985685348510742e+00,2.646452665328979492e+00,2.645058155059814453e+00,2.667425155639648438e+00,5.000000000000000000e+00,5.000000000000000000e+00,5.000000000000000000e+00,2.617723703384399414e+00,5.000000000000000000e+00,5.000000000000000000e+00,5.000000000000000000e+00,5.000000000000000000e+00,5.000000000000000000e+00,5.000000000000000000e+00,5.000000000000000000e+00,5.000000000000000000e+00,5.000000000000000000e+00,5.000000000000000000e+00,5.000000000000000000e+00,5.000000000000000000e+00,5.000000000000000000e+00,5.000000000000000000e+00,5.000000000000000000e+00,5.000000000000000000e+00,5.000000000000000000e+00,5.000000000000000000e+00,5.000000000000000000e+00,5.000000000000000000e+00,5.000000000000000000e+00,5.000000000000000000e+00,5.000000000000000000e+00,5.000000000000000000e+00,5.000000000000000000e+00,5.000000000000000000e+00,5.000000000000000000e+00,5.000000000000000000e+00,5.000000000000000000e+00,5.000000000000000000e+00,5.000000000000000000e+00,5.000000000000000000e+00,5.000000000000000000e+00,5.000000000000000000e+00,5.000000000000000000e+00,5.000000000000000000e+00,5.000000000000000000e+00,4.847704410552978516e+00,4.688607692718505859e+00,4.539621829986572266e+00,4.399812698364257812e+00,4.268357753753662109e+00,4.144529819488525391e+00,4.027684211730957031e+00,3.917246818542480469e+00,3.812703847885131836e+00,3.713595628738403320e+00
3.100708961486816406e+00,3.179165601730346680e+00,3.261695623397827148e+00,3.348624706268310547e+00,3.440314054489135742e+00,3.537146806716918945e+00,3.639588117599487305e+00,3.748140335083007812e+00,3.863367080688476562e+00,3.985903024673461914e+00,4.116466522216796875e+00,4.255873680114746094e+00,4.405053615570068359e+00,4.565072059631347656e+00,4.737154006958007812e+00,4.922718048095703125e+00,5.000000000000000000e+00,5.000000000000000000e+00,5.000000000000000000e+00,5.000000000000000000e+00,5.000000000000000000e+00,2.609014511108398438e+00,2.579372167587280273e+00,2.474621295928955078e+00,2.468723773956298828e+00,2.489156007766723633e+00,2.646827936172485352e+00,2.645509481430053711e+00,2.671111106872558594e+00,5.000000000000000000e+00,5.000000000000000000e+00,5.000000000000000000e+00,5.000000000000000000e+00,2.584617137908935547e+00,5.000000000000000000e+00,5.000000000000000000e+00,5.000000000000000000e+00,5.000000000000000000e+00,5.000000000000000000e+00,5.000000000000000000e+00,5.000000000000000000e+00,5.000000000000000000e+00,5.000000000000000000e+00,5.000000000000000000e+00,5.000000000000000000e+00,5.000000000000000000e+00,5.000000000000000000e+00,5.000000000000000000e+00,5.000000000000000000e+00,5.000000000000000000e+00,5.000000000000000000e+00,5.000000000000000000e+00,5.000000000000000000e+00,5.000000000000000000e+00,5.000000000000000000e+00,5.000000000000000000e+00,5.000000000000000000e+00,5.000000000000000000e+00,5.000000000000000000e+00,5.000000000000000000e+00,5.000000000000000000e+00,5.000000000000000000e+00,5.000000000000000000e+00,5.000000000000000000e+00,5.000000000000000000e+00,5.000000000000000000e+00,5.000000000000000000e+00,5.000000000000000000e+00,5.000000000000000000e+00,5.000000000000000000e+00,4.847833633422851562e+00,4.688728332519531250e+00,4.539735317230224609e+00,4.399919033050537109e+00,4.268457889556884766e+00,4.144624233245849609e+00,4.027773380279541016e+00,3.917330980300903320e+00,3.812783718109130859e+00,3.713671445846557617e+00
3.100610017776489258e+00,3.179061651229858398e+00,3.261586189270019531e+00,3.348509311676025391e+00,3.440192699432373047e+00,3.537037849426269531e+00,3.639493703842163086e+00,3.748043060302734375e+00,3.863263845443725586e+00,3.985793113708496094e+00,4.116349220275878906e+00,4.255748271942138672e+00,4.404919624328613281e+00,4.564928054809570312e+00,4.736999034881591797e+00,4.922550201416015625e+00,5.000000000000000000e+00,5.000000000000000000e+00,5.000000000000000000e+00,5.000000000000000000e+00,5.000000000000000000e+00,2.608066320419311523e+00,5.000000000000000000e+00,2.460181474685668945e+00,2.453049659729003906e+00,2.467978000640869141e+00,2.654467582702636719e+00,2.652255058288574219e+00,2.683923721313476562e+00,5.000000000000000000e+00,5.000000000000000000e+00,5.000000000000000000e+00,5.000000000000000000e+00,5.000000000000000000e+00,5.000000000000000000e+00,5.000000000000000000e+00,5.000000000000000000e+00,5.000000000000000000e+00,5.000000000000000000e+00,5.000000000000000000e+00,5.000000000000000000e+00,5.000000000000000000e+00,5.000000000000000000e+00,5.000000000000000000e+00,5.000000000000000000e+00,5.000000000000000000e+00,5.000000000000000000e+00,5.000000000000000000e+00,5.000000000000000000e+00,5.000000000000000000e+00,5.000000000000000000e+00,5.000000000000000000e+00,5.000000000000000000e+00,5.000000000000000000e+00,5.000000000000000000e+00,5.000000000000000000e+00,5.000000000000000000e+00,5.000000000000000000e+00,5.000000000000000000e+00,5.000000000000000000e+00,5.000000000000000000e+00,5.000000000000000000e+00,5.000000000000000000e+00,5.000000000000000000e+00,5.000000000000000000e+00,5.000000000000000000e+00,5.000000000000000000e+00,5.000000000000000000e+00,5.000000000000000000e+00,5.000000000000000000e+00,4.847962856292724609e+00,4.688849449157714844e+00,4.539848327636718750e+00,4.400025367736816406e+00,4.268558025360107422e+00,4.144718647003173828e+00,4.027863025665283203e+00,3.917415618896484375e+00,3.812863826751708984e+00,3.713747024536132812e+00
3.100540161132812500e+00,3.178972005844116211e+00,3.261476755142211914e+00,3.348394155502319336e+00,3.440071105957031250e+00,3.536909103393554688e+00,3.639357566833496094e+00,3.747917652130126953e+00,3.863153457641601562e+00,3.985683202743530273e+00,4.116232395172119141e+00,4.255622863769531250e+00,4.404785156250000000e+00,4.564784049987792969e+00,4.736843585968017578e+00,4.922382831573486328e+00,5.000000000000000000e+00,5.000000000000000000e+00,5.000000000000000000e+00,5.000000000000000000e+00,5.000000000000000000e+00,2.588962554931640625e+00,2.597337245941162109e+00,2.464036226272583008e+00,2.434284210205078125e+00,2.445565223693847656e+00,2.560382843017578125e+00,2.665084838867187500e+00,2.702537298202514648e+00,5.000000000000000000e+00,5.000000000000000000e+00,5.000000000000000000e+00,5.000000000000000000e+00,5.000000000000000000e+00,5.000000000000000000e+00,5.000000000000000000e+00,5.000000000000000000e+00,5.000000000000000000e+00,5.000000000000000000e+00,5.000000000000000000e+00,5.000000000000000000e+00,5.000000000000000000e+00,5.000000000000000000e+00,5.000000000000000000e+00,5.000000000000000000e+00,5.000000000000000000e+00,5.000000000000000000e+00,5.000000000000000000e+00,5.000000000000000000e+00,5.000000000000000000e+00,5.000000000000000000e+00,5.000000000000000000e+00,5.000000000000000000e+00,5.000000000000000000e+00,5.000000000000000000e+00,5.000000000000000000e+00,5.000000000000000000e+00,5.000000000000000000e+00,5.000000000000000000e+00,5.000000000000000000e+00,5.000000000000000000e+00,5.000000000000000000e+00,5.000000000000000000e+00,5.000000000000000000e+00,5.000000000000000000e+00,5.000000000000000000e+00,5.000000000000000000e+00,5.000000000000000000e+00,5.000000000000000000e+00,5.000000000000000000e+00,4.848092079162597656e+00,4.688970088958740234e+00,4.539961814880371094e+00,4.400132179260253906e+00,4.268658161163330078e+00,4.144813060760498047e+00,4.027952194213867188e+00,3.917499780654907227e+00,3.812943458557128906e+00,3.713823080062866211e+00
3.100473642349243164e+00,3.178902149200439453e+00,3.261402130126953125e+00,3.348297834396362305e+00,3.439950704574584961e+00,3.536780595779418945e+00,3.639221191406250000e+00,3.747773170471191406e+00,3.863000154495239258e+00,3.985537052154541016e+00,4.116102695465087891e+00,4.255497932434082031e+00,4.404651165008544922e+00,4.564640045166015625e+00,4.736689090728759766e+00,4.922215461730957031e+00,5.000000000000000000e+00,5.000000000000000000e+00,5.000000000000000000e+00,5.000000000000000000e+00,5.000000000000000000e+00,2.576071977615356445e+00,5.000000000000000000e+00,2.479146242141723633e+00,2.415899515151977539e+00,2.423724651336669922e+00,2.471101045608520508e+00,2.679852724075317383e+00,2.724551677703857422e+00,5.000000000000000000e+00,5.000000000000000000e+00,5.000000000000000000e+00,5.000000000000000000e+00,5.000000000000000000e+00,5.000000000000000000e+00,5.000000000000000000e+00,5.000000000000000000e+00,5.000000000000000000e+00,5.000000000000000000e+00,5.000000000000000000e+00,5.000000000000000000e+00,5.000000000000000000e+00,5.000000000000000000e+00,5.000000000000000000e+00,5.000000000000000000e+00,5.000000000000000000e+00,5.000000000000000000e+00,5.000000000000000000e+00,5.000000000000000000e+00,5.000000000000000000e+00,5.000000000000000000e+00,5.000000000000000000e+00,5.000000000000000000e+00,5.000000000000000000e+00,5.000000000000000000e+00,5.000000000000000000e+00,5.000000000000000000e+00,5.000000000000000000e+00,5.000000000000000000e+00,5.000000000000000000e+00,5.000000000000000000e+00,5.000000000000000000e+00,5.000000000000000000e+00,5.000000000000000000e+00,5.000000000000000000e+00,5.000000000000000000e+00,5.000000000000000000e+00,5.000000000000000000e+00,5.000000000000000000e+00,5.000000000000000000e+00,4.848221302032470703e+00,4.689091205596923828e+00,4.540075302124023438e+00,4.400238513946533203e+00,4.268758296966552734e+00,4.144907951354980469e+00,4.028041362762451172e+00,3.917584419250488281e+00,3.813023567199707031e+00,3.713898658752441406e+00
3.100407123565673828e+00,3.178832769393920898e+00,3.261328458786010742e+00,3.348220348358154297e+00,3.439868927001953125e+00,3.536676168441772461e+00,3.639089822769165039e+00,3.747628688812255859e+00,3.862846612930297852e+00,3.985373735427856445e+00,4.115928649902343750e+00,4.255326271057128906e+00,4.404497623443603516e+00,4.564495563507080078e+00,4.736533641815185547e+00,4.922047615051269531e+00,5.000000000000000000e+00,5.000000000000000000e+00,5.000000000000000000e+00,5.000000000000000000e+00,5.000000000000000000e+00,2.568619966506958008e+00,5.000000000000000000e+00,2.517877817153930664e+00,2.405520677566528320e+00,2.401043415069580078e+00,2.441469192504882812e+00,2.694305419921875000e+00,2.746526241302490234e+00,5.000000000000000000e+00,5.000000000000000000e+00,5.000000000000000000e+00,5.000000000000000000e+00,5.000000000000000000e+00,5.000000000000000000e+00,5.000000000000000000e+00,5.000000000000000000e+00,5.000000000000000000e+00,5.000000000000000000e+00,5.000000000000000000e+00,5.000000000000000000e+00,5.000000000000000000e+00,5.000000000000000000e+00,5.000000000000000000e+00,5.000000000000000000e+00,5.000000000000000000e+00,5.000000000000000000e+00,5.000000000000000000e+00,5.000000000000000000e+00,5.000000000000000000e+00,5.000000000000000000e+00,5.000000000000000000e+00,5.000000000000000000e+00,5.000000000000000000e+00,5.000000000000000000e+00,5.000000000000000000e+00,5.000000000000000000e+00,5.000000000000000000e+00,5.000000000000000000e+00,5.000000000000000000e+00,5.000000000000000000e+00,5.000000000000000000e+00,5.000000000000000000e+00,5.000000000000000000e+00,5.000000000000000000e+00,5.000000000000000000e+00,5.000000000000000000e+00,5.000000000000000000e+00,5.000000000000000000e+00,5.000000000000000000e+00,4.848350524902343750e+00,4.689211845397949219e+00,4.540188312530517578e+00,4.400344848632812500e+00,4.268858432769775391e+00,4.145002365112304688e+00,4.028130531311035156e+00,3.917668581008911133e+00,3.813103437423706055e+00,3.713974714279174805e+00
3.100340604782104492e+00,3.178762912750244141e+00,3.261255025863647461e+00,3.348142862319946289e+00,3.439787149429321289e+00,3.536589622497558594e+00,3.638998270034790039e+00,3.747514963150024414e+00,3.862702131271362305e+00,3.985210895538330078e+00,4.115754604339599609e+00,4.255140304565429688e+00,4.404298305511474609e+00,4.564292907714843750e+00,4.736350536346435547e+00,4.921880245208740234e+00,5.000000000000000000e+00,5.000000000000000000e+00,5.000000000000000000e+00,5.000000000000000000e+00,5.000000000000000000e+00,5.000000000000000000e+00,5.000000000000000000e+00,5.000000000000000000e+00,2.403028726577758789e+00,2.392769813537597656e+00,2.422161579132080078e+00,2.708740472793579102e+00,5.000000000000000000e+00,5.000000000000000000e+00,5.000000000000000000e+00,5.000000000000000000e+00,5.000000000000000000e+00,5.000000000000000000e+00,5.000000000000000000e+00,5.000000000000000000e+00,5.000000000000000000e+00,5.000000000000000000e+00,5.000000000000000000e+00,5.000000000000000000e+00,5.000000000000000000e+00,5.000000000000000000e+00,5.000000000000000000e+00,5.000000000000000000e+00,5.000000000000000000e+00,5.000000000000000000e+00,5.000000000000000000e+00,5.000000000000000000e+00,5.000000000000000000e+00,5.000000000000000000e+00,5.000000000000000000e+00,5.000000000000000000e+00,5.000000000000000000e+00,5.000000000000000000e+00,5.000000000000000000e+00,5.000000000000000000e+00,5.000000000000000000e+00,5.000000000000000000e+00,5.000000000000000000e+00,5.000000000000000000e+00,5.000000000000000000e+00,5.000000000000000000e+00,5.000000000000000000e+00,5.000000000000000000e+00,5.000000000000000000e+00,5.000000000000000000e+00,5.000000000000000000e+00,5.000000000000000000e+00,5.000000000000000000e+00,5.000000000000000000e+00,4.848479747772216797e+00,4.689332962036132812e+00,4.540301799774169922e+00,4.400451183319091797e+00,4.268958568572998047e+00,4.145096778869628906e+00,4.028219699859619141e+00,3.917753219604492188e+00,3.813183069229125977e+00,3.714051485061645508e+00
3.100274324417114258e+00,3.178693056106567383e+00,3.261181354522705078e+00,3.348065376281738281e+00,3.439705610275268555e+00,3.536503314971923828e+00,3.638907194137573242e+00,3.747417926788330078e+00,3.862599372863769531e+00,3.985085487365722656e+00,4.115594387054443359e+00,4.254954338073730469e+00,4.404098987579345703e+00,4.564079284667968750e+00,4.736119747161865234e+00,4.921638488769531250e+00,5.000000000000000000e+00,5.000000000000000000e+00,5.000000000000000000e+00,5.000000000000000000e+00,5.000000000000000000e+00,5.000000000000000000e+00,5.000000000000000000e+00,5.000000000000000000e+00,2.408574819564819336e+00,2.398351192474365234e+00,2.432625293731689453e+00,2.723330974578857422e+00,5.000000000000000000e+00,5.000000000000000000e+00,5.000000000000000000e+00,5.000000000000000000e+00,5.000000000000000000e+00,5.000000000000000000e+00,5.000000000000000000e+00,5.000000000000000000e+00,5.000000000000000000e+00,5.000000000000000000e+00,5.000000000000000000e+00,5.000000000000000000e+00,5.000000000000000000e+00,5.000000000000000000e+00,5.000000000000000000e+00,5.000000000000000000e+00,5.000000000000000000e+00,5.000000000000000000e+00,5.000000000000000000e+00,5.000000000000000000e+00,5.000000000000000000e+00,5.000000000000000000e+00,5.000000000000000000e+00,5.000000000000000000e+00,5.000000000000000000e+00,5.000000000000000000e+00,5.000000000000000000e+00,5.000000000000000000e+00,5.000000000000000000e+00,5.000000000000000000e+00,5.000000000000000000e+00,5.000000000000000000e+00,5.000000000000000000e+00,5.000000000000000000e+00,5.000000000000000000e+00,5.000000000000000000e+00,5.000000000000000000e+00,5.000000000000000000e+00,5.000000000000000000e+00,5.000000000000000000e+00,5.000000000000000000e+00,5.000000000000000000e+00,4.848608970642089844e+00,4.689453601837158203e+00,4.540415287017822266e+00,4.400557994842529297e+00,4.269058704376220703e+00,4.145191192626953125e+00,4.028308868408203125e+00,3.917840957641601562e+00,3.813269853591918945e+00,3.714135885238647461e+00
3.100208044052124023e+00,3.178623199462890625e+00,3.261108160018920898e+00,3.347987890243530273e+00,3.439623832702636719e+00,3.536416769027709961e+00,3.638815641403198242e+00,3.747320652008056641e+00,3.862496137619018555e+00,3.984975576400756836e+00,4.115477561950683594e+00,4.254816055297851562e+00,4.403920650482177734e+00,4.563865184783935547e+00,4.735889434814453125e+00,4.921390056610107422e+00,5.000000000000000000e+00,5.000000000000000000e+00,5.000000000000000000e+00,5.000000000000000000e+00,5.000000000000000000e+00,5.000000000000000000e+00,5.000000000000000000e+00,5.000000000000000000e+00,2.412936210632324219e+00,2.405046701431274414e+00,2.447242498397827148e+00,2.739356994628906250e+00,5.000000000000000000e+00,5.000000000000000000e+00,5.000000000000000000e+00,5.000000000000000000e+00,5.000000000000000000e+00,5.000000000000000000e+00,5.000000000000000000e+00,5.000000000000000000e+00,5.000000000000000000e+00,5.000000000000000000e+00,5.000000000000000000e+00,5.000000000000000000e+00,5.000000000000000000e+00,5.000000000000000000e+00,5.000000000000000000e+00,5.000000000000000000e+00,5.000000000000000000e+00,5.000000000000000000e+00,5.000000000000000000e+00,5.000000000000000000e+00,5.000000000000000000e+00,5.000000000000000000e+00,5.000000000000000000e+00,5.000000000000000000e+00,5.000000000000000000e+00,5.000000000000000000e+00,5.000000000000000000e+00,5.000000000000000000e+00,5.000000000000000000e+00,5.000000000000000000e+00,5.000000000000000000e+00,5.000000000000000000e+00,5.000000000000000000e+00,5.000000000000000000e+00,5.000000000000000000e+00,5.000000000000000000e+00,5.000000000000000000e+00,5.000000000000000000e+00,5.000000000000000000e+00,5.000000000000000000e+00,5.000000000000000000e+00,5.000000000000000000e+00,4.848738193511962891e+00,4.689574718475341797e+00,4.540528297424316406e+00,4.400663852691650391e+00,4.269161701202392578e+00,4.145291805267333984e+00,4.028407573699951172e+00,3.917934417724609375e+00,3.813358545303344727e+00,3.714219808578491211e+00
3.100141525268554688e+00,3.178553342819213867e+00,3.261034727096557617e+00,3.347910404205322266e+00,3.439542055130004883e+00,3.536330223083496094e+00,3.638724088668823242e+00,3.747223615646362305e+00,3.862393140792846680e+00,3.984866380691528320e+00,4.115360736846923828e+00,4.254691123962402344e+00,4.403786659240722656e+00,4.563711166381835938e+00,4.735688686370849609e+00,4.921140670776367188e+00,5.000000000000000000e+00,5.000000000000000000e+00,5.000000000000000000e+00,5.000000000000000000e+00,5.000000000000000000e+00,5.000000000000000000e+00,5.000000000000000000e+00,5.000000000000000000e+00,2.417557239532470703e+00,2.410743474960327148e+00,2.458559036254882812e+00,5.000000000000000000e+00,5.000000000000000000e+00,5.000000000000000000e+00,5.000000000000000000e+00,5.000000000000000000e+00,5.000000000000000000e+00,5.000000000000000000e+00,5.000000000000000000e+00,5.000000000000000000e+00,5.000000000000000000e+00,5.000000000000000000e+00,5.000000000000000000e+00,5.000000000000000000e+00,5.000000000000000000e+00,5.000000000000000000e+00,5.000000000000000000e+00,5.000000000000000000e+00,5.000000000000000000e+00,5.000000000000000000e+00,5.000000000000000000e+00,5.000000000000000000e+00,5.000000000000000000e+00,5.000000000000000000e+00,5.000000000000000000e+00,5.000000000000000000e+00,5.000000000000000000e+00,5.000000000000000000e+00,5.000000000000000000e+00,5.000000000000000000e+00,5.000000000000000000e+00,5.000000000000000000e+00,5.000000000000000000e+00,5.000000000000000000e+00,5.000000000000000000e+00,5.000000000000000000e+00,5.000000000000000000e+00,5.000000000000000000e+00,5.000000000000000000e+00,5.000000000000000000e+00,5.000000000000000000e+00,5.000000000000000000e+00,5.000000000000000000e+00,5.000000000000000000e+00,4.848867416381835938e+00,4.689697265625000000e+00,4.540647983551025391e+00,4.400781154632568359e+00,4.269273281097412109e+00,4.145397186279296875e+00,4.028506755828857422e+00,3.918028116226196289e+00,3.813447475433349609e+00,3.714303970336914062e+00
3.100075244903564453e+00,3.178483486175537109e+00,3.260961055755615234e+00,3.347832918167114258e+00,3.439460277557373047e+00,3.536244153976440430e+00,3.638632535934448242e+00,3.747127056121826172e+00,3.862289905548095703e+00,3.984756469726562500e+00,4.115243434906005859e+00,4.254566192626953125e+00,4.403652667999267578e+00,4.563567161560058594e+00,4.735533714294433594e+00,4.920967578887939453e+00,5.000000000000000000e+00,5.000000000000000000e+00,5.000000000000000000e+00,5.000000000000000000e+00,5.000000000000000000e+00,5.000000000000000000e+00,5.000000000000000000e+00,5.000000000000000000e+00,2.419883489608764648e+00,2.404381275177001953e+00,2.448050498962402344e+00,5.000000000000000000e+00,5.000000000000000000e+00,5.000000000000000000e+00,5.000000000000000000e+00,5.000000000000000000e+00,5.000000000000000000e+00,5.000000000000000000e+00,5.000000000000000000e+00,5.000000000000000000e+00,5.000000000000000000e+00,5.000000000000000000e+00,5.000000000000000000e+00,5.000000000000000000e+00,5.000000000000000000e+00,5.000000000000000000e+00,5.000000000000000000e+00,5.000000000000000000e+00,5.000000000000000000e+00,5.000000000000000000e+00,5.000000000000000000e+00,5.000000000000000000e+00,5.000000000000000000e+00,5.000000000000000000e+00,5.000000000000000000e+00,5.000000000000000000e+00,5.000000000000000000e+00,5.000000000000000000e+00,5.000000000000000000e+00,5.000000000000000000e+00,5.000000000000000000e+00,5.000000000000000000e+00,5.000000000000000000e+00,5.000000000000000000e+00,5.000000000000000000e+00,5.000000000000000000e+00,5.000000000000000000e+00,5.000000000000000000e+00,5.000000000000000000e+00,5.000000000000000000e+00,5.000000000000000000e+00,5.000000000000000000e+00,5.000000000000000000e+00,5.000000000000000000e+00,4.849007606506347656e+00,4.689831733703613281e+00,4.540773868560791016e+00,4.400898933410644531e+00,4.269384384155273438e+00,4.145501613616943359e+00,4.028605937957763672e+00,3.918121814727783203e+00,3.813535928726196289e+00,3.714388370513916016e+00
3.100008726119995117e+00,3.178413867950439453e+00,3.260887622833251953e+00,3.347755670547485352e+00,3.439378499984741211e+00,3.536157846450805664e+00,3.638540983200073242e+00,3.747029781341552734e+00,3.862186908721923828e+00,3.984646797180175781e+00,4.115126609802246094e+00,4.254440784454345703e+00,4.403518676757812500e+00,4.563423156738281250e+00,4.735378265380859375e+00,4.920800685882568359e+00,5.000000000000000000e+00,5.000000000000000000e+00,5.000000000000000000e+00,5.000000000000000000e+00,5.000000000000000000e+00,5.000000000000000000e+00,5.000000000000000000e+00,5.000000000000000000e+00,2.422613859176635742e+00,2.398630380630493164e+00,2.437631130218505859e+00,5.000000000000000000e+00,5.000000000000000000e+00,5.000000000000000000e+00,5.000000000000000000e+00,5.000000000000000000e+00,5.000000000000000000e+00,5.000000000000000000e+00,5.000000000000000000e+00,5.000000000000000000e+00,5.000000000000000000e+00,5.000000000000000000e+00,5.000000000000000000e+00,5.000000000000000000e+00,5.000000000000000000e+00,5.000000000000000000e+00,5.000000000000000000e+00,5.000000000000000000e+00,5.000000000000000000e+00,5.000000000000000000e+00,5.000000000000000000e+00,5.000000000000000000e+00,5.000000000000000000e+00,5.000000000000000000e+00,5.000000000000000000e+00,5.000000000000000000e+00,5.000000000000000000e+00,5.000000000000000000e+00,5.000000000000000000e+00,5.000000000000000000e+00,5.000000000000000000e+00,5.000000000000000000e+00,5.000000000000000000e+00,5.000000000000000000e+00,5.000000000000000000e+00,5.000000000000000000e+00,5.000000000000000000e+00,5.000000000000000000e+00,5.000000000000000000e+00,5.000000000000000000e+00,5.000000000000000000e+00,5.000000000000000000e+00,5.000000000000000000e+00,5.000000000000000000e+00,4.849151134490966797e+00,4.689965724945068359e+00,4.540899753570556641e+00,4.401017189025878906e+00,4.269495487213134766e+00,4.145606517791748047e+00,4.028705120086669922e+00,3.918215751647949219e+00,3.813624858856201172e+00,3.714472055435180664e+00
3.099942207336425781e+00,3.178344011306762695e+00,3.260813951492309570e+00,3.347678184509277344e+00,3.439296722412109375e+00,3.536071300506591797e+00,3.638449430465698242e+00,3.746932744979858398e+00,3.862083673477172852e+00,3.984536886215209961e+00,4.115009307861328125e+00,4.254315853118896484e+00,4.403384685516357422e+00,4.563279628753662109e+00,4.735223770141601562e+00,4.920633316040039062e+00,5.000000000000000000e+00,5.000000000000000000e+00,5.000000000000000000e+00,5.000000000000000000e+00,5.000000000000000000e+00,5.000000000000000000e+00,5.000000000000000000e+00,5.000000000000000000e+00,2.425350427627563477e+00,2.394324541091918945e+00,2.427493095397949219e+00,5.000000000000000000e+00,5.000000000000000000e+00,5.000000000000000000e+00,5.000000000000000000e+00,5.000000000000000000e+00,5.000000000000000000e+00,5.000000000000000000e+00,5.000000000000000000e+00,5.000000000000000000e+00,5.000000000000000000e+00,5.000000000000000000e+00,5.000000000000000000e+00,5.000000000000000000e+00,5.000000000000000000e+00,5.000000000000000000e+00,5.000000000000000000e+00,5.000000000000000000e+00,5.000000000000000000e+00,5.000000000000000000e+00,5.000000000000000000e+00,5.000000000000000000e+00,5.000000000000000000e+00,5.000000000000000000e+00,5.000000000000000000e+00,5.000000000000000000e+00,5.000000000000000000e+00,5.000000000000000000e+00,5.000000000000000000e+00,5.000000000000000000e+00,5.000000000000000000e+00,5.000000000000000000e+00,5.000000000000000000e+00,5.000000000000000000e+00,5.000000000000000000e+00,5.000000000000000000e+00,5.000000000000000000e+00,5.000000000000000000e+00,5.000000000000000000e+00,5.000000000000000000e+00,5.000000000000000000e+00,5.000000000000000000e+00,5.000000000000000000e+00,5.000000000000000000e+00,4.849294185638427734e+00,4.690099716186523438e+00,4.541025161743164062e+00,4.401135444641113281e+00,4.269606590270996094e+00,4.145711421966552734e+00,4.028803825378417969e+00,3.918308973312377930e+00,3.813713550567626953e+00,3.714556455612182617e+00
3.099875926971435547e+00,3.178274154663085938e+00,3.260740518569946289e+00,3.347600698471069336e+00,3.439214944839477539e+00,3.535984754562377930e+00,3.638358354568481445e+00,3.746835708618164062e+00,3.861980915069580078e+00,3.984427213668823242e+00,4.114892482757568359e+00,4.254190921783447266e+00,4.403250694274902344e+00,4.563135623931884766e+00,4.735068798065185547e+00,4.920465946197509766e+00,5.000000000000000000e+00,5.000000000000000000e+00,5.000000000000000000e+00,5.000000000000000000e+00,5.000000000000000000e+00,5.000000000000000000e+00,5.000000000000000000e+00,5.000000000000000000e+00,2.429000377655029297e+00,2.398885488510131836e+00,2.419231891632080078e+00,5.000000000000000000e+00,5.000000000000000000e+00,5.000000000000000000e+00,5.000000000000000000e+00,5.000000000000000000e+00,5.000000000000000000e+00,5.000000000000000000e+00,5.000000000000000000e+00,5.000000000000000000e+00,5.000000000000000000e+00,5.000000000000000000e+00,5.000000000000000000e+00,5.000000000000000000e+00,5.000000000000000000e+00,5.000000000000000000e+00,5.000000000000000000e+00,5.000000000000000000e+00,5.000000000000000000e+00,5.000000000000000000e+00,5.000000000000000000e+00,5.000000000000000000e+00,5.000000000000000000e+00,5.000000000000000000e+00,5.000000000000000000e+00,5.000000000000000000e+00,5.000000000000000000e+00,5.000000000000000000e+00,5.000000000000000000e+00,5.000000000000000000e+00,5.000000000000000000e+00,5.000000000000000000e+00,5.000000000000000000e+00,5.000000000000000000e+00,5.000000000000000000e+00,5.000000000000000000e+00,5.000000000000000000e+00,5.000000000000000000e+00,5.000000000000000000e+00,5.000000000000000000e+00,5.000000000000000000e+00,5.000000000000000000e+00,5.000000000000000000e+00,5.000000000000000000e+00,4.849438190460205078e+00,4.690234184265136719e+00,4.541151046752929688e+00,4.401253700256347656e+00,4.269718170166015625e+00,4.145816326141357422e+00,4.028903007507324219e+00,3.918402910232543945e+00,3.813802003860473633e+00,3.714640855789184570e+00
3.099809646606445312e+00,3.178204298019409180e+00,3.260667324066162109e+00,3.347523212432861328e+00,3.439133405685424805e+00,3.535898447036743164e+00,3.638266801834106445e+00,3.746738672256469727e+00,3.861877918243408203e+00,3.984317541122436523e+00,4.114775180816650391e+00,4.254065513610839844e+00,4.403116703033447266e+00,4.562991619110107422e+00,4.734913825988769531e+00,4.920298576354980469e+00,5.000000000000000000e+00,5.000000000000000000e+00,5.000000000000000000e+00,5.000000000000000000e+00,5.000000000000000000e+00,5.000000000000000000e+00,5.000000000000000000e+00,5.000000000000000000e+00,2.952898502349853516e+00,2.395938634872436523e+00,2.411026716232299805e+00,5.000000000000000000e+00,5.000000000000000000e+00,5.000000000000000000e+00,5.000000000000000000e+00,5.000000000000000000e+00,5.000000000000000000e+00,5.000000000000000000e+00,5.000000000000000000e+00,5.000000000000000000e+00,5.000000000000000000e+00,5.000000000000000000e+00,5.000000000000000000e+00,5.000000000000000000e+00,5.000000000000000000e+00,5.000000000000000000e+00,5.000000000000000000e+00,5.000000000000000000e+00,5.000000000000000000e+00,5.000000000000000000e+00,5.000000000000000000e+00,5.000000000000000000e+00,5.000000000000000000e+00,5.000000000000000000e+00,5.000000000000000000e+00,5.000000000000000000e+00,5.000000000000000000e+00,5.000000000000000000e+00,5.000000000000000000e+00,5.000000000000000000e+00,5.000000000000000000e+00,5.000000000000000000e+00,5.000000000000000000e+00,5.000000000000000000e+00,5.000000000000000000e+00,5.000000000000000000e+00,5.000000000000000000e+00,5.000000000000000000e+00,5.000000000000000000e+00,5.000000000000000000e+00,5.000000000000000000e+00,5.000000000000000000e+00,5.000000000000000000e+00,5.000000000000000000e+00,4.849581241607666016e+00,4.690368175506591797e+00,4.541276931762695312e+00,4.401371955871582031e+00,4.269829273223876953e+00,4.145921230316162109e+00,4.029002189636230469e+00,3.918496608734130859e+00,3.813890933990478516e+00,3.714725017547607422e+00
3.099743366241455078e+00,3.178134441375732422e+00,3.260593891143798828e+00,3.347445726394653320e+00,3.439051628112792969e+00,3.535811901092529297e+00,3.638175249099731445e+00,3.746641635894775391e+00,3.861774682998657227e+00,3.984207630157470703e+00,4.114658355712890625e+00,4.253941059112548828e+00,4.402982711791992188e+00,4.562847614288330078e+00,4.734758853912353516e+00,4.854078769683837891e+00,4.852868556976318359e+00,4.851658821105957031e+00,4.850449562072753906e+00,4.849241256713867188e+00,4.848033428192138672e+00,4.846826553344726562e+00,4.845619678497314453e+00,4.844413757324218750e+00,2.971341609954833984e+00,2.397690057754516602e+00,2.403446912765502930e+00,4.839595317840576172e+00,4.838392734527587891e+00,4.837190151214599609e+00,4.835988521575927734e+00,4.834786891937255859e+00,4.833586692810058594e+00,4.832386493682861328e+00,4.831186771392822266e+00,4.829988002777099609e+00,4.828790187835693359e+00,4.827592372894287109e+00,4.826395511627197266e+00,4.825198650360107422e+00,4.824003219604492188e+00,4.822807788848876953e+00,4.821613311767578125e+00,4.820418834686279297e+00,4.819225788116455078e+00,4.818032741546630859e+00,4.816840171813964844e+00,4.815648555755615234e+00,4.814457416534423828e+00,4.813266754150390625e+00,4.812077045440673828e+00,4.810887336730957031e+00,4.809698581695556641e+00,4.808510780334472656e+00,4.807322978973388672e+00,4.806135654449462891e+00,4.804949283599853516e+00,4.803763866424560547e+00,4.802578449249267578e+00,4.801393508911132812e+00,4.800209522247314453e+00,4.799026012420654297e+00,4.797843456268310547e+00,4.796660900115966797e+00,4.795478820800781250e+00,4.794298171997070312e+00,4.793117523193359375e+00,4.791937351226806641e+00,4.790757656097412109e+00,4.789579391479492188e+00,4.788401126861572266e+00,4.690502643585205078e+00,4.541402816772460938e+00,4.401490211486816406e+00,4.269940853118896484e+00,4.146026134490966797e+00,4.029100894927978516e+00,3.918590068817138672e+00,3.813979864120483398e+00,3.714808940887451172e+00
3.099676847457885742e+00,3.178064584732055664e+00,3.260520219802856445e+00,3.347368240356445312e+00,3.438969850540161133e+00,3.535725831985473633e+00,3.638083696365356445e+00,3.746545076370239258e+00,3.770678043365478516e+00,3.769947290420532227e+00,3.769217729568481445e+00,3.768487930297851562e+00,3.767758369445800781e+00,3.767029047012329102e+00,3.766300201416015625e+00,3.765571594238281250e+00,3.764843225479125977e+00,3.764114856719970703e+00,3.763387680053710938e+00,3.762660026550292969e+00,3.761932849884033203e+00,3.761205911636352539e+00,3.760479211807250977e+00,3.759752750396728516e+00,2.913716554641723633e+00,2.413093328475952148e+00,2.406299352645874023e+00,3.756850242614746094e+00,3.756125211715698242e+00,3.755400419235229492e+00,3.754676103591918945e+00,3.753951787948608398e+00,3.753227949142456055e+00,3.752504348754882812e+00,3.751780986785888672e+00,3.751058340072631836e+00,3.750335454940795898e+00,3.749613046646118164e+00,3.748890638351440430e+00,3.748168706893920898e+00,3.747447013854980469e+00,3.746725797653198242e+00,3.746004581451416016e+00,3.745284080505371094e+00,3.744563579559326172e+00,3.743843317031860352e+00,3.743123292922973633e+00,3.742403507232666016e+00,3.741684198379516602e+00,3.740964889526367188e+00,3.740246057510375977e+00,3.739527463912963867e+00,3.738809585571289062e+00,3.738091468811035156e+00,3.737373590469360352e+00,3.736656188964843750e+00,3.735938787460327148e+00,3.735221862792968750e+00,3.734505176544189453e+00,3.733788728713989258e+00,3.733072996139526367e+00,3.732357263565063477e+00,3.731641530990600586e+00,3.730926275253295898e+00,3.730211257934570312e+00,3.729496479034423828e+00,3.728781938552856445e+00,3.728067636489868164e+00,3.727354049682617188e+00,3.726640462875366211e+00,3.725927114486694336e+00,3.725213766098022461e+00,3.724500894546508789e+00,3.723788499832153320e+00,3.723076105117797852e+00,3.722363948822021484e+00,3.721652269363403320e+00,3.720941066741943359e+00,3.720229864120483398e+00,3.714893341064453125e+00
3.083136320114135742e+00,3.082648277282714844e+00,3.082160234451293945e+00,3.081672430038452148e+00,3.081184625625610352e+00,3.080697059631347656e+00,3.080209493637084961e+00,3.079722404479980469e+00,3.079235315322875977e+00,3.078748464584350586e+00,3.078261613845825195e+00,3.077775001525878906e+00,3.077288389205932617e+00,3.076802253723144531e+00,3.076315879821777344e+00,3.075829744338989258e+00,3.075343608856201172e+00,3.074857950210571289e+00,3.074372053146362305e+00,3.073886632919311523e+00,3.073401212692260742e+00,3.072916269302368164e+00,3.072431087493896484e+00,3.071946144104003906e+00,2.839709043502807617e+00,2.393189668655395508e+00,2.332743167877197266e+00,2.341338396072387695e+00,3.069523811340332031e+00,3.069039821624755859e+00,3.068556308746337891e+00,3.068072557449340820e+00,3.067588806152343750e+00,3.067105531692504883e+00,3.066622257232666016e+00,3.066139221191406250e+00,3.065656185150146484e+00,3.065173387527465820e+00,3.064691066741943359e+00,3.064208745956420898e+00,3.063726186752319336e+00,3.063244104385375977e+00,3.062762022018432617e+00,3.062280178070068359e+00,3.061798334121704102e+00,3.061316967010498047e+00,3.060835599899291992e+00,3.060354471206665039e+00,3.059873342514038086e+00,3.059392213821411133e+00,3.058911561965942383e+00,3.058430671691894531e+00,3.057950258255004883e+00,3.057469844818115234e+00,3.056989669799804688e+00,3.056509733200073242e+00,3.056030035018920898e+00,3.055550098419189453e+00,3.055070400238037109e+00,3.054590940475463867e+00,3.054111719131469727e+00,3.053632497787475586e+00,3.053153514862060547e+00,3.052675008773803711e+00,3.052196264266967773e+00,3.051717519760131836e+00,3.051239252090454102e+00,3.050760984420776367e+00,3.050282716751098633e+00,3.049804925918579102e+00,3.049327135086059570e+00,3.048849582672119141e+00,3.048372030258178711e+00,3.047894716262817383e+00,3.047417640686035156e+00,3.046940565109252930e+00,3.046463489532470703e+00,3.045986890792846680e+00,3.045510292053222656e+00,3.045033693313598633e+00
2.604867458343505859e+00,2.604518890380859375e+00,2.604170560836791992e+00,2.603821992874145508e+00,2.603473901748657227e+00,2.603125810623168945e+00,2.602777957916259766e+00,2.602429866790771484e+00,2.602082252502441406e+00,2.601734399795532227e+00,2.601386785507202148e+00,2.601039171218872070e+00,2.600691795349121094e+00,2.600344419479370117e+00,2.599997043609619141e+00,2.599649906158447266e+00,2.599302768707275391e+00,2.598955631256103516e+00,2.598608970642089844e+00,2.598262071609497070e+00,2.597915172576904297e+00,2.597568511962890625e+00,2.597221851348876953e+00,2.596875429153442383e+00,2.596529006958007812e+00,2.308433294296264648e+00,2.301470518112182617e+00,2.317990779876708984e+00,2.595144271850585938e+00,2.594798326492309570e+00,2.594452381134033203e+00,2.594106674194335938e+00,2.593760967254638672e+00,2.593415498733520508e+00,2.593070030212402344e+00,2.592724561691284180e+00,2.592379093170166016e+00,2.592033863067626953e+00,2.591688871383666992e+00,2.591343641281127930e+00,2.590998649597167969e+00,2.590654134750366211e+00,2.590309381484985352e+00,2.589964628219604492e+00,2.589620113372802734e+00,2.589275598526000977e+00,2.588931083679199219e+00,2.588586807250976562e+00,2.588242530822753906e+00,2.587898492813110352e+00,2.587554454803466797e+00,2.587210655212402344e+00,2.586866617202758789e+00,2.586523056030273438e+00,2.586179256439208984e+00,2.585835695266723633e+00,2.585492134094238281e+00,2.585148811340332031e+00,2.584805727005004883e+00,2.584462404251098633e+00,2.584119319915771484e+00,2.583776235580444336e+00,2.583433389663696289e+00,2.583090543746948242e+00,2.582747697830200195e+00,2.582405090332031250e+00,2.582062482833862305e+00,2.581720113754272461e+00,2.581377744674682617e+00,2.581035375595092773e+00,2.580693006515502930e+00,2.580350875854492188e+00,2.580008983612060547e+00,2.579666852951049805e+00,2.579325199127197266e+00,2.578983545303344727e+00,2.578641891479492188e+00,2.578300237655639648e+00,2.577958822250366211e+00,2.577617406845092773e+00
2.255053758621215820e+00,2.254792690277099609e+00,2.254531621932983398e+00,2.254270553588867188e+00,2.254009485244750977e+00,2.253748655319213867e+00,2.253487825393676758e+00,2.253226995468139648e+00,2.252966403961181641e+00,2.252705574035644531e+00,2.252444982528686523e+00,2.252184391021728516e+00,2.251924037933349609e+00,2.251663446426391602e+00,2.251403093338012695e+00,2.251142740249633789e+00,2.250882625579833984e+00,2.250622272491455078e+00,2.250362157821655273e+00,2.250102043151855469e+00,2.249842166900634766e+00,2.249582052230834961e+00,2.249322175979614258e+00,2.249062299728393555e+00,2.248802661895751953e+00,2.248542547225952148e+00,2.248282909393310547e+00,2.248023271560668945e+00,2.247763872146606445e+00,2.247504234313964844e+00,2.247244596481323242e+00,2.246985197067260742e+00,2.246725797653198242e+00,2.246466636657714844e+00,2.246207237243652344e+00,2.245948076248168945e+00,2.245689153671264648e+00,2.245429992675781250e+00,2.245171070098876953e+00,2.244911909103393555e+00,2.244652986526489258e+00,2.244394302368164062e+00,2.244135379791259766e+00,2.243876695632934570e+00,2.243618249893188477e+00,2.243359565734863281e+00,2.243101119995117188e+00,2.242842674255371094e+00,2.242584228515625000e+00,2.242325782775878906e+00,2.242067575454711914e+00,2.241809368133544922e+00,2.241551160812377930e+00,2.241293191909790039e+00,2.241034984588623047e+00,2.240777015686035156e+00,2.240519046783447266e+00,2.240261077880859375e+00,2.240003347396850586e+00,2.239745616912841797e+00,2.239487886428833008e+00,2.239230394363403320e+00,2.238972663879394531e+00,2.238715171813964844e+00,2.238457679748535156e+00,2.238200426101684570e+00,2.237942934036254883e+00,2.237685680389404297e+00,2.237428426742553711e+00,2.237171411514282227e+00,2.236914396286010742e+00,2.236657142639160156e+00,2.236400127410888672e+00,2.236143350601196289e+00,2.235886335372924805e+00,2.235629558563232422e+00,2.235372781753540039e+00,2.235116004943847656e+00,2.234859466552734375e+00,2.234602928161621094e+00
1.988071441650390625e+00,1.987868428230285645e+00,1.987665414810180664e+00,1.987462639808654785e+00,1.987259745597839355e+00,1.987056851387023926e+00,1.986853957176208496e+00,1.986651420593261719e+00,1.986448645591735840e+00,1.986245989799499512e+00,1.986043334007263184e+00,1.985840916633605957e+00,1.985638260841369629e+00,1.985435724258422852e+00,1.985233306884765625e+00,1.985031008720397949e+00,1.984828591346740723e+00,1.984626173973083496e+00,1.984423875808715820e+00,1.984221816062927246e+00,1.984019517898559570e+00,1.983817219734191895e+00,1.983615040779113770e+00,1.983413219451904297e+00,1.983211040496826172e+00,1.983008980751037598e+00,1.982807040214538574e+00,1.982605218887329102e+00,1.982403397560119629e+00,1.982201457023620605e+00,1.981999635696411133e+00,1.981797814369201660e+00,1.981595993041992188e+00,1.981394290924072266e+00,1.981192588806152344e+00,1.980990886688232422e+00,1.980789303779602051e+00,1.980587720870971680e+00,1.980386257171630859e+00,1.980185031890869141e+00,1.979983568191528320e+00,1.979782104492187500e+00,1.979580760002136230e+00,1.979379415512084961e+00,1.979178190231323242e+00,1.978976964950561523e+00,1.978775739669799805e+00,1.978574514389038086e+00,1.978373408317565918e+00,1.978172302246093750e+00,1.977971315383911133e+00,1.977770328521728516e+00,1.977569341659545898e+00,1.977368474006652832e+00,1.977167606353759766e+00,1.976966738700866699e+00,1.976766228675842285e+00,1.976565480232238770e+00,1.976364731788635254e+00,1.976164102554321289e+00,1.975963473320007324e+00,1.975762844085693359e+00,1.975562334060668945e+00,1.975361824035644531e+00,1.975161314010620117e+00,1.974960923194885254e+00,1.974760532379150391e+00,1.974560141563415527e+00,1.974359869956970215e+00,1.974159598350524902e+00,1.973959326744079590e+00,1.973759174346923828e+00,1.973559260368347168e+00,1.973359227180480957e+00,1.973159074783325195e+00,1.972959160804748535e+00,1.972759127616882324e+00,1.972559213638305664e+00,1.972359299659729004e+00,1.972159504890441895e+00
1.777614474296569824e+00,1.777452111244201660e+00,1.777289867401123047e+00,1.777127504348754883e+00,1.776965498924255371e+00,1.776803255081176758e+00,1.776641130447387695e+00,1.776478886604309082e+00,1.776317000389099121e+00,1.776154875755310059e+00,1.775992751121520996e+00,1.775830745697021484e+00,1.775668978691101074e+00,1.775506973266601562e+00,1.775344967842102051e+00,1.775183081626892090e+00,1.775021314620971680e+00,1.774859547615051270e+00,1.774697661399841309e+00,1.774535894393920898e+00,1.774374246597290039e+00,1.774212479591369629e+00,1.774050831794738770e+00,1.773889064788818359e+00,1.773727655410766602e+00,1.773566007614135742e+00,1.773404359817504883e+00,1.773242831230163574e+00,1.773081541061401367e+00,1.772920012474060059e+00,1.772758483886718750e+00,1.772597074508666992e+00,1.772435784339904785e+00,1.772274374961853027e+00,1.772112965583801270e+00,1.771951913833618164e+00,1.771790385246276855e+00,1.771629095077514648e+00,1.771467804908752441e+00,1.771306633949279785e+00,1.771145462989807129e+00,1.770984292030334473e+00,1.770823359489440918e+00,1.770662188529968262e+00,1.770501136779785156e+00,1.770340085029602051e+00,1.770179033279418945e+00,1.770018100738525391e+00,1.769857168197631836e+00,1.769696235656738281e+00,1.769535303115844727e+00,1.769374489784240723e+00,1.769213676452636719e+00,1.769052863121032715e+00,1.768892049789428711e+00,1.768731236457824707e+00,1.768570542335510254e+00,1.768409848213195801e+00,1.768249154090881348e+00,1.768088698387145996e+00,1.767928123474121094e+00,1.767767548561096191e+00,1.767606973648071289e+00,1.767446517944335938e+00,1.767286062240600586e+00,1.767125606536865234e+00,1.766965150833129883e+00,1.766804695129394531e+00,1.766644358634948730e+00,1.766484022140502930e+00,1.766323685646057129e+00,1.766163468360900879e+00,1.766003131866455078e+00,1.765842914581298828e+00,1.765682816505432129e+00,1.765522599220275879e+00,1.765362620353698730e+00,1.765202522277832031e+00,1.765042543411254883e+00,1.764882445335388184e+00
1.607449889183044434e+00,1.607317328453063965e+00,1.607184529304504395e+00,1.607051849365234375e+00,1.606919169425964355e+00,1.606786608695983887e+00,1.606654047966003418e+00,1.606521368026733398e+00,1.606388807296752930e+00,1.606256365776062012e+00,1.606123805046081543e+00,1.605991363525390625e+00,1.605858802795410156e+00,1.605726480484008789e+00,1.605594038963317871e+00,1.605461597442626953e+00,1.605329155921936035e+00,1.605196952819824219e+00,1.605064511299133301e+00,1.604932188987731934e+00,1.604799866676330566e+00,1.604667663574218750e+00,1.604535341262817383e+00,1.604403138160705566e+00,1.604271054267883301e+00,1.604138851165771484e+00,1.604006648063659668e+00,1.603874444961547852e+00,1.603742480278015137e+00,1.603610277175903320e+00,1.603478193283081055e+00,1.603346109390258789e+00,1.603214144706726074e+00,1.603082180023193359e+00,1.602950096130371094e+00,1.602818131446838379e+00,1.602686285972595215e+00,1.602554321289062500e+00,1.602422356605529785e+00,1.602290391921997070e+00,1.602158665657043457e+00,1.602026700973510742e+00,1.601894855499267578e+00,1.601763010025024414e+00,1.601631164550781250e+00,1.601499557495117188e+00,1.601367831230163574e+00,1.601235985755920410e+00,1.601104259490966797e+00,1.600972652435302734e+00,1.600840926170349121e+00,1.600709319114685059e+00,1.600577592849731445e+00,1.600445985794067383e+00,1.600314378738403320e+00,1.600182890892028809e+00,1.600051283836364746e+00,1.599919795989990234e+00,1.599788188934326172e+00,1.599656701087951660e+00,1.599525332450866699e+00,1.599393844604492188e+00,1.599262595176696777e+00,1.599131226539611816e+00,1.598999857902526855e+00,1.598868489265441895e+00,1.598737120628356934e+00,1.598605871200561523e+00,1.598474502563476562e+00,1.598343253135681152e+00,1.598212003707885742e+00,1.598080754280090332e+00,1.597949624061584473e+00,1.597818374633789062e+00,1.597687244415283203e+00,1.597556114196777344e+00,1.597424983978271484e+00,1.597293853759765625e+00,1.597162842750549316e+00,1.597031950950622559e+00
1.467017650604248047e+00,1.466907143592834473e+00,1.466796755790710449e+00,1.466686129570007324e+00,1.466575622558593750e+00,1.466465115547180176e+00,1.466354846954345703e+00,1.466244339942932129e+00,1.466133832931518555e+00,1.466023564338684082e+00,1.465913176536560059e+00,1.465802788734436035e+00,1.465692400932312012e+00,1.465582132339477539e+00,1.465471744537353516e+00,1.465361475944519043e+00,1.465251088142395020e+00,1.465140938758850098e+00,1.465030670166015625e+00,1.464920401573181152e+00,1.464810132980346680e+00,1.464699983596801758e+00,1.464589834213256836e+00,1.464479565620422363e+00,1.464369416236877441e+00,1.464259386062622070e+00,1.464149236679077148e+00,1.464039087295532227e+00,1.463928937911987305e+00,1.463819026947021484e+00,1.463708877563476562e+00,1.463598847389221191e+00,1.463488817214965820e+00,1.463378906250000000e+00,1.463268876075744629e+00,1.463158845901489258e+00,1.463048815727233887e+00,1.462939023971557617e+00,1.462829113006591797e+00,1.462719082832336426e+00,1.462609171867370605e+00,1.462499499320983887e+00,1.462389588356018066e+00,1.462279677391052246e+00,1.462169885635375977e+00,1.462060093879699707e+00,1.461950302124023438e+00,1.461840391159057617e+00,1.461730599403381348e+00,1.461620926856994629e+00,1.461511254310607910e+00,1.461401462554931641e+00,1.461291790008544922e+00,1.461181998252868652e+00,1.461072325706481934e+00,1.460962653160095215e+00,1.460852980613708496e+00,1.460743427276611328e+00,1.460633754730224609e+00,1.460524201393127441e+00,1.460414528846740723e+00,1.460304975509643555e+00,1.460195422172546387e+00,1.460085868835449219e+00,1.459976434707641602e+00,1.459867000579833984e+00,1.459757447242736816e+00,1.459648013114929199e+00,1.459538578987121582e+00,1.459429144859313965e+00,1.459319710731506348e+00,1.459210276603698730e+00,1.459100842475891113e+00,1.458991527557373047e+00,1.458882212638854980e+00,1.458772778511047363e+00,1.458663463592529297e+00,1.458554148674011230e+00,1.458444833755493164e+00,1.458335638046264648e+00
1.349151253700256348e+00,1.349057793617248535e+00,1.348964452743530273e+00,1.348870873451232910e+00,1.348777413368225098e+00,1.348683953285217285e+00,1.348590612411499023e+00,1.348497152328491211e+00,1.348403811454772949e+00,1.348310351371765137e+00,1.348217010498046875e+00,1.348123669624328613e+00,1.348030328750610352e+00,1.347936987876892090e+00,1.347843766212463379e+00,1.347750425338745117e+00,1.347657084465026855e+00,1.347563743591308594e+00,1.347470521926879883e+00,1.347377300262451172e+00,1.347284078598022461e+00,1.347190856933593750e+00,1.347097635269165039e+00,1.347004413604736328e+00,1.346911191940307617e+00,1.346817970275878906e+00,1.346724987030029297e+00,1.346631765365600586e+00,1.346538543701171875e+00,1.346445441246032715e+00,1.346352458000183105e+00,1.346259236335754395e+00,1.346166133880615234e+00,1.346073031425476074e+00,1.345980048179626465e+00,1.345887064933776855e+00,1.345793962478637695e+00,1.345700860023498535e+00,1.345607995986938477e+00,1.345515012741088867e+00,1.345421910285949707e+00,1.345328927040100098e+00,1.345236063003540039e+00,1.345143079757690430e+00,1.345050096511840820e+00,1.344957232475280762e+00,1.344864368438720703e+00,1.344771385192871094e+00,1.344678521156311035e+00,1.344585776329040527e+00,1.344492912292480469e+00,1.344399929046630859e+00,1.344307184219360352e+00,1.344214320182800293e+00,1.344121456146240234e+00,1.344028592109680176e+00,1.343935847282409668e+00,1.343842983245849609e+00,1.343750238418579102e+00,1.343657493591308594e+00,1.343564748764038086e+00,1.343472003936767578e+00,1.343379259109497070e+00,1.343286514282226562e+00,1.343193888664245605e+00,1.343101143836975098e+00,1.343008399009704590e+00,1.342915773391723633e+00,1.342823266983032227e+00,1.342730641365051270e+00,1.342638015747070312e+00,1.342545390129089355e+00,1.342452764511108398e+00,1.342360138893127441e+00,1.342267632484436035e+00,1.342175006866455078e+00,1.342082500457763672e+00,1.341989994049072266e+00,1.341897368431091309e+00,1.341804862022399902e+00
1.248816132545471191e+00,1.248736023902893066e+00,1.248655915260314941e+00,1.248575925827026367e+00,1.248495817184448242e+00,1.248415827751159668e+00,1.248335719108581543e+00,1.248255729675292969e+00,1.248175621032714844e+00,1.248095631599426270e+00,1.248015642166137695e+00,1.247935652732849121e+00,1.247855663299560547e+00,1.247775673866271973e+00,1.247695684432983398e+00,1.247615814208984375e+00,1.247535824775695801e+00,1.247455835342407227e+00,1.247375965118408203e+00,1.247296094894409180e+00,1.247216105461120605e+00,1.247136235237121582e+00,1.247056365013122559e+00,1.246976494789123535e+00,1.246896624565124512e+00,1.246816754341125488e+00,1.246736884117126465e+00,1.246657133102416992e+00,1.246577262878417969e+00,1.246497392654418945e+00,1.246417641639709473e+00,1.246337890625000000e+00,1.246258020401000977e+00,1.246178269386291504e+00,1.246098518371582031e+00,1.246018767356872559e+00,1.245939016342163086e+00,1.245859265327453613e+00,1.245779633522033691e+00,1.245699882507324219e+00,1.245620131492614746e+00,1.245540499687194824e+00,1.245460867881774902e+00,1.245381116867065430e+00,1.245301485061645508e+00,1.245221853256225586e+00,1.245142221450805664e+00,1.245062589645385742e+00,1.244982957839965820e+00,1.244903326034545898e+00,1.244823813438415527e+00,1.244744181632995605e+00,1.244664549827575684e+00,1.244585037231445312e+00,1.244505524635314941e+00,1.244425892829895020e+00,1.244346380233764648e+00,1.244266867637634277e+00,1.244187235832214355e+00,1.244107723236083984e+00,1.244028210639953613e+00,1.243948698043823242e+00,1.243869185447692871e+00,1.243789672851562500e+00,1.243710279464721680e+00,1.243630766868591309e+00,1.243551373481750488e+00,1.243471860885620117e+00,1.243392467498779297e+00,1.243312954902648926e+00,1.243233561515808105e+00,1.243154287338256836e+00,1.243074893951416016e+00,1.242995500564575195e+00,1.242916107177734375e+00,1.242836713790893555e+00,1.242757439613342285e+00,1.242678046226501465e+00,1.242598772048950195e+00,1.242519378662109375e+00
1.162371754646301270e+00,1.162302255630493164e+00,1.162232875823974609e+00,1.162163496017456055e+00,1.162094235420227051e+00,1.162024736404418945e+00,1.161955475807189941e+00,1.161886096000671387e+00,1.161816835403442383e+00,1.161747455596923828e+00,1.161678075790405273e+00,1.161608815193176270e+00,1.161539554595947266e+00,1.161470174789428711e+00,1.161400914192199707e+00,1.161331534385681152e+00,1.161262392997741699e+00,1.161193132400512695e+00,1.161123871803283691e+00,1.161054611206054688e+00,1.160985350608825684e+00,1.160916090011596680e+00,1.160846948623657227e+00,1.160777688026428223e+00,1.160708546638488770e+00,1.160639286041259766e+00,1.160570025444030762e+00,1.160501003265380859e+00,1.160431742668151855e+00,1.160362601280212402e+00,1.160293459892272949e+00,1.160224318504333496e+00,1.160155177116394043e+00,1.160086035728454590e+00,1.160016894340515137e+00,1.159947872161865234e+00,1.159878730773925781e+00,1.159809589385986328e+00,1.159740447998046875e+00,1.159671425819396973e+00,1.159602284431457520e+00,1.159533262252807617e+00,1.159464120864868164e+00,1.159395217895507812e+00,1.159326076507568359e+00,1.159257054328918457e+00,1.159188032150268555e+00,1.159119129180908203e+00,1.159049987792968750e+00,1.158980965614318848e+00,1.158912062644958496e+00,1.158843040466308594e+00,1.158774137496948242e+00,1.158705115318298340e+00,1.158636093139648438e+00,1.158567190170288086e+00,1.158498287200927734e+00,1.158429265022277832e+00,1.158360362052917480e+00,1.158291578292846680e+00,1.158222675323486328e+00,1.158153653144836426e+00,1.158084750175476074e+00,1.158015847206115723e+00,1.157946944236755371e+00,1.157878160476684570e+00,1.157809257507324219e+00,1.157740354537963867e+00,1.157671451568603516e+00,1.157602667808532715e+00,1.157533764839172363e+00,1.157464981079101562e+00,1.157396078109741211e+00,1.157327294349670410e+00,1.157258510589599609e+00,1.157189726829528809e+00,1.157120943069458008e+00,1.157052159309387207e+00,1.156983375549316406e+00,1.156914591789245605e+00
1.087119936943054199e+00,1.087059259414672852e+00,1.086998581886291504e+00,1.086937785148620605e+00,1.086877107620239258e+00,1.086816549301147461e+00,1.086755871772766113e+00,1.086695194244384766e+00,1.086634516716003418e+00,1.086573958396911621e+00,1.086513280868530273e+00,1.086452603340148926e+00,1.086392045021057129e+00,1.086331367492675781e+00,1.086270809173583984e+00,1.086210131645202637e+00,1.086149573326110840e+00,1.086089015007019043e+00,1.086028337478637695e+00,1.085967779159545898e+00,1.085907220840454102e+00,1.085846662521362305e+00,1.085786104202270508e+00,1.085725545883178711e+00,1.085665106773376465e+00,1.085604548454284668e+00,1.085543990135192871e+00,1.085483431816101074e+00,1.085422992706298828e+00,1.085362434387207031e+00,1.085301876068115234e+00,1.085241436958312988e+00,1.085180997848510742e+00,1.085120439529418945e+00,1.085060000419616699e+00,1.084999442100524902e+00,1.084939002990722656e+00,1.084878563880920410e+00,1.084818124771118164e+00,1.084757685661315918e+00,1.084697246551513672e+00,1.084636807441711426e+00,1.084576368331909180e+00,1.084515929222106934e+00,1.084455609321594238e+00,1.084395170211791992e+00,1.084334731101989746e+00,1.084274291992187500e+00,1.084213972091674805e+00,1.084153652191162109e+00,1.084093213081359863e+00,1.084032893180847168e+00,1.083972573280334473e+00,1.083912134170532227e+00,1.083851814270019531e+00,1.083791494369506836e+00,1.083731174468994141e+00,1.083670854568481445e+00,1.083610534667968750e+00,1.083550214767456055e+00,1.083489894866943359e+00,1.083429574966430664e+00,1.083369255065917969e+00,1.083309054374694824e+00,1.083248734474182129e+00,1.083188533782958984e+00,1.083128213882446289e+00,1.083068013191223145e+00,1.083007693290710449e+00,1.082947373390197754e+00,1.082887172698974609e+00,1.082826972007751465e+00,1.082766652107238770e+00,1.082706451416015625e+00,1.082646250724792480e+00,1.082586050033569336e+00,1.082525730133056641e+00,1.082465529441833496e+00,1.082405447959899902e+00,1.082345247268676758e+00
1.021019339561462402e+00,1.020965814590454102e+00,1.020912289619445801e+00,1.020858764648437500e+00,1.020805239677429199e+00,1.020751714706420898e+00,1.020698189735412598e+00,1.020644664764404297e+00,1.020591139793395996e+00,1.020537734031677246e+00,1.020484209060668945e+00,1.020430684089660645e+00,1.020377159118652344e+00,1.020323753356933594e+00,1.020270228385925293e+00,1.020216822624206543e+00,1.020163297653198242e+00,1.020109891891479492e+00,1.020056486129760742e+00,1.020002961158752441e+00,1.019949555397033691e+00,1.019896149635314941e+00,1.019842743873596191e+00,1.019789218902587891e+00,1.019735813140869141e+00,1.019682526588439941e+00,1.019629001617431641e+00,1.019575595855712891e+00,1.019522190093994141e+00,1.019468903541564941e+00,1.019415497779846191e+00,1.019362092018127441e+00,1.019308686256408691e+00,1.019255399703979492e+00,1.019201993942260742e+00,1.019148707389831543e+00,1.019095301628112793e+00,1.019042015075683594e+00,1.018988609313964844e+00,1.018935322761535645e+00,1.018881916999816895e+00,1.018828749656677246e+00,1.018775343894958496e+00,1.018722057342529297e+00,1.018668770790100098e+00,1.018615484237670898e+00,1.018562197685241699e+00,1.018508911132812500e+00,1.018455624580383301e+00,1.018402338027954102e+00,1.018349051475524902e+00,1.018295764923095703e+00,1.018242597579956055e+00,1.018189311027526855e+00,1.018136024475097656e+00,1.018082737922668457e+00,1.018029570579528809e+00,1.017976403236389160e+00,1.017923116683959961e+00,1.017869830131530762e+00,1.017816662788391113e+00,1.017763495445251465e+00,1.017710328102111816e+00,1.017657041549682617e+00,1.017603874206542969e+00,1.017550706863403320e+00,1.017497539520263672e+00,1.017444372177124023e+00,1.017391204833984375e+00,1.017338037490844727e+00,1.017284870147705078e+00,1.017231702804565430e+00,1.017178535461425781e+00,1.017125368118286133e+00,1.017072200775146484e+00,1.017019033432006836e+00,1.016965985298156738e+00,1.016912817955017090e+00,1.016859650611877441e+00,1.016806483268737793e+00
9.624963402748107910e-01,9.624487757682800293e-01,9.624011516571044922e-01,9.623535871505737305e-01,9.623059630393981934e-01,9.622583985328674316e-01,9.622109532356262207e-01,9.621633887290954590e-01,9.621158242225646973e-01,9.620682597160339355e-01,9.620206952095031738e-01,9.619731903076171875e-01,9.619256258010864258e-01,9.618781208992004395e-01,9.618306756019592285e-01,9.617831707000732422e-01,9.617356061935424805e-01,9.616881012916564941e-01,9.616405963897705078e-01,9.615930914878845215e-01,9.615455865859985352e-01,9.614980816841125488e-01,9.614506959915161133e-01,9.614031910896301270e-01,9.613556861877441406e-01,9.613082408905029297e-01,9.612607359886169434e-01,9.612132906913757324e-01,9.611657857894897461e-01,9.611183404922485352e-01,9.610710144042968750e-01,9.610235095024108887e-01,9.609760642051696777e-01,9.609286189079284668e-01,9.608812332153320312e-01,9.608337879180908203e-01,9.607863426208496094e-01,9.607390165328979492e-01,9.606915712356567383e-01,9.606441855430603027e-01,9.605967998504638672e-01,9.605493545532226562e-01,9.605019688606262207e-01,9.604545831680297852e-01,9.604071378707885742e-01,9.603598713874816895e-01,9.603124856948852539e-01,9.602651000022888184e-01,9.602177739143371582e-01,9.601703882217407227e-01,9.601230025291442871e-01,9.600756764411926270e-01,9.600282907485961914e-01,9.599810838699340820e-01,9.599336981773376465e-01,9.598863720893859863e-01,9.598390460014343262e-01,9.597916603088378906e-01,9.597443342208862305e-01,9.596970677375793457e-01,9.596497416496276855e-01,9.596025347709655762e-01,9.595552086830139160e-01,9.595078825950622559e-01,9.594606161117553711e-01,9.594132900238037109e-01,9.593660235404968262e-01,9.593186974525451660e-01,9.592714309692382812e-01,9.592242836952209473e-01,9.591770172119140625e-01,9.591297507286071777e-01,9.590824842453002930e-01,9.590352177619934082e-01,9.589879512786865234e-01,9.589406847953796387e-01,9.588934779167175293e-01,9.588463306427001953e-01,9.587991237640380859e-01,9.587517380714416504e-01
9.103184342384338379e-01,9.102758765220642090e-01,9.102332592010498047e-01,9.101908206939697266e-01,9.101482629776000977e-01,9.101057052612304688e-01,9.100631475448608398e-01,9.100205898284912109e-01,9.099780321121215820e-01,9.099354743957519531e-01,9.098929762840270996e-01,9.098505377769470215e-01,9.098079800605773926e-01,9.097654819488525391e-01,9.097229242324829102e-01,9.096804261207580566e-01,9.096379280090332031e-01,9.095953702926635742e-01,9.095528721809387207e-01,9.095104932785034180e-01,9.094679951667785645e-01,9.094254970550537109e-01,9.093829989433288574e-01,9.093405008316040039e-01,9.092980027198791504e-01,9.092555642127990723e-01,9.092131853103637695e-01,9.091706871986389160e-01,9.091282486915588379e-01,9.090857505798339844e-01,9.090433120727539062e-01,9.090008735656738281e-01,9.089583754539489746e-01,9.089159369468688965e-01,9.088736176490783691e-01,9.088311791419982910e-01,9.087887406349182129e-01,9.087463021278381348e-01,9.087038636207580566e-01,9.086614251136779785e-01,9.086190462112426758e-01,9.085766077041625977e-01,9.085342884063720703e-01,9.084919095039367676e-01,9.084494709968566895e-01,9.084070920944213867e-01,9.083647131919860840e-01,9.083222746849060059e-01,9.082798957824707031e-01,9.082375168800354004e-01,9.081952571868896484e-01,9.081528782844543457e-01,9.081104993820190430e-01,9.080681204795837402e-01,9.080257415771484375e-01,9.079834222793579102e-01,9.079410433769226074e-01,9.078987240791320801e-01,9.078564643859863281e-01,9.078140854835510254e-01,9.077717661857604980e-01,9.077294468879699707e-01,9.076870679855346680e-01,9.076447486877441406e-01,9.076024293899536133e-01,9.075601100921630859e-01,9.075179100036621094e-01,9.074755907058715820e-01,9.074332714080810547e-01,9.073909521102905273e-01,9.073486924171447754e-01,9.073063731193542480e-01,9.072640538215637207e-01,9.072217941284179688e-01,9.071795940399169922e-01,9.071373343467712402e-01,9.070950150489807129e-01,9.070527553558349609e-01,9.070104956626892090e-01,9.069682359695434570e-01
8.635069131851196289e-01,8.634686470031738281e-01,8.634303212165832520e-01,8.633919954299926758e-01,8.633537292480468750e-01,8.633154034614562988e-01,8.632771372795104980e-01,8.632389307022094727e-01,8.632006645202636719e-01,8.631623387336730957e-01,8.631240725517272949e-01,8.630858063697814941e-01,8.630475401878356934e-01,8.630092740058898926e-01,8.629710078239440918e-01,8.629328012466430664e-01,8.628945946693420410e-01,8.628563284873962402e-01,8.628180623054504395e-01,8.627797961235046387e-01,8.627415895462036133e-01,8.627033233642578125e-01,8.626651167869567871e-01,8.626269698143005371e-01,8.625887036323547363e-01,8.625504970550537109e-01,8.625122904777526855e-01,8.624740242958068848e-01,8.624358177185058594e-01,8.623976111412048340e-01,8.623594045639038086e-01,8.623212575912475586e-01,8.622830510139465332e-01,8.622449040412902832e-01,8.622066974639892578e-01,8.621684908866882324e-01,8.621302843093872070e-01,8.620920777320861816e-01,8.620539307594299316e-01,8.620158433914184570e-01,8.619776368141174316e-01,8.619394898414611816e-01,8.619013428688049316e-01,8.618631362915039062e-01,8.618249893188476562e-01,8.617868423461914062e-01,8.617486953735351562e-01,8.617106080055236816e-01,8.616724610328674316e-01,8.616343140602111816e-01,8.615961670875549316e-01,8.615580201148986816e-01,8.615198731422424316e-01,8.614817261695861816e-01,8.614436388015747070e-01,8.614056110382080078e-01,8.613674640655517578e-01,8.613293170928955078e-01,8.612912297248840332e-01,8.612531423568725586e-01,8.612149953842163086e-01,8.611769080162048340e-01,8.611388206481933594e-01,8.611007928848266602e-01,8.610627055168151855e-01,8.610246181488037109e-01,8.609865307807922363e-01,8.609484434127807617e-01,8.609103560447692871e-01,8.608722686767578125e-01,8.608343005180358887e-01,8.607962131500244141e-01,8.607581257820129395e-01,8.607200980186462402e-01,8.606820106506347656e-01,8.606439232826232910e-01,8.606058955192565918e-01,8.605678677558898926e-01,8.605298995971679688e-01,8.604918122291564941e-01
8.212742805480957031e-01,8.212395906448364258e-01,8.212049603462219238e-01,8.211703300476074219e-01,8.211357593536376953e-01,8.211011290550231934e-01,8.210664987564086914e-01,8.210318684577941895e-01,8.209972381591796875e-01,8.209626078605651855e-01,8.209279775619506836e-01,8.208933472633361816e-01,8.208587765693664551e-01,8.208242058753967285e-01,8.207895755767822266e-01,8.207549452781677246e-01,8.207203149795532227e-01,8.206857442855834961e-01,8.206511139869689941e-01,8.206165432929992676e-01,8.205820322036743164e-01,8.205474019050598145e-01,8.205128312110900879e-01,8.204782605171203613e-01,8.204436302185058594e-01,8.204090595245361328e-01,8.203744888305664062e-01,8.203399181365966797e-01,8.203054070472717285e-01,8.202708363533020020e-01,8.202362656593322754e-01,8.202016949653625488e-01,8.201671838760375977e-01,8.201326131820678711e-01,8.200980424880981445e-01,8.200634717941284180e-01,8.200290203094482422e-01,8.199944496154785156e-01,8.199599385261535645e-01,8.199253678321838379e-01,8.198908567428588867e-01,8.198562860488891602e-01,8.198217749595642090e-01,8.197872638702392578e-01,8.197528123855590820e-01,8.197182416915893555e-01,8.196837306022644043e-01,8.196492195129394531e-01,8.196147084236145020e-01,8.195801973342895508e-01,8.195456862449645996e-01,8.195112347602844238e-01,8.194767236709594727e-01,8.194422721862792969e-01,8.194077610969543457e-01,8.193732500076293945e-01,8.193387389183044434e-01,8.193042874336242676e-01,8.192697763442993164e-01,8.192353844642639160e-01,8.192008733749389648e-01,8.191664218902587891e-01,8.191319108009338379e-01,8.190974593162536621e-01,8.190630078315734863e-01,8.190285563468933105e-01,8.189940452575683594e-01,8.189596533775329590e-01,8.189252018928527832e-01,8.188907504081726074e-01,8.188562989234924316e-01,8.188218474388122559e-01,8.187873959541320801e-01,8.187529444694519043e-01,8.187185525894165039e-01,8.186841607093811035e-01,8.186497688293457031e-01,8.186153173446655273e-01,8.185808658599853516e-01,8.185464739799499512e-01
