5.000000000000000000e+00,5.000000000000000000e+00,5.000000000000000000e+00,5.000000000000000000e+00,5.000000000000000000e+00,5.000000000000000000e+00,5.000000000000000000e+00,5.000000000000000000e+00,5.000000000000000000e+00,5.000000000000000000e+00,5.000000000000000000e+00,5.000000000000000000e+00,5.000000000000000000e+00,5.000000000000000000e+00,5.000000000000000000e+00,5.000000000000000000e+00,5.000000000000000000e+00,5.000000000000000000e+00,5.000000000000000000e+00,5.000000000000000000e+00,5.000000000000000000e+00,5.000000000000000000e+00,5.000000000000000000e+00,5.000000000000000000e+00,5.000000000000000000e+00,5.000000000000000000e+00,5.000000000000000000e+00,5.000000000000000000e+00,5.000000000000000000e+00,5.000000000000000000e+00,5.000000000000000000e+00,5.000000000000000000e+00,5.000000000000000000e+00,5.000000000000000000e+00,5.000000000000000000e+00,5.000000000000000000e+00,5.000000000000000000e+00,2.006584405899047852e+00,1.969368696212768555e+00,1.969982266426086426e+00,1.975400209426879883e+00,1.938561677932739258e+00,1.917012810707092285e+00,1.911467075347900391e+00,1.916396975517272949e+00,1.935256838798522949e+00,1.941982746124267578e+00,1.974531531333923340e+00,2.104409694671630859e+00,2.111119508743286133e+00,5.000000000000000000e+00,5.000000000000000000e+00,5.000000000000000000e+00,5.000000000000000000e+00,4.990415096282958984e+00,4.825350284576416016e+00,4.670855522155761719e+00,4.525947093963623047e+00,4.389758586883544922e+00,4.261527538299560547e+00,4.140574932098388672e+00,4.026298999786376953e+00,3.918161630630493164e+00,3.815680742263793945e+00,3.718423843383789062e+00,3.625979423522949219e+00,3.538020133972167969e+00,3.454227447509765625e+00,3.374311923980712891e+00,3.298010587692260742e+00,3.225083589553833008e+00,3.155312061309814453e+00,3.088495254516601562e+00,3.024449825286865234e+00,2.963006734848022461e+00,2.904024839401245117e+00,2.847344636917114258e+00,2.792834997177124023e+00,2.740373373031616211e+00,2.689846038818359375e+00
5.000000000000000000e+00,5.000000000000000000e+00,5.000000000000000000e+00,5.000000000000000000e+00,5.000000000000000000e+00,5.000000000000000000e+00,5.000000000000000000e+00,5.000000000000000000e+00,5.000000000000000000e+00,5.000000000000000000e+00,5.000000000000000000e+00,5.000000000000000000e+00,5.000000000000000000e+00,5.000000000000000000e+00,5.000000000000000000e+00,5.000000000000000000e+00,5.000000000000000000e+00,5.000000000000000000e+00,5.000000000000000000e+00,5.000000000000000000e+00,5.000000000000000000e+00,5.000000000000000000e+00,5.000000000000000000e+00,5.000000000000000000e+00,5.000000000000000000e+00,5.000000000000000000e+00,5.000000000000000000e+00,5.000000000000000000e+00,5.000000000000000000e+00,5.000000000000000000e+00,5.000000000000000000e+00,5.000000000000000000e+00,5.000000000000000000e+00,5.000000000000000000e+00,5.000000000000000000e+00,5.000000000000000000e+00,5.000000000000000000e+00,2.020689964294433594e+00,1.972021937370300293e+00,1.978578805923461914e+00,1.965895056724548340e+00,1.932297825813293457e+00,1.920459508895874023e+00,1.909655213356018066e+00,1.912641406059265137e+00,1.925257802009582520e+00,1.937163352966308594e+00,1.962863922119140625e+00,2.115630865097045898e+00,2.118784427642822266e+00,5.000000000000000000e+00,5.000000000000000000e+00,5.000000000000000000e+00,5.000000000000000000e+00,4.990545272827148438e+00,4.825472354888916016e+00,4.670969963073730469e+00,4.526054382324218750e+00,4.389859676361083984e+00,4.261622905731201172e+00,4.140665054321289062e+00,4.026380538940429688e+00,3.918212890625000000e+00,3.815705060958862305e+00,3.718423843383789062e+00,3.625979900360107422e+00,3.538020610809326172e+00,3.454227924346923828e+00,3.374311923980712891e+00,3.298010587692260742e+00,3.225083589553833008e+00,3.155313491821289062e+00,3.088513135910034180e+00,3.024482250213623047e+00,2.963052511215209961e+00,2.904068470001220703e+00,2.847387075424194336e+00,2.792875528335571289e+00,2.740412473678588867e+00,2.689883708953857422e+00
5.000000000000000000e+00,5.000000000000000000e+00,5.000000000000000000e+00,5.000000000000000000e+00,5.000000000000000000e+00,5.000000000000000000e+00,5.000000000000000000e+00,5.000000000000000000e+00,5.000000000000000000e+00,5.000000000000000000e+00,5.000000000000000000e+00,5.000000000000000000e+00,5.000000000000000000e+00,5.000000000000000000e+00,5.000000000000000000e+00,5.000000000000000000e+00,5.000000000000000000e+00,5.000000000000000000e+00,5.000000000000000000e+00,5.000000000000000000e+00,5.000000000000000000e+00,5.000000000000000000e+00,5.000000000000000000e+00,5.000000000000000000e+00,5.000000000000000000e+00,5.000000000000000000e+00,5.000000000000000000e+00,5.000000000000000000e+00,5.000000000000000000e+00,5.000000000000000000e+00,5.000000000000000000e+00,5.000000000000000000e+00,5.000000000000000000e+00,5.000000000000000000e+00,5.000000000000000000e+00,5.000000000000000000e+00,5.000000000000000000e+00,5.000000000000000000e+00,1.958728671073913574e+00,1.971777915954589844e+00,1.967139363288879395e+00,1.934825778007507324e+00,1.923326969146728516e+00,1.918360352516174316e+00,1.921313166618347168e+00,1.929126858711242676e+00,1.952714800834655762e+00,1.971257925033569336e+00,2.127683162689208984e+00,2.131542921066284180e+00,5.000000000000000000e+00,5.000000000000000000e+00,5.000000000000000000e+00,5.000000000000000000e+00,4.990675926208496094e+00,4.825594425201416016e+00,4.671084403991699219e+00,4.526161670684814453e+00,4.389953613281250000e+00,4.261680603027343750e+00,4.140690803527832031e+00,4.026381015777587891e+00,3.918213367462158203e+00,3.815705537796020508e+00,3.718423843383789062e+00,3.625979900360107422e+00,3.538020610809326172e+00,3.454227924346923828e+00,3.374315738677978516e+00,3.298032283782958984e+00,3.225122213363647461e+00,3.155365467071533203e+00,3.088562965393066406e+00,3.024529933929443359e+00,2.963098049163818359e+00,2.904112577438354492e+00,2.847429037094116211e+00,2.792916297912597656e+00,2.740451335906982422e+00,2.689921379089355469e+00
5.000000000000000000e+00,5.000000000000000000e+00,5.000000000000000000e+00,5.000000000000000000e+00,5.000000000000000000e+00,5.000000000000000000e+00,5.000000000000000000e+00,5.000000000000000000e+00,5.000000000000000000e+00,5.000000000000000000e+00,5.000000000000000000e+00,5.000000000000000000e+00,5.000000000000000000e+00,5.000000000000000000e+00,5.000000000000000000e+00,5.000000000000000000e+00,5.000000000000000000e+00,5.000000000000000000e+00,5.000000000000000000e+00,5.000000000000000000e+00,5.000000000000000000e+00,5.000000000000000000e+00,5.000000000000000000e+00,5.000000000000000000e+00,5.000000000000000000e+00,5.000000000000000000e+00,5.000000000000000000e+00,5.000000000000000000e+00,5.000000000000000000e+00,5.000000000000000000e+00,5.000000000000000000e+00,5.000000000000000000e+00,5.000000000000000000e+00,5.000000000000000000e+00,5.000000000000000000e+00,5.000000000000000000e+00,5.000000000000000000e+00,5.000000000000000000e+00,1.939444184303283691e+00,1.949034333229064941e+00,1.950383424758911133e+00,1.931070923805236816e+00,1.922214150428771973e+00,1.921862721443176270e+00,1.922228574752807617e+00,1.932043671607971191e+00,1.955398082733154297e+00,1.991586923599243164e+00,2.119806528091430664e+00,2.117303609848022461e+00,5.000000000000000000e+00,5.000000000000000000e+00,5.000000000000000000e+00,5.000000000000000000e+00,4.990806579589843750e+00,4.825704097747802734e+00,4.671150207519531250e+00,4.526188850402832031e+00,4.389954090118408203e+00,4.261681079864501953e+00,4.140690803527832031e+00,4.026381015777587891e+00,3.918213367462158203e+00,3.815705537796020508e+00,3.718424081802368164e+00,3.625985622406005859e+00,3.538047313690185547e+00,3.454273462295532227e+00,3.374375104904174805e+00,3.298089027404785156e+00,3.225176095962524414e+00,3.155417442321777344e+00,3.088612318038940430e+00,3.024577617645263672e+00,2.963143825531005859e+00,2.904156446456909180e+00,2.847471237182617188e+00,2.792956829071044922e+00,2.740490674972534180e+00,2.689959049224853516e+00
5.000000000000000000e+00,5.000000000000000000e+00,5.000000000000000000e+00,5.000000000000000000e+00,5.000000000000000000e+00,5.000000000000000000e+00,5.000000000000000000e+00,5.000000000000000000e+00,5.000000000000000000e+00,5.000000000000000000e+00,5.000000000000000000e+00,5.000000000000000000e+00,5.000000000000000000e+00,5.000000000000000000e+00,5.000000000000000000e+00,5.000000000000000000e+00,5.000000000000000000e+00,5.000000000000000000e+00,5.000000000000000000e+00,5.000000000000000000e+00,5.000000000000000000e+00,5.000000000000000000e+00,5.000000000000000000e+00,5.000000000000000000e+00,5.000000000000000000e+00,5.000000000000000000e+00,5.000000000000000000e+00,5.000000000000000000e+00,5.000000000000000000e+00,5.000000000000000000e+00,5.000000000000000000e+00,5.000000000000000000e+00,5.000000000000000000e+00,5.000000000000000000e+00,5.000000000000000000e+00,5.000000000000000000e+00,5.000000000000000000e+00,5.000000000000000000e+00,1.929462432861328125e+00,1.933188319206237793e+00,1.942457437515258789e+00,1.926961660385131836e+00,1.920856833457946777e+00,1.934018731117248535e+00,1.939870715141296387e+00,1.948818445205688477e+00,1.966795682907104492e+00,2.001906633377075195e+00,2.113094806671142578e+00,2.104447841644287109e+00,5.000000000000000000e+00,5.000000000000000000e+00,5.000000000000000000e+00,5.000000000000000000e+00,4.990835189819335938e+00,4.825704097747802734e+00,4.671150207519531250e+00,4.526189327239990234e+00,4.389954566955566406e+00,4.261681079864501953e+00,4.140690803527832031e+00,4.026381492614746094e+00,3.918222665786743164e+00,3.815738439559936523e+00,3.718478679656982422e+00,3.626054286956787109e+00,3.538112401962280273e+00,3.454335689544677734e+00,3.374434232711791992e+00,3.298145771026611328e+00,3.225230216979980469e+00,3.155469417572021484e+00,3.088662147521972656e+00,3.024625062942504883e+00,2.963189601898193359e+00,2.904200315475463867e+00,2.847513675689697266e+00,2.792997360229492188e+00,2.740529775619506836e+00,2.689996719360351562e+00
5.000000000000000000e+00,5.000000000000000000e+00,5.000000000000000000e+00,5.000000000000000000e+00,5.000000000000000000e+00,5.000000000000000000e+00,5.000000000000000000e+00,5.000000000000000000e+00,5.000000000000000000e+00,5.000000000000000000e+00,5.000000000000000000e+00,5.000000000000000000e+00,5.000000000000000000e+00,5.000000000000000000e+00,5.000000000000000000e+00,5.000000000000000000e+00,5.000000000000000000e+00,5.000000000000000000e+00,5.000000000000000000e+00,5.000000000000000000e+00,5.000000000000000000e+00,5.000000000000000000e+00,5.000000000000000000e+00,5.000000000000000000e+00,5.000000000000000000e+00,5.000000000000000000e+00,5.000000000000000000e+00,5.000000000000000000e+00,5.000000000000000000e+00,5.000000000000000000e+00,5.000000000000000000e+00,5.000000000000000000e+00,5.000000000000000000e+00,5.000000000000000000e+00,5.000000000000000000e+00,5.000000000000000000e+00,5.000000000000000000e+00,5.000000000000000000e+00,1.915405273437500000e+00,1.912795066833496094e+00,1.937151193618774414e+00,1.921827554702758789e+00,1.918170571327209473e+00,1.944104790687561035e+00,1.950323462486267090e+00,1.968195796012878418e+00,1.958808064460754395e+00,1.944378137588500977e+00,2.008790016174316406e+00,2.091795682907104492e+00,2.122555017471313477e+00,5.000000000000000000e+00,5.000000000000000000e+00,5.000000000000000000e+00,4.990835666656494141e+00,4.825704574584960938e+00,4.671150684356689453e+00,4.526189327239990234e+00,4.389954566955566406e+00,4.261693954467773438e+00,4.140732288360595703e+00,4.026447772979736328e+00,3.918302059173583984e+00,3.815814495086669922e+00,3.718550682067871094e+00,3.626122713088989258e+00,3.538177728652954102e+00,3.454397439956665039e+00,3.374493598937988281e+00,3.298202276229858398e+00,3.225284576416015625e+00,3.155520915985107422e+00,3.088711977005004883e+00,3.024672746658325195e+00,2.963235616683959961e+00,2.904244184494018555e+00,2.847555637359619141e+00,2.793038129806518555e+00,2.740568637847900391e+00,2.690034389495849609e+00
5.000000000000000000e+00,5.000000000000000000e+00,5.000000000000000000e+00,5.000000000000000000e+00,5.000000000000000000e+00,5.000000000000000000e+00,5.000000000000000000e+00,5.000000000000000000e+00,5.000000000000000000e+00,5.000000000000000000e+00,5.000000000000000000e+00,5.000000000000000000e+00,5.000000000000000000e+00,5.000000000000000000e+00,5.000000000000000000e+00,5.000000000000000000e+00,5.000000000000000000e+00,5.000000000000000000e+00,5.000000000000000000e+00,5.000000000000000000e+00,5.000000000000000000e+00,5.000000000000000000e+00,5.000000000000000000e+00,5.000000000000000000e+00,5.000000000000000000e+00,5.000000000000000000e+00,5.000000000000000000e+00,5.000000000000000000e+00,5.000000000000000000e+00,5.000000000000000000e+00,5.000000000000000000e+00,5.000000000000000000e+00,5.000000000000000000e+00,5.000000000000000000e+00,5.000000000000000000e+00,5.000000000000000000e+00,5.000000000000000000e+00,5.000000000000000000e+00,1.902151465415954590e+00,1.894459724426269531e+00,1.931518435478210449e+00,1.912191152572631836e+00,1.909276127815246582e+00,1.927343606948852539e+00,1.989647865295410156e+00,1.942808389663696289e+00,1.918287038803100586e+00,1.910251140594482422e+00,1.918419599533081055e+00,2.086174011230468750e+00,2.086908102035522461e+00,5.000000000000000000e+00,5.000000000000000000e+00,5.000000000000000000e+00,4.990836143493652344e+00,4.825705051422119141e+00,4.671169281005859375e+00,4.526241302490234375e+00,4.390036106109619141e+00,4.261788845062255859e+00,4.140821456909179688e+00,4.026532173156738281e+00,3.918382167816162109e+00,3.815889835357666016e+00,3.718622684478759766e+00,3.626190900802612305e+00,3.538242816925048828e+00,3.454459667205810547e+00,3.374552965164184570e+00,3.298259019851684570e+00,3.225338459014892578e+00,3.155572891235351562e+00,3.088761329650878906e+00,3.024720668792724609e+00,2.963281154632568359e+00,2.904288291931152344e+00,2.847598075866699219e+00,2.793078899383544922e+00,2.740607976913452148e+00,2.690072059631347656e+00
5.000000000000000000e+00,5.000000000000000000e+00,5.000000000000000000e+00,5.000000000000000000e+00,5.000000000000000000e+00,5.000000000000000000e+00,5.000000000000000000e+00,5.000000000000000000e+00,5.000000000000000000e+00,5.000000000000000000e+00,5.000000000000000000e+00,5.000000000000000000e+00,5.000000000000000000e+00,5.000000000000000000e+00,5.000000000000000000e+00,5.000000000000000000e+00,5.000000000000000000e+00,5.000000000000000000e+00,5.000000000000000000e+00,5.000000000000000000e+00,5.000000000000000000e+00,5.000000000000000000e+00,5.000000000000000000e+00,5.000000000000000000e+00,5.000000000000000000e+00,5.000000000000000000e+00,5.000000000000000000e+00,5.000000000000000000e+00,5.000000000000000000e+00,5.000000000000000000e+00,5.000000000000000000e+00,5.000000000000000000e+00,5.000000000000000000e+00,5.000000000000000000e+00,5.000000000000000000e+00,5.000000000000000000e+00,5.000000000000000000e+00,5.000000000000000000e+00,1.899112343788146973e+00,2.007859706878662109e+00,1.930134534835815430e+00,1.910004138946533203e+00,1.905149579048156738e+00,1.909311771392822266e+00,1.954102873802185059e+00,1.936629772186279297e+00,1.902121067047119141e+00,1.895773768424987793e+00,1.890448331832885742e+00,1.948999047279357910e+00,2.072865009307861328e+00,5.000000000000000000e+00,5.000000000000000000e+00,5.000000000000000000e+00,4.990902423858642578e+00,4.825806140899658203e+00,4.671282768249511719e+00,4.526348114013671875e+00,4.390136241912841797e+00,4.261883258819580078e+00,4.140910625457763672e+00,4.026616573333740234e+00,3.918462276458740234e+00,3.815965890884399414e+00,3.718694925308227539e+00,3.626259565353393555e+00,3.538307905197143555e+00,3.454521894454956055e+00,3.374611854553222656e+00,3.298315763473510742e+00,3.225392818450927734e+00,3.155624866485595703e+00,3.088811159133911133e+00,3.024768352508544922e+00,2.963326930999755859e+00,2.904331922531127930e+00,2.847640275955200195e+00,2.793119192123413086e+00,2.740647077560424805e+00,2.690109729766845703e+00
5.000000000000000000e+00,5.000000000000000000e+00,5.000000000000000000e+00,5.000000000000000000e+00,5.000000000000000000e+00,5.000000000000000000e+00,5.000000000000000000e+00,5.000000000000000000e+00,5.000000000000000000e+00,5.000000000000000000e+00,5.000000000000000000e+00,5.000000000000000000e+00,5.000000000000000000e+00,5.000000000000000000e+00,5.000000000000000000e+00,5.000000000000000000e+00,5.000000000000000000e+00,5.000000000000000000e+00,5.000000000000000000e+00,5.000000000000000000e+00,5.000000000000000000e+00,5.000000000000000000e+00,5.000000000000000000e+00,5.000000000000000000e+00,5.000000000000000000e+00,5.000000000000000000e+00,5.000000000000000000e+00,5.000000000000000000e+00,5.000000000000000000e+00,5.000000000000000000e+00,5.000000000000000000e+00,5.000000000000000000e+00,5.000000000000000000e+00,5.000000000000000000e+00,5.000000000000000000e+00,5.000000000000000000e+00,5.000000000000000000e+00,5.000000000000000000e+00,1.881765604019165039e+00,1.869901895523071289e+00,1.923468351364135742e+00,1.910335659980773926e+00,1.905148863792419434e+00,1.903640151023864746e+00,1.945132970809936523e+00,1.936365842819213867e+00,1.897728323936462402e+00,1.885084271430969238e+00,1.879818558692932129e+00,1.914682745933532715e+00,2.073391199111938477e+00,5.000000000000000000e+00,5.000000000000000000e+00,5.000000000000000000e+00,4.991032123565673828e+00,4.825927257537841797e+00,4.671396255493164062e+00,4.526454925537109375e+00,4.390236854553222656e+00,4.261977672576904297e+00,4.141000270843505859e+00,4.026700973510742188e+00,3.918541908264160156e+00,3.816041707992553711e+00,3.718766689300537109e+00,3.626328229904174805e+00,3.538373231887817383e+00,3.454584121704101562e+00,3.374671459197998047e+00,3.298372030258178711e+00,3.225446939468383789e+00,3.155676603317260742e+00,3.088860988616943359e+00,3.024815797805786133e+00,2.963372707366943359e+00,2.904376029968261719e+00,2.847682476043701172e+00,2.793159961700439453e+00,2.740685939788818359e+00,2.690147399902343750e+00
5.000000000000000000e+00,5.000000000000000000e+00,5.000000000000000000e+00,5.000000000000000000e+00,5.000000000000000000e+00,5.000000000000000000e+00,5.000000000000000000e+00,5.000000000000000000e+00,5.000000000000000000e+00,5.000000000000000000e+00,5.000000000000000000e+00,5.000000000000000000e+00,5.000000000000000000e+00,5.000000000000000000e+00,5.000000000000000000e+00,5.000000000000000000e+00,5.000000000000000000e+00,5.000000000000000000e+00,5.000000000000000000e+00,5.000000000000000000e+00,5.000000000000000000e+00,5.000000000000000000e+00,5.000000000000000000e+00,5.000000000000000000e+00,5.000000000000000000e+00,5.000000000000000000e+00,5.000000000000000000e+00,5.000000000000000000e+00,5.000000000000000000e+00,5.000000000000000000e+00,5.000000000000000000e+00,5.000000000000000000e+00,5.000000000000000000e+00,5.000000000000000000e+00,5.000000000000000000e+00,5.000000000000000000e+00,5.000000000000000000e+00,5.000000000000000000e+00,1.862574815750122070e+00,1.851921677589416504e+00,1.852864742279052734e+00,1.912730336189270020e+00,1.907530426979064941e+00,1.905106067657470703e+00,1.944561123847961426e+00,1.935147523880004883e+00,1.895932316780090332e+00,1.871394753456115723e+00,1.868753790855407715e+00,1.881553649902343750e+00,2.047382831573486328e+00,5.000000000000000000e+00,5.000000000000000000e+00,5.000000000000000000e+00,4.991162300109863281e+00,4.826048851013183594e+00,4.671509742736816406e+00,4.526561260223388672e+00,4.390336990356445312e+00,4.262072563171386719e+00,4.141089439392089844e+00,4.026785373687744141e+00,3.918622016906738281e+00,3.816117763519287109e+00,3.718838691711425781e+00,3.626396417617797852e+00,3.538438320159912109e+00,3.454646110534667969e+00,3.374730825424194336e+00,3.298428773880004883e+00,3.225501298904418945e+00,3.155728578567504883e+00,3.088910341262817383e+00,3.024863481521606445e+00,2.963418245315551758e+00,2.904419898986816406e+00,2.847724676132202148e+00,2.793200731277465820e+00,2.740725278854370117e+00,2.690185308456420898e+00
5.000000000000000000e+00,5.000000000000000000e+00,5.000000000000000000e+00,5.000000000000000000e+00,5.000000000000000000e+00,5.000000000000000000e+00,5.000000000000000000e+00,5.000000000000000000e+00,5.000000000000000000e+00,5.000000000000000000e+00,5.000000000000000000e+00,5.000000000000000000e+00,5.000000000000000000e+00,5.000000000000000000e+00,5.000000000000000000e+00,5.000000000000000000e+00,5.000000000000000000e+00,5.000000000000000000e+00,5.000000000000000000e+00,5.000000000000000000e+00,5.000000000000000000e+00,5.000000000000000000e+00,5.000000000000000000e+00,5.000000000000000000e+00,5.000000000000000000e+00,5.000000000000000000e+00,5.000000000000000000e+00,5.000000000000000000e+00,5.000000000000000000e+00,5.000000000000000000e+00,5.000000000000000000e+00,5.000000000000000000e+00,5.000000000000000000e+00,5.000000000000000000e+00,5.000000000000000000e+00,5.000000000000000000e+00,5.000000000000000000e+00,5.000000000000000000e+00,1.850119352340698242e+00,1.826135635375976562e+00,1.838672995567321777e+00,1.916311144828796387e+00,1.909918189048767090e+00,1.906800150871276855e+00,1.944600582122802734e+00,1.942784190177917480e+00,1.894139647483825684e+00,1.857669234275817871e+00,1.855478167533874512e+00,1.853529572486877441e+00,2.063004493713378906e+00,2.065782308578491211e+00,5.000000000000000000e+00,5.000000000000000000e+00,4.991291522979736328e+00,4.826169967651367188e+00,4.671623706817626953e+00,4.526668071746826172e+00,4.390437602996826172e+00,4.262166976928710938e+00,4.141178607940673828e+00,4.026869773864746094e+00,3.918702125549316406e+00,3.816193342208862305e+00,3.718910932540893555e+00,3.626464843750000000e+00,3.538503646850585938e+00,3.454708337783813477e+00,3.374789714813232422e+00,3.298485517501831055e+00,3.225555181503295898e+00,3.155780315399169922e+00,3.088960170745849609e+00,3.024911165237426758e+00,2.963464021682739258e+00,2.904463768005371094e+00,2.847766876220703125e+00,2.793241024017333984e+00,2.740764379501342773e+00,2.690222740173339844e+00
5.000000000000000000e+00,5.000000000000000000e+00,5.000000000000000000e+00,5.000000000000000000e+00,5.000000000000000000e+00,5.000000000000000000e+00,5.000000000000000000e+00,5.000000000000000000e+00,5.000000000000000000e+00,5.000000000000000000e+00,5.000000000000000000e+00,5.000000000000000000e+00,5.000000000000000000e+00,5.000000000000000000e+00,5.000000000000000000e+00,5.000000000000000000e+00,5.000000000000000000e+00,5.000000000000000000e+00,5.000000000000000000e+00,5.000000000000000000e+00,5.000000000000000000e+00,5.000000000000000000e+00,5.000000000000000000e+00,5.000000000000000000e+00,5.000000000000000000e+00,5.000000000000000000e+00,5.000000000000000000e+00,5.000000000000000000e+00,5.000000000000000000e+00,5.000000000000000000e+00,5.000000000000000000e+00,5.000000000000000000e+00,5.000000000000000000e+00,5.000000000000000000e+00,5.000000000000000000e+00,5.000000000000000000e+00,5.000000000000000000e+00,5.000000000000000000e+00,1.837041974067687988e+00,1.808094024658203125e+00,1.967840790748596191e+00,1.919945359230041504e+00,1.913028478622436523e+00,1.908496856689453125e+00,1.944083690643310547e+00,1.955101013183593750e+00,1.892258644104003906e+00,1.852403402328491211e+00,1.844121932983398438e+00,1.842197060585021973e+00,1.886108517646789551e+00,2.020593643188476562e+00,5.000000000000000000e+00,5.000000000000000000e+00,4.991421222686767578e+00,4.826291084289550781e+00,4.671737194061279297e+00,4.526774883270263672e+00,4.390537738800048828e+00,4.262261390686035156e+00,4.141267776489257812e+00,4.026954174041748047e+00,3.918781757354736328e+00,3.816269159317016602e+00,3.718982696533203125e+00,3.626533508300781250e+00,3.538568735122680664e+00,3.454770565032958984e+00,3.374849319458007812e+00,3.298542261123657227e+00,3.225609540939331055e+00,3.155832052230834961e+00,3.089010000228881836e+00,3.024958610534667969e+00,2.963509798049926758e+00,2.904507637023925781e+00,2.847809314727783203e+00,2.793281793594360352e+00,2.740803241729736328e+00,2.690260410308837891e+00
5.000000000000000000e+00,5.000000000000000000e+00,5.000000000000000000e+00,5.000000000000000000e+00,5.000000000000000000e+00,5.000000000000000000e+00,5.000000000000000000e+00,5.000000000000000000e+00,5.000000000000000000e+00,5.000000000000000000e+00,5.000000000000000000e+00,5.000000000000000000e+00,5.000000000000000000e+00,5.000000000000000000e+00,5.000000000000000000e+00,5.000000000000000000e+00,5.000000000000000000e+00,5.000000000000000000e+00,5.000000000000000000e+00,5.000000000000000000e+00,5.000000000000000000e+00,5.000000000000000000e+00,5.000000000000000000e+00,5.000000000000000000e+00,5.000000000000000000e+00,5.000000000000000000e+00,5.000000000000000000e+00,5.000000000000000000e+00,5.000000000000000000e+00,5.000000000000000000e+00,5.000000000000000000e+00,5.000000000000000000e+00,5.000000000000000000e+00,5.000000000000000000e+00,5.000000000000000000e+00,5.000000000000000000e+00,5.000000000000000000e+00,5.000000000000000000e+00,1.825818061828613281e+00,5.000000000000000000e+00,1.991873025894165039e+00,1.923079013824462891e+00,1.915694117546081543e+00,1.909634113311767578e+00,1.943570613861083984e+00,5.000000000000000000e+00,1.887261867523193359e+00,1.848545312881469727e+00,1.828298568725585938e+00,1.831002354621887207e+00,1.843733429908752441e+00,2.044674158096313477e+00,5.000000000000000000e+00,5.000000000000000000e+00,4.991554737091064453e+00,4.826415061950683594e+00,4.671852588653564453e+00,4.526882171630859375e+00,4.390638351440429688e+00,4.262355804443359375e+00,4.141356945037841797e+00,4.027038574218750000e+00,3.918861865997314453e+00,3.816345214843750000e+00,3.719054698944091797e+00,3.626601696014404297e+00,3.538634061813354492e+00,3.454832553863525391e+00,3.374908685684204102e+00,3.298598766326904297e+00,3.225663661956787109e+00,3.155884027481079102e+00,3.089059591293334961e+00,3.025006294250488281e+00,2.963555335998535156e+00,2.904551744461059570e+00,2.847851276397705078e+00,2.793322563171386719e+00,2.740842580795288086e+00,2.690298318862915039e+00
5.000000000000000000e+00,5.000000000000000000e+00,5.000000000000000000e+00,5.000000000000000000e+00,5.000000000000000000e+00,5.000000000000000000e+00,5.000000000000000000e+00,5.000000000000000000e+00,5.000000000000000000e+00,5.000000000000000000e+00,5.000000000000000000e+00,5.000000000000000000e+00,5.000000000000000000e+00,5.000000000000000000e+00,5.000000000000000000e+00,5.000000000000000000e+00,5.000000000000000000e+00,5.000000000000000000e+00,5.000000000000000000e+00,5.000000000000000000e+00,5.000000000000000000e+00,5.000000000000000000e+00,5.000000000000000000e+00,5.000000000000000000e+00,5.000000000000000000e+00,5.000000000000000000e+00,5.000000000000000000e+00,5.000000000000000000e+00,5.000000000000000000e+00,5.000000000000000000e+00,5.000000000000000000e+00,5.000000000000000000e+00,5.000000000000000000e+00,5.000000000000000000e+00,5.000000000000000000e+00,5.000000000000000000e+00,5.000000000000000000e+00,5.000000000000000000e+00,5.000000000000000000e+00,5.000000000000000000e+00,2.021338939666748047e+00,1.937990903854370117e+00,1.915648579597473145e+00,1.909424304962158203e+00,1.943035483360290527e+00,5.000000000000000000e+00,1.897102475166320801e+00,1.844703435897827148e+00,1.818128943443298340e+00,1.815209150314331055e+00,1.818068146705627441e+00,5.000000000000000000e+00,5.000000000000000000e+00,5.000000000000000000e+00,4.991692066192626953e+00,4.826543331146240234e+00,4.671972751617431641e+00,4.526995182037353516e+00,4.390744209289550781e+00,4.262455463409423828e+00,4.141450405120849609e+00,4.027125835418701172e+00,3.918944120407104492e+00,3.816422462463378906e+00,3.719127655029296875e+00,3.626671075820922852e+00,3.538699388504028320e+00,3.454894781112670898e+00,3.374968051910400391e+00,3.298655509948730469e+00,3.225717782974243164e+00,3.155936002731323242e+00,3.089109182357788086e+00,3.025053977966308594e+00,2.963601112365722656e+00,2.904595613479614258e+00,2.847893476486206055e+00,2.793362855911254883e+00,2.740881681442260742e+00,2.690335750579833984e+00
5.000000000000000000e+00,5.000000000000000000e+00,5.000000000000000000e+00,5.000000000000000000e+00,5.000000000000000000e+00,5.000000000000000000e+00,5.000000000000000000e+00,5.000000000000000000e+00,5.000000000000000000e+00,5.000000000000000000e+00,5.000000000000000000e+00,5.000000000000000000e+00,5.000000000000000000e+00,5.000000000000000000e+00,5.000000000000000000e+00,5.000000000000000000e+00,5.000000000000000000e+00,5.000000000000000000e+00,5.000000000000000000e+00,5.000000000000000000e+00,5.000000000000000000e+00,5.000000000000000000e+00,5.000000000000000000e+00,5.000000000000000000e+00,5.000000000000000000e+00,5.000000000000000000e+00,5.000000000000000000e+00,5.000000000000000000e+00,5.000000000000000000e+00,5.000000000000000000e+00,5.000000000000000000e+00,5.000000000000000000e+00,5.000000000000000000e+00,5.000000000000000000e+00,5.000000000000000000e+00,5.000000000000000000e+00,5.000000000000000000e+00,5.000000000000000000e+00,5.000000000000000000e+00,5.000000000000000000e+00,5.000000000000000000e+00,1.954532027244567871e+00,1.916999816894531250e+00,1.909214615821838379e+00,1.939871788024902344e+00,5.000000000000000000e+00,5.000000000000000000e+00,1.840857267379760742e+00,1.814828991889953613e+00,1.805875539779663086e+00,1.810318231582641602e+00,5.000000000000000000e+00,5.000000000000000000e+00,5.000000000000000000e+00,4.991829395294189453e+00,4.826671600341796875e+00,4.672092914581298828e+00,4.527108192443847656e+00,4.390850067138671875e+00,4.262555599212646484e+00,4.141544818878173828e+00,4.027215480804443359e+00,3.919028997421264648e+00,3.816502809524536133e+00,3.719203948974609375e+00,3.626743316650390625e+00,3.538768053054809570e+00,3.454960107803344727e+00,3.375029802322387695e+00,3.298714160919189453e+00,3.225773572921752930e+00,3.155988693237304688e+00,3.089159727096557617e+00,3.025102138519287109e+00,2.963646888732910156e+00,2.904639482498168945e+00,2.847935914993286133e+00,2.793403625488281250e+00,2.740920782089233398e+00,2.690373659133911133e+00
5.000000000000000000e+00,5.000000000000000000e+00,5.000000000000000000e+00,5.000000000000000000e+00,5.000000000000000000e+00,5.000000000000000000e+00,5.000000000000000000e+00,5.000000000000000000e+00,5.000000000000000000e+00,5.000000000000000000e+00,5.000000000000000000e+00,5.000000000000000000e+00,5.000000000000000000e+00,5.000000000000000000e+00,5.000000000000000000e+00,5.000000000000000000e+00,5.000000000000000000e+00,5.000000000000000000e+00,5.000000000000000000e+00,5.000000000000000000e+00,5.000000000000000000e+00,5.000000000000000000e+00,5.000000000000000000e+00,5.000000000000000000e+00,5.000000000000000000e+00,5.000000000000000000e+00,5.000000000000000000e+00,5.000000000000000000e+00,5.000000000000000000e+00,5.000000000000000000e+00,5.000000000000000000e+00,5.000000000000000000e+00,5.000000000000000000e+00,5.000000000000000000e+00,5.000000000000000000e+00,5.000000000000000000e+00,5.000000000000000000e+00,5.000000000000000000e+00,5.000000000000000000e+00,5.000000000000000000e+00,5.000000000000000000e+00,1.971357941627502441e+00,1.922332882881164551e+00,1.909005165100097656e+00,1.936718344688415527e+00,5.000000000000000000e+00,5.000000000000000000e+00,1.839875102043151855e+00,1.816520333290100098e+00,1.802827358245849609e+00,1.808496356010437012e+00,5.000000000000000000e+00,5.000000000000000000e+00,5.000000000000000000e+00,4.991966247558593750e+00,4.826799869537353516e+00,4.672213077545166016e+00,4.527221202850341797e+00,4.390956401824951172e+00,4.262655258178710938e+00,4.141639232635498047e+00,4.027304649353027344e+00,3.919113159179687500e+00,3.816583156585693359e+00,3.719280242919921875e+00,3.626815795898437500e+00,3.538836956024169922e+00,3.455025672912597656e+00,3.375092506408691406e+00,3.298774242401123047e+00,3.225831031799316406e+00,3.156043767929077148e+00,3.089212179183959961e+00,3.025152444839477539e+00,2.963695287704467773e+00,2.904685735702514648e+00,2.847979784011840820e+00,2.793445825576782227e+00,2.740960836410522461e+00,2.690412282943725586e+00
5.000000000000000000e+00,5.000000000000000000e+00,5.000000000000000000e+00,5.000000000000000000e+00,5.000000000000000000e+00,5.000000000000000000e+00,5.000000000000000000e+00,5.000000000000000000e+00,5.000000000000000000e+00,5.000000000000000000e+00,5.000000000000000000e+00,5.000000000000000000e+00,5.000000000000000000e+00,5.000000000000000000e+00,5.000000000000000000e+00,5.000000000000000000e+00,5.000000000000000000e+00,5.000000000000000000e+00,5.000000000000000000e+00,5.000000000000000000e+00,5.000000000000000000e+00,5.000000000000000000e+00,5.000000000000000000e+00,5.000000000000000000e+00,5.000000000000000000e+00,5.000000000000000000e+00,5.000000000000000000e+00,5.000000000000000000e+00,5.000000000000000000e+00,5.000000000000000000e+00,5.000000000000000000e+00,5.000000000000000000e+00,5.000000000000000000e+00,5.000000000000000000e+00,5.000000000000000000e+00,5.000000000000000000e+00,5.000000000000000000e+00,5.000000000000000000e+00,5.000000000000000000e+00,5.000000000000000000e+00,5.000000000000000000e+00,1.992892503738403320e+00,1.928101062774658203e+00,1.910691261291503906e+00,1.936247706413269043e+00,5.000000000000000000e+00,5.000000000000000000e+00,1.853962779045104980e+00,1.825122594833374023e+00,1.812865257263183594e+00,1.817206382751464844e+00,5.000000000000000000e+00,5.000000000000000000e+00,5.000000000000000000e+00,4.992103576660156250e+00,4.826928138732910156e+00,4.672333240509033203e+00,4.527333736419677734e+00,4.391062736511230469e+00,4.262755870819091797e+00,4.141733646392822266e+00,4.027393817901611328e+00,3.919197797775268555e+00,3.816663026809692383e+00,3.719356536865234375e+00,3.626888275146484375e+00,3.538906097412109375e+00,3.455091476440429688e+00,3.375154972076416016e+00,3.298833847045898438e+00,3.225888252258300781e+00,3.156098604202270508e+00,3.089264631271362305e+00,3.025202751159667969e+00,2.963743448257446289e+00,2.904732227325439453e+00,2.848024606704711914e+00,2.793488740921020508e+00,2.741002321243286133e+00,2.690451860427856445e+00
5.000000000000000000e+00,5.000000000000000000e+00,5.000000000000000000e+00,5.000000000000000000e+00,5.000000000000000000e+00,5.000000000000000000e+00,5.000000000000000000e+00,5.000000000000000000e+00,5.000000000000000000e+00,5.000000000000000000e+00,5.000000000000000000e+00,5.000000000000000000e+00,5.000000000000000000e+00,5.000000000000000000e+00,5.000000000000000000e+00,5.000000000000000000e+00,5.000000000000000000e+00,5.000000000000000000e+00,5.000000000000000000e+00,5.000000000000000000e+00,5.000000000000000000e+00,5.000000000000000000e+00,5.000000000000000000e+00,5.000000000000000000e+00,5.000000000000000000e+00,5.000000000000000000e+00,5.000000000000000000e+00,5.000000000000000000e+00,5.000000000000000000e+00,5.000000000000000000e+00,5.000000000000000000e+00,5.000000000000000000e+00,5.000000000000000000e+00,5.000000000000000000e+00,5.000000000000000000e+00,5.000000000000000000e+00,5.000000000000000000e+00,5.000000000000000000e+00,5.000000000000000000e+00,5.000000000000000000e+00,5.000000000000000000e+00,2.004944801330566406e+00,1.940779805183410645e+00,1.920393109321594238e+00,1.946652293205261230e+00,5.000000000000000000e+00,5.000000000000000000e+00,1.876142621040344238e+00,1.843036293983459473e+00,1.838070988655090332e+00,5.000000000000000000e+00,5.000000000000000000e+00,5.000000000000000000e+00,5.000000000000000000e+00,4.992240905761718750e+00,4.827056407928466797e+00,4.672453403472900391e+00,4.527446269989013672e+00,4.391168594360351562e+00,4.262855529785156250e+00,4.141828060150146484e+00,4.027483463287353516e+00,3.919282436370849609e+00,3.816743373870849609e+00,3.719432353973388672e+00,3.626960515975952148e+00,3.538975000381469727e+00,3.455157279968261719e+00,3.375217914581298828e+00,3.298893928527832031e+00,3.225945472717285156e+00,3.156153440475463867e+00,3.089317321777343750e+00,3.025253057479858398e+00,2.963791847229003906e+00,2.904778480529785156e+00,2.848069190979003906e+00,2.793531894683837891e+00,2.741043806076049805e+00,2.690491676330566406e+00
5.000000000000000000e+00,5.000000000000000000e+00,5.000000000000000000e+00,5.000000000000000000e+00,5.000000000000000000e+00,5.000000000000000000e+00,5.000000000000000000e+00,5.000000000000000000e+00,5.000000000000000000e+00,5.000000000000000000e+00,5.000000000000000000e+00,5.000000000000000000e+00,5.000000000000000000e+00,5.000000000000000000e+00,5.000000000000000000e+00,5.000000000000000000e+00,5.000000000000000000e+00,5.000000000000000000e+00,5.000000000000000000e+00,5.000000000000000000e+00,5.000000000000000000e+00,5.000000000000000000e+00,5.000000000000000000e+00,5.000000000000000000e+00,5.000000000000000000e+00,5.000000000000000000e+00,5.000000000000000000e+00,5.000000000000000000e+00,5.000000000000000000e+00,5.000000000000000000e+00,5.000000000000000000e+00,5.000000000000000000e+00,5.000000000000000000e+00,5.000000000000000000e+00,5.000000000000000000e+00,5.000000000000000000e+00,5.000000000000000000e+00,5.000000000000000000e+00,5.000000000000000000e+00,5.000000000000000000e+00,5.000000000000000000e+00,2.000360250473022461e+00,1.961250543594360352e+00,1.944173574447631836e+00,1.978567838668823242e+00,5.000000000000000000e+00,1.936330318450927734e+00,1.890911579132080078e+00,1.870417594909667969e+00,1.864071488380432129e+00,5.000000000000000000e+00,5.000000000000000000e+00,5.000000000000000000e+00,5.000000000000000000e+00,4.992378234863281250e+00,4.827184677124023438e+00,4.672573566436767578e+00,4.527559280395507812e+00,4.391274929046630859e+00,4.262955665588378906e+00,4.141922473907470703e+00,4.027572631835937500e+00,3.919367313385009766e+00,3.816823482513427734e+00,3.719508647918701172e+00,3.627032995223999023e+00,3.539043664932250977e+00,3.455223083496093750e+00,3.375280618667602539e+00,3.298953771591186523e+00,3.226002693176269531e+00,3.156208038330078125e+00,3.089370012283325195e+00,3.025303602218627930e+00,2.963840484619140625e+00,2.904824972152709961e+00,2.848113775253295898e+00,2.793574571609497070e+00,2.741085290908813477e+00,2.690531730651855469e+00
5.000000000000000000e+00,5.000000000000000000e+00,5.000000000000000000e+00,5.000000000000000000e+00,5.000000000000000000e+00,5.000000000000000000e+00,5.000000000000000000e+00,5.000000000000000000e+00,5.000000000000000000e+00,5.000000000000000000e+00,5.000000000000000000e+00,5.000000000000000000e+00,5.000000000000000000e+00,5.000000000000000000e+00,5.000000000000000000e+00,5.000000000000000000e+00,5.000000000000000000e+00,5.000000000000000000e+00,5.000000000000000000e+00,5.000000000000000000e+00,5.000000000000000000e+00,5.000000000000000000e+00,5.000000000000000000e+00,5.000000000000000000e+00,5.000000000000000000e+00,5.000000000000000000e+00,5.000000000000000000e+00,5.000000000000000000e+00,5.000000000000000000e+00,5.000000000000000000e+00,5.000000000000000000e+00,5.000000000000000000e+00,5.000000000000000000e+00,5.000000000000000000e+00,5.000000000000000000e+00,5.000000000000000000e+00,5.000000000000000000e+00,5.000000000000000000e+00,5.000000000000000000e+00,5.000000000000000000e+00,5.000000000000000000e+00,2.005670785903930664e+00,1.980223059654235840e+00,1.972165822982788086e+00,5.000000000000000000e+00,5.000000000000000000e+00,1.940037965774536133e+00,1.903124451637268066e+00,1.896552205085754395e+00,1.907740473747253418e+00,5.000000000000000000e+00,5.000000000000000000e+00,5.000000000000000000e+00,5.000000000000000000e+00,4.992515087127685547e+00,4.827313423156738281e+00,4.672693729400634766e+00,4.527672290802001953e+00,4.391381263732910156e+00,4.263055801391601562e+00,4.142016887664794922e+00,4.027661800384521484e+00,3.919451475143432617e+00,3.816903829574584961e+00,3.719584941864013672e+00,3.627105474472045898e+00,3.539112806320190430e+00,3.455288648605346680e+00,3.375343084335327148e+00,3.299013853073120117e+00,3.226060152053833008e+00,3.156263113021850586e+00,3.089422225952148438e+00,3.025353908538818359e+00,2.963888883590698242e+00,2.904871463775634766e+00,2.848158597946166992e+00,2.793617725372314453e+00,2.741126298904418945e+00,2.690571546554565430e+00
5.000000000000000000e+00,5.000000000000000000e+00,5.000000000000000000e+00,5.000000000000000000e+00,5.000000000000000000e+00,5.000000000000000000e+00,5.000000000000000000e+00,5.000000000000000000e+00,5.000000000000000000e+00,5.000000000000000000e+00,5.000000000000000000e+00,5.000000000000000000e+00,5.000000000000000000e+00,5.000000000000000000e+00,5.000000000000000000e+00,5.000000000000000000e+00,5.000000000000000000e+00,5.000000000000000000e+00,5.000000000000000000e+00,5.000000000000000000e+00,5.000000000000000000e+00,5.000000000000000000e+00,5.000000000000000000e+00,5.000000000000000000e+00,5.000000000000000000e+00,5.000000000000000000e+00,5.000000000000000000e+00,5.000000000000000000e+00,5.000000000000000000e+00,5.000000000000000000e+00,5.000000000000000000e+00,5.000000000000000000e+00,5.000000000000000000e+00,5.000000000000000000e+00,5.000000000000000000e+00,5.000000000000000000e+00,5.000000000000000000e+00,5.000000000000000000e+00,5.000000000000000000e+00,5.000000000000000000e+00,5.000000000000000000e+00,2.020964622497558594e+00,1.999566078186035156e+00,2.009798049926757812e+00,5.000000000000000000e+00,5.000000000000000000e+00,1.947534203529357910e+00,1.916944384574890137e+00,1.910904526710510254e+00,1.940954804420471191e+00,5.000000000000000000e+00,5.000000000000000000e+00,5.000000000000000000e+00,5.000000000000000000e+00,4.992652416229248047e+00,4.827441215515136719e+00,4.672813892364501953e+00,4.527785301208496094e+00,4.391487121582031250e+00,4.263155937194824219e+00,4.142111301422119141e+00,4.027750968933105469e+00,3.919536113739013672e+00,3.816983699798583984e+00,3.719660758972167969e+00,3.627177953720092773e+00,3.539181947708129883e+00,3.455354452133178711e+00,3.375406026840209961e+00,3.299073457717895508e+00,3.226117610931396484e+00,3.156317949295043945e+00,3.089474916458129883e+00,3.025404214859008789e+00,2.963937044143676758e+00,2.904918193817138672e+00,2.848203182220458984e+00,2.793660640716552734e+00,2.741167783737182617e+00,2.690611362457275391e+00
5.000000000000000000e+00,5.000000000000000000e+00,5.000000000000000000e+00,5.000000000000000000e+00,5.000000000000000000e+00,5.000000000000000000e+00,5.000000000000000000e+00,5.000000000000000000e+00,5.000000000000000000e+00,5.000000000000000000e+00,5.000000000000000000e+00,5.000000000000000000e+00,5.000000000000000000e+00,5.000000000000000000e+00,5.000000000000000000e+00,5.000000000000000000e+00,5.000000000000000000e+00,5.000000000000000000e+00,5.000000000000000000e+00,5.000000000000000000e+00,5.000000000000000000e+00,5.000000000000000000e+00,5.000000000000000000e+00,5.000000000000000000e+00,5.000000000000000000e+00,5.000000000000000000e+00,5.000000000000000000e+00,5.000000000000000000e+00,5.000000000000000000e+00,5.000000000000000000e+00,5.000000000000000000e+00,5.000000000000000000e+00,5.000000000000000000e+00,5.000000000000000000e+00,5.000000000000000000e+00,5.000000000000000000e+00,5.000000000000000000e+00,5.000000000000000000e+00,5.000000000000000000e+00,5.000000000000000000e+00,5.000000000000000000e+00,2.035304784774780273e+00,2.011490583419799805e+00,2.023521661758422852e+00,5.000000000000000000e+00,5.000000000000000000e+00,1.955648064613342285e+00,1.930966734886169434e+00,1.925475716590881348e+00,5.000000000000000000e+00,5.000000000000000000e+00,5.000000000000000000e+00,5.000000000000000000e+00,5.000000000000000000e+00,4.992789745330810547e+00,4.827569961547851562e+00,4.672934532165527344e+00,4.527897834777832031e+00,4.391593456268310547e+00,4.263255596160888672e+00,4.142205715179443359e+00,4.027840614318847656e+00,3.919620752334594727e+00,3.817064046859741211e+00,3.719737052917480469e+00,3.627250194549560547e+00,3.539250850677490234e+00,3.455420255661010742e+00,3.375468730926513672e+00,3.299133539199829102e+00,3.226174592971801758e+00,3.156373023986816406e+00,3.089527606964111328e+00,3.025454759597778320e+00,2.963985443115234375e+00,2.904964447021484375e+00,2.848247766494750977e+00,2.793703556060791016e+00,2.741209268569946289e+00,2.690651178359985352e+00
5.000000000000000000e+00,5.000000000000000000e+00,5.000000000000000000e+00,5.000000000000000000e+00,5.000000000000000000e+00,5.000000000000000000e+00,5.000000000000000000e+00,5.000000000000000000e+00,5.000000000000000000e+00,5.000000000000000000e+00,5.000000000000000000e+00,5.000000000000000000e+00,5.000000000000000000e+00,5.000000000000000000e+00,5.000000000000000000e+00,5.000000000000000000e+00,5.000000000000000000e+00,5.000000000000000000e+00,5.000000000000000000e+00,5.000000000000000000e+00,5.000000000000000000e+00,5.000000000000000000e+00,5.000000000000000000e+00,5.000000000000000000e+00,5.000000000000000000e+00,5.000000000000000000e+00,5.000000000000000000e+00,5.000000000000000000e+00,5.000000000000000000e+00,5.000000000000000000e+00,5.000000000000000000e+00,5.000000000000000000e+00,5.000000000000000000e+00,5.000000000000000000e+00,5.000000000000000000e+00,5.000000000000000000e+00,5.000000000000000000e+00,5.000000000000000000e+00,5.000000000000000000e+00,5.000000000000000000e+00,5.000000000000000000e+00,2.049714803695678711e+00,2.021619796752929688e+00,2.035803318023681641e+00,5.000000000000000000e+00,5.000000000000000000e+00,1.965185642242431641e+00,1.945195436477661133e+00,1.940270543098449707e+00,5.000000000000000000e+00,5.000000000000000000e+00,5.000000000000000000e+00,5.000000000000000000e+00,5.000000000000000000e+00,4.992927074432373047e+00,4.827698230743408203e+00,4.673054218292236328e+00,4.528010845184326172e+00,4.391699790954589844e+00,4.263355731964111328e+00,4.142300605773925781e+00,4.027929782867431641e+00,3.919705629348754883e+00,3.817144393920898438e+00,3.719813346862792969e+00,3.627322673797607422e+00,3.539319753646850586e+00,3.455485820770263672e+00,3.375531673431396484e+00,3.299193620681762695e+00,3.226232051849365234e+00,3.156427621841430664e+00,3.089579820632934570e+00,3.025505304336547852e+00,2.964033842086791992e+00,2.905010938644409180e+00,2.848292350769042969e+00,2.793746471405029297e+00,2.741250753402709961e+00,2.690691232681274414e+00
5.000000000000000000e+00,5.000000000000000000e+00,5.000000000000000000e+00,5.000000000000000000e+00,5.000000000000000000e+00,5.000000000000000000e+00,5.000000000000000000e+00,5.000000000000000000e+00,5.000000000000000000e+00,5.000000000000000000e+00,5.000000000000000000e+00,5.000000000000000000e+00,5.000000000000000000e+00,5.000000000000000000e+00,5.000000000000000000e+00,5.000000000000000000e+00,5.000000000000000000e+00,5.000000000000000000e+00,5.000000000000000000e+00,5.000000000000000000e+00,5.000000000000000000e+00,5.000000000000000000e+00,5.000000000000000000e+00,5.000000000000000000e+00,5.000000000000000000e+00,5.000000000000000000e+00,5.000000000000000000e+00,5.000000000000000000e+00,5.000000000000000000e+00,5.000000000000000000e+00,5.000000000000000000e+00,5.000000000000000000e+00,5.000000000000000000e+00,5.000000000000000000e+00,5.000000000000000000e+00,5.000000000000000000e+00,5.000000000000000000e+00,5.000000000000000000e+00,5.000000000000000000e+00,5.000000000000000000e+00,5.000000000000000000e+00,2.064597606658935547e+00,2.033881664276123047e+00,2.046870470046997070e+00,5.000000000000000000e+00,5.000000000000000000e+00,1.978011250495910645e+00,1.960376381874084473e+00,1.955146431922912598e+00,5.000000000000000000e+00,5.000000000000000000e+00,5.000000000000000000e+00,5.000000000000000000e+00,5.000000000000000000e+00,4.993063926696777344e+00,4.827826023101806641e+00,4.673174858093261719e+00,4.528123855590820312e+00,4.391806125640869141e+00,4.263455867767333984e+00,4.142394542694091797e+00,4.028019428253173828e+00,3.919789791107177734e+00,3.817224264144897461e+00,3.719889640808105469e+00,3.627395153045654297e+00,3.539388656616210938e+00,3.455551624298095703e+00,3.375594139099121094e+00,3.299253702163696289e+00,3.226289272308349609e+00,3.156482458114624023e+00,3.089632511138916016e+00,3.025555372238159180e+00,2.964082241058349609e+00,2.905057430267333984e+00,2.848337173461914062e+00,2.793789386749267578e+00,2.741291761398315430e+00,2.690730810165405273e+00
5.000000000000000000e+00,5.000000000000000000e+00,5.000000000000000000e+00,5.000000000000000000e+00,5.000000000000000000e+00,5.000000000000000000e+00,5.000000000000000000e+00,5.000000000000000000e+00,5.000000000000000000e+00,5.000000000000000000e+00,5.000000000000000000e+00,5.000000000000000000e+00,5.000000000000000000e+00,5.000000000000000000e+00,5.000000000000000000e+00,5.000000000000000000e+00,5.000000000000000000e+00,5.000000000000000000e+00,5.000000000000000000e+00,5.000000000000000000e+00,5.000000000000000000e+00,5.000000000000000000e+00,5.000000000000000000e+00,5.000000000000000000e+00,5.000000000000000000e+00,5.000000000000000000e+00,5.000000000000000000e+00,5.000000000000000000e+00,5.000000000000000000e+00,5.000000000000000000e+00,5.000000000000000000e+00,5.000000000000000000e+00,5.000000000000000000e+00,5.000000000000000000e+00,5.000000000000000000e+00,5.000000000000000000e+00,5.000000000000000000e+00,5.000000000000000000e+00,5.000000000000000000e+00,5.000000000000000000e+00,5.000000000000000000e+00,2.080171585083007812e+00,2.048133611679077148e+00,2.058932304382324219e+00,5.000000000000000000e+00,5.000000000000000000e+00,1.990652561187744141e+00,1.976240754127502441e+00,5.000000000000000000e+00,5.000000000000000000e+00,5.000000000000000000e+00,5.000000000000000000e+00,5.000000000000000000e+00,5.000000000000000000e+00,4.993201732635498047e+00,4.827954769134521484e+00,4.673295021057128906e+00,4.528236865997314453e+00,4.391911983489990234e+00,4.263556003570556641e+00,4.142489433288574219e+00,4.028108596801757812e+00,3.919874429702758789e+00,3.817304611206054688e+00,3.719965457916259766e+00,3.627467870712280273e+00,3.539457798004150391e+00,3.455617427825927734e+00,3.375656843185424805e+00,3.299313306808471680e+00,3.226346731185913086e+00,3.156537294387817383e+00,3.089685201644897461e+00,3.025605916976928711e+00,2.964130401611328125e+00,2.905103683471679688e+00,2.848381996154785156e+00,2.793832540512084961e+00,2.741333246231079102e+00,2.690770626068115234e+00
5.000000000000000000e+00,5.000000000000000000e+00,5.000000000000000000e+00,5.000000000000000000e+00,5.000000000000000000e+00,5.000000000000000000e+00,5.000000000000000000e+00,5.000000000000000000e+00,5.000000000000000000e+00,5.000000000000000000e+00,5.000000000000000000e+00,5.000000000000000000e+00,5.000000000000000000e+00,5.000000000000000000e+00,5.000000000000000000e+00,5.000000000000000000e+00,5.000000000000000000e+00,5.000000000000000000e+00,5.000000000000000000e+00,5.000000000000000000e+00,5.000000000000000000e+00,5.000000000000000000e+00,5.000000000000000000e+00,5.000000000000000000e+00,5.000000000000000000e+00,5.000000000000000000e+00,5.000000000000000000e+00,5.000000000000000000e+00,5.000000000000000000e+00,5.000000000000000000e+00,5.000000000000000000e+00,5.000000000000000000e+00,5.000000000000000000e+00,5.000000000000000000e+00,5.000000000000000000e+00,5.000000000000000000e+00,5.000000000000000000e+00,5.000000000000000000e+00,5.000000000000000000e+00,5.000000000000000000e+00,5.000000000000000000e+00,2.097282886505126953e+00,2.064678192138671875e+00,2.072488069534301758e+00,5.000000000000000000e+00,5.000000000000000000e+00,2.003361225128173828e+00,1.992363691329956055e+00,5.000000000000000000e+00,5.000000000000000000e+00,5.000000000000000000e+00,5.000000000000000000e+00,5.000000000000000000e+00,5.000000000000000000e+00,4.993338584899902344e+00,4.828083038330078125e+00,4.673415184020996094e+00,4.528349399566650391e+00,4.392017841339111328e+00,4.263656139373779297e+00,4.142583847045898438e+00,4.028197765350341797e+00,3.919959306716918945e+00,3.817384958267211914e+00,3.720041751861572266e+00,3.627539873123168945e+00,3.539526462554931641e+00,3.455683231353759766e+00,3.375719785690307617e+00,3.299373388290405273e+00,3.226403713226318359e+00,3.156592130661010742e+00,3.089737653732299805e+00,3.025656461715698242e+00,2.964179039001464844e+00,2.905150175094604492e+00,2.848426342010498047e+00,2.793875455856323242e+00,2.741374731063842773e+00,2.690810680389404297e+00
4.871490955352783203e+00,4.870280742645263672e+00,4.869071483612060547e+00,4.867862701416015625e+00,4.866654396057128906e+00,4.865446567535400391e+00,4.864239692687988281e+00,4.863032817840576172e+00,4.861827373504638672e+00,4.860621929168701172e+00,4.859417438507080078e+00,4.858213424682617188e+00,4.857009887695312500e+00,4.855806827545166016e+00,4.854604721069335938e+00,4.853403091430664062e+00,4.852201938629150391e+00,4.851001739501953125e+00,4.849802017211914062e+00,4.848602294921875000e+00,4.847404003143310547e+00,4.846205711364746094e+00,4.845007896423339844e+00,4.843811511993408203e+00,4.842615127563476562e+00,4.841419219970703125e+00,4.840224266052246094e+00,4.839029312133789062e+00,4.837835311889648438e+00,4.836642265319824219e+00,4.835449218750000000e+00,4.834257125854492188e+00,4.833065509796142578e+00,4.831874370574951172e+00,4.830683708190917969e+00,4.829493999481201172e+00,4.828304767608642578e+00,4.827116012573242188e+00,4.825928211212158203e+00,4.824740409851074219e+00,4.823553562164306641e+00,2.114678144454956055e+00,2.077881813049316406e+00,2.086223602294921875e+00,4.818811893463134766e+00,2.080177307128906250e+00,2.036319017410278320e+00,4.815261363983154297e+00,4.814079284667968750e+00,4.812897205352783203e+00,4.811716556549072266e+00,4.810535907745361328e+00,4.809355735778808594e+00,4.808176517486572266e+00,4.806997776031494141e+00,4.805819034576416016e+00,4.673535346984863281e+00,4.528462409973144531e+00,4.392124176025390625e+00,4.263756275177001953e+00,4.142678260803222656e+00,4.028286933898925781e+00,3.920043468475341797e+00,3.817465305328369141e+00,3.720118045806884766e+00,3.627612590789794922e+00,3.539595603942871094e+00,3.455748796463012695e+00,3.375782489776611328e+00,3.299433231353759766e+00,3.226461172103881836e+00,3.156646966934204102e+00,3.089790105819702148e+00,3.025706768035888672e+00,2.964227437973022461e+00,2.905196666717529297e+00,2.848471164703369141e+00,2.793918371200561523e+00,2.741415977478027344e+00,2.690850496292114258e+00
3.776034116744995117e+00,3.775307178497314453e+00,3.774580478668212891e+00,3.773853778839111328e+00,3.773127555847167969e+00,3.772401809692382812e+00,3.771675825119018555e+00,3.770950555801391602e+00,3.770225763320922852e+00,3.769500494003295898e+00,3.768776178359985352e+00,3.768052101135253906e+00,3.767327785491943359e+00,3.766604185104370117e+00,3.765880823135375977e+00,3.765157461166381836e+00,3.764434576034545898e+00,3.763712167739868164e+00,3.762989521026611328e+00,3.762267589569091797e+00,3.761546134948730469e+00,3.760824203491210938e+00,3.760103225708007812e+00,3.759382486343383789e+00,3.758661508560180664e+00,3.757941246032714844e+00,3.757221221923828125e+00,3.756501197814941406e+00,3.755781650543212891e+00,3.755062580108642578e+00,3.754343271255493164e+00,3.753624677658081055e+00,3.752906322479248047e+00,3.752187967300415039e+00,3.751470088958740234e+00,3.750752687454223633e+00,3.750035047531127930e+00,3.749318122863769531e+00,3.748601436614990234e+00,3.747884511947631836e+00,3.747168302536010742e+00,3.746452569961547852e+00,2.094602346420288086e+00,2.102056503295898438e+00,3.744306087493896484e+00,2.076777219772338867e+00,2.030779123306274414e+00,3.742162227630615234e+00,3.741447925567626953e+00,3.740734338760375977e+00,3.740020990371704102e+00,3.739307403564453125e+00,3.738594532012939453e+00,3.737882137298583984e+00,3.737169265747070312e+00,3.736457109451293945e+00,3.735745429992675781e+00,3.735033512115478516e+00,3.734322309494018555e+00,3.733611345291137695e+00,3.732900381088256836e+00,3.732189893722534180e+00,3.731479644775390625e+00,3.730769395828247070e+00,3.720194339752197266e+00,3.627685070037841797e+00,3.539664745330810547e+00,3.455814599990844727e+00,3.375845193862915039e+00,3.299493312835693359e+00,3.226518630981445312e+00,3.156702041625976562e+00,3.089842796325683594e+00,3.025757074356079102e+00,2.964275598526000977e+00,2.905243396759033203e+00,2.848515987396240234e+00,2.793961524963378906e+00,2.741457462310791016e+00,2.690890312194824219e+00
3.082801818847656250e+00,3.082317352294921875e+00,3.081832647323608398e+00,3.081348419189453125e+00,3.080864191055297852e+00,3.080380201339721680e+00,3.079896211624145508e+00,3.079412698745727539e+00,3.078928947448730469e+00,3.078445672988891602e+00,3.077962398529052734e+00,3.077479124069213867e+00,3.076996326446533203e+00,3.076513528823852539e+00,3.076030731201171875e+00,3.075548410415649414e+00,3.075066089630126953e+00,3.074583768844604492e+00,3.074101686477661133e+00,3.073619842529296875e+00,3.073137998580932617e+00,3.072656393051147461e+00,3.072175025939941406e+00,3.071693658828735352e+00,3.071212530136108398e+00,3.070731639862060547e+00,3.070250749588012695e+00,3.069770097732543945e+00,3.069289684295654297e+00,3.068809032440185547e+00,3.068328857421875000e+00,3.067848920822143555e+00,3.067368745803833008e+00,3.066889047622680664e+00,3.066409587860107422e+00,3.065929889678955078e+00,3.065450668334960938e+00,3.064971685409545898e+00,3.064492464065551758e+00,3.064013719558715820e+00,3.063534975051879883e+00,3.063056230545043945e+00,2.124785423278808594e+00,2.122206926345825195e+00,3.061621427536010742e+00,2.088194847106933594e+00,2.015194654464721680e+00,2.008069276809692383e+00,3.059710264205932617e+00,3.059232950210571289e+00,3.058755636215209961e+00,3.058278560638427734e+00,3.057801723480224609e+00,3.057324647903442383e+00,3.056848049163818359e+00,3.056371688842773438e+00,3.055895328521728516e+00,3.055419206619262695e+00,3.054943084716796875e+00,3.054466962814331055e+00,3.053991317749023438e+00,3.053515911102294922e+00,3.053040266036987305e+00,3.052564859390258789e+00,3.052089929580688477e+00,3.051614761352539062e+00,3.051139831542968750e+00,3.050665140151977539e+00,3.050190448760986328e+00,3.049716234207153320e+00,3.049242019653320312e+00,3.048767566680908203e+00,3.048293828964233398e+00,3.025807619094848633e+00,2.964323997497558594e+00,2.905289649963378906e+00,2.848560571670532227e+00,2.794004440307617188e+00,2.741498947143554688e+00,2.690930128097534180e+00
2.604625225067138672e+00,2.604279279708862305e+00,2.603933334350585938e+00,2.603587627410888672e+00,2.603241920471191406e+00,2.602896451950073242e+00,2.602550983428955078e+00,2.602205514907836914e+00,2.601860284805297852e+00,2.601515054702758789e+00,2.601169824600219727e+00,2.600824832916259766e+00,2.600479841232299805e+00,2.600134849548339844e+00,2.599790334701538086e+00,2.599445581436157227e+00,2.599100828170776367e+00,2.598756551742553711e+00,2.598412036895751953e+00,2.598067760467529297e+00,2.597723484039306641e+00,2.597379446029663086e+00,2.597035408020019531e+00,2.596691370010375977e+00,2.596347808837890625e+00,2.596003770828247070e+00,2.595660209655761719e+00,2.595316648483276367e+00,2.594973087310791016e+00,2.594629764556884766e+00,2.594286441802978516e+00,2.593943119049072266e+00,2.593600034713745117e+00,2.593257188796997070e+00,2.592914104461669922e+00,2.592571258544921875e+00,2.592228651046752930e+00,2.591885805130004883e+00,2.591543197631835938e+00,2.591200828552246094e+00,2.590858221054077148e+00,2.590516090393066406e+00,2.103015661239624023e+00,2.079406499862670898e+00,2.589489698410034180e+00,2.589147806167602539e+00,2.003569841384887695e+00,1.972549676895141602e+00,2.000174283981323242e+00,2.587780714035034180e+00,2.587439298629760742e+00,2.587098121643066406e+00,2.586756706237792969e+00,2.586415529251098633e+00,2.586074352264404297e+00,2.585733175277709961e+00,2.585392475128173828e+00,2.585051536560058594e+00,2.584710597991943359e+00,2.584370136260986328e+00,2.584029436111450195e+00,2.583688974380493164e+00,2.583348512649536133e+00,2.583008289337158203e+00,2.582667827606201172e+00,2.582327842712402344e+00,2.581987857818603516e+00,2.581647872924804688e+00,2.581307888031005859e+00,2.580968141555786133e+00,2.580628395080566406e+00,2.580288887023925781e+00,2.579949378967285156e+00,2.579609870910644531e+00,2.579270601272583008e+00,2.578931331634521484e+00,2.578592061996459961e+00,2.578253030776977539e+00,2.577914237976074219e+00,2.577575206756591797e+00
2.254869937896728516e+00,2.254610776901245117e+00,2.254351615905761719e+00,2.254092454910278320e+00,2.253833293914794922e+00,2.253574371337890625e+00,2.253315210342407227e+00,2.253056287765502930e+00,2.252797603607177734e+00,2.252538681030273438e+00,2.252279996871948242e+00,2.252021312713623047e+00,2.251762628555297852e+00,2.251503944396972656e+00,2.251245498657226562e+00,2.250987052917480469e+00,2.250728607177734375e+00,2.250470399856567383e+00,2.250211954116821289e+00,2.249953985214233398e+00,2.249695777893066406e+00,2.249437570571899414e+00,2.249179601669311523e+00,2.248921632766723633e+00,2.248663663864135742e+00,2.248405933380126953e+00,2.248148202896118164e+00,2.247890233993530273e+00,2.247632503509521484e+00,2.247375011444091797e+00,2.247117280960083008e+00,2.246860027313232422e+00,2.246602535247802734e+00,2.246345043182373047e+00,2.246087789535522461e+00,2.245830535888671875e+00,2.245573282241821289e+00,2.245316028594970703e+00,2.245059013366699219e+00,2.244801998138427734e+00,2.244544982910156250e+00,2.244288206100463867e+00,2.065876960754394531e+00,2.041035175323486328e+00,2.024312019348144531e+00,2.243260860443115234e+00,2.243004322052001953e+00,1.944810509681701660e+00,1.925714373588562012e+00,2.242234945297241211e+00,2.241978645324707031e+00,2.241722106933593750e+00,2.241465806961059570e+00,2.241209745407104492e+00,2.240953445434570312e+00,2.240697383880615234e+00,2.240441322326660156e+00,2.240185260772705078e+00,2.239929437637329102e+00,2.239673614501953125e+00,2.239417791366577148e+00,2.239161968231201172e+00,2.238906383514404297e+00,2.238650798797607422e+00,2.238395214080810547e+00,2.238139629364013672e+00,2.237884283065795898e+00,2.237628936767578125e+00,2.237373590469360352e+00,2.237118244171142578e+00,2.236862897872924805e+00,2.236607789993286133e+00,2.236352682113647461e+00,2.236097812652587891e+00,2.235842704772949219e+00,2.235587596893310547e+00,2.235332965850830078e+00,2.235078096389770508e+00,2.234823226928710938e+00,2.234568595886230469e+00
1.987934112548828125e+00,1.987731575965881348e+00,1.987528800964355469e+00,1.987326383590698242e+00,1.987123727798461914e+00,1.986921310424804688e+00,1.986718773841857910e+00,1.986516952514648438e+00,1.986315608024597168e+00,1.986114263534545898e+00,1.985913276672363281e+00,1.985712051391601562e+00,1.985510945320129395e+00,1.985310077667236328e+00,1.985108971595764160e+00,1.984907984733581543e+00,1.984707236289978027e+00,1.984506249427795410e+00,1.984305262565612793e+00,1.984104633331298828e+00,1.983903884887695312e+00,1.983703017234802246e+00,1.983502507209777832e+00,1.983301758766174316e+00,1.983101129531860352e+00,1.982900738716125488e+00,1.982700109481811523e+00,1.982499599456787109e+00,1.982299327850341797e+00,1.982098817825317383e+00,1.981898427009582520e+00,1.981698274612426758e+00,1.981498003005981445e+00,1.981297612190246582e+00,1.981097579002380371e+00,1.980897307395935059e+00,1.980697154998779297e+00,1.980497241020202637e+00,1.980297207832336426e+00,1.980097055435180664e+00,1.979897260665893555e+00,1.979697346687316895e+00,1.979497432708740234e+00,1.979297757148742676e+00,1.979097843170166016e+00,1.978898048400878906e+00,1.978698492050170898e+00,1.978498697280883789e+00,1.978299021720886230e+00,1.978099584579467773e+00,1.977900028228759766e+00,1.977700352668762207e+00,1.977501034736633301e+00,1.977301597595214844e+00,1.977102160453796387e+00,1.976902961730957031e+00,1.976703524589538574e+00,1.976504206657409668e+00,1.976304888725280762e+00,1.976105809211730957e+00,1.975906610488891602e+00,1.975707650184631348e+00,1.975508570671081543e+00,1.975309491157531738e+00,1.975110411643981934e+00,1.974911570549011230e+00,1.974712610244750977e+00,1.974513888359069824e+00,1.974315047264099121e+00,1.974116206169128418e+00,1.973917365074157715e+00,1.973718762397766113e+00,1.973520040512084961e+00,1.973321557044982910e+00,1.973122954368591309e+00,1.972924351692199707e+00,1.972725749015808105e+00,1.972527384757995605e+00,1.972328901290893555e+00,1.972130656242370605e+00
1.777509927749633789e+00,1.777348041534423828e+00,1.777185916900634766e+00,1.777024030685424805e+00,1.776862025260925293e+00,1.776700139045715332e+00,1.776538372039794922e+00,1.776376366615295410e+00,1.776214718818664551e+00,1.776052832603454590e+00,1.775891065597534180e+00,1.775729298591613770e+00,1.775567650794982910e+00,1.775405883789062500e+00,1.775244355201721191e+00,1.775083303451538086e+00,1.774922609329223633e+00,1.774762034416198730e+00,1.774601340293884277e+00,1.774440765380859375e+00,1.774280309677124023e+00,1.774119615554809570e+00,1.773959040641784668e+00,1.773798704147338867e+00,1.773638248443603516e+00,1.773477673530578613e+00,1.773317456245422363e+00,1.773157000541687012e+00,1.772996544837951660e+00,1.772836446762084961e+00,1.772676110267639160e+00,1.772515773773193359e+00,1.772355675697326660e+00,1.772195339202880859e+00,1.772035121917724609e+00,1.771875143051147461e+00,1.771714925765991211e+00,1.771554827690124512e+00,1.771394968032836914e+00,1.771234869956970215e+00,1.771074771881103516e+00,1.770914912223815918e+00,1.770754933357238770e+00,1.770594954490661621e+00,1.770435214042663574e+00,1.770275235176086426e+00,1.770115375518798828e+00,1.769955754280090332e+00,1.769795894622802734e+00,1.769636154174804688e+00,1.769476532936096191e+00,1.769316792488098145e+00,1.769157052040100098e+00,1.768997550010681152e+00,1.768837928771972656e+00,1.768678307533264160e+00,1.768518924713134766e+00,1.768359303474426270e+00,1.768199801445007324e+00,1.768040537834167480e+00,1.767881035804748535e+00,1.767721533775329590e+00,1.767562389373779297e+00,1.767402887344360352e+00,1.767243623733520508e+00,1.767084479331970215e+00,1.766925096511840820e+00,1.766765832901000977e+00,1.766606807708740234e+00,1.766447544097900391e+00,1.766288399696350098e+00,1.766129374504089355e+00,1.765970230102539062e+00,1.765811204910278320e+00,1.765652298927307129e+00,1.765493273735046387e+00,1.765334248542785645e+00,1.765175461769104004e+00,1.765016555786132812e+00,1.764857530593872070e+00
1.607368826866149902e+00,1.607236385345458984e+00,1.607103824615478516e+00,1.606971502304077148e+00,1.606839179992675781e+00,1.606706619262695312e+00,1.606574296951293945e+00,1.606441855430603027e+00,1.606309652328491211e+00,1.606177210807800293e+00,1.606045007705688477e+00,1.605912566184997559e+00,1.605780363082885742e+00,1.605648279190063477e+00,1.605515956878662109e+00,1.605383872985839844e+00,1.605251550674438477e+00,1.605119466781616211e+00,1.604987263679504395e+00,1.604855298995971680e+00,1.604723095893859863e+00,1.604591131210327148e+00,1.604459166526794434e+00,1.604327797889709473e+00,1.604196667671203613e+00,1.604065299034118652e+00,1.603934049606323242e+00,1.603803038597106934e+00,1.603671789169311523e+00,1.603540539741516113e+00,1.603409528732299805e+00,1.603278398513793945e+00,1.603147268295288086e+00,1.603016257286071777e+00,1.602885127067565918e+00,1.602754116058349609e+00,1.602623224258422852e+00,1.602492094039916992e+00,1.602361083030700684e+00,1.602230310440063477e+00,1.602099299430847168e+00,1.601968407630920410e+00,1.601837635040283203e+00,1.601706743240356445e+00,1.601575851440429688e+00,1.601445078849792480e+00,1.601314306259155273e+00,1.601183414459228516e+00,1.601052880287170410e+00,1.600922107696533203e+00,1.600791335105895996e+00,1.600660681724548340e+00,1.600530028343200684e+00,1.600399374961853027e+00,1.600268840789794922e+00,1.600138187408447266e+00,1.600007534027099609e+00,1.599876999855041504e+00,1.599746465682983398e+00,1.599615931510925293e+00,1.599485516548156738e+00,1.599354982376098633e+00,1.599224448204040527e+00,1.599094152450561523e+00,1.598963737487792969e+00,1.598833322525024414e+00,1.598703026771545410e+00,1.598572611808776855e+00,1.598442196846008301e+00,1.598312020301818848e+00,1.598181724548339844e+00,1.598051428794860840e+00,1.597921252250671387e+00,1.597791075706481934e+00,1.597660779953002930e+00,1.597530722618103027e+00,1.597400546073913574e+00,1.597270369529724121e+00,1.597140312194824219e+00,1.597010135650634766e+00
1.466953992843627930e+00,1.466843485832214355e+00,1.466733217239379883e+00,1.466622829437255859e+00,1.466512560844421387e+00,1.466402173042297363e+00,1.466292023658752441e+00,1.466181635856628418e+00,1.466071486473083496e+00,1.465961337089538574e+00,1.465851068496704102e+00,1.465740919113159180e+00,1.465630650520324707e+00,1.465520501136779785e+00,1.465410351753234863e+00,1.465300202369689941e+00,1.465190052986145020e+00,1.465080022811889648e+00,1.464969992637634277e+00,1.464859843254089355e+00,1.464749932289123535e+00,1.464639782905578613e+00,1.464529871940612793e+00,1.464419722557067871e+00,1.464309811592102051e+00,1.464199781417846680e+00,1.464089989662170410e+00,1.463980078697204590e+00,1.463870048522949219e+00,1.463760256767272949e+00,1.463650703430175781e+00,1.463541388511657715e+00,1.463432073593139648e+00,1.463322997093200684e+00,1.463213682174682617e+00,1.463104486465454102e+00,1.462995409965515137e+00,1.462886214256286621e+00,1.462777018547058105e+00,1.462668061256408691e+00,1.462558865547180176e+00,1.462449789047241211e+00,1.462340712547302246e+00,1.462231636047363281e+00,1.462122559547424316e+00,1.462013602256774902e+00,1.461904525756835938e+00,1.461795568466186523e+00,1.461686611175537109e+00,1.461577653884887695e+00,1.461468696594238281e+00,1.461359858512878418e+00,1.461250901222229004e+00,1.461141943931579590e+00,1.461033105850219727e+00,1.460924267768859863e+00,1.460815429687500000e+00,1.460706591606140137e+00,1.460597753524780273e+00,1.460488915443420410e+00,1.460380196571350098e+00,1.460271477699279785e+00,1.460162639617919922e+00,1.460054039955139160e+00,1.459945201873779297e+00,1.459836483001708984e+00,1.459727883338928223e+00,1.459619164466857910e+00,1.459510564804077148e+00,1.459401965141296387e+00,1.459293246269226074e+00,1.459184646606445312e+00,1.459076166152954102e+00,1.458967566490173340e+00,1.458858966827392578e+00,1.458750486373901367e+00,1.458641886711120605e+00,1.458533406257629395e+00,1.458424925804138184e+00,1.458316445350646973e+00
1.349100470542907715e+00,1.349007010459899902e+00,1.348913788795471191e+00,1.348820328712463379e+00,1.348727107048034668e+00,1.348633885383605957e+00,1.348540544509887695e+00,1.348447322845458984e+00,1.348353981971740723e+00,1.348260879516601562e+00,1.348167538642883301e+00,1.348074436187744141e+00,1.347981095314025879e+00,1.347887992858886719e+00,1.347794890403747559e+00,1.347701668739318848e+00,1.347608566284179688e+00,1.347515344619750977e+00,1.347422361373901367e+00,1.347329139709472656e+00,1.347236156463623047e+00,1.347143054008483887e+00,1.347049951553344727e+00,1.346956968307495117e+00,1.346863865852355957e+00,1.346770882606506348e+00,1.346677780151367188e+00,1.346584916114807129e+00,1.346491813659667969e+00,1.346398830413818359e+00,1.346305847167968750e+00,1.346212983131408691e+00,1.346119999885559082e+00,1.346027016639709473e+00,1.345934152603149414e+00,1.345841288566589355e+00,1.345748424530029297e+00,1.345655441284179688e+00,1.345563054084777832e+00,1.345470666885375977e+00,1.345378518104553223e+00,1.345286130905151367e+00,1.345193743705749512e+00,1.345101594924926758e+00,1.345009207725524902e+00,1.344916939735412598e+00,1.344824790954589844e+00,1.344732522964477539e+00,1.344640254974365234e+00,1.344548106193542480e+00,1.344455957412719727e+00,1.344363689422607422e+00,1.344271540641784668e+00,1.344179391860961914e+00,1.344087243080139160e+00,1.343995094299316406e+00,1.343902945518493652e+00,1.343810796737670898e+00,1.343718767166137695e+00,1.343626737594604492e+00,1.343534588813781738e+00,1.343442559242248535e+00,1.343350529670715332e+00,1.343258500099182129e+00,1.343166470527648926e+00,1.343074440956115723e+00,1.342982411384582520e+00,1.342890501022338867e+00,1.342798471450805664e+00,1.342706561088562012e+00,1.342614650726318359e+00,1.342522740364074707e+00,1.342430710792541504e+00,1.342338919639587402e+00,1.342247009277343750e+00,1.342155098915100098e+00,1.342063307762145996e+00,1.341971397399902344e+00,1.341879487037658691e+00,1.341787695884704590e+00
1.248775243759155273e+00,1.248695135116577148e+00,1.248615264892578125e+00,1.248535394668579102e+00,1.248455286026000977e+00,1.248375415802001953e+00,1.248295426368713379e+00,1.248215556144714355e+00,1.248135685920715332e+00,1.248055815696716309e+00,1.247975826263427734e+00,1.247896075248718262e+00,1.247816205024719238e+00,1.247736334800720215e+00,1.247656464576721191e+00,1.247576594352722168e+00,1.247496843338012695e+00,1.247416973114013672e+00,1.247337222099304199e+00,1.247257471084594727e+00,1.247177720069885254e+00,1.247097969055175781e+00,1.247018098831176758e+00,1.246938467025756836e+00,1.246858596801757812e+00,1.246778964996337891e+00,1.246699213981628418e+00,1.246619462966918945e+00,1.246539831161499023e+00,1.246460080146789551e+00,1.246380448341369629e+00,1.246300816535949707e+00,1.246221184730529785e+00,1.246141433715820312e+00,1.246061801910400391e+00,1.245982170104980469e+00,1.245902538299560547e+00,1.245823025703430176e+00,1.245743393898010254e+00,1.245663881301879883e+00,1.245584249496459961e+00,1.245504736900329590e+00,1.245425105094909668e+00,1.245345592498779297e+00,1.245265960693359375e+00,1.245186567306518555e+00,1.245107531547546387e+00,1.245028495788574219e+00,1.244949460029602051e+00,1.244870424270629883e+00,1.244791388511657715e+00,1.244712352752685547e+00,1.244633316993713379e+00,1.244554281234741211e+00,1.244475364685058594e+00,1.244396448135375977e+00,1.244317412376403809e+00,1.244238376617431641e+00,1.244159460067749023e+00,1.244080543518066406e+00,1.244001626968383789e+00,1.243922710418701172e+00,1.243843793869018555e+00,1.243764877319335938e+00,1.243685960769653320e+00,1.243607044219970703e+00,1.243528246879577637e+00,1.243449449539184570e+00,1.243370532989501953e+00,1.243291616439819336e+00,1.243212819099426270e+00,1.243134021759033203e+00,1.243055224418640137e+00,1.242976427078247070e+00,1.242897629737854004e+00,1.242818832397460938e+00,1.242740035057067871e+00,1.242661356925964355e+00,1.242582559585571289e+00,1.242503881454467773e+00
1.162338495254516602e+00,1.162269234657287598e+00,1.162199854850769043e+00,1.162130594253540039e+00,1.162061333656311035e+00,1.161992073059082031e+00,1.161922812461853027e+00,1.161853671073913574e+00,1.161784410476684570e+00,1.161715149879455566e+00,1.161646008491516113e+00,1.161576747894287109e+00,1.161507606506347656e+00,1.161438345909118652e+00,1.161369204521179199e+00,1.161299943923950195e+00,1.161230921745300293e+00,1.161161780357360840e+00,1.161092519760131836e+00,1.161023497581481934e+00,1.160954236984252930e+00,1.160885214805603027e+00,1.160816073417663574e+00,1.160746932029724121e+00,1.160677790641784668e+00,1.160608768463134766e+00,1.160539746284484863e+00,1.160470604896545410e+00,1.160401582717895508e+00,1.160332441329956055e+00,1.160263538360595703e+00,1.160194396972656250e+00,1.160125374794006348e+00,1.160056352615356445e+00,1.159987330436706543e+00,1.159918427467346191e+00,1.159849286079406738e+00,1.159780383110046387e+00,1.159711360931396484e+00,1.159642457962036133e+00,1.159573435783386230e+00,1.159504532814025879e+00,1.159435510635375977e+00,1.159366607666015625e+00,1.159297704696655273e+00,1.159228682518005371e+00,1.159159779548645020e+00,1.159090876579284668e+00,1.159021973609924316e+00,1.158953070640563965e+00,1.158884286880493164e+00,1.158815264701843262e+00,1.158746480941772461e+00,1.158677935600280762e+00,1.158609390258789062e+00,1.158540964126586914e+00,1.158472537994384766e+00,1.158403992652893066e+00,1.158335566520690918e+00,1.158267259597778320e+00,1.158198833465576172e+00,1.158130407333374023e+00,1.158061981201171875e+00,1.157993555068969727e+00,1.157925128936767578e+00,1.157856822013854980e+00,1.157788395881652832e+00,1.157720088958740234e+00,1.157651782035827637e+00,1.157583355903625488e+00,1.157515048980712891e+00,1.157446742057800293e+00,1.157378435134887695e+00,1.157310009002685547e+00,1.157241821289062500e+00,1.157173514366149902e+00,1.157105207443237305e+00,1.157036900520324707e+00,1.156968593597412109e+00,1.156900405883789062e+00
1.087092876434326172e+00,1.087032318115234375e+00,1.086971640586853027e+00,1.086911082267761230e+00,1.086850523948669434e+00,1.086789965629577637e+00,1.086729407310485840e+00,1.086668729782104492e+00,1.086608290672302246e+00,1.086547613143920898e+00,1.086487174034118652e+00,1.086426615715026855e+00,1.086366057395935059e+00,1.086305618286132812e+00,1.086245059967041016e+00,1.086184501647949219e+00,1.086123943328857422e+00,1.086063504219055176e+00,1.086002945899963379e+00,1.085942506790161133e+00,1.085882067680358887e+00,1.085821628570556641e+00,1.085761189460754395e+00,1.085700631141662598e+00,1.085640192031860352e+00,1.085579752922058105e+00,1.085519313812255859e+00,1.085458874702453613e+00,1.085398554801940918e+00,1.085337996482849121e+00,1.085277676582336426e+00,1.085217356681823730e+00,1.085156917572021484e+00,1.085096478462219238e+00,1.085036039352416992e+00,1.084975719451904297e+00,1.084915280342102051e+00,1.084854960441589355e+00,1.084794640541076660e+00,1.084734320640563965e+00,1.084674000740051270e+00,1.084613561630249023e+00,1.084553241729736328e+00,1.084492921829223633e+00,1.084432601928710938e+00,1.084372282028198242e+00,1.084312081336975098e+00,1.084251642227172852e+00,1.084191441535949707e+00,1.084131240844726562e+00,1.084070920944213867e+00,1.084010601043701172e+00,1.083950281143188477e+00,1.083890080451965332e+00,1.083829879760742188e+00,1.083769559860229492e+00,1.083709359169006348e+00,1.083649158477783203e+00,1.083588957786560059e+00,1.083528757095336914e+00,1.083468556404113770e+00,1.083408594131469727e+00,1.083348870277404785e+00,1.083288908004760742e+00,1.083229064941406250e+00,1.083169221878051758e+00,1.083109378814697266e+00,1.083049535751342773e+00,1.082989811897277832e+00,1.082929968833923340e+00,1.082870125770568848e+00,1.082810401916503906e+00,1.082750558853149414e+00,1.082690715789794922e+00,1.082630991935729980e+00,1.082571148872375488e+00,1.082511425018310547e+00,1.082451701164245605e+00,1.082391858100891113e+00,1.082332134246826172e+00
1.020997166633605957e+00,1.020943760871887207e+00,1.020890355110168457e+00,1.020836830139160156e+00,1.020783424377441406e+00,1.020730018615722656e+00,1.020676612854003906e+00,1.020623087882995605e+00,1.020569682121276855e+00,1.020516276359558105e+00,1.020462870597839355e+00,1.020409464836120605e+00,1.020356059074401855e+00,1.020302653312683105e+00,1.020249247550964355e+00,1.020195960998535156e+00,1.020142555236816406e+00,1.020089149475097656e+00,1.020035862922668457e+00,1.019982457160949707e+00,1.019929170608520508e+00,1.019875764846801758e+00,1.019822478294372559e+00,1.019769072532653809e+00,1.019715785980224609e+00,1.019662380218505859e+00,1.019609093666076660e+00,1.019555807113647461e+00,1.019502520561218262e+00,1.019449234008789062e+00,1.019395828247070312e+00,1.019342660903930664e+00,1.019289255142211914e+00,1.019236087799072266e+00,1.019182682037353516e+00,1.019129514694213867e+00,1.019076228141784668e+00,1.019022941589355469e+00,1.018969774246215820e+00,1.018916487693786621e+00,1.018863201141357422e+00,1.018809914588928223e+00,1.018756747245788574e+00,1.018703460693359375e+00,1.018650293350219727e+00,1.018597126007080078e+00,1.018543839454650879e+00,1.018490672111511230e+00,1.018437504768371582e+00,1.018384337425231934e+00,1.018331050872802734e+00,1.018277883529663086e+00,1.018224716186523438e+00,1.018171548843383789e+00,1.018118381500244141e+00,1.018065214157104492e+00,1.018012166023254395e+00,1.017958879470825195e+00,1.017905831336975098e+00,1.017852663993835449e+00,1.017799496650695801e+00,1.017746329307556152e+00,1.017693281173706055e+00,1.017640233039855957e+00,1.017587065696716309e+00,1.017534017562866211e+00,1.017480850219726562e+00,1.017427802085876465e+00,1.017374753952026367e+00,1.017322063446044922e+00,1.017269253730773926e+00,1.017216444015502930e+00,1.017163753509521484e+00,1.017110943794250488e+00,1.017058134078979492e+00,1.017005443572998047e+00,1.016952633857727051e+00,1.016899943351745605e+00,1.016847252845764160e+00,1.016794443130493164e+00
9.624782800674438477e-01,9.624307751655578613e-01,9.623832702636718750e-01,9.623357057571411133e-01,9.622882008552551270e-01,9.622407555580139160e-01,9.621933102607727051e-01,9.621458649635314941e-01,9.620983004570007324e-01,9.620508551597595215e-01,9.620034098625183105e-01,9.619559645652770996e-01,9.619084000587463379e-01,9.618610143661499023e-01,9.618135690689086914e-01,9.617661833763122559e-01,9.617187380790710449e-01,9.616712331771850586e-01,9.616238474845886230e-01,9.615764021873474121e-01,9.615290164947509766e-01,9.614815115928649902e-01,9.614341259002685547e-01,9.613867998123168945e-01,9.613394141197204590e-01,9.612920284271240234e-01,9.612445235252380371e-01,9.611971974372863770e-01,9.611498117446899414e-01,9.611024856567382812e-01,9.610550403594970703e-01,9.610076546669006348e-01,9.609603285789489746e-01,9.609130024909973145e-01,9.608656764030456543e-01,9.608182311058044434e-01,9.607709050178527832e-01,9.607236385345458984e-01,9.606763124465942383e-01,9.606288671493530273e-01,9.605816006660461426e-01,9.605342745780944824e-01,9.604870080947875977e-01,9.604397416114807129e-01,9.603922963142395020e-01,9.603450298309326172e-01,9.602977633476257324e-01,9.602504968643188477e-01,9.602031111717224121e-01,9.601558446884155273e-01,9.601086378097534180e-01,9.600613713264465332e-01,9.600141048431396484e-01,9.599667787551879883e-01,9.599195122718811035e-01,9.598723053932189941e-01,9.598250985145568848e-01,9.597777128219604492e-01,9.597305059432983398e-01,9.596832990646362305e-01,9.596360921859741211e-01,9.595888853073120117e-01,9.595416188240051270e-01,9.594944119453430176e-01,9.594472050666809082e-01,9.593999981880187988e-01,9.593527317047119141e-01,9.593055844306945801e-01,9.592583775520324707e-01,9.592112302780151367e-01,9.591640830039978027e-01,9.591168165206909180e-01,9.590696692466735840e-01,9.590225219726562500e-01,9.589753746986389160e-01,9.589281082153320312e-01,9.588811993598937988e-01,9.588342905044555664e-01,9.587873816490173340e-01,9.587405920028686523e-01
9.103037118911743164e-01,9.102611541748046875e-01,9.102186560630798340e-01,9.101762175559997559e-01,9.101337194442749023e-01,9.100912809371948242e-01,9.100487232208251953e-01,9.100062847137451172e-01,9.099638462066650391e-01,9.099214076995849609e-01,9.098788499832153320e-01,9.098364114761352539e-01,9.097939729690551758e-01,9.097515344619750977e-01,9.097091555595397949e-01,9.096665978431701660e-01,9.096242189407348633e-01,9.095817804336547852e-01,9.095394015312194824e-01,9.094968438148498535e-01,9.094544649124145508e-01,9.094120860099792480e-01,9.093697071075439453e-01,9.093272686004638672e-01,9.092848300933837891e-01,9.092424511909484863e-01,9.092000722885131836e-01,9.091576933860778809e-01,9.091151952743530273e-01,9.090728759765625000e-01,9.090304970741271973e-01,9.089881181716918945e-01,9.089457988739013672e-01,9.089033603668212891e-01,9.088609814643859863e-01,9.088186621665954590e-01,9.087763428688049316e-01,9.087339043617248535e-01,9.086915850639343262e-01,9.086492657661437988e-01,9.086069464683532715e-01,9.085646271705627441e-01,9.085221886634826660e-01,9.084798693656921387e-01,9.084376096725463867e-01,9.083952903747558594e-01,9.083529114723205566e-01,9.083105921745300293e-01,9.082683324813842773e-01,9.082260131835937500e-01,9.081837534904479980e-01,9.081413745880126953e-01,9.080991148948669434e-01,9.080568552017211914e-01,9.080145359039306641e-01,9.079722166061401367e-01,9.079299569129943848e-01,9.078876972198486328e-01,9.078454375267028809e-01,9.078031778335571289e-01,9.077608585357666016e-01,9.077185988426208496e-01,9.076763987541198730e-01,9.076341390609741211e-01,9.075918197631835938e-01,9.075496196746826172e-01,9.075073599815368652e-01,9.074651598930358887e-01,9.074229598045349121e-01,9.073806405067443848e-01,9.073384404182434082e-01,9.072962403297424316e-01,9.072540402412414551e-01,9.072117805480957031e-01,9.071695804595947266e-01,9.071274399757385254e-01,9.070852398872375488e-01,9.070430397987365723e-01,9.070007801055908203e-01,9.069586396217346191e-01
8.634948134422302246e-01,8.634566068649291992e-01,8.634184002876281738e-01,8.633801937103271484e-01,8.633418679237365723e-01,8.633036613464355469e-01,8.632655143737792969e-01,8.632273077964782715e-01,8.631891012191772461e-01,8.631508350372314453e-01,8.631126284599304199e-01,8.630744218826293945e-01,8.630362749099731445e-01,8.629980087280273438e-01,8.629598021507263184e-01,8.629216551780700684e-01,8.628834486007690430e-01,8.628453016281127930e-01,8.628070354461669922e-01,8.627688884735107422e-01,8.627307415008544922e-01,8.626925945281982422e-01,8.626543879508972168e-01,8.626162409782409668e-01,8.625780940055847168e-01,8.625399470329284668e-01,8.625018000602722168e-01,8.624635934829711914e-01,8.624254465103149414e-01,8.623872995376586914e-01,8.623492121696472168e-01,8.623110055923461914e-01,8.622728586196899414e-01,8.622347712516784668e-01,8.621966838836669922e-01,8.621585369110107422e-01,8.621203899383544922e-01,8.620823025703430176e-01,8.620441555976867676e-01,8.620060682296752930e-01,8.619679212570190430e-01,8.619298338890075684e-01,8.618917465209960938e-01,8.618536591529846191e-01,8.618155717849731445e-01,8.617774248123168945e-01,8.617393970489501953e-01,8.617013096809387207e-01,8.616632223129272461e-01,8.616250753402709961e-01,8.615870475769042969e-01,8.615490198135375977e-01,8.615109324455261230e-01,8.614729046821594238e-01,8.614347577095031738e-01,8.613967299461364746e-01,8.613587021827697754e-01,8.613206744194030762e-01,8.612825870513916016e-01,8.612445592880249023e-01,8.612065315246582031e-01,8.611685037612915039e-01,8.611304759979248047e-01,8.610923886299133301e-01,8.610543608665466309e-01,8.610163927078247070e-01,8.609783649444580078e-01,8.609402775764465332e-01,8.609023094177246094e-01,8.608643412590026855e-01,8.608263134956359863e-01,8.607883453369140625e-01,8.607502579689025879e-01,8.607122898101806641e-01,8.606743216514587402e-01,8.606363534927368164e-01,8.605983257293701172e-01,8.605603575706481934e-01,8.605223894119262695e-01,8.604844212532043457e-01
8.212645649909973145e-01,8.212299942970275879e-01,8.211953043937683105e-01,8.211607336997985840e-01,8.211262226104736328e-01,8.210916519165039062e-01,8.210570812225341797e-01,8.210224509239196777e-01,8.209878802299499512e-01,8.209533691406250000e-01,8.209187984466552734e-01,8.208841681480407715e-01,8.208496570587158203e-01,8.208150863647460938e-01,8.207805752754211426e-01,8.207460641860961914e-01,8.207114338874816895e-01,8.206769227981567383e-01,8.206424117088317871e-01,8.206078410148620605e-01,8.205732703208923340e-01,8.205387592315673828e-01,8.205042481422424316e-01,8.204697370529174805e-01,8.204352259635925293e-01,8.204006552696228027e-01,8.203661441802978516e-01,8.203316330909729004e-01,8.202971816062927246e-01,8.202626109123229980e-01,8.202280998229980469e-01,8.201936483383178711e-01,8.201591372489929199e-01,8.201246857643127441e-01,8.200901150703430176e-01,8.200556039810180664e-01,8.200211524963378906e-01,8.199867010116577148e-01,8.199521303176879883e-01,8.199176788330078125e-01,8.198832273483276367e-01,8.198487758636474609e-01,8.198143243789672852e-01,8.197798132896423340e-01,8.197453618049621582e-01,8.197109103202819824e-01,8.196764588356018066e-01,8.196419477462768555e-01,8.196074962615966797e-01,8.195730447769165039e-01,8.195386528968811035e-01,8.195042014122009277e-01,8.194696903228759766e-01,8.194352984428405762e-01,8.194008469581604004e-01,8.193664550781250000e-01,8.193319439888000488e-01,8.192975521087646484e-01,8.192631602287292480e-01,8.192287087440490723e-01,8.191943168640136719e-01,8.191598653793334961e-01,8.191254734992980957e-01,8.190910816192626953e-01,8.190566897392272949e-01,8.190222382545471191e-01,8.189878463745117188e-01,8.189534544944763184e-01,8.189190626144409180e-01,8.188846707344055176e-01,8.188502192497253418e-01,8.188158869743347168e-01,8.187814950942993164e-01,8.187471628189086914e-01,8.187127113342285156e-01,8.186783194541931152e-01,8.186439871788024902e-01,8.186096549034118652e-01,8.185752630233764648e-01,8.185408711433410645e-01
7.829722762107849121e-01,7.829408049583435059e-01,7.829093933105468750e-01,7.828779816627502441e-01,7.828465700149536133e-01,7.828150987625122070e-01,7.827836871147155762e-01,7.827522754669189453e-01,7.827208638191223145e-01,7.826893925666809082e-01,7.826579809188842773e-01,7.826265692710876465e-01,7.825952172279357910e-01,7.825638055801391602e-01,7.825323343276977539e-01,7.825009226799011230e-01,7.824695706367492676e-01,7.824381589889526367e-01,7.824067473411560059e-01,7.823753356933593750e-01,7.823439836502075195e-01,7.823125720024108887e-01,7.822812199592590332e-01,7.822498083114624023e-01,7.822183966636657715e-01,7.821870446205139160e-01,7.821556925773620605e-01,7.821242809295654297e-01,7.820929288864135742e-01,7.820615768432617188e-01,7.820302248001098633e-01,7.819988727569580078e-01,7.819674015045166016e-01,7.819361090660095215e-01,7.819047570228576660e-01,7.818734049797058105e-01,7.818419933319091797e-01,7.818106412887573242e-01,7.817793488502502441e-01,7.817479968070983887e-01,7.817167043685913086e-01,7.816852927207946777e-01,7.816539406776428223e-01,7.816226482391357422e-01,7.815913558006286621e-01,7.815599441528320312e-01,7.815286517143249512e-01,7.814972996711730957e-01,7.814660072326660156e-01,7.814347147941589355e-01,7.814033627510070801e-01,7.813720703125000000e-01,7.813407778739929199e-01,7.813094854354858398e-01,7.812780737876892090e-01,7.812467813491821289e-01,7.812155485153198242e-01,7.811842560768127441e-01,7.811529636383056641e-01,7.811216115951538086e-01,7.810903191566467285e-01,7.810590863227844238e-01,7.810277938842773438e-01,7.809964418411254883e-01,7.809652090072631836e-01,7.809339165687561035e-01,7.809026837348937988e-01,7.808713912963867188e-01,7.808400988578796387e-01,7.808088064193725586e-01,7.807775735855102539e-01,7.807463407516479492e-01,7.807149887084960938e-01,7.806837558746337891e-01,7.806525230407714844e-01,7.806212902069091797e-01,7.805900573730468750e-01,7.805587649345397949e-01,7.805275321006774902e-01,7.804962992668151855e-01
7.480917572975158691e-01,7.480630874633789062e-01,7.480344176292419434e-01,7.480056285858154297e-01,7.479769587516784668e-01,7.479482889175415039e-01,7.479196190834045410e-01,7.478909492492675781e-01,7.478622198104858398e-01,7.478335499763488770e-01,7.478048801422119141e-01,7.477762103080749512e-01,7.477474808692932129e-01,7.477188110351562500e-01,7.476901412010192871e-01,7.476615309715270996e-01,7.476328611373901367e-01,7.476041316986083984e-01,7.475754618644714355e-01,7.475468516349792480e-01,7.475181818008422852e-01,7.474895119667053223e-01,7.474608421325683594e-01,7.474322319030761719e-01,7.474035620689392090e-01,7.473749518394470215e-01,7.473462224006652832e-01,7.473176121711730957e-01,7.472890019416809082e-01,7.472603917121887207e-01,7.472316622734069824e-01,7.472030520439147949e-01,7.471744418144226074e-01,7.471458315849304199e-01,7.471172213554382324e-01,7.470885515213012695e-01,7.470599412918090820e-01,7.470313310623168945e-01,7.470027208328247070e-01,7.469740509986877441e-01,7.469454407691955566e-01,7.469168305397033691e-01,7.468882203102111816e-01,7.468596696853637695e-01,7.468309998512268066e-01,7.468023896217346191e-01,7.467738389968872070e-01,7.467452287673950195e-01,7.467165589332580566e-01,7.466880083084106445e-01,7.466593980789184570e-01,7.466308474540710449e-01,7.466022372245788574e-01,7.465736269950866699e-01,7.465450763702392578e-01,7.465164661407470703e-01,7.464879155158996582e-01,7.464593052864074707e-01,7.464307546615600586e-01,7.464021444320678711e-01,7.463735938072204590e-01,7.463450431823730469e-01,7.463164329528808594e-01,7.462878823280334473e-01,7.462593317031860352e-01,7.462307810783386230e-01,7.462021708488464355e-01,7.461736202239990234e-01,7.461451292037963867e-01,7.461165785789489746e-01,7.460880279541015625e-01,7.460594177246093750e-01,7.460309267044067383e-01,7.460023760795593262e-01,7.459738254547119141e-01,7.459452748298645020e-01,7.459167242050170898e-01,7.458882331848144531e-01,7.458596825599670410e-01,7.458311915397644043e-01
7.161865234375000000e-01,7.161601781845092773e-01,7.161338925361633301e-01,7.161075472831726074e-01,7.160813212394714355e-01,7.160550355911254883e-01,7.160286903381347656e-01,7.160024046897888184e-01,7.159761190414428711e-01,7.159498333930969238e-01,7.159234881401062012e-01,7.158972024917602539e-01,7.158709764480590820e-01,7.158446907997131348e-01,7.158184051513671875e-01,7.157921195030212402e-01,7.157658338546752930e-01,7.157395482063293457e-01,7.157133221626281738e-01,7.156869769096374512e-01,7.156607508659362793e-01,7.156344652175903320e-01,7.156082391738891602e-01,7.155820131301879883e-01,7.155556678771972656e-01,7.155294418334960938e-01,7.155032157897949219e-01,7.154769301414489746e-01,7.154506444931030273e-01,7.154244184494018555e-01,7.153981924057006836e-01,7.153719663619995117e-01,7.153457403182983398e-01,7.153193950653076172e-01,7.152931690216064453e-01,7.152669429779052734e-01,7.152407169342041016e-01,7.152144908905029297e-01,7.151882648468017578e-01,7.151620388031005859e-01,7.151358127593994141e-01,7.151095867156982422e-01,7.150833010673522949e-01,7.150571346282958984e-01,7.150309085845947266e-01,7.150046825408935547e-01,7.149784564971923828e-01,7.149522304534912109e-01,7.149260044097900391e-01,7.148998379707336426e-01,7.148736119270324707e-01,7.148473858833312988e-01,7.148211598396301270e-01,7.147949934005737305e-01,7.147688269615173340e-01,7.147425413131713867e-01,7.147163748741149902e-01,7.146902084350585938e-01,7.146639823913574219e-01,7.146378159523010254e-01,7.146115899085998535e-01,7.145854234695434570e-01,7.145592570304870605e-01,7.145330905914306641e-01,7.145068645477294922e-01,7.144806385040283203e-01,7.144544720649719238e-01,7.144283652305603027e-01,7.144021987915039062e-01,7.143759727478027344e-01,7.143498063087463379e-01,7.143236398696899414e-01,7.142974734306335449e-01,7.142712473869323730e-01,7.142451405525207520e-01,7.142189741134643555e-01,7.141928076744079590e-01,7.141667008399963379e-01,7.141404747962951660e-01,7.141143083572387695e-01
