3.102426767349243164e+00,3.181223392486572266e+00,3.264127492904663086e+00,3.351468086242675781e+00,3.443611383438110352e+00,3.540964603424072266e+00,3.643982172012329102e+00,3.753173828125000000e+00,3.869111537933349609e+00,3.992460727691650391e+00,4.123933315277099609e+00,4.264359951019287109e+00,4.414686679840087891e+00,4.575999259948730469e+00,4.749548435211181641e+00,4.936780452728271484e+00,5.000000000000000000e+00,5.000000000000000000e+00,5.000000000000000000e+00,5.000000000000000000e+00,5.000000000000000000e+00,5.000000000000000000e+00,5.000000000000000000e+00,5.000000000000000000e+00,5.000000000000000000e+00,5.000000000000000000e+00,5.000000000000000000e+00,5.000000000000000000e+00,5.000000000000000000e+00,5.000000000000000000e+00,5.000000000000000000e+00,5.000000000000000000e+00,5.000000000000000000e+00,5.000000000000000000e+00,5.000000000000000000e+00,5.000000000000000000e+00,5.000000000000000000e+00,5.000000000000000000e+00,5.000000000000000000e+00,5.000000000000000000e+00,5.000000000000000000e+00,5.000000000000000000e+00,5.000000000000000000e+00,5.000000000000000000e+00,5.000000000000000000e+00,5.000000000000000000e+00,5.000000000000000000e+00,5.000000000000000000e+00,5.000000000000000000e+00,5.000000000000000000e+00,5.000000000000000000e+00,5.000000000000000000e+00,5.000000000000000000e+00,5.000000000000000000e+00,5.000000000000000000e+00,5.000000000000000000e+00,1.891723632812500000e+00,1.861930608749389648e+00,1.841288566589355469e+00,1.752283334732055664e+00,1.698589205741882324e+00,1.683968663215637207e+00,1.669886946678161621e+00,1.656038284301757812e+00,1.672351598739624023e+00,1.772121667861938477e+00,1.761156201362609863e+00,1.756403565406799316e+00,1.779005527496337891e+00,5.000000000000000000e+00,4.835759639739990234e+00,4.677865982055664062e+00,4.529957294464111328e+00,1.677980422973632812e+00,1.655955314636230469e+00,1.655081510543823242e+00,4.021354198455810547e+00,3.911561250686645508e+00,3.807604312896728516e+00,3.709029436111450195e+00
3.102360486984252930e+00,3.181154012680053711e+00,3.264054536819458008e+00,3.351391077041625977e+00,3.443530082702636719e+00,3.540878534317016602e+00,3.643891096115112305e+00,3.753077268600463867e+00,3.869008541107177734e+00,3.992331027984619141e+00,4.123795032501220703e+00,4.264212131500244141e+00,4.414528369903564453e+00,4.575829982757568359e+00,4.749365806579589844e+00,4.936583042144775391e+00,5.000000000000000000e+00,5.000000000000000000e+00,5.000000000000000000e+00,5.000000000000000000e+00,5.000000000000000000e+00,5.000000000000000000e+00,5.000000000000000000e+00,5.000000000000000000e+00,5.000000000000000000e+00,5.000000000000000000e+00,5.000000000000000000e+00,5.000000000000000000e+00,5.000000000000000000e+00,5.000000000000000000e+00,5.000000000000000000e+00,5.000000000000000000e+00,5.000000000000000000e+00,5.000000000000000000e+00,5.000000000000000000e+00,5.000000000000000000e+00,5.000000000000000000e+00,5.000000000000000000e+00,5.000000000000000000e+00,5.000000000000000000e+00,5.000000000000000000e+00,5.000000000000000000e+00,5.000000000000000000e+00,5.000000000000000000e+00,5.000000000000000000e+00,5.000000000000000000e+00,5.000000000000000000e+00,5.000000000000000000e+00,5.000000000000000000e+00,5.000000000000000000e+00,5.000000000000000000e+00,5.000000000000000000e+00,5.000000000000000000e+00,5.000000000000000000e+00,5.000000000000000000e+00,5.000000000000000000e+00,1.883041262626647949e+00,1.852421283721923828e+00,1.847872734069824219e+00,1.747302293777465820e+00,1.694224357604980469e+00,1.675791025161743164e+00,1.661844849586486816e+00,1.648128986358642578e+00,1.656856656074523926e+00,1.771404981613159180e+00,1.759644389152526855e+00,1.759167194366455078e+00,1.777361989021301270e+00,5.000000000000000000e+00,4.835886001586914062e+00,4.677983760833740234e+00,4.530067443847656250e+00,4.391218662261962891e+00,1.641844511032104492e+00,1.675564289093017578e+00,1.621908783912658691e+00,3.911643743515014648e+00,3.807682514190673828e+00,3.709103584289550781e+00
3.102294445037841797e+00,3.181084871292114258e+00,3.263981580734252930e+00,3.351314067840576172e+00,3.443448781967163086e+00,3.540792703628540039e+00,3.643800020217895508e+00,3.752980709075927734e+00,3.868905782699584961e+00,3.992221117019653320e+00,4.123657226562500000e+00,4.264064788818359375e+00,4.414370536804199219e+00,4.575660228729248047e+00,4.749182701110839844e+00,4.936385154724121094e+00,5.000000000000000000e+00,5.000000000000000000e+00,5.000000000000000000e+00,5.000000000000000000e+00,5.000000000000000000e+00,5.000000000000000000e+00,5.000000000000000000e+00,5.000000000000000000e+00,5.000000000000000000e+00,5.000000000000000000e+00,5.000000000000000000e+00,5.000000000000000000e+00,5.000000000000000000e+00,5.000000000000000000e+00,5.000000000000000000e+00,5.000000000000000000e+00,5.000000000000000000e+00,5.000000000000000000e+00,5.000000000000000000e+00,5.000000000000000000e+00,5.000000000000000000e+00,5.000000000000000000e+00,5.000000000000000000e+00,5.000000000000000000e+00,5.000000000000000000e+00,5.000000000000000000e+00,5.000000000000000000e+00,5.000000000000000000e+00,5.000000000000000000e+00,5.000000000000000000e+00,5.000000000000000000e+00,5.000000000000000000e+00,5.000000000000000000e+00,5.000000000000000000e+00,5.000000000000000000e+00,5.000000000000000000e+00,5.000000000000000000e+00,5.000000000000000000e+00,5.000000000000000000e+00,5.000000000000000000e+00,1.877707362174987793e+00,1.844469189643859863e+00,1.889862418174743652e+00,1.751268148422241211e+00,1.700823903083801270e+00,1.668976068496704102e+00,1.654049992561340332e+00,1.640294909477233887e+00,1.642245650291442871e+00,1.665646076202392578e+00,1.760483026504516602e+00,1.762278914451599121e+00,1.784964799880981445e+00,5.000000000000000000e+00,4.836011886596679688e+00,4.678102016448974609e+00,4.530178546905517578e+00,4.391322612762451172e+00,4.260726451873779297e+00,1.715845108032226562e+00,1.645029187202453613e+00,3.911726236343383789e+00,3.807760715484619141e+00,3.709177970886230469e+00
3.102228403091430664e+00,3.181015491485595703e+00,3.263908386230468750e+00,3.351237058639526367e+00,3.443367481231689453e+00,3.540706396102905273e+00,3.643709182739257812e+00,3.752884149551391602e+00,3.868803262710571289e+00,3.992111921310424805e+00,4.123539924621582031e+00,4.263916969299316406e+00,4.414212226867675781e+00,4.575489997863769531e+00,4.748999595642089844e+00,4.936187267303466797e+00,5.000000000000000000e+00,5.000000000000000000e+00,5.000000000000000000e+00,5.000000000000000000e+00,5.000000000000000000e+00,5.000000000000000000e+00,5.000000000000000000e+00,5.000000000000000000e+00,5.000000000000000000e+00,5.000000000000000000e+00,5.000000000000000000e+00,5.000000000000000000e+00,5.000000000000000000e+00,5.000000000000000000e+00,5.000000000000000000e+00,5.000000000000000000e+00,5.000000000000000000e+00,5.000000000000000000e+00,5.000000000000000000e+00,5.000000000000000000e+00,5.000000000000000000e+00,5.000000000000000000e+00,5.000000000000000000e+00,5.000000000000000000e+00,5.000000000000000000e+00,5.000000000000000000e+00,5.000000000000000000e+00,5.000000000000000000e+00,5.000000000000000000e+00,5.000000000000000000e+00,5.000000000000000000e+00,5.000000000000000000e+00,5.000000000000000000e+00,5.000000000000000000e+00,5.000000000000000000e+00,5.000000000000000000e+00,5.000000000000000000e+00,5.000000000000000000e+00,5.000000000000000000e+00,5.000000000000000000e+00,1.884161710739135742e+00,1.859034419059753418e+00,5.000000000000000000e+00,1.770091414451599121e+00,1.707155227661132812e+00,1.662368416786193848e+00,1.647559881210327148e+00,1.633012771606445312e+00,1.627622485160827637e+00,1.648938775062561035e+00,1.764030575752258301e+00,1.770414829254150391e+00,1.794304370880126953e+00,5.000000000000000000e+00,4.836137771606445312e+00,4.678219795227050781e+00,4.530289173126220703e+00,4.391427040100097656e+00,4.260824203491210938e+00,4.137765407562255859e+00,1.689189314842224121e+00,1.650794744491577148e+00,3.807838439941406250e+00,3.709252119064331055e+00
3.102162599563598633e+00,3.180946111679077148e+00,3.263835191726684570e+00,3.351160049438476562e+00,3.443286180496215820e+00,3.540620565414428711e+00,3.643618106842041016e+00,3.752787590026855469e+00,3.868700742721557617e+00,3.992002725601196289e+00,4.123423099517822266e+00,4.263791084289550781e+00,4.414054393768310547e+00,4.575320243835449219e+00,4.748816967010498047e+00,4.935989856719970703e+00,5.000000000000000000e+00,5.000000000000000000e+00,5.000000000000000000e+00,5.000000000000000000e+00,5.000000000000000000e+00,5.000000000000000000e+00,5.000000000000000000e+00,5.000000000000000000e+00,5.000000000000000000e+00,5.000000000000000000e+00,5.000000000000000000e+00,5.000000000000000000e+00,5.000000000000000000e+00,5.000000000000000000e+00,5.000000000000000000e+00,5.000000000000000000e+00,5.000000000000000000e+00,5.000000000000000000e+00,5.000000000000000000e+00,5.000000000000000000e+00,5.000000000000000000e+00,5.000000000000000000e+00,5.000000000000000000e+00,5.000000000000000000e+00,5.000000000000000000e+00,5.000000000000000000e+00,5.000000000000000000e+00,5.000000000000000000e+00,5.000000000000000000e+00,5.000000000000000000e+00,5.000000000000000000e+00,5.000000000000000000e+00,5.000000000000000000e+00,5.000000000000000000e+00,5.000000000000000000e+00,5.000000000000000000e+00,5.000000000000000000e+00,5.000000000000000000e+00,5.000000000000000000e+00,5.000000000000000000e+00,1.874052405357360840e+00,1.841114521026611328e+00,1.833446383476257324e+00,1.788107752799987793e+00,1.713382959365844727e+00,1.664429545402526855e+00,1.639926552772521973e+00,1.624755978584289551e+00,1.611871480941772461e+00,1.632645487785339355e+00,1.770481586456298828e+00,1.782036304473876953e+00,1.808104991912841797e+00,5.000000000000000000e+00,4.836264133453369141e+00,4.678338050842285156e+00,4.530399799346923828e+00,4.391530513763427734e+00,4.260922431945800781e+00,4.137857913970947266e+00,4.021703243255615234e+00,3.911891222000122070e+00,3.807916641235351562e+00,3.709326267242431641e+00
3.102096557617187500e+00,3.180876731872558594e+00,3.263762235641479492e+00,3.351083040237426758e+00,3.443204879760742188e+00,3.540534496307373047e+00,3.643527030944824219e+00,3.752690553665161133e+00,3.868597984313964844e+00,3.991893529891967773e+00,4.123306274414062500e+00,4.263666152954101562e+00,4.413918972015380859e+00,4.575150489807128906e+00,4.748633861541748047e+00,4.935791969299316406e+00,5.000000000000000000e+00,5.000000000000000000e+00,5.000000000000000000e+00,5.000000000000000000e+00,5.000000000000000000e+00,5.000000000000000000e+00,5.000000000000000000e+00,5.000000000000000000e+00,5.000000000000000000e+00,5.000000000000000000e+00,5.000000000000000000e+00,5.000000000000000000e+00,5.000000000000000000e+00,5.000000000000000000e+00,5.000000000000000000e+00,5.000000000000000000e+00,5.000000000000000000e+00,5.000000000000000000e+00,5.000000000000000000e+00,5.000000000000000000e+00,5.000000000000000000e+00,5.000000000000000000e+00,5.000000000000000000e+00,5.000000000000000000e+00,5.000000000000000000e+00,5.000000000000000000e+00,5.000000000000000000e+00,5.000000000000000000e+00,5.000000000000000000e+00,5.000000000000000000e+00,5.000000000000000000e+00,5.000000000000000000e+00,5.000000000000000000e+00,5.000000000000000000e+00,5.000000000000000000e+00,5.000000000000000000e+00,5.000000000000000000e+00,5.000000000000000000e+00,5.000000000000000000e+00,5.000000000000000000e+00,1.861804008483886719e+00,1.835449099540710449e+00,1.817432165145874023e+00,5.000000000000000000e+00,1.727355480194091797e+00,1.671683549880981445e+00,1.631851553916931152e+00,1.614915132522583008e+00,1.600201845169067383e+00,1.616914510726928711e+00,1.777816057205200195e+00,1.794263124465942383e+00,5.000000000000000000e+00,5.000000000000000000e+00,4.836390018463134766e+00,4.678455829620361328e+00,4.530510425567626953e+00,4.391634464263916016e+00,4.261020183563232422e+00,4.137949943542480469e+00,4.021790504455566406e+00,3.911973953247070312e+00,3.807994842529296875e+00,3.709400415420532227e+00
3.102030515670776367e+00,3.180807352066040039e+00,3.263689041137695312e+00,3.351006031036376953e+00,3.443123579025268555e+00,3.540448665618896484e+00,3.643436193466186523e+00,3.752593994140625000e+00,3.868495464324951172e+00,3.991784334182739258e+00,4.123189926147460938e+00,4.263541698455810547e+00,4.413785457611083984e+00,4.575004577636718750e+00,4.748450756072998047e+00,4.935594558715820312e+00,5.000000000000000000e+00,5.000000000000000000e+00,5.000000000000000000e+00,5.000000000000000000e+00,5.000000000000000000e+00,5.000000000000000000e+00,5.000000000000000000e+00,5.000000000000000000e+00,5.000000000000000000e+00,5.000000000000000000e+00,5.000000000000000000e+00,5.000000000000000000e+00,5.000000000000000000e+00,5.000000000000000000e+00,5.000000000000000000e+00,5.000000000000000000e+00,5.000000000000000000e+00,5.000000000000000000e+00,5.000000000000000000e+00,5.000000000000000000e+00,5.000000000000000000e+00,5.000000000000000000e+00,5.000000000000000000e+00,5.000000000000000000e+00,5.000000000000000000e+00,5.000000000000000000e+00,5.000000000000000000e+00,5.000000000000000000e+00,5.000000000000000000e+00,5.000000000000000000e+00,5.000000000000000000e+00,5.000000000000000000e+00,5.000000000000000000e+00,5.000000000000000000e+00,5.000000000000000000e+00,5.000000000000000000e+00,5.000000000000000000e+00,5.000000000000000000e+00,5.000000000000000000e+00,5.000000000000000000e+00,1.855982184410095215e+00,5.000000000000000000e+00,1.812743544578552246e+00,5.000000000000000000e+00,1.743382930755615234e+00,1.679095149040222168e+00,1.630283355712890625e+00,1.606868863105773926e+00,1.590655207633972168e+00,1.600618958473205566e+00,1.785211324691772461e+00,1.808758616447448730e+00,5.000000000000000000e+00,5.000000000000000000e+00,4.836516380310058594e+00,4.678574085235595703e+00,4.530621051788330078e+00,4.391738891601562500e+00,4.261117935180664062e+00,4.138042449951171875e+00,4.021877288818359375e+00,3.912056446075439453e+00,3.808073043823242188e+00,3.709474802017211914e+00
3.102015495300292969e+00,3.180760622024536133e+00,3.263616085052490234e+00,3.350929021835327148e+00,3.443042039871215820e+00,3.540362596511840820e+00,3.643345117568969727e+00,3.752497673034667969e+00,3.868392944335937500e+00,3.991675138473510742e+00,4.123073101043701172e+00,4.263416767120361328e+00,4.413651466369628906e+00,4.574861049652099609e+00,4.748292922973632812e+00,4.935396671295166016e+00,5.000000000000000000e+00,5.000000000000000000e+00,5.000000000000000000e+00,5.000000000000000000e+00,5.000000000000000000e+00,5.000000000000000000e+00,5.000000000000000000e+00,5.000000000000000000e+00,5.000000000000000000e+00,5.000000000000000000e+00,5.000000000000000000e+00,5.000000000000000000e+00,5.000000000000000000e+00,5.000000000000000000e+00,5.000000000000000000e+00,5.000000000000000000e+00,5.000000000000000000e+00,5.000000000000000000e+00,5.000000000000000000e+00,5.000000000000000000e+00,5.000000000000000000e+00,5.000000000000000000e+00,5.000000000000000000e+00,5.000000000000000000e+00,5.000000000000000000e+00,5.000000000000000000e+00,5.000000000000000000e+00,5.000000000000000000e+00,5.000000000000000000e+00,5.000000000000000000e+00,5.000000000000000000e+00,5.000000000000000000e+00,5.000000000000000000e+00,5.000000000000000000e+00,5.000000000000000000e+00,5.000000000000000000e+00,5.000000000000000000e+00,5.000000000000000000e+00,5.000000000000000000e+00,5.000000000000000000e+00,1.848987817764282227e+00,1.817885994911193848e+00,5.000000000000000000e+00,5.000000000000000000e+00,5.000000000000000000e+00,1.692062258720397949e+00,1.638640046119689941e+00,1.603003382682800293e+00,1.582639455795288086e+00,1.583359241485595703e+00,1.596710205078125000e+00,1.824682235717773438e+00,5.000000000000000000e+00,5.000000000000000000e+00,4.836642742156982422e+00,4.678691864013671875e+00,4.530732154846191406e+00,4.391842842102050781e+00,4.261216163635253906e+00,4.138134956359863281e+00,4.021964550018310547e+00,3.912138938903808594e+00,3.808151245117187500e+00,3.709548950195312500e+00
3.102015733718872070e+00,3.180761098861694336e+00,3.263608455657958984e+00,3.350887298583984375e+00,3.442962646484375000e+00,3.540276765823364258e+00,3.643254041671752930e+00,3.752401113510131836e+00,3.868290424346923828e+00,3.991565465927124023e+00,4.122956752777099609e+00,4.263292312622070312e+00,4.413517951965332031e+00,4.574717044830322266e+00,4.748138427734375000e+00,4.935225963592529297e+00,5.000000000000000000e+00,5.000000000000000000e+00,5.000000000000000000e+00,5.000000000000000000e+00,5.000000000000000000e+00,5.000000000000000000e+00,5.000000000000000000e+00,5.000000000000000000e+00,5.000000000000000000e+00,5.000000000000000000e+00,5.000000000000000000e+00,5.000000000000000000e+00,5.000000000000000000e+00,5.000000000000000000e+00,5.000000000000000000e+00,5.000000000000000000e+00,5.000000000000000000e+00,5.000000000000000000e+00,5.000000000000000000e+00,5.000000000000000000e+00,5.000000000000000000e+00,5.000000000000000000e+00,5.000000000000000000e+00,5.000000000000000000e+00,5.000000000000000000e+00,5.000000000000000000e+00,5.000000000000000000e+00,5.000000000000000000e+00,5.000000000000000000e+00,5.000000000000000000e+00,5.000000000000000000e+00,5.000000000000000000e+00,5.000000000000000000e+00,5.000000000000000000e+00,5.000000000000000000e+00,5.000000000000000000e+00,5.000000000000000000e+00,5.000000000000000000e+00,5.000000000000000000e+00,5.000000000000000000e+00,1.842278838157653809e+00,5.000000000000000000e+00,5.000000000000000000e+00,5.000000000000000000e+00,5.000000000000000000e+00,1.704093337059020996e+00,1.646707415580749512e+00,1.599657535552978516e+00,1.578148484230041504e+00,1.572171807289123535e+00,1.582986950874328613e+00,5.000000000000000000e+00,5.000000000000000000e+00,5.000000000000000000e+00,4.836768627166748047e+00,4.678810119628906250e+00,4.530842781066894531e+00,4.391946792602539062e+00,4.261313915252685547e+00,4.138227462768554688e+00,4.022051811218261719e+00,3.912221431732177734e+00,3.808229446411132812e+00,3.709623098373413086e+00
3.102001667022705078e+00,3.180761575698852539e+00,3.263608932495117188e+00,3.350887537002563477e+00,3.442962884902954102e+00,3.540241003036499023e+00,3.643176078796386719e+00,3.752304553985595703e+00,3.868187665939331055e+00,3.991456270217895508e+00,4.122839927673339844e+00,4.263167858123779297e+00,4.413384437561035156e+00,4.574573516845703125e+00,4.747983455657958984e+00,4.935059070587158203e+00,5.000000000000000000e+00,5.000000000000000000e+00,5.000000000000000000e+00,5.000000000000000000e+00,5.000000000000000000e+00,5.000000000000000000e+00,5.000000000000000000e+00,5.000000000000000000e+00,5.000000000000000000e+00,5.000000000000000000e+00,5.000000000000000000e+00,5.000000000000000000e+00,5.000000000000000000e+00,5.000000000000000000e+00,5.000000000000000000e+00,5.000000000000000000e+00,5.000000000000000000e+00,5.000000000000000000e+00,5.000000000000000000e+00,5.000000000000000000e+00,5.000000000000000000e+00,5.000000000000000000e+00,5.000000000000000000e+00,5.000000000000000000e+00,5.000000000000000000e+00,5.000000000000000000e+00,5.000000000000000000e+00,5.000000000000000000e+00,5.000000000000000000e+00,5.000000000000000000e+00,5.000000000000000000e+00,5.000000000000000000e+00,5.000000000000000000e+00,5.000000000000000000e+00,5.000000000000000000e+00,5.000000000000000000e+00,5.000000000000000000e+00,5.000000000000000000e+00,5.000000000000000000e+00,5.000000000000000000e+00,5.000000000000000000e+00,5.000000000000000000e+00,5.000000000000000000e+00,5.000000000000000000e+00,5.000000000000000000e+00,5.000000000000000000e+00,1.656098604202270508e+00,1.605660676956176758e+00,1.578143715858459473e+00,1.568983197212219238e+00,1.578838944435119629e+00,5.000000000000000000e+00,5.000000000000000000e+00,5.000000000000000000e+00,4.836894989013671875e+00,4.678927898406982422e+00,4.530953407287597656e+00,4.392050743103027344e+00,4.261411666870117188e+00,4.138319492340087891e+00,4.022139072418212891e+00,3.912304162979125977e+00,3.808307886123657227e+00,3.709697484970092773e+00
3.101935625076293945e+00,3.180707454681396484e+00,3.263584375381469727e+00,3.350888013839721680e+00,3.442963361740112305e+00,3.540241718292236328e+00,3.643176555633544922e+00,3.752276897430419922e+00,3.868113279342651367e+00,3.991347074508666992e+00,4.122723579406738281e+00,4.263042926788330078e+00,4.413250923156738281e+00,4.574429988861083984e+00,4.747828960418701172e+00,4.934891700744628906e+00,5.000000000000000000e+00,5.000000000000000000e+00,5.000000000000000000e+00,5.000000000000000000e+00,5.000000000000000000e+00,5.000000000000000000e+00,5.000000000000000000e+00,5.000000000000000000e+00,5.000000000000000000e+00,5.000000000000000000e+00,5.000000000000000000e+00,5.000000000000000000e+00,5.000000000000000000e+00,5.000000000000000000e+00,5.000000000000000000e+00,5.000000000000000000e+00,5.000000000000000000e+00,5.000000000000000000e+00,5.000000000000000000e+00,5.000000000000000000e+00,5.000000000000000000e+00,5.000000000000000000e+00,5.000000000000000000e+00,5.000000000000000000e+00,5.000000000000000000e+00,5.000000000000000000e+00,5.000000000000000000e+00,5.000000000000000000e+00,5.000000000000000000e+00,5.000000000000000000e+00,5.000000000000000000e+00,5.000000000000000000e+00,5.000000000000000000e+00,5.000000000000000000e+00,5.000000000000000000e+00,5.000000000000000000e+00,5.000000000000000000e+00,5.000000000000000000e+00,5.000000000000000000e+00,5.000000000000000000e+00,5.000000000000000000e+00,5.000000000000000000e+00,5.000000000000000000e+00,5.000000000000000000e+00,5.000000000000000000e+00,5.000000000000000000e+00,1.665749549865722656e+00,1.609537601470947266e+00,1.582900762557983398e+00,1.574896454811096191e+00,1.585685610771179199e+00,5.000000000000000000e+00,5.000000000000000000e+00,5.000000000000000000e+00,4.837021350860595703e+00,4.679046154022216797e+00,4.531064033508300781e+00,4.392154693603515625e+00,4.261509895324707031e+00,4.138411998748779297e+00,4.022226333618164062e+00,3.912386178970336914e+00,3.808386087417602539e+00,3.709771633148193359e+00
3.101869821548461914e+00,3.180638074874877930e+00,3.263511419296264648e+00,3.350818634033203125e+00,3.442925930023193359e+00,3.540239810943603516e+00,3.643177032470703125e+00,3.752277374267578125e+00,3.868113756179809570e+00,3.991329431533813477e+00,4.122653484344482422e+00,4.262918472290039062e+00,4.413117408752441406e+00,4.574286937713623047e+00,4.747674465179443359e+00,4.934724807739257812e+00,5.000000000000000000e+00,5.000000000000000000e+00,5.000000000000000000e+00,5.000000000000000000e+00,5.000000000000000000e+00,5.000000000000000000e+00,5.000000000000000000e+00,5.000000000000000000e+00,5.000000000000000000e+00,5.000000000000000000e+00,5.000000000000000000e+00,5.000000000000000000e+00,5.000000000000000000e+00,5.000000000000000000e+00,5.000000000000000000e+00,5.000000000000000000e+00,5.000000000000000000e+00,5.000000000000000000e+00,5.000000000000000000e+00,5.000000000000000000e+00,5.000000000000000000e+00,5.000000000000000000e+00,5.000000000000000000e+00,5.000000000000000000e+00,5.000000000000000000e+00,5.000000000000000000e+00,5.000000000000000000e+00,5.000000000000000000e+00,5.000000000000000000e+00,5.000000000000000000e+00,5.000000000000000000e+00,5.000000000000000000e+00,5.000000000000000000e+00,5.000000000000000000e+00,5.000000000000000000e+00,5.000000000000000000e+00,5.000000000000000000e+00,5.000000000000000000e+00,5.000000000000000000e+00,5.000000000000000000e+00,5.000000000000000000e+00,5.000000000000000000e+00,5.000000000000000000e+00,5.000000000000000000e+00,5.000000000000000000e+00,5.000000000000000000e+00,1.658968210220336914e+00,1.612062811851501465e+00,1.592500448226928711e+00,1.584299921989440918e+00,1.600077152252197266e+00,5.000000000000000000e+00,5.000000000000000000e+00,5.000000000000000000e+00,4.837147235870361328e+00,4.679164409637451172e+00,4.531174182891845703e+00,4.392259120941162109e+00,4.261607646942138672e+00,4.138504505157470703e+00,4.022313594818115234e+00,3.912468671798706055e+00,3.808464288711547852e+00,3.709846019744873047e+00
3.101803779602050781e+00,3.180568933486938477e+00,3.263438463211059570e+00,3.350741624832153320e+00,3.442844629287719727e+00,3.540153980255126953e+00,3.643123865127563477e+00,3.752263307571411133e+00,3.868114233016967773e+00,3.991329908370971680e+00,4.122654438018798828e+00,4.262914180755615234e+00,4.413053989410400391e+00,4.574156284332275391e+00,4.747519969940185547e+00,4.934557914733886719e+00,5.000000000000000000e+00,5.000000000000000000e+00,5.000000000000000000e+00,5.000000000000000000e+00,5.000000000000000000e+00,5.000000000000000000e+00,5.000000000000000000e+00,5.000000000000000000e+00,5.000000000000000000e+00,5.000000000000000000e+00,5.000000000000000000e+00,5.000000000000000000e+00,5.000000000000000000e+00,5.000000000000000000e+00,5.000000000000000000e+00,5.000000000000000000e+00,5.000000000000000000e+00,5.000000000000000000e+00,5.000000000000000000e+00,5.000000000000000000e+00,5.000000000000000000e+00,5.000000000000000000e+00,5.000000000000000000e+00,5.000000000000000000e+00,5.000000000000000000e+00,5.000000000000000000e+00,5.000000000000000000e+00,5.000000000000000000e+00,5.000000000000000000e+00,5.000000000000000000e+00,5.000000000000000000e+00,5.000000000000000000e+00,5.000000000000000000e+00,5.000000000000000000e+00,5.000000000000000000e+00,5.000000000000000000e+00,5.000000000000000000e+00,5.000000000000000000e+00,5.000000000000000000e+00,5.000000000000000000e+00,5.000000000000000000e+00,5.000000000000000000e+00,5.000000000000000000e+00,5.000000000000000000e+00,5.000000000000000000e+00,5.000000000000000000e+00,1.651934027671813965e+00,1.616643548011779785e+00,1.602217078208923340e+00,1.593816280364990234e+00,5.000000000000000000e+00,5.000000000000000000e+00,5.000000000000000000e+00,5.000000000000000000e+00,4.837273597717285156e+00,4.679282188415527344e+00,4.531285285949707031e+00,4.392363071441650391e+00,4.261705398559570312e+00,4.138596534729003906e+00,4.022400856018066406e+00,3.912551403045654297e+00,3.808543682098388672e+00,3.709924697875976562e+00
3.101737499237060547e+00,3.180499553680419922e+00,3.263365507125854492e+00,3.350664854049682617e+00,3.442763328552246094e+00,3.540067911148071289e+00,3.643033027648925781e+00,3.752166986465454102e+00,3.868041515350341797e+00,3.991300821304321289e+00,4.122654914855957031e+00,4.262914657592773438e+00,4.413054943084716797e+00,4.574156761169433594e+00,4.747466564178466797e+00,4.934427261352539062e+00,5.000000000000000000e+00,5.000000000000000000e+00,5.000000000000000000e+00,5.000000000000000000e+00,5.000000000000000000e+00,5.000000000000000000e+00,5.000000000000000000e+00,5.000000000000000000e+00,5.000000000000000000e+00,5.000000000000000000e+00,5.000000000000000000e+00,5.000000000000000000e+00,5.000000000000000000e+00,5.000000000000000000e+00,5.000000000000000000e+00,5.000000000000000000e+00,5.000000000000000000e+00,5.000000000000000000e+00,5.000000000000000000e+00,5.000000000000000000e+00,5.000000000000000000e+00,5.000000000000000000e+00,5.000000000000000000e+00,5.000000000000000000e+00,5.000000000000000000e+00,5.000000000000000000e+00,5.000000000000000000e+00,5.000000000000000000e+00,5.000000000000000000e+00,5.000000000000000000e+00,5.000000000000000000e+00,5.000000000000000000e+00,5.000000000000000000e+00,5.000000000000000000e+00,5.000000000000000000e+00,5.000000000000000000e+00,5.000000000000000000e+00,5.000000000000000000e+00,5.000000000000000000e+00,5.000000000000000000e+00,5.000000000000000000e+00,5.000000000000000000e+00,5.000000000000000000e+00,5.000000000000000000e+00,5.000000000000000000e+00,2.018697023391723633e+00,1.651720523834228516e+00,1.622251629829406738e+00,1.608774304389953613e+00,1.606053829193115234e+00,5.000000000000000000e+00,5.000000000000000000e+00,5.000000000000000000e+00,5.000000000000000000e+00,4.837399959564208984e+00,4.679400444030761719e+00,4.531395912170410156e+00,4.392467021942138672e+00,4.261803627014160156e+00,4.138689041137695312e+00,4.022491455078125000e+00,3.912640810012817383e+00,3.808630704879760742e+00,3.710006713867187500e+00
3.101671695709228516e+00,3.180429935455322266e+00,3.263292312622070312e+00,3.350587844848632812e+00,3.442682027816772461e+00,3.539982080459594727e+00,3.642941951751708984e+00,3.752070426940917969e+00,3.867938995361328125e+00,3.991191864013671875e+00,4.122558116912841797e+00,4.262866497039794922e+00,4.413055419921875000e+00,4.574157238006591797e+00,4.747467517852783203e+00,4.934427738189697266e+00,5.000000000000000000e+00,5.000000000000000000e+00,5.000000000000000000e+00,5.000000000000000000e+00,5.000000000000000000e+00,5.000000000000000000e+00,5.000000000000000000e+00,5.000000000000000000e+00,5.000000000000000000e+00,5.000000000000000000e+00,5.000000000000000000e+00,5.000000000000000000e+00,5.000000000000000000e+00,5.000000000000000000e+00,5.000000000000000000e+00,5.000000000000000000e+00,5.000000000000000000e+00,5.000000000000000000e+00,5.000000000000000000e+00,5.000000000000000000e+00,5.000000000000000000e+00,5.000000000000000000e+00,5.000000000000000000e+00,5.000000000000000000e+00,5.000000000000000000e+00,5.000000000000000000e+00,5.000000000000000000e+00,5.000000000000000000e+00,5.000000000000000000e+00,5.000000000000000000e+00,5.000000000000000000e+00,5.000000000000000000e+00,5.000000000000000000e+00,5.000000000000000000e+00,5.000000000000000000e+00,5.000000000000000000e+00,5.000000000000000000e+00,5.000000000000000000e+00,5.000000000000000000e+00,5.000000000000000000e+00,5.000000000000000000e+00,5.000000000000000000e+00,5.000000000000000000e+00,5.000000000000000000e+00,5.000000000000000000e+00,2.009032011032104492e+00,1.656529664993286133e+00,1.627591967582702637e+00,1.613366127014160156e+00,1.616425991058349609e+00,5.000000000000000000e+00,5.000000000000000000e+00,5.000000000000000000e+00,5.000000000000000000e+00,4.837525844573974609e+00,4.679518699645996094e+00,4.531506538391113281e+00,4.392573356628417969e+00,4.261907577514648438e+00,4.138791084289550781e+00,4.022588253021240234e+00,3.912732362747192383e+00,3.808717250823974609e+00,3.710089206695556641e+00
3.101605653762817383e+00,3.180360555648803711e+00,3.263219356536865234e+00,3.350510835647583008e+00,3.442600965499877930e+00,3.539896249771118164e+00,3.642851114273071289e+00,3.751973867416381836e+00,3.867836475372314453e+00,3.991082429885864258e+00,4.122441768646240234e+00,4.262742042541503906e+00,4.412928104400634766e+00,4.574084281921386719e+00,4.747456550598144531e+00,4.934428691864013672e+00,5.000000000000000000e+00,5.000000000000000000e+00,5.000000000000000000e+00,5.000000000000000000e+00,5.000000000000000000e+00,5.000000000000000000e+00,5.000000000000000000e+00,5.000000000000000000e+00,5.000000000000000000e+00,5.000000000000000000e+00,5.000000000000000000e+00,5.000000000000000000e+00,5.000000000000000000e+00,5.000000000000000000e+00,5.000000000000000000e+00,5.000000000000000000e+00,5.000000000000000000e+00,5.000000000000000000e+00,5.000000000000000000e+00,5.000000000000000000e+00,5.000000000000000000e+00,5.000000000000000000e+00,5.000000000000000000e+00,5.000000000000000000e+00,5.000000000000000000e+00,5.000000000000000000e+00,5.000000000000000000e+00,5.000000000000000000e+00,5.000000000000000000e+00,5.000000000000000000e+00,5.000000000000000000e+00,5.000000000000000000e+00,5.000000000000000000e+00,5.000000000000000000e+00,5.000000000000000000e+00,5.000000000000000000e+00,5.000000000000000000e+00,5.000000000000000000e+00,5.000000000000000000e+00,5.000000000000000000e+00,5.000000000000000000e+00,5.000000000000000000e+00,5.000000000000000000e+00,5.000000000000000000e+00,5.000000000000000000e+00,2.016911268234252930e+00,1.660694479942321777e+00,1.629970312118530273e+00,1.613447904586791992e+00,1.614236593246459961e+00,5.000000000000000000e+00,5.000000000000000000e+00,5.000000000000000000e+00,5.000000000000000000e+00,4.837652206420898438e+00,4.679641723632812500e+00,4.531626701354980469e+00,4.392688274383544922e+00,4.262016296386718750e+00,4.138893604278564453e+00,4.022685050964355469e+00,3.912823677062988281e+00,3.808804035186767578e+00,3.710171222686767578e+00
3.101539850234985352e+00,3.180291175842285156e+00,3.263146162033081055e+00,3.350433826446533203e+00,3.442519664764404297e+00,3.539810180664062500e+00,3.642760038375854492e+00,3.751877307891845703e+00,3.867733955383300781e+00,3.990973472595214844e+00,4.122324943542480469e+00,4.262617111206054688e+00,4.412794589996337891e+00,4.573940277099609375e+00,4.747302055358886719e+00,4.934322834014892578e+00,5.000000000000000000e+00,5.000000000000000000e+00,5.000000000000000000e+00,5.000000000000000000e+00,5.000000000000000000e+00,5.000000000000000000e+00,5.000000000000000000e+00,5.000000000000000000e+00,5.000000000000000000e+00,5.000000000000000000e+00,5.000000000000000000e+00,5.000000000000000000e+00,5.000000000000000000e+00,5.000000000000000000e+00,5.000000000000000000e+00,5.000000000000000000e+00,5.000000000000000000e+00,5.000000000000000000e+00,5.000000000000000000e+00,5.000000000000000000e+00,5.000000000000000000e+00,5.000000000000000000e+00,5.000000000000000000e+00,5.000000000000000000e+00,5.000000000000000000e+00,5.000000000000000000e+00,5.000000000000000000e+00,5.000000000000000000e+00,5.000000000000000000e+00,5.000000000000000000e+00,5.000000000000000000e+00,5.000000000000000000e+00,5.000000000000000000e+00,5.000000000000000000e+00,5.000000000000000000e+00,5.000000000000000000e+00,5.000000000000000000e+00,5.000000000000000000e+00,5.000000000000000000e+00,5.000000000000000000e+00,5.000000000000000000e+00,5.000000000000000000e+00,5.000000000000000000e+00,5.000000000000000000e+00,2.081314802169799805e+00,2.028566360473632812e+00,1.664814472198486328e+00,1.634060740470886230e+00,1.613529801368713379e+00,1.612053394317626953e+00,5.000000000000000000e+00,5.000000000000000000e+00,5.000000000000000000e+00,5.000000000000000000e+00,4.837791919708251953e+00,4.679772377014160156e+00,4.531749725341796875e+00,4.392803668975830078e+00,4.262125015258789062e+00,4.138996124267578125e+00,4.022781848907470703e+00,3.912915468215942383e+00,3.808890581130981445e+00,3.710253715515136719e+00
3.101473808288574219e+00,3.180221796035766602e+00,3.263073205947875977e+00,3.350356578826904297e+00,3.442438364028930664e+00,3.539724349975585938e+00,3.642669200897216797e+00,3.751780986785888672e+00,3.867631196975708008e+00,3.990864276885986328e+00,4.122208595275878906e+00,4.262492656707763672e+00,4.412661075592041016e+00,4.573797225952148438e+00,4.747147560119628906e+00,4.934155941009521484e+00,5.000000000000000000e+00,5.000000000000000000e+00,5.000000000000000000e+00,5.000000000000000000e+00,5.000000000000000000e+00,5.000000000000000000e+00,5.000000000000000000e+00,5.000000000000000000e+00,5.000000000000000000e+00,5.000000000000000000e+00,5.000000000000000000e+00,5.000000000000000000e+00,5.000000000000000000e+00,5.000000000000000000e+00,5.000000000000000000e+00,5.000000000000000000e+00,5.000000000000000000e+00,5.000000000000000000e+00,5.000000000000000000e+00,5.000000000000000000e+00,5.000000000000000000e+00,5.000000000000000000e+00,5.000000000000000000e+00,5.000000000000000000e+00,5.000000000000000000e+00,5.000000000000000000e+00,5.000000000000000000e+00,5.000000000000000000e+00,5.000000000000000000e+00,5.000000000000000000e+00,5.000000000000000000e+00,5.000000000000000000e+00,5.000000000000000000e+00,5.000000000000000000e+00,5.000000000000000000e+00,5.000000000000000000e+00,5.000000000000000000e+00,5.000000000000000000e+00,5.000000000000000000e+00,5.000000000000000000e+00,5.000000000000000000e+00,5.000000000000000000e+00,5.000000000000000000e+00,5.000000000000000000e+00,2.091266632080078125e+00,2.051075458526611328e+00,1.668954968452453613e+00,1.638171911239624023e+00,1.614532589912414551e+00,1.609875798225402832e+00,5.000000000000000000e+00,5.000000000000000000e+00,5.000000000000000000e+00,5.000000000000000000e+00,4.837932109832763672e+00,4.679903507232666016e+00,4.531872272491455078e+00,4.392919063568115234e+00,4.262233257293701172e+00,4.139098167419433594e+00,4.022878646850585938e+00,3.913006782531738281e+00,3.808977365493774414e+00,3.710335731506347656e+00
3.101407766342163086e+00,3.180152654647827148e+00,3.263000249862670898e+00,3.350279808044433594e+00,3.442357301712036133e+00,3.539638519287109375e+00,3.642578125000000000e+00,3.751684427261352539e+00,3.867528676986694336e+00,3.990755081176757812e+00,4.122092247009277344e+00,4.262368202209472656e+00,4.412527561187744141e+00,4.573653697967529297e+00,4.746993064880371094e+00,4.933989048004150391e+00,5.000000000000000000e+00,5.000000000000000000e+00,5.000000000000000000e+00,5.000000000000000000e+00,5.000000000000000000e+00,5.000000000000000000e+00,5.000000000000000000e+00,5.000000000000000000e+00,5.000000000000000000e+00,5.000000000000000000e+00,5.000000000000000000e+00,5.000000000000000000e+00,5.000000000000000000e+00,5.000000000000000000e+00,5.000000000000000000e+00,5.000000000000000000e+00,5.000000000000000000e+00,5.000000000000000000e+00,5.000000000000000000e+00,5.000000000000000000e+00,5.000000000000000000e+00,5.000000000000000000e+00,5.000000000000000000e+00,5.000000000000000000e+00,5.000000000000000000e+00,5.000000000000000000e+00,5.000000000000000000e+00,5.000000000000000000e+00,5.000000000000000000e+00,5.000000000000000000e+00,5.000000000000000000e+00,5.000000000000000000e+00,5.000000000000000000e+00,5.000000000000000000e+00,5.000000000000000000e+00,5.000000000000000000e+00,5.000000000000000000e+00,5.000000000000000000e+00,5.000000000000000000e+00,5.000000000000000000e+00,5.000000000000000000e+00,5.000000000000000000e+00,5.000000000000000000e+00,5.000000000000000000e+00,2.105854749679565430e+00,2.074476957321166992e+00,1.673116207122802734e+00,1.642303705215454102e+00,1.616500616073608398e+00,1.607326745986938477e+00,1.630977392196655273e+00,5.000000000000000000e+00,5.000000000000000000e+00,5.000000000000000000e+00,4.838071823120117188e+00,4.680034160614013672e+00,4.531994819641113281e+00,4.393034458160400391e+00,4.262341976165771484e+00,4.139200687408447266e+00,4.022975444793701172e+00,3.913098335266113281e+00,3.809063911437988281e+00,3.710418224334716797e+00
3.101341962814331055e+00,3.180083274841308594e+00,3.262927055358886719e+00,3.350202798843383789e+00,3.442275524139404297e+00,3.539552688598632812e+00,3.642487287521362305e+00,3.751587867736816406e+00,3.867426156997680664e+00,3.990645885467529297e+00,4.121975898742675781e+00,4.262243747711181641e+00,4.412394523620605469e+00,4.573510169982910156e+00,4.746838569641113281e+00,4.933821678161621094e+00,5.000000000000000000e+00,5.000000000000000000e+00,5.000000000000000000e+00,5.000000000000000000e+00,5.000000000000000000e+00,5.000000000000000000e+00,5.000000000000000000e+00,5.000000000000000000e+00,5.000000000000000000e+00,5.000000000000000000e+00,5.000000000000000000e+00,5.000000000000000000e+00,5.000000000000000000e+00,5.000000000000000000e+00,5.000000000000000000e+00,5.000000000000000000e+00,5.000000000000000000e+00,5.000000000000000000e+00,5.000000000000000000e+00,5.000000000000000000e+00,5.000000000000000000e+00,5.000000000000000000e+00,5.000000000000000000e+00,5.000000000000000000e+00,5.000000000000000000e+00,5.000000000000000000e+00,5.000000000000000000e+00,5.000000000000000000e+00,5.000000000000000000e+00,5.000000000000000000e+00,5.000000000000000000e+00,5.000000000000000000e+00,5.000000000000000000e+00,5.000000000000000000e+00,5.000000000000000000e+00,5.000000000000000000e+00,5.000000000000000000e+00,5.000000000000000000e+00,5.000000000000000000e+00,5.000000000000000000e+00,5.000000000000000000e+00,5.000000000000000000e+00,5.000000000000000000e+00,2.195178031921386719e+00,2.122687578201293945e+00,2.099447250366210938e+00,1.691949009895324707e+00,1.646744132041931152e+00,1.620733618736267090e+00,1.605435013771057129e+00,1.629904627799987793e+00,5.000000000000000000e+00,5.000000000000000000e+00,5.000000000000000000e+00,4.838211536407470703e+00,4.680165290832519531e+00,4.532117843627929688e+00,4.393149852752685547e+00,4.262450695037841797e+00,4.139303207397460938e+00,4.023071765899658203e+00,3.913189649581909180e+00,3.809150695800781250e+00,3.710500240325927734e+00
3.101275920867919922e+00,3.180013895034790039e+00,3.262854099273681641e+00,3.350125789642333984e+00,3.442194461822509766e+00,3.539466381072998047e+00,3.642396211624145508e+00,3.751491546630859375e+00,3.867323637008666992e+00,3.990536689758300781e+00,4.121859073638916016e+00,4.262119293212890625e+00,4.412261009216308594e+00,4.573367118835449219e+00,4.746684074401855469e+00,4.933654785156250000e+00,5.000000000000000000e+00,5.000000000000000000e+00,5.000000000000000000e+00,5.000000000000000000e+00,5.000000000000000000e+00,5.000000000000000000e+00,5.000000000000000000e+00,5.000000000000000000e+00,5.000000000000000000e+00,5.000000000000000000e+00,5.000000000000000000e+00,5.000000000000000000e+00,5.000000000000000000e+00,5.000000000000000000e+00,5.000000000000000000e+00,5.000000000000000000e+00,5.000000000000000000e+00,5.000000000000000000e+00,5.000000000000000000e+00,5.000000000000000000e+00,5.000000000000000000e+00,5.000000000000000000e+00,5.000000000000000000e+00,5.000000000000000000e+00,5.000000000000000000e+00,5.000000000000000000e+00,5.000000000000000000e+00,5.000000000000000000e+00,5.000000000000000000e+00,5.000000000000000000e+00,5.000000000000000000e+00,5.000000000000000000e+00,5.000000000000000000e+00,5.000000000000000000e+00,5.000000000000000000e+00,5.000000000000000000e+00,5.000000000000000000e+00,5.000000000000000000e+00,5.000000000000000000e+00,5.000000000000000000e+00,5.000000000000000000e+00,5.000000000000000000e+00,5.000000000000000000e+00,2.212862968444824219e+00,2.147793769836425781e+00,2.148966073989868164e+00,5.000000000000000000e+00,1.651895046234130859e+00,1.622678041458129883e+00,1.608682513236999512e+00,1.629992008209228516e+00,5.000000000000000000e+00,5.000000000000000000e+00,5.000000000000000000e+00,4.838351726531982422e+00,4.680295944213867188e+00,4.532240390777587891e+00,4.393264770507812500e+00,4.262558937072753906e+00,4.139405727386474609e+00,4.023168563842773438e+00,3.913281440734863281e+00,3.809237241744995117e+00,3.710582733154296875e+00
3.101210117340087891e+00,3.179944515228271484e+00,3.262781143188476562e+00,3.350049018859863281e+00,3.442113161087036133e+00,3.539380550384521484e+00,3.642304897308349609e+00,3.751394987106323242e+00,3.867221117019653320e+00,3.990427494049072266e+00,4.121742725372314453e+00,4.261994361877441406e+00,4.412127494812011719e+00,4.573223590850830078e+00,4.746529579162597656e+00,4.855133533477783203e+00,4.853938102722167969e+00,4.852743625640869141e+00,4.851549625396728516e+00,4.850356578826904297e+00,4.849163532257080078e+00,4.847971439361572266e+00,4.846779346466064453e+00,4.845588684082031250e+00,4.844398021697998047e+00,4.843207836151123047e+00,4.842018604278564453e+00,4.840829372406005859e+00,4.839641571044921875e+00,4.838453769683837891e+00,4.837266921997070312e+00,4.836080551147460938e+00,4.834894180297851562e+00,4.833709239959716797e+00,4.832524299621582031e+00,4.831340312957763672e+00,4.830156803131103516e+00,4.828973770141601562e+00,4.827791213989257812e+00,4.826609611511230469e+00,4.825428485870361328e+00,4.824247837066650391e+00,4.823067665100097656e+00,4.821887969970703125e+00,4.820709705352783203e+00,4.819530963897705078e+00,4.818353176116943359e+00,4.817175865173339844e+00,4.815999507904052734e+00,4.814823627471923828e+00,4.813647747039794922e+00,4.812473297119140625e+00,4.811298847198486328e+00,4.810124874114990234e+00,4.808951854705810547e+00,4.807779312133789062e+00,4.806607246398925781e+00,4.805435657501220703e+00,4.804265022277832031e+00,2.211266994476318359e+00,2.193365812301635742e+00,4.800755500793457031e+00,4.799587249755859375e+00,1.657078266143798828e+00,1.627800226211547852e+00,1.614830255508422852e+00,1.630079627037048340e+00,4.793752670288085938e+00,4.792587280273437500e+00,4.791422843933105469e+00,4.790258407592773438e+00,4.680427074432373047e+00,4.532363414764404297e+00,4.393380165100097656e+00,4.262667655944824219e+00,4.139507770538330078e+00,4.023265361785888672e+00,3.913372755050659180e+00,3.809324264526367188e+00,3.710664749145507812e+00
3.101144075393676758e+00,3.179875373840332031e+00,3.262708187103271484e+00,3.349972009658813477e+00,3.442031860351562500e+00,3.539294719696044922e+00,3.642214059829711914e+00,3.751298666000366211e+00,3.771232366561889648e+00,3.770511150360107422e+00,3.769790172576904297e+00,3.769069910049438477e+00,3.768349409103393555e+00,3.767629384994506836e+00,3.766909360885620117e+00,3.766190290451049805e+00,3.765470981597900391e+00,3.764751911163330078e+00,3.764033079147338867e+00,3.763314485549926758e+00,3.762596845626831055e+00,3.761878728866577148e+00,3.761161088943481445e+00,3.760443687438964844e+00,3.759726524353027344e+00,3.759010076522827148e+00,3.758293628692626953e+00,3.757577180862426758e+00,3.756861209869384766e+00,3.756145715713500977e+00,3.755430221557617188e+00,3.754714965820312500e+00,3.754000186920166016e+00,3.753285408020019531e+00,3.752571344375610352e+00,3.751857280731201172e+00,3.751143455505371094e+00,3.750429868698120117e+00,3.749716997146606445e+00,3.749003887176513672e+00,3.748291015625000000e+00,3.747578620910644531e+00,3.746866226196289062e+00,3.746154785156250000e+00,3.745443105697631836e+00,3.744731664657592773e+00,3.744020462036132812e+00,3.743309974670410156e+00,3.742599248886108398e+00,3.741888999938964844e+00,3.741178989410400391e+00,3.740469217300415039e+00,3.739759922027587891e+00,3.739050865173339844e+00,3.738341808319091797e+00,3.737632989883422852e+00,3.736924886703491211e+00,3.736216783523559570e+00,3.735508918762207031e+00,2.191691398620605469e+00,2.189763545989990234e+00,3.733386993408203125e+00,3.732680082321166992e+00,1.662294030189514160e+00,1.632954835891723633e+00,1.619039177894592285e+00,1.630167007446289062e+00,3.729150295257568359e+00,3.728445053100585938e+00,3.727740049362182617e+00,3.727035760879516602e+00,3.726331233978271484e+00,3.725627183914184570e+00,3.724923133850097656e+00,3.724219560623168945e+00,3.723516464233398438e+00,3.722813367843627930e+00,3.722110509872436523e+00,3.721407890319824219e+00,3.710747241973876953e+00
3.083447694778442383e+00,3.082965612411499023e+00,3.082483530044555664e+00,3.082001686096191406e+00,3.081519842147827148e+00,3.081038236618041992e+00,3.080556869506835938e+00,3.080075740814208984e+00,3.079594612121582031e+00,3.079113721847534180e+00,3.078632831573486328e+00,3.078152179718017578e+00,3.077672004699707031e+00,3.077191591262817383e+00,3.076711416244506836e+00,3.076231241226196289e+00,3.075751304626464844e+00,3.075271844863891602e+00,3.074792146682739258e+00,3.074312686920166016e+00,3.073833465576171875e+00,3.073354482650756836e+00,3.072875499725341797e+00,3.072396516799926758e+00,3.071917772293090820e+00,3.071439266204833984e+00,3.070960998535156250e+00,3.070482730865478516e+00,3.070004701614379883e+00,3.069526672363281250e+00,3.069049119949340820e+00,3.068571329116821289e+00,3.068093776702880859e+00,3.067616462707519531e+00,3.067139148712158203e+00,3.066662311553955078e+00,3.066185474395751953e+00,3.065708637237548828e+00,3.065232038497924805e+00,3.064755678176879883e+00,3.064279556274414062e+00,3.063803195953369141e+00,3.063327074050903320e+00,3.062851190567016602e+00,3.062375783920288086e+00,3.061900138854980469e+00,3.061424732208251953e+00,3.060949325561523438e+00,3.060474157333374023e+00,3.059999465942382812e+00,3.059524536132812500e+00,3.059049844741821289e+00,3.058575153350830078e+00,3.058100938796997070e+00,3.057626724243164062e+00,3.057152509689331055e+00,3.056678533554077148e+00,3.056205034255981445e+00,3.055731296539306641e+00,2.172594070434570312e+00,2.181694746017456055e+00,3.054311037063598633e+00,3.053838253021240234e+00,1.667594194412231445e+00,1.638142108917236328e+00,1.620005369186401367e+00,1.630254507064819336e+00,3.051475048065185547e+00,3.051002740859985352e+00,3.050530672073364258e+00,3.050058841705322266e+00,3.049587249755859375e+00,3.049115657806396484e+00,3.048644065856933594e+00,3.048172712326049805e+00,3.047701597213745117e+00,3.047230720520019531e+00,3.046759843826293945e+00,3.046288967132568359e+00,3.045818328857421875e+00
2.605082035064697266e+00,2.604737997055053711e+00,2.604393959045410156e+00,2.604049921035766602e+00,2.603705883026123047e+00,2.603362083435058594e+00,2.603018283843994141e+00,2.602674961090087891e+00,2.602331161499023438e+00,2.601987838745117188e+00,2.601644515991210938e+00,2.601301193237304688e+00,2.600958108901977539e+00,2.600615262985229492e+00,2.600272178649902344e+00,2.599929332733154297e+00,2.599586486816406250e+00,2.599243640899658203e+00,2.598901271820068359e+00,2.598558664321899414e+00,2.598216056823730469e+00,2.597873687744140625e+00,2.597531795501708984e+00,2.597189426422119141e+00,2.596847534179687500e+00,2.596505403518676758e+00,2.596163511276245117e+00,2.595821857452392578e+00,2.595480203628540039e+00,2.595138549804687500e+00,2.594796895980834961e+00,2.594455718994140625e+00,2.594114303588867188e+00,2.593772888183593750e+00,2.593431711196899414e+00,2.593090534210205078e+00,2.592749834060668945e+00,2.592408895492553711e+00,2.592067956924438477e+00,2.591727256774902344e+00,2.591386556625366211e+00,2.591046094894409180e+00,2.590705633163452148e+00,2.590365409851074219e+00,2.590024948120117188e+00,2.589684963226318359e+00,2.589344739913940430e+00,2.589004755020141602e+00,2.588664770126342773e+00,2.588325023651123047e+00,2.587985515594482422e+00,2.587645769119262695e+00,2.587306022644042969e+00,2.586966753005981445e+00,2.586627483367919922e+00,2.586288213729858398e+00,2.585948944091796875e+00,2.585609674453735352e+00,2.585270643234252930e+00,2.145351409912109375e+00,2.159553527832031250e+00,2.584254264831542969e+00,2.583915472030639648e+00,2.583577156066894531e+00,1.651301741600036621e+00,1.630972266197204590e+00,2.582561731338500977e+00,2.582223415374755859e+00,2.581885576248168945e+00,2.581547498703002930e+00,2.581209421157836914e+00,2.580871582031250000e+00,2.580533981323242188e+00,2.580196142196655273e+00,2.579858541488647461e+00,2.579520940780639648e+00,2.579183578491210938e+00,2.578846454620361328e+00,2.578509092330932617e+00,2.578171968460083008e+00
2.255209207534790039e+00,2.254951477050781250e+00,2.254693508148193359e+00,2.254435777664184570e+00,2.254178047180175781e+00,2.253920316696166992e+00,2.253662586212158203e+00,2.253405094146728516e+00,2.253147602081298828e+00,2.252890110015869141e+00,2.252632617950439453e+00,2.252375364303588867e+00,2.252118110656738281e+00,2.251860857009887695e+00,2.251603841781616211e+00,2.251346588134765625e+00,2.251089572906494141e+00,2.250832557678222656e+00,2.250575542449951172e+00,2.250318765640258789e+00,2.250061988830566406e+00,2.249805212020874023e+00,2.249548673629760742e+00,2.249292135238647461e+00,2.249035358428955078e+00,2.248778820037841797e+00,2.248522520065307617e+00,2.248265981674194336e+00,2.248009920120239258e+00,2.247753620147705078e+00,2.247497320175170898e+00,2.247241020202636719e+00,2.246984958648681641e+00,2.246729135513305664e+00,2.246473073959350586e+00,2.246217012405395508e+00,2.245961189270019531e+00,2.245705604553222656e+00,2.245449781417846680e+00,2.245193958282470703e+00,2.244938373565673828e+00,2.244682788848876953e+00,2.244427204132080078e+00,2.244171857833862305e+00,2.243916273117065430e+00,2.243660926818847656e+00,2.243405818939208984e+00,2.243150472640991211e+00,2.242895364761352539e+00,2.242640256881713867e+00,2.242385149002075195e+00,2.242130279541015625e+00,2.241875410079956055e+00,2.241620302200317383e+00,2.241365671157836914e+00,2.241110801696777344e+00,2.240856170654296875e+00,2.240601539611816406e+00,2.240346908569335938e+00,2.240092277526855469e+00,2.239837884902954102e+00,2.239583492279052734e+00,2.239329099655151367e+00,2.239074707031250000e+00,1.649046778678894043e+00,1.622435331344604492e+00,1.609552383422851562e+00,2.238058328628540039e+00,2.237804174423217773e+00,2.237550258636474609e+00,2.237296342849731445e+00,2.237042665481567383e+00,2.236788749694824219e+00,2.236535072326660156e+00,2.236281394958496094e+00,2.236027717590332031e+00,2.235774278640747070e+00,2.235520601272583008e+00,2.235267400741577148e+00,2.235013961791992188e+00
1.988187789916992188e+00,1.987987637519836426e+00,1.987787127494812012e+00,1.987586736679077148e+00,1.987386345863342285e+00,1.987186074256896973e+00,1.986985802650451660e+00,1.986785531044006348e+00,1.986585378646850586e+00,1.986385226249694824e+00,1.986185073852539062e+00,1.985985040664672852e+00,1.985785007476806641e+00,1.985584974288940430e+00,1.985385060310363770e+00,1.985185146331787109e+00,1.984985232353210449e+00,1.984785437583923340e+00,1.984585642814636230e+00,1.984385848045349121e+00,1.984186291694641113e+00,1.983986616134643555e+00,1.983787059783935547e+00,1.983587384223937988e+00,1.983387827873229980e+00,1.983188390731811523e+00,1.982988834381103516e+00,1.982789397239685059e+00,1.982590079307556152e+00,1.982390880584716797e+00,1.982191562652587891e+00,1.981992363929748535e+00,1.981793045997619629e+00,1.981593847274780273e+00,1.981394767761230469e+00,1.981195688247680664e+00,1.980996608734130859e+00,1.980797529220581055e+00,1.980598807334899902e+00,1.980399847030639648e+00,1.980200886726379395e+00,1.980002045631408691e+00,1.979803204536437988e+00,1.979604363441467285e+00,1.979405641555786133e+00,1.979206919670104980e+00,1.979008197784423828e+00,1.978809833526611328e+00,1.978611230850219727e+00,1.978412628173828125e+00,1.978214144706726074e+00,1.978015661239624023e+00,1.977817177772521973e+00,1.977618813514709473e+00,1.977420449256896973e+00,1.977222084999084473e+00,1.977024078369140625e+00,1.976825833320617676e+00,1.976627588272094727e+00,1.976429462432861328e+00,1.976231336593627930e+00,1.976033210754394531e+00,1.975835204124450684e+00,1.975637197494506836e+00,1.642208099365234375e+00,1.605275392532348633e+00,1.584418058395385742e+00,1.574878096580505371e+00,1.974647998809814453e+00,1.974450230598449707e+00,1.974252462387084961e+00,1.974054813385009766e+00,1.973857164382934570e+00,1.973659634590148926e+00,1.973461985588073730e+00,1.973264694213867188e+00,1.973067283630371094e+00,1.972869753837585449e+00,1.972672343254089355e+00,1.972475051879882812e+00
1.777704119682312012e+00,1.777543783187866211e+00,1.777383565902709961e+00,1.777223348617553711e+00,1.777063131332397461e+00,1.776903033256530762e+00,1.776742815971374512e+00,1.776582717895507812e+00,1.776422619819641113e+00,1.776262640953063965e+00,1.776102781295776367e+00,1.775942802429199219e+00,1.775782823562622070e+00,1.775622844696044922e+00,1.775462985038757324e+00,1.775303125381469727e+00,1.775143265724182129e+00,1.774983406066894531e+00,1.774823665618896484e+00,1.774663925170898438e+00,1.774504184722900391e+00,1.774344444274902344e+00,1.774184703826904297e+00,1.774025082588195801e+00,1.773865461349487305e+00,1.773705840110778809e+00,1.773546457290649414e+00,1.773386955261230469e+00,1.773227453231811523e+00,1.773067951202392578e+00,1.772908568382263184e+00,1.772749066352844238e+00,1.772589683532714844e+00,1.772430300712585449e+00,1.772271037101745605e+00,1.772111892700195312e+00,1.771952629089355469e+00,1.771793365478515625e+00,1.771634101867675781e+00,1.771474957466125488e+00,1.771315813064575195e+00,1.771156668663024902e+00,1.770997524261474609e+00,1.770838499069213867e+00,1.770679593086242676e+00,1.770520567893981934e+00,1.770361542701721191e+00,1.770202636718750000e+00,1.770043730735778809e+00,1.769884824752807617e+00,1.769725918769836426e+00,1.769567012786865234e+00,1.769408226013183594e+00,1.769249677658081055e+00,1.769090890884399414e+00,1.768932104110717773e+00,1.768773436546325684e+00,1.768614768981933594e+00,1.768456101417541504e+00,1.768297433853149414e+00,1.768138885498046875e+00,1.767980337142944336e+00,1.767821907997131348e+00,1.767663478851318359e+00,1.650010347366333008e+00,1.579426169395446777e+00,1.559102416038513184e+00,1.544366478919982910e+00,1.539515137672424316e+00,1.766713023185729980e+00,1.766554713249206543e+00,1.766396641731262207e+00,1.766238331794738770e+00,1.766080141067504883e+00,1.765921950340270996e+00,1.765763759613037109e+00,1.765605688095092773e+00,1.765447616577148438e+00,1.765289545059204102e+00,1.765131473541259766e+00
1.607520580291748047e+00,1.607389450073242188e+00,1.607258439064025879e+00,1.607127428054809570e+00,1.606996417045593262e+00,1.606865406036376953e+00,1.606734514236450195e+00,1.606603503227233887e+00,1.606472611427307129e+00,1.606341719627380371e+00,1.606210827827453613e+00,1.606080055236816406e+00,1.605949163436889648e+00,1.605818390846252441e+00,1.605687618255615234e+00,1.605556845664978027e+00,1.605426073074340820e+00,1.605295300483703613e+00,1.605164766311645508e+00,1.605034112930297852e+00,1.604903459548950195e+00,1.604772806167602539e+00,1.604642152786254883e+00,1.604511618614196777e+00,1.604381084442138672e+00,1.604250431060791016e+00,1.604119896888732910e+00,1.603989481925964355e+00,1.603858947753906250e+00,1.603728532791137695e+00,1.603597998619079590e+00,1.603467702865600586e+00,1.603337407112121582e+00,1.603206992149353027e+00,1.603076577186584473e+00,1.602946281433105469e+00,1.602815985679626465e+00,1.602685689926147461e+00,1.602555394172668457e+00,1.602425098419189453e+00,1.602294921875000000e+00,1.602164864540100098e+00,1.602034568786621094e+00,1.601904392242431641e+00,1.601774334907531738e+00,1.601644158363342285e+00,1.601514101028442383e+00,1.601383924484252930e+00,1.601253867149353027e+00,1.601123929023742676e+00,1.600993990898132324e+00,1.600864052772521973e+00,1.600733995437622070e+00,1.600604057312011719e+00,1.600474119186401367e+00,1.600344181060791016e+00,1.600214362144470215e+00,1.600084424018859863e+00,1.599954485893249512e+00,1.599824905395507812e+00,1.599695086479187012e+00,1.599565267562866211e+00,1.599435448646545410e+00,1.599305748939514160e+00,1.599176049232482910e+00,1.599046349525451660e+00,1.530215144157409668e+00,1.512820005416870117e+00,1.498499393463134766e+00,1.495188951492309570e+00,1.490338563919067383e+00,1.598268628120422363e+00,1.598139047622680664e+00,1.598009586334228516e+00,1.597880005836486816e+00,1.597750544548034668e+00,1.597621083259582520e+00,1.597491741180419922e+00,1.597362279891967773e+00,1.597232937812805176e+00
1.467074155807495117e+00,1.466964960098266602e+00,1.466855883598327637e+00,1.466746687889099121e+00,1.466637730598449707e+00,1.466528654098510742e+00,1.466419458389282227e+00,1.466310501098632812e+00,1.466201424598693848e+00,1.466092348098754883e+00,1.465983390808105469e+00,1.465874314308166504e+00,1.465765357017517090e+00,1.465656399726867676e+00,1.465547442436218262e+00,1.465438485145568848e+00,1.465329527854919434e+00,1.465220689773559570e+00,1.465111732482910156e+00,1.465002894401550293e+00,1.464894056320190430e+00,1.464785218238830566e+00,1.464676380157470703e+00,1.464567542076110840e+00,1.464458823204040527e+00,1.464349985122680664e+00,1.464241266250610352e+00,1.464132428169250488e+00,1.464023828506469727e+00,1.463915109634399414e+00,1.463806509971618652e+00,1.463697791099548340e+00,1.463589191436767578e+00,1.463480472564697266e+00,1.463371872901916504e+00,1.463263273239135742e+00,1.463154673576354980e+00,1.463046193122863770e+00,1.462937593460083008e+00,1.462829113006591797e+00,1.462720513343811035e+00,1.462612032890319824e+00,1.462503552436828613e+00,1.462395071983337402e+00,1.462286591529846191e+00,1.462178111076354980e+00,1.462069869041442871e+00,1.461961388587951660e+00,1.461853027343750000e+00,1.461744666099548340e+00,1.461636185646057129e+00,1.461527824401855469e+00,1.461419582366943359e+00,1.461311221122741699e+00,1.461202859878540039e+00,1.461094737052917480e+00,1.460986495018005371e+00,1.460878252983093262e+00,1.460770010948181152e+00,1.460661768913269043e+00,1.460553526878356934e+00,1.460445284843444824e+00,1.460337162017822266e+00,1.460229039192199707e+00,1.460120916366577148e+00,1.460012793540954590e+00,1.459904670715332031e+00,1.459796667098999023e+00,1.459688544273376465e+00,1.459580421447753906e+00,1.459472417831420898e+00,1.459364414215087891e+00,1.459256410598754883e+00,1.459148526191711426e+00,1.459040522575378418e+00,1.458932518959045410e+00,1.458824515342712402e+00,1.458716630935668945e+00,1.458608746528625488e+00,1.458500742912292480e+00
1.349197030067443848e+00,1.349104762077331543e+00,1.349012494087219238e+00,1.348920106887817383e+00,1.348827838897705078e+00,1.348735570907592773e+00,1.348643302917480469e+00,1.348551034927368164e+00,1.348458766937255859e+00,1.348366618156433105e+00,1.348274350166320801e+00,1.348182201385498047e+00,1.348089933395385742e+00,1.347997903823852539e+00,1.347905755043029785e+00,1.347813606262207031e+00,1.347721457481384277e+00,1.347629308700561523e+00,1.347537279129028320e+00,1.347445130348205566e+00,1.347353100776672363e+00,1.347261071205139160e+00,1.347168922424316406e+00,1.347076892852783203e+00,1.346984863281250000e+00,1.346892833709716797e+00,1.346800804138183594e+00,1.346708893775939941e+00,1.346616864204406738e+00,1.346524834632873535e+00,1.346432924270629883e+00,1.346341013908386230e+00,1.346248984336853027e+00,1.346157073974609375e+00,1.346065282821655273e+00,1.345973372459411621e+00,1.345881462097167969e+00,1.345789670944213867e+00,1.345697760581970215e+00,1.345605969429016113e+00,1.345514059066772461e+00,1.345422267913818359e+00,1.345330476760864258e+00,1.345238804817199707e+00,1.345147013664245605e+00,1.345055222511291504e+00,1.344963431358337402e+00,1.344871640205383301e+00,1.344779968261718750e+00,1.344688177108764648e+00,1.344596505165100098e+00,1.344504833221435547e+00,1.344413280487060547e+00,1.344321608543395996e+00,1.344229936599731445e+00,1.344138264656066895e+00,1.344046592712402344e+00,1.343955039978027344e+00,1.343863368034362793e+00,1.343771815299987793e+00,1.343680143356323242e+00,1.343588709831237793e+00,1.343497157096862793e+00,1.343405604362487793e+00,1.343314051628112793e+00,1.343222498893737793e+00,1.343131065368652344e+00,1.343039512634277344e+00,1.342948079109191895e+00,1.342856526374816895e+00,1.342765212059020996e+00,1.342673778533935547e+00,1.342582345008850098e+00,1.342490911483764648e+00,1.342399477958679199e+00,1.342308044433593750e+00,1.342216730117797852e+00,1.342125296592712402e+00,1.342033982276916504e+00,1.341942667961120605e+00
1.248853683471679688e+00,1.248774647712707520e+00,1.248695492744445801e+00,1.248616456985473633e+00,1.248537421226501465e+00,1.248458266258239746e+00,1.248379230499267578e+00,1.248300194740295410e+00,1.248221158981323242e+00,1.248142123222351074e+00,1.248063087463378906e+00,1.247984170913696289e+00,1.247905135154724121e+00,1.247826099395751953e+00,1.247747182846069336e+00,1.247668266296386719e+00,1.247589230537414551e+00,1.247510313987731934e+00,1.247431397438049316e+00,1.247352480888366699e+00,1.247273564338684082e+00,1.247194766998291016e+00,1.247115850448608398e+00,1.247036933898925781e+00,1.246958017349243164e+00,1.246879220008850098e+00,1.246800303459167480e+00,1.246721506118774414e+00,1.246642708778381348e+00,1.246563792228698730e+00,1.246484994888305664e+00,1.246406197547912598e+00,1.246327400207519531e+00,1.246248602867126465e+00,1.246169805526733398e+00,1.246091127395629883e+00,1.246012330055236816e+00,1.245933532714843750e+00,1.245854854583740234e+00,1.245776176452636719e+00,1.245697498321533203e+00,1.245618820190429688e+00,1.245540142059326172e+00,1.245461463928222656e+00,1.245382785797119141e+00,1.245304107666015625e+00,1.245225429534912109e+00,1.245146751403808594e+00,1.245068192481994629e+00,1.244989633560180664e+00,1.244910955429077148e+00,1.244832396507263184e+00,1.244753837585449219e+00,1.244675159454345703e+00,1.244596600532531738e+00,1.244518041610717773e+00,1.244439482688903809e+00,1.244361042976379395e+00,1.244282484054565430e+00,1.244203925132751465e+00,1.244125485420227051e+00,1.244046926498413086e+00,1.243968486785888672e+00,1.243889927864074707e+00,1.243811488151550293e+00,1.243733048439025879e+00,1.243654608726501465e+00,1.243576169013977051e+00,1.243497729301452637e+00,1.243419289588928223e+00,1.243340969085693359e+00,1.243262529373168945e+00,1.243184089660644531e+00,1.243105769157409668e+00,1.243027329444885254e+00,1.242949008941650391e+00,1.242870688438415527e+00,1.242792367935180664e+00,1.242714047431945801e+00,1.242635726928710938e+00
1.162402749061584473e+00,1.162334203720092773e+00,1.162265658378601074e+00,1.162197113037109375e+00,1.162128686904907227e+00,1.162060141563415527e+00,1.161991596221923828e+00,1.161923289299011230e+00,1.161854743957519531e+00,1.161786317825317383e+00,1.161717772483825684e+00,1.161649346351623535e+00,1.161580920219421387e+00,1.161512494087219238e+00,1.161444067955017090e+00,1.161375641822814941e+00,1.161307215690612793e+00,1.161238789558410645e+00,1.161170482635498047e+00,1.161102056503295898e+00,1.161033630371093750e+00,1.160965323448181152e+00,1.160896897315979004e+00,1.160828590393066406e+00,1.160760283470153809e+00,1.160691857337951660e+00,1.160623550415039062e+00,1.160555243492126465e+00,1.160486936569213867e+00,1.160418629646301270e+00,1.160350441932678223e+00,1.160282135009765625e+00,1.160213828086853027e+00,1.160145521163940430e+00,1.160077214241027832e+00,1.160009026527404785e+00,1.159940719604492188e+00,1.159872531890869141e+00,1.159804224967956543e+00,1.159736037254333496e+00,1.159667849540710449e+00,1.159599661827087402e+00,1.159531354904174805e+00,1.159463167190551758e+00,1.159394979476928711e+00,1.159326910972595215e+00,1.159258723258972168e+00,1.159190535545349121e+00,1.159122467041015625e+00,1.159054279327392578e+00,1.158986091613769531e+00,1.158918023109436035e+00,1.158849835395812988e+00,1.158781766891479492e+00,1.158713698387145996e+00,1.158645629882812500e+00,1.158577561378479004e+00,1.158509492874145508e+00,1.158441424369812012e+00,1.158373355865478516e+00,1.158305287361145020e+00,1.158237218856811523e+00,1.158169150352478027e+00,1.158101201057434082e+00,1.158033251762390137e+00,1.157965183258056641e+00,1.157897233963012695e+00,1.157829165458679199e+00,1.157761216163635254e+00,1.157693266868591309e+00,1.157625198364257812e+00,1.157557249069213867e+00,1.157489418983459473e+00,1.157421469688415527e+00,1.157353520393371582e+00,1.157285571098327637e+00,1.157217621803283691e+00,1.157149672508239746e+00,1.157081842422485352e+00,1.157013893127441406e+00
1.087145805358886719e+00,1.087085843086242676e+00,1.087026000022888184e+00,1.086966037750244141e+00,1.086906075477600098e+00,1.086846113204956055e+00,1.086786270141601562e+00,1.086726307868957520e+00,1.086666464805603027e+00,1.086606502532958984e+00,1.086546659469604492e+00,1.086486816406250000e+00,1.086426973342895508e+00,1.086367011070251465e+00,1.086307168006896973e+00,1.086247444152832031e+00,1.086187601089477539e+00,1.086127758026123047e+00,1.086067914962768555e+00,1.086008071899414062e+00,1.085948228836059570e+00,1.085888385772705078e+00,1.085828661918640137e+00,1.085768818855285645e+00,1.085708975791931152e+00,1.085649251937866211e+00,1.085589408874511719e+00,1.085529685020446777e+00,1.085469961166381836e+00,1.085410118103027344e+00,1.085350394248962402e+00,1.085290670394897461e+00,1.085230946540832520e+00,1.085171222686767578e+00,1.085111498832702637e+00,1.085051774978637695e+00,1.084992051124572754e+00,1.084932327270507812e+00,1.084872722625732422e+00,1.084812998771667480e+00,1.084753274917602539e+00,1.084693551063537598e+00,1.084633946418762207e+00,1.084574222564697266e+00,1.084514617919921875e+00,1.084454894065856934e+00,1.084395289421081543e+00,1.084335684776306152e+00,1.084275960922241211e+00,1.084216356277465820e+00,1.084156751632690430e+00,1.084097266197204590e+00,1.084037661552429199e+00,1.083978056907653809e+00,1.083918452262878418e+00,1.083858847618103027e+00,1.083799242973327637e+00,1.083739638328552246e+00,1.083680033683776855e+00,1.083620548248291016e+00,1.083561062812805176e+00,1.083501458168029785e+00,1.083441972732543945e+00,1.083382368087768555e+00,1.083322882652282715e+00,1.083263397216796875e+00,1.083203792572021484e+00,1.083144307136535645e+00,1.083084821701049805e+00,1.083025336265563965e+00,1.082965850830078125e+00,1.082906365394592285e+00,1.082846879959106445e+00,1.082787394523620605e+00,1.082728028297424316e+00,1.082668542861938477e+00,1.082609057426452637e+00,1.082549571990966797e+00,1.082490205764770508e+00,1.082430839538574219e+00
1.021041035652160645e+00,1.020988225936889648e+00,1.020935297012329102e+00,1.020882487297058105e+00,1.020829558372497559e+00,1.020776748657226562e+00,1.020723938941955566e+00,1.020671010017395020e+00,1.020618200302124023e+00,1.020565390586853027e+00,1.020512580871582031e+00,1.020459771156311035e+00,1.020406961441040039e+00,1.020354032516479492e+00,1.020301342010498047e+00,1.020248532295227051e+00,1.020195722579956055e+00,1.020142912864685059e+00,1.020090103149414062e+00,1.020037293434143066e+00,1.019984602928161621e+00,1.019931793212890625e+00,1.019878983497619629e+00,1.019826292991638184e+00,1.019773602485656738e+00,1.019720792770385742e+00,1.019668102264404297e+00,1.019615411758422852e+00,1.019562602043151855e+00,1.019509911537170410e+00,1.019457221031188965e+00,1.019404530525207520e+00,1.019351720809936523e+00,1.019299030303955078e+00,1.019246339797973633e+00,1.019193649291992188e+00,1.019140958786010742e+00,1.019088268280029297e+00,1.019035696983337402e+00,1.018983006477355957e+00,1.018930315971374512e+00,1.018877625465393066e+00,1.018824934959411621e+00,1.018772363662719727e+00,1.018719673156738281e+00,1.018667101860046387e+00,1.018614411354064941e+00,1.018561840057373047e+00,1.018509268760681152e+00,1.018456578254699707e+00,1.018404006958007812e+00,1.018351435661315918e+00,1.018298864364624023e+00,1.018246173858642578e+00,1.018193602561950684e+00,1.018141031265258789e+00,1.018088579177856445e+00,1.018036007881164551e+00,1.017983436584472656e+00,1.017930865287780762e+00,1.017878293991088867e+00,1.017825722694396973e+00,1.017773151397705078e+00,1.017720699310302734e+00,1.017668128013610840e+00,1.017615675926208496e+00,1.017563104629516602e+00,1.017510652542114258e+00,1.017458081245422363e+00,1.017405629158020020e+00,1.017353057861328125e+00,1.017300605773925781e+00,1.017248034477233887e+00,1.017195582389831543e+00,1.017143130302429199e+00,1.017090678215026855e+00,1.017038226127624512e+00,1.016985774040222168e+00,1.016933321952819824e+00,1.016880869865417480e+00
9.625145792961120605e-01,9.624676704406738281e-01,9.624205827713012695e-01,9.623736739158630371e-01,9.623266458511352539e-01,9.622797369956970215e-01,9.622327089309692383e-01,9.621858000755310059e-01,9.621387720108032227e-01,9.620918631553649902e-01,9.620450139045715332e-01,9.619979858398437500e-01,9.619511365890502930e-01,9.619041085243225098e-01,9.618572592735290527e-01,9.618102908134460449e-01,9.617633819580078125e-01,9.617164134979248047e-01,9.616695642471313477e-01,9.616225957870483398e-01,9.615757465362548828e-01,9.615288376808166504e-01,9.614819884300231934e-01,9.614350199699401855e-01,9.613882303237915039e-01,9.613412618637084961e-01,9.612944722175598145e-01,9.612475037574768066e-01,9.612007141113281250e-01,9.611538052558898926e-01,9.611070156097412109e-01,9.610601067543029785e-01,9.610133171081542969e-01,9.609665274620056152e-01,9.609196186065673828e-01,9.608728289604187012e-01,9.608259201049804688e-01,9.607791900634765625e-01,9.607322812080383301e-01,9.606855511665344238e-01,9.606387019157409668e-01,9.605919122695922852e-01,9.605450630187988281e-01,9.604983329772949219e-01,9.604514837265014648e-01,9.604047536849975586e-01,9.603579044342041016e-01,9.603111743927001953e-01,9.602643251419067383e-01,9.602176547050476074e-01,9.601708054542541504e-01,9.601241350173950195e-01,9.600772857666015625e-01,9.600306153297424316e-01,9.599838852882385254e-01,9.599370956420898438e-01,9.598904252052307129e-01,9.598436355590820312e-01,9.597969651222229004e-01,9.597501754760742188e-01,9.597035050392150879e-01,9.596567749977111816e-01,9.596101045608520508e-01,9.595634341239929199e-01,9.595167040824890137e-01,9.594700336456298828e-01,9.594233036041259766e-01,9.593766331672668457e-01,9.593299031257629395e-01,9.592832922935485840e-01,9.592365622520446777e-01,9.591899514198303223e-01,9.591433405876159668e-01,9.590966105461120605e-01,9.590499997138977051e-01,9.590033292770385742e-01,9.589567184448242188e-01,9.589099884033203125e-01,9.588634371757507324e-01,9.588167667388916016e-01
9.103339314460754395e-01,9.102918505668640137e-01,9.102498888969421387e-01,9.102078080177307129e-01,9.101658463478088379e-01,9.101237654685974121e-01,9.100818037986755371e-01,9.100397229194641113e-01,9.099977612495422363e-01,9.099557399749755859e-01,9.099137783050537109e-01,9.098717570304870605e-01,9.098297953605651855e-01,9.097877740859985352e-01,9.097458124160766602e-01,9.097037911415100098e-01,9.096618890762329102e-01,9.096198678016662598e-01,9.095779657363891602e-01,9.095360040664672852e-01,9.094940423965454102e-01,9.094520807266235352e-01,9.094101190567016602e-01,9.093682169914245605e-01,9.093261957168579102e-01,9.092843532562255859e-01,9.092423319816589355e-01,9.092004299163818359e-01,9.091584682464599609e-01,9.091166257858276367e-01,9.090746045112609863e-01,9.090327620506286621e-01,9.089908003807067871e-01,9.089489579200744629e-01,9.089069962501525879e-01,9.088651537895202637e-01,9.088231921195983887e-01,9.087813496589660645e-01,9.087393879890441895e-01,9.086975455284118652e-01,9.086556434631347656e-01,9.086138010025024414e-01,9.085719585418701172e-01,9.085300564765930176e-01,9.084882736206054688e-01,9.084463119506835938e-01,9.084045290946960449e-01,9.083626270294189453e-01,9.083208441734313965e-01,9.082789421081542969e-01,9.082371592521667480e-01,9.081952571868896484e-01,9.081534743309020996e-01,9.081115722656250000e-01,9.080697894096374512e-01,9.080279469490051270e-01,9.079861640930175781e-01,9.079443216323852539e-01,9.079025387763977051e-01,9.078607559204101562e-01,9.078189134597778320e-01,9.077771306037902832e-01,9.077352881431579590e-01,9.076935648918151855e-01,9.076517224311828613e-01,9.076099991798400879e-01,9.075681567192077637e-01,9.075264334678649902e-01,9.074847102165222168e-01,9.074428677558898926e-01,9.074011445045471191e-01,9.073593616485595703e-01,9.073176383972167969e-01,9.072758555412292480e-01,9.072341322898864746e-01,9.071923494338989258e-01,9.071506857872009277e-01,9.071089625358581543e-01,9.070671796798706055e-01,9.070255160331726074e-01
8.635199666023254395e-01,8.634821176528930664e-01,8.634443283081054688e-01,8.634064793586730957e-01,8.633687496185302734e-01,8.633309602737426758e-01,8.632931113243103027e-01,8.632553815841674805e-01,8.632175326347351074e-01,8.631797432899475098e-01,8.631419539451599121e-01,8.631041646003723145e-01,8.630663752555847168e-01,8.630286455154418945e-01,8.629907965660095215e-01,8.629530668258666992e-01,8.629152774810791016e-01,8.628775477409362793e-01,8.628396987915039062e-01,8.628020286560058594e-01,8.627641797065734863e-01,8.627265095710754395e-01,8.626886606216430664e-01,8.626509904861450195e-01,8.626132011413574219e-01,8.625754714012145996e-01,8.625377416610717773e-01,8.625000119209289551e-01,8.624623417854309082e-01,8.624245524406433105e-01,8.623868823051452637e-01,8.623490929603576660e-01,8.623114228248596191e-01,8.622736930847167969e-01,8.622360229492187500e-01,8.621982336044311523e-01,8.621606230735778809e-01,8.621228337287902832e-01,8.620852231979370117e-01,8.620474338531494141e-01,8.620098233222961426e-01,8.619720935821533203e-01,8.619344234466552734e-01,8.618966937065124512e-01,8.618590831756591797e-01,8.618213534355163574e-01,8.617837429046630859e-01,8.617460131645202637e-01,8.617084026336669922e-01,8.616707921028137207e-01,8.616330623626708984e-01,8.615954518318176270e-01,8.615577816963195801e-01,8.615201711654663086e-01,8.614824414253234863e-01,8.614448904991149902e-01,8.614071607589721680e-01,8.613696098327636719e-01,8.613318800926208496e-01,8.612943291664123535e-01,8.612566590309143066e-01,8.612190485000610352e-01,8.611814379692077637e-01,8.611438274383544922e-01,8.611062765121459961e-01,8.610686063766479492e-01,8.610310554504394531e-01,8.609933853149414062e-01,8.609558343887329102e-01,8.609182238578796387e-01,8.608806729316711426e-01,8.608430027961730957e-01,8.608054518699645996e-01,8.607679605484008789e-01,8.607302904129028320e-01,8.606927990913391113e-01,8.606551885604858398e-01,8.606176376342773438e-01,8.605800271034240723e-01,8.605425357818603516e-01
8.212853670120239258e-01,8.212512135505676270e-01,8.212169408798217773e-01,8.211827874183654785e-01,8.211485147476196289e-01,8.211143612861633301e-01,8.210801482200622559e-01,8.210459947586059570e-01,8.210117816925048828e-01,8.209776282310485840e-01,8.209433555603027344e-01,8.209092617034912109e-01,8.208750486373901367e-01,8.208408951759338379e-01,8.208067417144775391e-01,8.207725286483764648e-01,8.207384347915649414e-01,8.207042217254638672e-01,8.206700682640075684e-01,8.206358551979064941e-01,8.206017613410949707e-01,8.205675482749938965e-01,8.205334544181823730e-01,8.204993009567260742e-01,8.204651474952697754e-01,8.204309940338134766e-01,8.203969001770019531e-01,8.203626871109008789e-01,8.203285932540893555e-01,8.202944397926330566e-01,8.202603459358215332e-01,8.202261924743652344e-01,8.201920986175537109e-01,8.201579451560974121e-01,8.201238512992858887e-01,8.200897574424743652e-01,8.200556039810180664e-01,8.200215697288513184e-01,8.199874162673950195e-01,8.199533224105834961e-01,8.199192285537719727e-01,8.198851346969604492e-01,8.198510408401489258e-01,8.198169469833374023e-01,8.197828531265258789e-01,8.197487592697143555e-01,8.197146654129028320e-01,8.196806311607360840e-01,8.196464776992797852e-01,8.196124434471130371e-01,8.195783495903015137e-01,8.195443153381347656e-01,8.195102214813232422e-01,8.194761872291564941e-01,8.194420933723449707e-01,8.194080591201782227e-01,8.193739652633666992e-01,8.193399310111999512e-01,8.193059563636779785e-01,8.192718625068664551e-01,8.192377686500549316e-01,8.192037940025329590e-01,8.191697597503662109e-01,8.191357254981994629e-01,8.191016912460327148e-01,8.190676569938659668e-01,8.190336227416992188e-01,8.189995884895324707e-01,8.189656138420104980e-01,8.189315199851989746e-01,8.188975453376770020e-01,8.188635706901550293e-01,8.188295364379882812e-01,8.187955617904663086e-01,8.187615275382995605e-01,8.187275528907775879e-01,8.186935186386108398e-01,8.186595439910888672e-01,8.186255097389221191e-01,8.185915946960449219e-01
7.829895615577697754e-01,7.829584479331970215e-01,7.829273939132690430e-01,7.828962802886962891e-01,7.828652262687683105e-01,7.828341126441955566e-01,7.828030586242675781e-01,7.827719449996948242e-01,7.827408909797668457e-01,7.827097773551940918e-01,7.826787233352661133e-01,7.826476097106933594e-01,7.826165556907653809e-01,7.825855016708374023e-01,7.825544476509094238e-01,7.825233340263366699e-01,7.824923396110534668e-01,7.824612259864807129e-01,7.824302315711975098e-01,7.823991179466247559e-01,7.823681235313415527e-01,7.823371291160583496e-01,7.823060154914855957e-01,7.822750210762023926e-01,7.822439670562744141e-01,7.822129726409912109e-01,7.821818590164184570e-01,7.821508646011352539e-01,7.821198105812072754e-01,7.820888161659240723e-01,7.820577621459960938e-01,7.820267677307128906e-01,7.819957137107849121e-01,7.819647192955017090e-01,7.819336652755737305e-01,7.819027304649353027e-01,7.818716764450073242e-01,7.818406820297241211e-01,7.818096280097961426e-01,7.817786931991577148e-01,7.817476391792297363e-01,7.817167043685913086e-01,7.816856503486633301e-01,7.816547155380249023e-01,7.816237211227416992e-01,7.815927267074584961e-01,7.815617918968200684e-01,7.815307378768920898e-01,7.814998030662536621e-01,7.814688086509704590e-01,7.814378738403320312e-01,7.814068198204040527e-01,7.813758850097656250e-01,7.813448905944824219e-01,7.813139557838439941e-01,7.812829613685607910e-01,7.812520265579223633e-01,7.812210321426391602e-01,7.811901569366455078e-01,7.811591625213623047e-01,7.811282277107238770e-01,7.810972332954406738e-01,7.810663580894470215e-01,7.810353636741638184e-01,7.810044288635253906e-01,7.809734940528869629e-01,7.809425592422485352e-01,7.809116840362548828e-01,7.808806896209716797e-01,7.808498144149780273e-01,7.808188796043395996e-01,7.807879447937011719e-01,7.807570099830627441e-01,7.807261347770690918e-01,7.806951999664306641e-01,7.806642651557922363e-01,7.806333899497985840e-01,7.806024551391601562e-01,7.805715799331665039e-01,7.805406451225280762e-01
7.481060028076171875e-01,7.480775713920593262e-01,7.480491995811462402e-01,7.480207681655883789e-01,7.479924559593200684e-01,7.479640245437622070e-01,7.479357123374938965e-01,7.479073405265808105e-01,7.478789687156677246e-01,7.478505969047546387e-01,7.478222250938415527e-01,7.477938532829284668e-01,7.477654814720153809e-01,7.477371692657470703e-01,7.477087378501892090e-01,7.476804256439208984e-01,7.476520538330078125e-01,7.476237416267395020e-01,7.475953698158264160e-01,7.475670576095581055e-01,7.475386261940002441e-01,7.475103139877319336e-01,7.474819421768188477e-01,7.474536299705505371e-01,7.474252581596374512e-01,7.473970055580139160e-01,7.473686337471008301e-01,7.473403215408325195e-01,7.473119497299194336e-01,7.472836375236511230e-01,7.472553849220275879e-01,7.472270131111145020e-01,7.471987009048461914e-01,7.471703886985778809e-01,7.471420764923095703e-01,7.471137642860412598e-01,7.470854520797729492e-01,7.470571398735046387e-01,7.470288276672363281e-01,7.470005154609680176e-01,7.469722628593444824e-01,7.469438910484313965e-01,7.469156384468078613e-01,7.468873262405395508e-01,7.468590736389160156e-01,7.468307018280029297e-01,7.468024492263793945e-01,7.467741370201110840e-01,7.467458844184875488e-01,7.467175722122192383e-01,7.466893196105957031e-01,7.466610074043273926e-01,7.466327548027038574e-01,7.466045022010803223e-01,7.465761899948120117e-01,7.465479969978332520e-01,7.465196847915649414e-01,7.464914321899414062e-01,7.464631199836730957e-01,7.464349269866943359e-01,7.464066147804260254e-01,7.463784217834472656e-01,7.463501095771789551e-01,7.463218569755554199e-01,7.462936043739318848e-01,7.462654113769531250e-01,7.462370991706848145e-01,7.462089061737060547e-01,7.461805939674377441e-01,7.461524009704589844e-01,7.461241483688354492e-01,7.460959553718566895e-01,7.460677027702331543e-01,7.460394501686096191e-01,7.460112571716308594e-01,7.459830045700073242e-01,7.459548115730285645e-01,7.459265589714050293e-01,7.458983659744262695e-01,7.458701133728027344e-01
7.161980867385864258e-01,7.161720991134643555e-01,7.161460518836975098e-01,7.161200642585754395e-01,7.160940170288085938e-01,7.160680294036865234e-01,7.160419821739196777e-01,7.160159945487976074e-01,7.159900069236755371e-01,7.159640192985534668e-01,7.159379720687866211e-01,7.159119844436645508e-01,7.158859968185424805e-01,7.158600091934204102e-01,7.158340215682983398e-01,7.158080339431762695e-01,7.157821059226989746e-01,7.157560586929321289e-01,7.157301306724548340e-01,7.157040834426879883e-01,7.156781554222106934e-01,7.156521081924438477e-01,7.156261801719665527e-01,7.156001925468444824e-01,7.155742645263671875e-01,7.155482172966003418e-01,7.155222892761230469e-01,7.154963016510009766e-01,7.154703736305236816e-01,7.154443860054016113e-01,7.154184579849243164e-01,7.153924703598022461e-01,7.153665423393249512e-01,7.153405547142028809e-01,7.153146266937255859e-01,7.152886390686035156e-01,7.152627110481262207e-01,7.152367234230041504e-01,7.152107954025268555e-01,7.151848673820495605e-01,7.151589393615722656e-01,7.151330113410949707e-01,7.151070237159729004e-01,7.150811553001403809e-01,7.150551676750183105e-01,7.150292396545410156e-01,7.150033116340637207e-01,7.149773836135864258e-01,7.149514555931091309e-01,7.149255275726318359e-01,7.148995995521545410e-01,7.148736715316772461e-01,7.148477435111999512e-01,7.148218750953674316e-01,7.147958874702453613e-01,7.147700190544128418e-01,7.147440910339355469e-01,7.147182226181030273e-01,7.146922349929809570e-01,7.146663665771484375e-01,7.146404385566711426e-01,7.146145701408386230e-01,7.145887017250061035e-01,7.145627737045288086e-01,7.145369052886962891e-01,7.145109772682189941e-01,7.144851088523864746e-01,7.144591808319091797e-01,7.144333124160766602e-01,7.144073843955993652e-01,7.143815755844116211e-01,7.143556475639343262e-01,7.143297791481018066e-01,7.143038511276245117e-01,7.142780423164367676e-01,7.142521142959594727e-01,7.142262458801269531e-01,7.142003774642944336e-01,7.141745090484619141e-01,7.141487002372741699e-01
6.869006752967834473e-01,6.868767738342285156e-01,6.868528723716735840e-01,6.868289113044738770e-01,6.868050098419189453e-01,6.867810487747192383e-01,6.867571473121643066e-01,6.867331862449645996e-01,6.867092847824096680e-01,6.866853833198547363e-01,6.866614818572998047e-01,6.866375207901000977e-01,6.866136193275451660e-01,6.865897178649902344e-01,6.865658164024353027e-01,6.865418553352355957e-01,6.865180134773254395e-01,6.864940524101257324e-01,6.864702105522155762e-01,6.864462494850158691e-01,6.864224076271057129e-01,6.863984465599060059e-01,6.863746047019958496e-01,6.863506436347961426e-01,6.863268017768859863e-01,6.863029599189758301e-01,6.862789988517761230e-01,6.862551569938659668e-01,6.862312555313110352e-01,6.862074136734008789e-01,6.861834526062011719e-01,6.861596107482910156e-01,6.861357092857360840e-01,6.861118674278259277e-01,6.860879659652709961e-01,6.860641241073608398e-01,6.860402226448059082e-01,6.860163807868957520e-01,6.859924793243408203e-01,6.859686374664306641e-01,6.859447360038757324e-01,6.859208941459655762e-01,6.858969926834106445e-01,6.858731508255004883e-01,6.858492493629455566e-01,6.858254671096801758e-01,6.858015656471252441e-01,6.857777237892150879e-01,6.857538819313049316e-01,6.857300400733947754e-01,6.857061982154846191e-01,6.856822967529296875e-01,6.856585144996643066e-01,6.856346130371093750e-01,6.856108307838439941e-01,6.855869293212890625e-01,6.855631470680236816e-01,6.855392456054687500e-01,6.855154633522033691e-01,6.854916214942932129e-01,6.854677796363830566e-01,6.854439377784729004e-01,6.854200959205627441e-01,6.853962540626525879e-01,6.853724718093872070e-01,6.853486299514770508e-01,6.853247880935668945e-01,6.853009462356567383e-01,6.852771639823913574e-01,6.852533817291259766e-01,6.852295398712158203e-01,6.852057576179504395e-01,6.851819157600402832e-01,6.851581335067749023e-01,6.851342916488647461e-01,6.851105093955993652e-01,6.850866675376892090e-01,6.850628852844238281e-01,6.850390434265136719e-01,6.850152611732482910e-01
6.599060297012329102e-01,6.598839163780212402e-01,6.598618626594543457e-01,6.598397493362426758e-01,6.598176956176757812e-01,6.597955822944641113e-01,6.597735285758972168e-01,6.597514152526855469e-01,6.597293615341186523e-01,6.597073078155517578e-01,6.596852540969848633e-01,6.596632003784179688e-01,6.596410870552062988e-01,6.596190333366394043e-01,6.595969200134277344e-01,6.595749258995056152e-01,6.595528125762939453e-01,6.595307588577270508e-01,6.595087051391601562e-01,6.594866514205932617e-01,6.594645380973815918e-01,6.594425439834594727e-01,6.594204306602478027e-01,6.593984365463256836e-01,6.593763232231140137e-01,6.593543291091918945e-01,6.593322157859802246e-01,6.593102216720581055e-01,6.592881679534912109e-01,6.592661142349243164e-01,6.592440605163574219e-01,6.592220067977905273e-01,6.592000126838684082e-01,6.591779589653015137e-01,6.591559648513793945e-01,6.591338515281677246e-01,6.591118574142456055e-01,6.590898036956787109e-01,6.590678095817565918e-01,6.590457558631896973e-01,6.590237021446228027e-01,6.590016484260559082e-01,6.589796543121337891e-01,6.589576005935668945e-01,6.589356064796447754e-01,6.589135527610778809e-01,6.588915586471557617e-01,6.588695049285888672e-01,6.588475108146667480e-01,6.588255167007446289e-01,6.588035225868225098e-01,6.587814688682556152e-01,6.587594747543334961e-01,6.587374210357666016e-01,6.587154269218444824e-01,6.586934924125671387e-01,6.586714386940002441e-01,6.586494445800781250e-01,6.586274504661560059e-01,6.586054563522338867e-01,6.585834026336669922e-01,6.585614681243896484e-01,6.585394144058227539e-01,6.585174798965454102e-01,6.584954261779785156e-01,6.584734916687011719e-01,6.584514379501342773e-01,6.584295034408569336e-01,6.584074497222900391e-01,6.583855152130126953e-01,6.583635210990905762e-01,6.583415269851684570e-01,6.583195328712463379e-01,6.582975387573242188e-01,6.582755446434020996e-01,6.582536101341247559e-01,6.582316160202026367e-01,6.582096815109252930e-01,6.581876873970031738e-01,6.581656932830810547e-01
6.349528431892395020e-01,6.349324584007263184e-01,6.349119544029235840e-01,6.348915100097656250e-01,6.348710656166076660e-01,6.348506212234497070e-01,6.348301768302917480e-01,6.348097920417785645e-01,6.347892880439758301e-01,6.347689032554626465e-01,6.347483992576599121e-01,6.347280144691467285e-01,6.347075700759887695e-01,6.346871256828308105e-01,6.346666812896728516e-01,6.346462965011596680e-01,6.346258521080017090e-01,6.346054077148437500e-01,6.345850229263305664e-01,6.345645785331726074e-01,6.345441937446594238e-01,6.345237493515014648e-01,6.345033049583435059e-01,6.344828605651855469e-01,6.344624757766723633e-01,6.344420313835144043e-01,6.344216465950012207e-01,6.344012022018432617e-01,6.343808174133300781e-01,6.343603730201721191e-01,6.343399882316589355e-01,6.343195438385009766e-01,6.342991590499877930e-01,6.342787742614746094e-01,6.342583894729614258e-01,6.342379450798034668e-01,6.342175602912902832e-01,6.341971158981323242e-01,6.341767907142639160e-01,6.341563463211059570e-01,6.341359615325927734e-01,6.341155767440795898e-01,6.340951919555664062e-01,6.340748071670532227e-01,6.340543627738952637e-01,6.340340375900268555e-01,6.340135931968688965e-01,6.339932680130004883e-01,6.339728236198425293e-01,6.339524388313293457e-01,6.339320540428161621e-01,6.339116692543029785e-01,6.338912844657897949e-01,6.338709592819213867e-01,6.338505148887634277e-01,6.338301897048950195e-01,6.338098049163818359e-01,6.337894201278686523e-01,6.337690353393554688e-01,6.337487101554870605e-01,6.337282657623291016e-01,6.337079405784606934e-01,6.336875557899475098e-01,6.336672306060791016e-01,6.336468458175659180e-01,6.336264610290527344e-01,6.336061358451843262e-01,6.335857510566711426e-01,6.335653662681579590e-01,6.335449814796447754e-01,6.335246562957763672e-01,6.335042715072631836e-01,6.334839463233947754e-01,6.334635615348815918e-01,6.334432363510131836e-01,6.334228515625000000e-01,6.334025263786315918e-01,6.333822011947631836e-01,6.333618760108947754e-01,6.333414912223815918e-01
6.118180751800537109e-01,6.117991209030151367e-01,6.117801070213317871e-01,6.117611527442932129e-01,6.117421984672546387e-01,6.117231845855712891e-01,6.117042303085327148e-01,6.116852164268493652e-01,6.116662621498107910e-01,6.116472482681274414e-01,6.116282939910888672e-01,6.116093397140502930e-01,6.115903854370117188e-01,6.115713715553283691e-01,6.115524172782897949e-01,6.115334033966064453e-01,6.115144491195678711e-01,6.114954948425292969e-01,6.114765405654907227e-01,6.114575266838073730e-01,6.114386320114135742e-01,6.114196181297302246e-01,6.114006638526916504e-01,6.113817095756530762e-01,6.113627552986145020e-01,6.113438010215759277e-01,6.113248467445373535e-01,6.113058924674987793e-01,6.112869381904602051e-01,6.112679839134216309e-01,6.112490296363830566e-01,6.112301349639892578e-01,6.112111210823059082e-01,6.111922264099121094e-01,6.111732125282287598e-01,6.111543178558349609e-01,6.111353635787963867e-01,6.111164093017578125e-01,6.110974550247192383e-01,6.110785603523254395e-01,6.110596060752868652e-01,6.110406517982482910e-01,6.110216975212097168e-01,6.110028028488159180e-01,6.109838485717773438e-01,6.109648942947387695e-01,6.109459400177001953e-01,6.109270453453063965e-01,6.109080910682678223e-01,6.108891963958740234e-01,6.108703017234802246e-01,6.108513474464416504e-01,6.108324527740478516e-01,6.108134984970092773e-01,6.107946038246154785e-01,6.107756495475769043e-01,6.107567548751831055e-01,6.107378005981445312e-01,6.107189059257507324e-01,6.106999516487121582e-01,6.106810569763183594e-01,6.106621026992797852e-01,6.106432080268859863e-01,6.106243133544921875e-01,6.106054186820983887e-01,6.105864644050598145e-01,6.105675697326660156e-01,6.105486750602722168e-01,6.105297803878784180e-01,6.105108261108398438e-01,6.104919314384460449e-01,6.104730367660522461e-01,6.104541420936584473e-01,6.104352474212646484e-01,6.104163527488708496e-01,6.103974580764770508e-01,6.103785634040832520e-01,6.103596687316894531e-01,6.103407740592956543e-01,6.103218793869018555e-01
5.903098583221435547e-01,5.902921557426452637e-01,5.902745127677917480e-01,5.902568101882934570e-01,5.902391672134399414e-01,5.902214646339416504e-01,5.902038216590881348e-01,5.901861786842346191e-01,5.901685357093811035e-01,5.901508331298828125e-01,5.901331901550292969e-01,5.901154875755310059e-01,5.900978446006774902e-01,5.900802016258239746e-01,5.900624990463256836e-01,5.900449156761169434e-01,5.900272130966186523e-01,5.900095701217651367e-01,5.899918675422668457e-01,5.899742841720581055e-01,5.899565815925598145e-01,5.899389386177062988e-01,5.899212956428527832e-01,5.899036526679992676e-01,5.898859500885009766e-01,5.898683667182922363e-01,5.898507237434387207e-01,5.898330807685852051e-01,5.898153781890869141e-01,5.897977948188781738e-01,5.897800922393798828e-01,5.897625088691711426e-01,5.897448062896728516e-01,5.897272229194641113e-01,5.897095203399658203e-01,5.896919369697570801e-01,5.896742939949035645e-01,5.896566510200500488e-01,5.896390676498413086e-01,5.896213650703430176e-01,5.896037817001342773e-01,5.895861387252807617e-01,5.895684957504272461e-01,5.895508527755737305e-01,5.895332694053649902e-01,5.895156264305114746e-01,5.894979834556579590e-01,5.894803404808044434e-01,5.894627571105957031e-01,5.894451141357421875e-01,5.894274711608886719e-01,5.894098281860351562e-01,5.893922448158264160e-01,5.893746018409729004e-01,5.893570184707641602e-01,5.893393754959106445e-01,5.893217921257019043e-01,5.893041491508483887e-01,5.892865657806396484e-01,5.892689824104309082e-01,5.892513394355773926e-01,5.892337560653686523e-01,5.892161130905151367e-01,5.891985297203063965e-01,5.891808867454528809e-01,5.891633033752441406e-01,5.891456604003906250e-01,5.891280770301818848e-01,5.891104340553283691e-01,5.890928506851196289e-01,5.890752673149108887e-01,5.890576839447021484e-01,5.890400409698486328e-01,5.890224575996398926e-01,5.890048742294311523e-01,5.889872908592224121e-01,5.889696478843688965e-01,5.889520645141601562e-01,5.889344811439514160e-01,5.889168977737426758e-01
