3.098662376403808594e+00,3.177268981933593750e+00,3.259967327117919922e+00,3.347085475921630859e+00,3.438987970352172852e+00,3.536079406738281250e+00,3.638803005218505859e+00,3.747672796249389648e+00,3.863257646560668945e+00,3.986199378967285156e+00,4.117222785949707031e+00,4.257152557373046875e+00,4.406928539276123047e+00,4.567627429962158203e+00,4.740489482879638672e+00,4.926950454711914062e+00,5.000000000000000000e+00,5.000000000000000000e+00,5.000000000000000000e+00,5.000000000000000000e+00,5.000000000000000000e+00,5.000000000000000000e+00,5.000000000000000000e+00,5.000000000000000000e+00,5.000000000000000000e+00,5.000000000000000000e+00,5.000000000000000000e+00,5.000000000000000000e+00,5.000000000000000000e+00,5.000000000000000000e+00,5.000000000000000000e+00,5.000000000000000000e+00,5.000000000000000000e+00,5.000000000000000000e+00,5.000000000000000000e+00,5.000000000000000000e+00,5.000000000000000000e+00,5.000000000000000000e+00,5.000000000000000000e+00,5.000000000000000000e+00,1.856007337570190430e+00,1.780768394470214844e+00,1.740917921066284180e+00,1.735774636268615723e+00,1.669841051101684570e+00,1.648970961570739746e+00,1.637442946434020996e+00,1.663311958312988281e+00,1.697912454605102539e+00,1.744998574256896973e+00,1.636642217636108398e+00,1.624573349952697754e+00,1.631969213485717773e+00,5.000000000000000000e+00,5.000000000000000000e+00,5.000000000000000000e+00,5.000000000000000000e+00,5.000000000000000000e+00,5.000000000000000000e+00,5.000000000000000000e+00,5.000000000000000000e+00,5.000000000000000000e+00,5.000000000000000000e+00,5.000000000000000000e+00,5.000000000000000000e+00,5.000000000000000000e+00,5.000000000000000000e+00,5.000000000000000000e+00,5.000000000000000000e+00,5.000000000000000000e+00,4.843749523162841797e+00,4.685355663299560547e+00,4.536993026733398438e+00,4.397737979888916016e+00,4.266776561737060547e+00,4.143389225006103516e+00,4.026937961578369141e+00,3.916853666305541992e+00,3.812632083892822266e+00,3.713814735412597656e+00
3.098596334457397461e+00,3.177199125289916992e+00,3.259893894195556641e+00,3.347007989883422852e+00,3.438906192779541016e+00,3.535993337631225586e+00,3.638721704483032227e+00,3.747586965560913086e+00,3.863166332244873047e+00,3.986102342605590820e+00,4.117119312286376953e+00,4.257041454315185547e+00,4.406809329986572266e+00,4.567499637603759766e+00,4.740352153778076172e+00,4.926802158355712891e+00,5.000000000000000000e+00,5.000000000000000000e+00,5.000000000000000000e+00,5.000000000000000000e+00,5.000000000000000000e+00,5.000000000000000000e+00,5.000000000000000000e+00,5.000000000000000000e+00,5.000000000000000000e+00,5.000000000000000000e+00,5.000000000000000000e+00,5.000000000000000000e+00,5.000000000000000000e+00,5.000000000000000000e+00,5.000000000000000000e+00,5.000000000000000000e+00,5.000000000000000000e+00,5.000000000000000000e+00,5.000000000000000000e+00,5.000000000000000000e+00,5.000000000000000000e+00,5.000000000000000000e+00,5.000000000000000000e+00,1.924066543579101562e+00,1.844569444656372070e+00,1.802258491516113281e+00,1.779040098190307617e+00,1.657166719436645508e+00,1.632965564727783203e+00,1.626968383789062500e+00,1.621141076087951660e+00,1.645987629890441895e+00,1.677993893623352051e+00,1.738869905471801758e+00,5.000000000000000000e+00,1.624670028686523438e+00,1.631394624710083008e+00,5.000000000000000000e+00,5.000000000000000000e+00,5.000000000000000000e+00,5.000000000000000000e+00,5.000000000000000000e+00,5.000000000000000000e+00,5.000000000000000000e+00,5.000000000000000000e+00,5.000000000000000000e+00,5.000000000000000000e+00,5.000000000000000000e+00,5.000000000000000000e+00,5.000000000000000000e+00,5.000000000000000000e+00,5.000000000000000000e+00,5.000000000000000000e+00,5.000000000000000000e+00,4.843890666961669922e+00,4.685487270355224609e+00,4.537116527557373047e+00,4.397853851318359375e+00,4.266885757446289062e+00,4.143494606018066406e+00,4.027044296264648438e+00,3.916960954666137695e+00,3.812736034393310547e+00,3.713913440704345703e+00
3.098529815673828125e+00,3.177129268646240234e+00,3.259820222854614258e+00,3.346930980682373047e+00,3.438824653625488281e+00,3.535907030105590820e+00,3.638630151748657227e+00,3.747500181198120117e+00,3.863075256347656250e+00,3.986004829406738281e+00,4.117015361785888672e+00,4.256930828094482422e+00,4.406690597534179688e+00,4.567372322082519531e+00,4.740214824676513672e+00,4.926653861999511719e+00,5.000000000000000000e+00,5.000000000000000000e+00,5.000000000000000000e+00,5.000000000000000000e+00,5.000000000000000000e+00,5.000000000000000000e+00,5.000000000000000000e+00,5.000000000000000000e+00,5.000000000000000000e+00,5.000000000000000000e+00,5.000000000000000000e+00,5.000000000000000000e+00,5.000000000000000000e+00,5.000000000000000000e+00,5.000000000000000000e+00,5.000000000000000000e+00,5.000000000000000000e+00,5.000000000000000000e+00,5.000000000000000000e+00,5.000000000000000000e+00,5.000000000000000000e+00,5.000000000000000000e+00,5.000000000000000000e+00,1.898971319198608398e+00,1.834395051002502441e+00,1.795589327812194824e+00,1.785579085350036621e+00,1.623633265495300293e+00,1.617985010147094727e+00,1.612375736236572266e+00,1.607368111610412598e+00,1.635334014892578125e+00,1.675721883773803711e+00,1.733431816101074219e+00,1.630193710327148438e+00,1.617701768875122070e+00,1.656585693359375000e+00,5.000000000000000000e+00,5.000000000000000000e+00,5.000000000000000000e+00,5.000000000000000000e+00,5.000000000000000000e+00,5.000000000000000000e+00,5.000000000000000000e+00,5.000000000000000000e+00,5.000000000000000000e+00,5.000000000000000000e+00,5.000000000000000000e+00,5.000000000000000000e+00,5.000000000000000000e+00,5.000000000000000000e+00,5.000000000000000000e+00,5.000000000000000000e+00,5.000000000000000000e+00,4.844031810760498047e+00,4.685619831085205078e+00,4.537240505218505859e+00,4.397977828979492188e+00,4.267010211944580078e+00,4.143617153167724609e+00,4.027160167694091797e+00,3.917070388793945312e+00,3.812839508056640625e+00,3.714011669158935547e+00
3.098463773727416992e+00,3.177059888839721680e+00,3.259747266769409180e+00,3.346853494644165039e+00,3.438742876052856445e+00,3.535820484161376953e+00,3.638539075851440430e+00,3.747403621673583984e+00,3.862983703613281250e+00,3.985907793045043945e+00,4.116911888122558594e+00,4.256820201873779297e+00,4.406571865081787109e+00,4.567244529724121094e+00,4.740077018737792969e+00,4.926505088806152344e+00,5.000000000000000000e+00,5.000000000000000000e+00,5.000000000000000000e+00,5.000000000000000000e+00,5.000000000000000000e+00,5.000000000000000000e+00,5.000000000000000000e+00,5.000000000000000000e+00,5.000000000000000000e+00,5.000000000000000000e+00,5.000000000000000000e+00,5.000000000000000000e+00,5.000000000000000000e+00,5.000000000000000000e+00,5.000000000000000000e+00,5.000000000000000000e+00,5.000000000000000000e+00,5.000000000000000000e+00,5.000000000000000000e+00,5.000000000000000000e+00,5.000000000000000000e+00,5.000000000000000000e+00,5.000000000000000000e+00,1.889489769935607910e+00,1.811101436614990234e+00,1.783645510673522949e+00,1.672845959663391113e+00,1.610757231712341309e+00,1.605198025703430176e+00,1.600424528121948242e+00,1.606322884559631348e+00,1.631669998168945312e+00,1.675789594650268555e+00,1.631142854690551758e+00,1.604329228401184082e+00,1.607620477676391602e+00,1.625781536102294922e+00,5.000000000000000000e+00,5.000000000000000000e+00,5.000000000000000000e+00,5.000000000000000000e+00,5.000000000000000000e+00,5.000000000000000000e+00,5.000000000000000000e+00,5.000000000000000000e+00,5.000000000000000000e+00,5.000000000000000000e+00,5.000000000000000000e+00,5.000000000000000000e+00,5.000000000000000000e+00,5.000000000000000000e+00,5.000000000000000000e+00,5.000000000000000000e+00,5.000000000000000000e+00,4.844177722930908203e+00,4.685765743255615234e+00,4.537386417388916016e+00,4.398115634918212891e+00,4.267139911651611328e+00,4.143739700317382812e+00,4.027276039123535156e+00,3.917180061340332031e+00,3.812942981719970703e+00,3.714109897613525391e+00
3.098397493362426758e+00,3.176990032196044922e+00,3.259673595428466797e+00,3.346776008605957031e+00,3.438661575317382812e+00,3.535734415054321289e+00,3.638447523117065430e+00,3.747306585311889648e+00,3.862880468368530273e+00,3.985810279846191406e+00,4.116807937622070312e+00,4.256709098815917969e+00,4.406453132629394531e+00,4.567116737365722656e+00,4.739939689636230469e+00,4.926356315612792969e+00,5.000000000000000000e+00,5.000000000000000000e+00,5.000000000000000000e+00,5.000000000000000000e+00,5.000000000000000000e+00,5.000000000000000000e+00,5.000000000000000000e+00,5.000000000000000000e+00,5.000000000000000000e+00,5.000000000000000000e+00,5.000000000000000000e+00,5.000000000000000000e+00,5.000000000000000000e+00,5.000000000000000000e+00,5.000000000000000000e+00,5.000000000000000000e+00,5.000000000000000000e+00,5.000000000000000000e+00,5.000000000000000000e+00,5.000000000000000000e+00,5.000000000000000000e+00,5.000000000000000000e+00,1.883689641952514648e+00,1.885186910629272461e+00,1.796903014183044434e+00,1.774835824966430664e+00,1.641182541847229004e+00,1.598083853721618652e+00,1.593540787696838379e+00,1.590098500251770020e+00,1.608032226562500000e+00,1.633453845977783203e+00,1.677413821220397949e+00,1.625447630882263184e+00,1.593326449394226074e+00,1.596465229988098145e+00,1.617657303810119629e+00,5.000000000000000000e+00,5.000000000000000000e+00,5.000000000000000000e+00,5.000000000000000000e+00,5.000000000000000000e+00,5.000000000000000000e+00,5.000000000000000000e+00,5.000000000000000000e+00,5.000000000000000000e+00,5.000000000000000000e+00,5.000000000000000000e+00,5.000000000000000000e+00,5.000000000000000000e+00,5.000000000000000000e+00,5.000000000000000000e+00,5.000000000000000000e+00,5.000000000000000000e+00,4.844345569610595703e+00,4.685922145843505859e+00,4.537533283233642578e+00,4.398253917694091797e+00,4.267270088195800781e+00,4.143862247467041016e+00,4.027391433715820312e+00,3.917289495468139648e+00,3.813047170639038086e+00,3.714208602905273438e+00
3.098330974578857422e+00,3.176920652389526367e+00,3.259600639343261719e+00,3.346698999404907227e+00,3.438579797744750977e+00,3.535648107528686523e+00,3.638355970382690430e+00,3.747209310531616211e+00,3.862777709960937500e+00,3.985700845718383789e+00,4.116704463958740234e+00,4.256598472595214844e+00,4.406334400177001953e+00,4.566989421844482422e+00,4.739802360534667969e+00,4.926208019256591797e+00,5.000000000000000000e+00,5.000000000000000000e+00,5.000000000000000000e+00,5.000000000000000000e+00,5.000000000000000000e+00,5.000000000000000000e+00,5.000000000000000000e+00,5.000000000000000000e+00,5.000000000000000000e+00,5.000000000000000000e+00,5.000000000000000000e+00,5.000000000000000000e+00,5.000000000000000000e+00,5.000000000000000000e+00,5.000000000000000000e+00,5.000000000000000000e+00,5.000000000000000000e+00,5.000000000000000000e+00,5.000000000000000000e+00,5.000000000000000000e+00,5.000000000000000000e+00,5.000000000000000000e+00,1.891206622123718262e+00,1.896567225456237793e+00,1.796989440917968750e+00,1.772493839263916016e+00,1.608887553215026855e+00,1.586716055870056152e+00,1.583303093910217285e+00,1.582609891891479492e+00,1.609745144844055176e+00,1.641791224479675293e+00,1.684932112693786621e+00,5.000000000000000000e+00,5.000000000000000000e+00,1.606693625450134277e+00,1.618008136749267578e+00,5.000000000000000000e+00,5.000000000000000000e+00,5.000000000000000000e+00,5.000000000000000000e+00,5.000000000000000000e+00,5.000000000000000000e+00,5.000000000000000000e+00,5.000000000000000000e+00,5.000000000000000000e+00,5.000000000000000000e+00,5.000000000000000000e+00,5.000000000000000000e+00,5.000000000000000000e+00,5.000000000000000000e+00,5.000000000000000000e+00,5.000000000000000000e+00,5.000000000000000000e+00,4.844512462615966797e+00,4.686079025268554688e+00,4.537680149078369141e+00,4.398391723632812500e+00,4.267399787902832031e+00,4.143984317779541016e+00,4.027507305145263672e+00,3.917398691177368164e+00,3.813150644302368164e+00,3.714306831359863281e+00
3.098264932632446289e+00,3.176850795745849609e+00,3.259526968002319336e+00,3.346621513366699219e+00,3.438498020172119141e+00,3.535562038421630859e+00,3.638264894485473633e+00,3.747112751007080078e+00,3.862674474716186523e+00,3.985590934753417969e+00,4.116587638854980469e+00,4.256487369537353516e+00,4.406215667724609375e+00,4.566861629486083984e+00,4.739664554595947266e+00,4.926059722900390625e+00,5.000000000000000000e+00,5.000000000000000000e+00,5.000000000000000000e+00,5.000000000000000000e+00,5.000000000000000000e+00,5.000000000000000000e+00,5.000000000000000000e+00,5.000000000000000000e+00,5.000000000000000000e+00,5.000000000000000000e+00,5.000000000000000000e+00,5.000000000000000000e+00,5.000000000000000000e+00,5.000000000000000000e+00,5.000000000000000000e+00,5.000000000000000000e+00,5.000000000000000000e+00,5.000000000000000000e+00,5.000000000000000000e+00,5.000000000000000000e+00,5.000000000000000000e+00,5.000000000000000000e+00,1.850162029266357422e+00,5.000000000000000000e+00,1.803048491477966309e+00,1.773463845252990723e+00,1.580462098121643066e+00,1.574140548706054688e+00,1.570953130722045898e+00,1.584591984748840332e+00,1.611430764198303223e+00,1.649729490280151367e+00,5.000000000000000000e+00,1.579243063926696777e+00,5.000000000000000000e+00,1.598384737968444824e+00,1.614014148712158203e+00,5.000000000000000000e+00,5.000000000000000000e+00,5.000000000000000000e+00,5.000000000000000000e+00,5.000000000000000000e+00,5.000000000000000000e+00,5.000000000000000000e+00,5.000000000000000000e+00,5.000000000000000000e+00,5.000000000000000000e+00,5.000000000000000000e+00,5.000000000000000000e+00,5.000000000000000000e+00,5.000000000000000000e+00,5.000000000000000000e+00,5.000000000000000000e+00,5.000000000000000000e+00,4.844679832458496094e+00,4.686235904693603516e+00,4.537827014923095703e+00,4.398530006408691406e+00,4.267529487609863281e+00,4.144106864929199219e+00,4.027623176574707031e+00,3.917508602142333984e+00,3.813254594802856445e+00,3.714405059814453125e+00
3.098198652267456055e+00,3.176781177520751953e+00,3.259453535079956055e+00,3.346544265747070312e+00,3.438416719436645508e+00,3.535475492477416992e+00,3.638173341751098633e+00,3.747015714645385742e+00,3.862571477890014648e+00,3.985481739044189453e+00,4.116470336914062500e+00,4.256362438201904297e+00,4.406096935272216797e+00,4.566733837127685547e+00,4.739527225494384766e+00,4.925910949707031250e+00,5.000000000000000000e+00,5.000000000000000000e+00,5.000000000000000000e+00,5.000000000000000000e+00,5.000000000000000000e+00,5.000000000000000000e+00,5.000000000000000000e+00,5.000000000000000000e+00,5.000000000000000000e+00,5.000000000000000000e+00,5.000000000000000000e+00,5.000000000000000000e+00,5.000000000000000000e+00,5.000000000000000000e+00,5.000000000000000000e+00,5.000000000000000000e+00,5.000000000000000000e+00,5.000000000000000000e+00,5.000000000000000000e+00,5.000000000000000000e+00,5.000000000000000000e+00,1.864232420921325684e+00,1.863359689712524414e+00,5.000000000000000000e+00,1.810390233993530273e+00,1.622820258140563965e+00,1.564000368118286133e+00,1.560853719711303711e+00,1.561612486839294434e+00,1.587066292762756348e+00,1.616473078727722168e+00,1.656733870506286621e+00,5.000000000000000000e+00,5.000000000000000000e+00,1.578580737113952637e+00,1.586467504501342773e+00,5.000000000000000000e+00,5.000000000000000000e+00,5.000000000000000000e+00,5.000000000000000000e+00,5.000000000000000000e+00,5.000000000000000000e+00,5.000000000000000000e+00,5.000000000000000000e+00,5.000000000000000000e+00,5.000000000000000000e+00,5.000000000000000000e+00,5.000000000000000000e+00,5.000000000000000000e+00,5.000000000000000000e+00,5.000000000000000000e+00,5.000000000000000000e+00,5.000000000000000000e+00,5.000000000000000000e+00,4.844847679138183594e+00,4.686392307281494141e+00,4.537973880767822266e+00,4.398667812347412109e+00,4.267659664154052734e+00,4.144229888916015625e+00,4.027738571166992188e+00,3.917617797851562500e+00,3.813358306884765625e+00,3.714503765106201172e+00
3.098132610321044922e+00,3.176711559295654297e+00,3.259380578994750977e+00,3.346467018127441406e+00,3.438334941864013672e+00,3.535389184951782227e+00,3.638082265853881836e+00,3.746918916702270508e+00,3.862468719482421875e+00,3.985371828079223633e+00,4.116353511810302734e+00,4.256237506866455078e+00,4.405962944030761719e+00,4.566606521606445312e+00,4.739389896392822266e+00,4.925762653350830078e+00,5.000000000000000000e+00,5.000000000000000000e+00,5.000000000000000000e+00,5.000000000000000000e+00,5.000000000000000000e+00,5.000000000000000000e+00,5.000000000000000000e+00,5.000000000000000000e+00,5.000000000000000000e+00,5.000000000000000000e+00,5.000000000000000000e+00,5.000000000000000000e+00,5.000000000000000000e+00,5.000000000000000000e+00,5.000000000000000000e+00,5.000000000000000000e+00,5.000000000000000000e+00,5.000000000000000000e+00,5.000000000000000000e+00,5.000000000000000000e+00,5.000000000000000000e+00,1.823498964309692383e+00,1.921450257301330566e+00,5.000000000000000000e+00,1.819482684135437012e+00,1.594182133674621582e+00,1.550883293151855469e+00,1.550360321998596191e+00,1.562139391899108887e+00,1.589548230171203613e+00,1.624585628509521484e+00,5.000000000000000000e+00,5.000000000000000000e+00,5.000000000000000000e+00,5.000000000000000000e+00,5.000000000000000000e+00,5.000000000000000000e+00,5.000000000000000000e+00,5.000000000000000000e+00,5.000000000000000000e+00,5.000000000000000000e+00,5.000000000000000000e+00,5.000000000000000000e+00,5.000000000000000000e+00,5.000000000000000000e+00,5.000000000000000000e+00,5.000000000000000000e+00,5.000000000000000000e+00,5.000000000000000000e+00,5.000000000000000000e+00,5.000000000000000000e+00,5.000000000000000000e+00,5.000000000000000000e+00,5.000000000000000000e+00,4.845015048980712891e+00,4.686549186706542969e+00,4.538120746612548828e+00,4.398805618286132812e+00,4.267789840698242188e+00,4.144352436065673828e+00,4.027854442596435547e+00,3.917727231979370117e+00,3.813461780548095703e+00,3.714601993560791016e+00
3.098066091537475586e+00,3.176641702651977539e+00,3.259307146072387695e+00,3.346389532089233398e+00,3.438253641128540039e+00,3.535303115844726562e+00,3.637990713119506836e+00,3.746821880340576172e+00,3.862365484237670898e+00,3.985261917114257812e+00,4.116236686706542969e+00,4.256112575531005859e+00,4.405829429626464844e+00,4.566463470458984375e+00,4.739252090454101562e+00,4.925613880157470703e+00,5.000000000000000000e+00,5.000000000000000000e+00,5.000000000000000000e+00,5.000000000000000000e+00,5.000000000000000000e+00,5.000000000000000000e+00,5.000000000000000000e+00,5.000000000000000000e+00,5.000000000000000000e+00,5.000000000000000000e+00,5.000000000000000000e+00,5.000000000000000000e+00,5.000000000000000000e+00,5.000000000000000000e+00,5.000000000000000000e+00,5.000000000000000000e+00,5.000000000000000000e+00,5.000000000000000000e+00,5.000000000000000000e+00,5.000000000000000000e+00,1.840754032135009766e+00,1.904733896255493164e+00,5.000000000000000000e+00,5.000000000000000000e+00,1.831571340560913086e+00,1.566537380218505859e+00,1.539268970489501953e+00,1.542955279350280762e+00,1.565714955329895020e+00,1.595501184463500977e+00,1.629180669784545898e+00,5.000000000000000000e+00,5.000000000000000000e+00,5.000000000000000000e+00,5.000000000000000000e+00,5.000000000000000000e+00,5.000000000000000000e+00,5.000000000000000000e+00,5.000000000000000000e+00,5.000000000000000000e+00,5.000000000000000000e+00,5.000000000000000000e+00,5.000000000000000000e+00,5.000000000000000000e+00,5.000000000000000000e+00,5.000000000000000000e+00,5.000000000000000000e+00,5.000000000000000000e+00,5.000000000000000000e+00,5.000000000000000000e+00,5.000000000000000000e+00,5.000000000000000000e+00,5.000000000000000000e+00,5.000000000000000000e+00,4.845182418823242188e+00,4.686705589294433594e+00,4.538268089294433594e+00,4.398943901062011719e+00,4.267919540405273438e+00,4.144474506378173828e+00,4.027970314025878906e+00,3.917836904525756836e+00,3.813565731048583984e+00,3.714700698852539062e+00
3.097961187362670898e+00,3.176553964614868164e+00,3.259233951568603516e+00,3.346312522888183594e+00,3.438171863555908203e+00,3.535216569900512695e+00,3.637899160385131836e+00,3.746724843978881836e+00,3.862262725830078125e+00,3.985152721405029297e+00,4.116119384765625000e+00,4.255987644195556641e+00,4.405695438385009766e+00,4.566319465637207031e+00,4.739098548889160156e+00,4.925465583801269531e+00,5.000000000000000000e+00,5.000000000000000000e+00,5.000000000000000000e+00,5.000000000000000000e+00,5.000000000000000000e+00,5.000000000000000000e+00,5.000000000000000000e+00,5.000000000000000000e+00,5.000000000000000000e+00,5.000000000000000000e+00,5.000000000000000000e+00,5.000000000000000000e+00,5.000000000000000000e+00,5.000000000000000000e+00,5.000000000000000000e+00,5.000000000000000000e+00,5.000000000000000000e+00,5.000000000000000000e+00,5.000000000000000000e+00,5.000000000000000000e+00,1.869029760360717773e+00,1.919462323188781738e+00,5.000000000000000000e+00,5.000000000000000000e+00,1.835774540901184082e+00,1.546322345733642578e+00,1.533333659172058105e+00,1.538496971130371094e+00,1.568696141242980957e+00,1.599555969238281250e+00,5.000000000000000000e+00,5.000000000000000000e+00,5.000000000000000000e+00,5.000000000000000000e+00,5.000000000000000000e+00,5.000000000000000000e+00,5.000000000000000000e+00,5.000000000000000000e+00,5.000000000000000000e+00,5.000000000000000000e+00,5.000000000000000000e+00,5.000000000000000000e+00,5.000000000000000000e+00,5.000000000000000000e+00,5.000000000000000000e+00,5.000000000000000000e+00,5.000000000000000000e+00,5.000000000000000000e+00,5.000000000000000000e+00,5.000000000000000000e+00,5.000000000000000000e+00,5.000000000000000000e+00,5.000000000000000000e+00,5.000000000000000000e+00,4.845349788665771484e+00,4.686862468719482422e+00,4.538414955139160156e+00,4.399081707000732422e+00,4.268049240112304688e+00,4.144597053527832031e+00,4.028085708618164062e+00,3.917946338653564453e+00,3.813669443130493164e+00,3.714799165725708008e+00
3.097846269607543945e+00,3.176433086395263672e+00,3.259110689163208008e+00,3.346207618713378906e+00,3.438087701797485352e+00,3.535130500793457031e+00,3.637808084487915039e+00,3.746628284454345703e+00,3.862159729003906250e+00,3.985042810440063477e+00,4.116002559661865234e+00,4.255862236022949219e+00,4.405561447143554688e+00,4.566175460815429688e+00,4.738943576812744141e+00,4.925300121307373047e+00,5.000000000000000000e+00,5.000000000000000000e+00,5.000000000000000000e+00,5.000000000000000000e+00,5.000000000000000000e+00,5.000000000000000000e+00,5.000000000000000000e+00,5.000000000000000000e+00,5.000000000000000000e+00,5.000000000000000000e+00,5.000000000000000000e+00,5.000000000000000000e+00,5.000000000000000000e+00,5.000000000000000000e+00,5.000000000000000000e+00,5.000000000000000000e+00,5.000000000000000000e+00,5.000000000000000000e+00,5.000000000000000000e+00,5.000000000000000000e+00,5.000000000000000000e+00,5.000000000000000000e+00,5.000000000000000000e+00,5.000000000000000000e+00,1.577177166938781738e+00,1.539792895317077637e+00,1.530668020248413086e+00,1.542693972587585449e+00,1.571869134902954102e+00,1.599818468093872070e+00,5.000000000000000000e+00,5.000000000000000000e+00,5.000000000000000000e+00,5.000000000000000000e+00,5.000000000000000000e+00,5.000000000000000000e+00,5.000000000000000000e+00,5.000000000000000000e+00,5.000000000000000000e+00,5.000000000000000000e+00,5.000000000000000000e+00,5.000000000000000000e+00,5.000000000000000000e+00,5.000000000000000000e+00,5.000000000000000000e+00,5.000000000000000000e+00,5.000000000000000000e+00,5.000000000000000000e+00,5.000000000000000000e+00,5.000000000000000000e+00,5.000000000000000000e+00,5.000000000000000000e+00,5.000000000000000000e+00,5.000000000000000000e+00,4.845517635345458984e+00,4.687019348144531250e+00,4.538561820983886719e+00,4.399219989776611328e+00,4.268179416656494141e+00,4.144719600677490234e+00,4.028201580047607422e+00,3.918055534362792969e+00,3.813772916793823242e+00,3.714897394180297852e+00
3.097743272781372070e+00,3.176312208175659180e+00,3.258983612060546875e+00,3.346073627471923828e+00,3.437946081161499023e+00,3.535005569458007812e+00,3.637705087661743164e+00,3.746531248092651367e+00,3.862056493759155273e+00,3.984933614730834961e+00,4.115885734558105469e+00,4.255737304687500000e+00,4.405427455902099609e+00,4.566031455993652344e+00,4.738788604736328125e+00,4.925132751464843750e+00,5.000000000000000000e+00,5.000000000000000000e+00,5.000000000000000000e+00,5.000000000000000000e+00,5.000000000000000000e+00,5.000000000000000000e+00,5.000000000000000000e+00,5.000000000000000000e+00,5.000000000000000000e+00,5.000000000000000000e+00,5.000000000000000000e+00,5.000000000000000000e+00,5.000000000000000000e+00,5.000000000000000000e+00,5.000000000000000000e+00,5.000000000000000000e+00,5.000000000000000000e+00,5.000000000000000000e+00,5.000000000000000000e+00,5.000000000000000000e+00,5.000000000000000000e+00,5.000000000000000000e+00,5.000000000000000000e+00,5.000000000000000000e+00,5.000000000000000000e+00,1.544230937957763672e+00,1.533519148826599121e+00,1.543948769569396973e+00,1.573423027992248535e+00,5.000000000000000000e+00,5.000000000000000000e+00,5.000000000000000000e+00,5.000000000000000000e+00,5.000000000000000000e+00,5.000000000000000000e+00,5.000000000000000000e+00,5.000000000000000000e+00,5.000000000000000000e+00,5.000000000000000000e+00,5.000000000000000000e+00,5.000000000000000000e+00,5.000000000000000000e+00,5.000000000000000000e+00,5.000000000000000000e+00,5.000000000000000000e+00,5.000000000000000000e+00,5.000000000000000000e+00,5.000000000000000000e+00,5.000000000000000000e+00,5.000000000000000000e+00,5.000000000000000000e+00,5.000000000000000000e+00,5.000000000000000000e+00,5.000000000000000000e+00,4.845685005187988281e+00,4.687175750732421875e+00,4.538708686828613281e+00,4.399358272552490234e+00,4.268309593200683594e+00,4.144842624664306641e+00,4.028317451477050781e+00,3.918165445327758789e+00,3.813877105712890625e+00,3.714996099472045898e+00
3.097677469253540039e+00,3.176232814788818359e+00,3.258876562118530273e+00,3.345939397811889648e+00,3.437803983688354492e+00,3.534855842590332031e+00,3.637546539306640625e+00,3.746381759643554688e+00,3.861931324005126953e+00,3.984823703765869141e+00,4.115768909454345703e+00,4.255612373352050781e+00,4.405293464660644531e+00,4.565887928009033203e+00,4.738633632659912109e+00,4.924964904785156250e+00,5.000000000000000000e+00,5.000000000000000000e+00,5.000000000000000000e+00,5.000000000000000000e+00,5.000000000000000000e+00,5.000000000000000000e+00,5.000000000000000000e+00,5.000000000000000000e+00,5.000000000000000000e+00,5.000000000000000000e+00,5.000000000000000000e+00,5.000000000000000000e+00,5.000000000000000000e+00,5.000000000000000000e+00,5.000000000000000000e+00,5.000000000000000000e+00,5.000000000000000000e+00,5.000000000000000000e+00,5.000000000000000000e+00,5.000000000000000000e+00,5.000000000000000000e+00,5.000000000000000000e+00,5.000000000000000000e+00,5.000000000000000000e+00,5.000000000000000000e+00,1.559389948844909668e+00,1.541051268577575684e+00,1.550732493400573730e+00,1.566839098930358887e+00,1.599574565887451172e+00,5.000000000000000000e+00,5.000000000000000000e+00,5.000000000000000000e+00,5.000000000000000000e+00,5.000000000000000000e+00,5.000000000000000000e+00,5.000000000000000000e+00,5.000000000000000000e+00,5.000000000000000000e+00,5.000000000000000000e+00,5.000000000000000000e+00,5.000000000000000000e+00,5.000000000000000000e+00,5.000000000000000000e+00,5.000000000000000000e+00,5.000000000000000000e+00,5.000000000000000000e+00,5.000000000000000000e+00,5.000000000000000000e+00,5.000000000000000000e+00,5.000000000000000000e+00,5.000000000000000000e+00,5.000000000000000000e+00,5.000000000000000000e+00,4.845852375030517578e+00,4.687332630157470703e+00,4.538855552673339844e+00,4.399496078491210938e+00,4.268439769744873047e+00,4.144964694976806641e+00,4.028433322906494141e+00,3.918274641036987305e+00,3.813980579376220703e+00,3.715094327926635742e+00
3.097611665725708008e+00,3.176163673400878906e+00,3.258803844451904297e+00,3.345858812332153320e+00,3.437692403793334961e+00,3.534709453582763672e+00,3.637387990951538086e+00,3.746213674545288086e+00,3.861752510070800781e+00,3.984644889831542969e+00,4.115615367889404297e+00,4.255487442016601562e+00,4.405159473419189453e+00,4.565743923187255859e+00,4.738478660583496094e+00,4.924797534942626953e+00,5.000000000000000000e+00,5.000000000000000000e+00,5.000000000000000000e+00,5.000000000000000000e+00,5.000000000000000000e+00,5.000000000000000000e+00,5.000000000000000000e+00,5.000000000000000000e+00,5.000000000000000000e+00,5.000000000000000000e+00,5.000000000000000000e+00,5.000000000000000000e+00,5.000000000000000000e+00,5.000000000000000000e+00,5.000000000000000000e+00,5.000000000000000000e+00,5.000000000000000000e+00,5.000000000000000000e+00,5.000000000000000000e+00,5.000000000000000000e+00,5.000000000000000000e+00,5.000000000000000000e+00,5.000000000000000000e+00,5.000000000000000000e+00,5.000000000000000000e+00,1.600319981575012207e+00,1.558084011077880859e+00,1.564490079879760742e+00,1.569779396057128906e+00,1.588227152824401855e+00,5.000000000000000000e+00,5.000000000000000000e+00,5.000000000000000000e+00,5.000000000000000000e+00,5.000000000000000000e+00,5.000000000000000000e+00,5.000000000000000000e+00,5.000000000000000000e+00,5.000000000000000000e+00,5.000000000000000000e+00,5.000000000000000000e+00,5.000000000000000000e+00,5.000000000000000000e+00,5.000000000000000000e+00,5.000000000000000000e+00,5.000000000000000000e+00,5.000000000000000000e+00,5.000000000000000000e+00,5.000000000000000000e+00,5.000000000000000000e+00,5.000000000000000000e+00,5.000000000000000000e+00,5.000000000000000000e+00,5.000000000000000000e+00,4.846019744873046875e+00,4.687489509582519531e+00,4.539002895355224609e+00,4.399633884429931641e+00,4.268569469451904297e+00,4.145087242126464844e+00,4.028549194335937500e+00,3.918384552001953125e+00,3.814084768295288086e+00,3.715192794799804688e+00
3.097545862197875977e+00,3.176094532012939453e+00,3.258730888366699219e+00,3.345782041549682617e+00,3.437611341476440430e+00,3.534623861312866211e+00,3.637270927429199219e+00,3.746058225631713867e+00,3.861573934555053711e+00,3.984454154968261719e+00,4.115412712097167969e+00,4.255271911621093750e+00,4.404971122741699219e+00,4.565587520599365234e+00,4.738323688507080078e+00,4.924630165100097656e+00,5.000000000000000000e+00,5.000000000000000000e+00,5.000000000000000000e+00,5.000000000000000000e+00,5.000000000000000000e+00,5.000000000000000000e+00,5.000000000000000000e+00,5.000000000000000000e+00,5.000000000000000000e+00,5.000000000000000000e+00,5.000000000000000000e+00,5.000000000000000000e+00,5.000000000000000000e+00,5.000000000000000000e+00,5.000000000000000000e+00,5.000000000000000000e+00,5.000000000000000000e+00,5.000000000000000000e+00,5.000000000000000000e+00,5.000000000000000000e+00,5.000000000000000000e+00,5.000000000000000000e+00,5.000000000000000000e+00,5.000000000000000000e+00,5.000000000000000000e+00,1.791186690330505371e+00,1.589895486831665039e+00,1.578198313713073730e+00,1.579074025154113770e+00,1.591910481452941895e+00,1.612803220748901367e+00,5.000000000000000000e+00,5.000000000000000000e+00,5.000000000000000000e+00,5.000000000000000000e+00,5.000000000000000000e+00,5.000000000000000000e+00,5.000000000000000000e+00,5.000000000000000000e+00,5.000000000000000000e+00,5.000000000000000000e+00,5.000000000000000000e+00,5.000000000000000000e+00,5.000000000000000000e+00,5.000000000000000000e+00,5.000000000000000000e+00,5.000000000000000000e+00,5.000000000000000000e+00,5.000000000000000000e+00,5.000000000000000000e+00,5.000000000000000000e+00,5.000000000000000000e+00,5.000000000000000000e+00,5.000000000000000000e+00,4.846187591552734375e+00,4.687646389007568359e+00,4.539149284362792969e+00,4.399772167205810547e+00,4.268699169158935547e+00,4.145210266113281250e+00,4.028665065765380859e+00,3.918493986129760742e+00,3.814185619354248047e+00,3.715282678604125977e+00
3.097480058670043945e+00,3.176025390625000000e+00,3.258658170700073242e+00,3.345705270767211914e+00,3.437530517578125000e+00,3.534538269042968750e+00,3.637180328369140625e+00,3.745961904525756836e+00,3.861451148986816406e+00,3.984288215637207031e+00,4.115209579467773438e+00,4.255054950714111328e+00,4.404738903045654297e+00,4.565338134765625000e+00,4.738090991973876953e+00,4.924433231353759766e+00,5.000000000000000000e+00,5.000000000000000000e+00,5.000000000000000000e+00,5.000000000000000000e+00,5.000000000000000000e+00,5.000000000000000000e+00,5.000000000000000000e+00,5.000000000000000000e+00,5.000000000000000000e+00,5.000000000000000000e+00,5.000000000000000000e+00,5.000000000000000000e+00,5.000000000000000000e+00,5.000000000000000000e+00,5.000000000000000000e+00,5.000000000000000000e+00,5.000000000000000000e+00,5.000000000000000000e+00,5.000000000000000000e+00,5.000000000000000000e+00,5.000000000000000000e+00,5.000000000000000000e+00,5.000000000000000000e+00,5.000000000000000000e+00,5.000000000000000000e+00,5.000000000000000000e+00,1.798903822898864746e+00,1.591976761817932129e+00,1.593341469764709473e+00,1.598631143569946289e+00,1.614570736885070801e+00,5.000000000000000000e+00,5.000000000000000000e+00,5.000000000000000000e+00,5.000000000000000000e+00,5.000000000000000000e+00,5.000000000000000000e+00,5.000000000000000000e+00,5.000000000000000000e+00,5.000000000000000000e+00,5.000000000000000000e+00,5.000000000000000000e+00,5.000000000000000000e+00,5.000000000000000000e+00,5.000000000000000000e+00,5.000000000000000000e+00,5.000000000000000000e+00,5.000000000000000000e+00,5.000000000000000000e+00,5.000000000000000000e+00,5.000000000000000000e+00,5.000000000000000000e+00,5.000000000000000000e+00,5.000000000000000000e+00,4.846354961395263672e+00,4.687802791595458984e+00,4.539296627044677734e+00,4.399910449981689453e+00,4.268829345703125000e+00,4.145332813262939453e+00,4.028773784637451172e+00,3.918590545654296875e+00,3.814273357391357422e+00,3.715366363525390625e+00
3.097414493560791016e+00,3.175956249237060547e+00,3.258584976196289062e+00,3.345628499984741211e+00,3.437449455261230469e+00,3.534452438354492188e+00,3.637089490890502930e+00,3.745865821838378906e+00,3.861349105834960938e+00,3.984179258346557617e+00,4.115080833435058594e+00,4.254876613616943359e+00,4.404506206512451172e+00,4.565088272094726562e+00,4.737822055816650391e+00,4.924142360687255859e+00,5.000000000000000000e+00,5.000000000000000000e+00,5.000000000000000000e+00,5.000000000000000000e+00,5.000000000000000000e+00,5.000000000000000000e+00,5.000000000000000000e+00,5.000000000000000000e+00,5.000000000000000000e+00,5.000000000000000000e+00,5.000000000000000000e+00,5.000000000000000000e+00,5.000000000000000000e+00,5.000000000000000000e+00,5.000000000000000000e+00,5.000000000000000000e+00,5.000000000000000000e+00,5.000000000000000000e+00,5.000000000000000000e+00,5.000000000000000000e+00,5.000000000000000000e+00,5.000000000000000000e+00,5.000000000000000000e+00,5.000000000000000000e+00,5.000000000000000000e+00,5.000000000000000000e+00,5.000000000000000000e+00,1.624273538589477539e+00,1.602517724037170410e+00,1.605375170707702637e+00,1.621264457702636719e+00,5.000000000000000000e+00,5.000000000000000000e+00,5.000000000000000000e+00,5.000000000000000000e+00,5.000000000000000000e+00,5.000000000000000000e+00,5.000000000000000000e+00,5.000000000000000000e+00,5.000000000000000000e+00,5.000000000000000000e+00,5.000000000000000000e+00,5.000000000000000000e+00,5.000000000000000000e+00,5.000000000000000000e+00,5.000000000000000000e+00,5.000000000000000000e+00,5.000000000000000000e+00,5.000000000000000000e+00,5.000000000000000000e+00,5.000000000000000000e+00,5.000000000000000000e+00,5.000000000000000000e+00,5.000000000000000000e+00,4.846522331237792969e+00,4.687959671020507812e+00,4.539443492889404297e+00,4.400044441223144531e+00,4.268947601318359375e+00,4.145436763763427734e+00,4.028872013092041016e+00,3.918683290481567383e+00,3.814361333847045898e+00,3.715449810028076172e+00
3.097348690032958984e+00,3.175887107849121094e+00,3.258512258529663086e+00,3.345551729202270508e+00,3.437368392944335938e+00,3.534366846084594727e+00,3.636998891830444336e+00,3.745769500732421875e+00,3.861246824264526367e+00,3.984070539474487305e+00,4.114964962005615234e+00,4.254752635955810547e+00,4.404371261596679688e+00,4.564896106719970703e+00,4.737565040588378906e+00,4.923851966857910156e+00,5.000000000000000000e+00,5.000000000000000000e+00,5.000000000000000000e+00,5.000000000000000000e+00,5.000000000000000000e+00,5.000000000000000000e+00,5.000000000000000000e+00,5.000000000000000000e+00,5.000000000000000000e+00,5.000000000000000000e+00,5.000000000000000000e+00,5.000000000000000000e+00,5.000000000000000000e+00,5.000000000000000000e+00,5.000000000000000000e+00,5.000000000000000000e+00,5.000000000000000000e+00,5.000000000000000000e+00,5.000000000000000000e+00,5.000000000000000000e+00,5.000000000000000000e+00,5.000000000000000000e+00,5.000000000000000000e+00,5.000000000000000000e+00,5.000000000000000000e+00,5.000000000000000000e+00,5.000000000000000000e+00,1.654654502868652344e+00,1.610698342323303223e+00,1.612382531166076660e+00,1.628013968467712402e+00,1.669195175170898438e+00,5.000000000000000000e+00,5.000000000000000000e+00,5.000000000000000000e+00,5.000000000000000000e+00,5.000000000000000000e+00,5.000000000000000000e+00,5.000000000000000000e+00,5.000000000000000000e+00,5.000000000000000000e+00,5.000000000000000000e+00,5.000000000000000000e+00,5.000000000000000000e+00,5.000000000000000000e+00,5.000000000000000000e+00,5.000000000000000000e+00,5.000000000000000000e+00,5.000000000000000000e+00,5.000000000000000000e+00,5.000000000000000000e+00,5.000000000000000000e+00,5.000000000000000000e+00,5.000000000000000000e+00,4.846690177917480469e+00,4.688106536865234375e+00,4.539572715759277344e+00,4.400161266326904297e+00,4.269057750701904297e+00,4.145540714263916016e+00,4.028969764709472656e+00,3.918775796890258789e+00,3.814449310302734375e+00,3.715533018112182617e+00
3.097282886505126953e+00,3.175817966461181641e+00,3.258439540863037109e+00,3.345475196838378906e+00,3.437287569046020508e+00,3.534281253814697266e+00,3.636908292770385742e+00,3.745673418045043945e+00,3.861144542694091797e+00,3.983961820602416992e+00,4.114848613739013672e+00,4.254628658294677734e+00,4.404238224029541016e+00,4.564753532409667969e+00,4.737411022186279297e+00,4.923644065856933594e+00,5.000000000000000000e+00,5.000000000000000000e+00,5.000000000000000000e+00,5.000000000000000000e+00,5.000000000000000000e+00,5.000000000000000000e+00,5.000000000000000000e+00,5.000000000000000000e+00,5.000000000000000000e+00,5.000000000000000000e+00,5.000000000000000000e+00,5.000000000000000000e+00,5.000000000000000000e+00,5.000000000000000000e+00,5.000000000000000000e+00,5.000000000000000000e+00,5.000000000000000000e+00,5.000000000000000000e+00,5.000000000000000000e+00,5.000000000000000000e+00,5.000000000000000000e+00,5.000000000000000000e+00,5.000000000000000000e+00,5.000000000000000000e+00,5.000000000000000000e+00,5.000000000000000000e+00,5.000000000000000000e+00,1.850925207138061523e+00,1.618962883949279785e+00,1.620958685874938965e+00,1.635147690773010254e+00,1.657637476921081543e+00,5.000000000000000000e+00,5.000000000000000000e+00,5.000000000000000000e+00,5.000000000000000000e+00,5.000000000000000000e+00,5.000000000000000000e+00,5.000000000000000000e+00,5.000000000000000000e+00,5.000000000000000000e+00,5.000000000000000000e+00,5.000000000000000000e+00,5.000000000000000000e+00,5.000000000000000000e+00,5.000000000000000000e+00,5.000000000000000000e+00,5.000000000000000000e+00,5.000000000000000000e+00,5.000000000000000000e+00,5.000000000000000000e+00,5.000000000000000000e+00,5.000000000000000000e+00,5.000000000000000000e+00,4.846831798553466797e+00,4.688239574432373047e+00,4.539697170257568359e+00,4.400278091430664062e+00,4.269167900085449219e+00,4.145644187927246094e+00,4.029067993164062500e+00,3.918868780136108398e+00,3.814536809921264648e+00,3.715616464614868164e+00
3.097217082977294922e+00,3.175748825073242188e+00,3.258366823196411133e+00,3.345398426055908203e+00,3.437206506729125977e+00,3.534195661544799805e+00,3.636817693710327148e+00,3.745577335357666016e+00,3.861042499542236328e+00,3.983852863311767578e+00,4.114732742309570312e+00,4.254504680633544922e+00,4.404105186462402344e+00,4.564610481262207031e+00,4.737257480621337891e+00,4.923478126525878906e+00,5.000000000000000000e+00,5.000000000000000000e+00,5.000000000000000000e+00,5.000000000000000000e+00,5.000000000000000000e+00,5.000000000000000000e+00,5.000000000000000000e+00,5.000000000000000000e+00,5.000000000000000000e+00,5.000000000000000000e+00,5.000000000000000000e+00,5.000000000000000000e+00,5.000000000000000000e+00,5.000000000000000000e+00,5.000000000000000000e+00,5.000000000000000000e+00,5.000000000000000000e+00,5.000000000000000000e+00,5.000000000000000000e+00,5.000000000000000000e+00,5.000000000000000000e+00,5.000000000000000000e+00,5.000000000000000000e+00,5.000000000000000000e+00,5.000000000000000000e+00,5.000000000000000000e+00,5.000000000000000000e+00,5.000000000000000000e+00,1.643477201461791992e+00,1.629626631736755371e+00,1.642399311065673828e+00,1.658583998680114746e+00,5.000000000000000000e+00,5.000000000000000000e+00,5.000000000000000000e+00,5.000000000000000000e+00,5.000000000000000000e+00,5.000000000000000000e+00,5.000000000000000000e+00,5.000000000000000000e+00,5.000000000000000000e+00,5.000000000000000000e+00,5.000000000000000000e+00,5.000000000000000000e+00,5.000000000000000000e+00,5.000000000000000000e+00,5.000000000000000000e+00,5.000000000000000000e+00,5.000000000000000000e+00,5.000000000000000000e+00,5.000000000000000000e+00,5.000000000000000000e+00,5.000000000000000000e+00,5.000000000000000000e+00,4.846973896026611328e+00,4.688372135162353516e+00,4.539821624755859375e+00,4.400395393371582031e+00,4.269278049468994141e+00,4.145748138427734375e+00,4.029166221618652344e+00,3.918961524963378906e+00,3.814625024795532227e+00,3.715699434280395508e+00
3.097151279449462891e+00,3.175679683685302734e+00,3.258293867111206055e+00,3.345321416854858398e+00,3.437125444412231445e+00,3.534110069274902344e+00,3.636726856231689453e+00,3.745481014251708984e+00,3.860940217971801758e+00,3.983744144439697266e+00,4.114616870880126953e+00,4.254380226135253906e+00,4.403972625732421875e+00,4.564467906951904297e+00,4.737103462219238281e+00,4.923311710357666016e+00,5.000000000000000000e+00,5.000000000000000000e+00,5.000000000000000000e+00,5.000000000000000000e+00,5.000000000000000000e+00,5.000000000000000000e+00,5.000000000000000000e+00,5.000000000000000000e+00,5.000000000000000000e+00,5.000000000000000000e+00,5.000000000000000000e+00,5.000000000000000000e+00,5.000000000000000000e+00,5.000000000000000000e+00,5.000000000000000000e+00,5.000000000000000000e+00,5.000000000000000000e+00,5.000000000000000000e+00,5.000000000000000000e+00,5.000000000000000000e+00,5.000000000000000000e+00,5.000000000000000000e+00,5.000000000000000000e+00,5.000000000000000000e+00,5.000000000000000000e+00,5.000000000000000000e+00,5.000000000000000000e+00,5.000000000000000000e+00,1.671906828880310059e+00,1.640527009963989258e+00,1.650299668312072754e+00,1.666839241981506348e+00,5.000000000000000000e+00,5.000000000000000000e+00,5.000000000000000000e+00,5.000000000000000000e+00,5.000000000000000000e+00,5.000000000000000000e+00,5.000000000000000000e+00,5.000000000000000000e+00,5.000000000000000000e+00,5.000000000000000000e+00,5.000000000000000000e+00,5.000000000000000000e+00,5.000000000000000000e+00,5.000000000000000000e+00,5.000000000000000000e+00,5.000000000000000000e+00,5.000000000000000000e+00,5.000000000000000000e+00,5.000000000000000000e+00,5.000000000000000000e+00,5.000000000000000000e+00,5.000000000000000000e+00,4.847115516662597656e+00,4.688505172729492188e+00,4.539946079254150391e+00,4.400512218475341797e+00,4.269388198852539062e+00,4.145852088928222656e+00,4.029263973236083984e+00,3.919054031372070312e+00,3.814713001251220703e+00,3.715783119201660156e+00
3.097085714340209961e+00,3.175610542297363281e+00,3.258221149444580078e+00,3.345244646072387695e+00,3.437044620513916016e+00,3.534024477005004883e+00,3.636636257171630859e+00,3.745384931564331055e+00,3.860838174819946289e+00,3.983635425567626953e+00,4.114500522613525391e+00,4.254256248474121094e+00,4.403839588165283203e+00,4.564324855804443359e+00,4.736949920654296875e+00,4.923145294189453125e+00,5.000000000000000000e+00,5.000000000000000000e+00,5.000000000000000000e+00,5.000000000000000000e+00,5.000000000000000000e+00,5.000000000000000000e+00,5.000000000000000000e+00,5.000000000000000000e+00,5.000000000000000000e+00,5.000000000000000000e+00,5.000000000000000000e+00,5.000000000000000000e+00,5.000000000000000000e+00,5.000000000000000000e+00,5.000000000000000000e+00,5.000000000000000000e+00,5.000000000000000000e+00,5.000000000000000000e+00,5.000000000000000000e+00,5.000000000000000000e+00,5.000000000000000000e+00,5.000000000000000000e+00,5.000000000000000000e+00,5.000000000000000000e+00,5.000000000000000000e+00,5.000000000000000000e+00,5.000000000000000000e+00,5.000000000000000000e+00,1.850834369659423828e+00,1.654839158058166504e+00,1.658781051635742188e+00,1.675259113311767578e+00,5.000000000000000000e+00,5.000000000000000000e+00,5.000000000000000000e+00,5.000000000000000000e+00,5.000000000000000000e+00,5.000000000000000000e+00,5.000000000000000000e+00,5.000000000000000000e+00,5.000000000000000000e+00,5.000000000000000000e+00,5.000000000000000000e+00,5.000000000000000000e+00,5.000000000000000000e+00,5.000000000000000000e+00,5.000000000000000000e+00,5.000000000000000000e+00,5.000000000000000000e+00,5.000000000000000000e+00,5.000000000000000000e+00,5.000000000000000000e+00,5.000000000000000000e+00,5.000000000000000000e+00,4.847257614135742188e+00,4.688638210296630859e+00,4.540070533752441406e+00,4.400629043579101562e+00,4.269498348236083984e+00,4.145956039428710938e+00,4.029362201690673828e+00,3.919147014617919922e+00,3.814800500869750977e+00,3.715866565704345703e+00
3.097019910812377930e+00,3.175541400909423828e+00,3.258148431777954102e+00,3.345167875289916992e+00,3.436963558197021484e+00,3.533938884735107422e+00,3.636545658111572266e+00,3.745288848876953125e+00,3.860735893249511719e+00,3.983526468276977539e+00,4.114384651184082031e+00,4.254131793975830078e+00,4.403706550598144531e+00,4.564182281494140625e+00,4.736795902252197266e+00,4.922978878021240234e+00,5.000000000000000000e+00,5.000000000000000000e+00,5.000000000000000000e+00,5.000000000000000000e+00,5.000000000000000000e+00,5.000000000000000000e+00,5.000000000000000000e+00,5.000000000000000000e+00,5.000000000000000000e+00,5.000000000000000000e+00,5.000000000000000000e+00,5.000000000000000000e+00,5.000000000000000000e+00,5.000000000000000000e+00,5.000000000000000000e+00,5.000000000000000000e+00,5.000000000000000000e+00,5.000000000000000000e+00,5.000000000000000000e+00,5.000000000000000000e+00,5.000000000000000000e+00,5.000000000000000000e+00,5.000000000000000000e+00,5.000000000000000000e+00,5.000000000000000000e+00,5.000000000000000000e+00,5.000000000000000000e+00,5.000000000000000000e+00,5.000000000000000000e+00,1.669403195381164551e+00,1.667471766471862793e+00,1.683834910392761230e+00,1.725090026855468750e+00,5.000000000000000000e+00,5.000000000000000000e+00,5.000000000000000000e+00,5.000000000000000000e+00,5.000000000000000000e+00,5.000000000000000000e+00,5.000000000000000000e+00,5.000000000000000000e+00,5.000000000000000000e+00,5.000000000000000000e+00,5.000000000000000000e+00,5.000000000000000000e+00,5.000000000000000000e+00,5.000000000000000000e+00,5.000000000000000000e+00,5.000000000000000000e+00,5.000000000000000000e+00,5.000000000000000000e+00,5.000000000000000000e+00,5.000000000000000000e+00,5.000000000000000000e+00,4.847399234771728516e+00,4.688770771026611328e+00,4.540194988250732422e+00,4.400746345520019531e+00,4.269608020782470703e+00,4.146059513092041016e+00,4.029459953308105469e+00,3.919239997863769531e+00,3.814888715744018555e+00,3.715949773788452148e+00
3.096954107284545898e+00,3.175472497940063477e+00,3.258075714111328125e+00,3.345091104507446289e+00,3.436882495880126953e+00,3.533853292465209961e+00,3.636455059051513672e+00,3.745192527770996094e+00,3.860633850097656250e+00,3.983417749404907227e+00,4.114268779754638672e+00,4.254007816314697266e+00,4.403573513031005859e+00,4.564039230346679688e+00,4.736642360687255859e+00,4.855105876922607422e+00,4.853902339935302734e+00,4.852699756622314453e+00,4.851497650146484375e+00,4.850296497344970703e+00,4.849095344543457031e+00,4.847895145416259766e+00,4.846695423126220703e+00,4.845496177673339844e+00,4.844297409057617188e+00,4.843099594116210938e+00,4.841902256011962891e+00,4.840705394744873047e+00,4.839509487152099609e+00,4.838313579559326172e+00,4.837118625640869141e+00,4.835924148559570312e+00,4.834730148315429688e+00,4.833537101745605469e+00,4.832344532012939453e+00,4.831152439117431641e+00,4.829960823059082031e+00,4.828770160675048828e+00,4.827579975128173828e+00,4.826390266418457031e+00,4.825201034545898438e+00,4.824012756347656250e+00,4.822824478149414062e+00,4.821637153625488281e+00,4.820450305938720703e+00,1.695540308952331543e+00,1.678995370864868164e+00,1.692790985107421875e+00,4.815709114074707031e+00,4.814525127410888672e+00,4.813342094421386719e+00,4.812159061431884766e+00,4.810976982116699219e+00,4.809795379638671875e+00,4.808614253997802734e+00,4.807434082031250000e+00,4.806254386901855469e+00,4.805075168609619141e+00,4.803896427154541016e+00,4.802718162536621094e+00,4.801540851593017578e+00,4.800364017486572266e+00,4.799187660217285156e+00,4.798011779785156250e+00,4.796836853027343750e+00,4.795661926269531250e+00,4.794487953186035156e+00,4.793314456939697266e+00,4.792141914367675781e+00,4.790969371795654297e+00,4.789797782897949219e+00,4.688903331756591797e+00,4.540319442749023438e+00,4.400863170623779297e+00,4.269718647003173828e+00,4.146163463592529297e+00,4.029558181762695312e+00,3.919332504272460938e+00,3.814976692199707031e+00,3.716033220291137695e+00
3.096888303756713867e+00,3.175403356552124023e+00,3.258002996444702148e+00,3.345014572143554688e+00,3.436801671981811523e+00,3.533767700195312500e+00,3.636364221572875977e+00,3.745096445083618164e+00,3.771241664886474609e+00,3.770515441894531250e+00,3.769789695739746094e+00,3.769064426422119141e+00,3.768338918685913086e+00,3.767614126205444336e+00,3.766889572143554688e+00,3.766165018081665039e+00,3.765440940856933594e+00,3.764717340469360352e+00,3.763993263244628906e+00,3.763270139694213867e+00,3.762547492980957031e+00,3.761824846267700195e+00,3.761102199554443359e+00,3.760380029678344727e+00,3.759658336639404297e+00,3.758936405181884766e+00,3.758215188980102539e+00,3.757494449615478516e+00,3.756773233413696289e+00,3.756052970886230469e+00,3.755332708358764648e+00,3.754612445831298828e+00,3.753893136978149414e+00,3.753173828125000000e+00,3.752454280853271484e+00,3.751735687255859375e+00,3.751017093658447266e+00,3.750298500061035156e+00,3.749580621719360352e+00,3.748862981796264648e+00,3.748145341873168945e+00,3.747428178787231445e+00,3.746711492538452148e+00,3.745995044708251953e+00,3.745278358459472656e+00,1.887053728103637695e+00,1.706840157508850098e+00,1.711383461952209473e+00,3.742415666580200195e+00,3.741700887680053711e+00,3.740985870361328125e+00,3.740271568298339844e+00,3.739557504653930664e+00,3.738843202590942383e+00,3.738129854202270508e+00,3.737416505813598633e+00,3.736703157424926758e+00,3.735990524291992188e+00,3.735278129577636719e+00,3.734565496444702148e+00,3.733853578567504883e+00,3.733141899108886719e+00,3.732430696487426758e+00,3.731719255447387695e+00,3.731008291244506836e+00,3.730297803878784180e+00,3.729587078094482422e+00,3.728877305984497070e+00,3.728167533874511719e+00,3.727457523345947266e+00,3.726748466491699219e+00,3.726039648056030273e+00,3.725330591201782227e+00,3.724622011184692383e+00,3.723914146423339844e+00,3.723205804824829102e+00,3.722498178482055664e+00,3.721791028976440430e+00,3.721083641052246094e+00,3.716116905212402344e+00
3.083473682403564453e+00,3.082988500595092773e+00,3.082503318786621094e+00,3.082018375396728516e+00,3.081533193588256836e+00,3.081048727035522461e+00,3.080564022064208984e+00,3.080079555511474609e+00,3.079595327377319336e+00,3.079110860824584961e+00,3.078626871109008789e+00,3.078143119812011719e+00,3.077659368515014648e+00,3.077175855636596680e+00,3.076692342758178711e+00,3.076209306716918945e+00,3.075726032257080078e+00,3.075242996215820312e+00,3.074760437011718750e+00,3.074277400970458984e+00,3.073795080184936523e+00,3.073312759399414062e+00,3.072830438613891602e+00,3.072348356246948242e+00,3.071866512298583984e+00,3.071384668350219727e+00,3.070903062820434570e+00,3.070421695709228516e+00,3.069940328598022461e+00,3.069459199905395508e+00,3.068978309631347656e+00,3.068497180938720703e+00,3.068016767501831055e+00,3.067536115646362305e+00,3.067055940628051758e+00,3.066575527191162109e+00,3.066095352172851562e+00,3.065615653991699219e+00,3.065135717391967773e+00,3.064656257629394531e+00,3.064176797866821289e+00,3.063697099685668945e+00,3.063218116760253906e+00,3.062739133834838867e+00,3.062260150909423828e+00,3.061781406402587891e+00,1.704524755477905273e+00,1.707051038742065430e+00,1.746570587158203125e+00,3.059867858886718750e+00,3.059389829635620117e+00,3.058912038803100586e+00,3.058434486389160156e+00,3.057956933975219727e+00,3.057479381561279297e+00,3.057002067565917969e+00,3.056525230407714844e+00,3.056047916412353516e+00,3.055571317672729492e+00,3.055094718933105469e+00,3.054618120193481445e+00,3.054141759872436523e+00,3.053665637969970703e+00,3.053189277648925781e+00,3.052713632583618164e+00,3.052237749099731445e+00,3.051762104034423828e+00,3.051286697387695312e+00,3.050811529159545898e+00,3.050336122512817383e+00,3.049861192703247070e+00,3.049386262893676758e+00,3.048911333084106445e+00,3.048436880111694336e+00,3.047962665557861328e+00,3.047488451004028320e+00,3.047013998031616211e+00,3.046540260314941406e+00,3.046066522598266602e+00,3.045592546463012695e+00
2.605096817016601562e+00,2.604750394821166992e+00,2.604403972625732422e+00,2.604057550430297852e+00,2.603711366653442383e+00,2.603365421295166016e+00,2.603019475936889648e+00,2.602673292160034180e+00,2.602327585220336914e+00,2.601982116699218750e+00,2.601636171340942383e+00,2.601290702819824219e+00,2.600945472717285156e+00,2.600599765777587891e+00,2.600254535675048828e+00,2.599909543991088867e+00,2.599564313888549805e+00,2.599219322204589844e+00,2.598874330520629883e+00,2.598529577255249023e+00,2.598184823989868164e+00,2.597840309143066406e+00,2.597495555877685547e+00,2.597151041030883789e+00,2.596806764602661133e+00,2.596462488174438477e+00,2.596118211746215820e+00,2.595774173736572266e+00,2.595430374145507812e+00,2.595086336135864258e+00,2.594742536544799805e+00,2.594398736953735352e+00,2.594054937362670898e+00,2.593711614608764648e+00,2.593368291854858398e+00,2.593024730682373047e+00,2.592681407928466797e+00,2.592338323593139648e+00,2.591995000839233398e+00,2.591652154922485352e+00,2.591309309005737305e+00,2.590966463088989258e+00,2.590623617172241211e+00,2.590281009674072266e+00,2.589938402175903320e+00,1.699620127677917480e+00,1.681535720825195312e+00,1.688817620277404785e+00,1.727360367774963379e+00,2.588227272033691406e+00,2.587885141372680664e+00,2.587543249130249023e+00,2.587201356887817383e+00,2.586859703063964844e+00,2.586518049240112305e+00,2.586176395416259766e+00,2.585834980010986328e+00,2.585493564605712891e+00,2.585152387619018555e+00,2.584811210632324219e+00,2.584470033645629883e+00,2.584129095077514648e+00,2.583788156509399414e+00,2.583447217941284180e+00,2.583106517791748047e+00,2.582766056060791016e+00,2.582425355911254883e+00,2.582084894180297852e+00,2.581744432449340820e+00,2.581404209136962891e+00,2.581063985824584961e+00,2.580723762512207031e+00,2.580384016036987305e+00,2.580043792724609375e+00,2.579704046249389648e+00,2.579364299774169922e+00,2.579024553298950195e+00,2.578685045242309570e+00,2.578345537185668945e+00,2.578006029129028320e+00
2.255217313766479492e+00,2.254957437515258789e+00,2.254697799682617188e+00,2.254438400268554688e+00,2.254179000854492188e+00,2.253919363021850586e+00,2.253660202026367188e+00,2.253400802612304688e+00,2.253141641616821289e+00,2.252882480621337891e+00,2.252623319625854492e+00,2.252364397048950195e+00,2.252105474472045898e+00,2.251846551895141602e+00,2.251587629318237305e+00,2.251328706741333008e+00,2.251070022583007812e+00,2.250811338424682617e+00,2.250552654266357422e+00,2.250294208526611328e+00,2.250035524368286133e+00,2.249777078628540039e+00,2.249518632888793945e+00,2.249260187149047852e+00,2.249001979827880859e+00,2.248743772506713867e+00,2.248485565185546875e+00,2.248227357864379883e+00,2.247969388961791992e+00,2.247711420059204102e+00,2.247453451156616211e+00,2.247195720672607422e+00,2.246937751770019531e+00,2.246680021286010742e+00,2.246422290802001953e+00,2.246164560317993164e+00,2.245907068252563477e+00,2.245649576187133789e+00,2.245392084121704102e+00,2.245134592056274414e+00,2.244877338409423828e+00,2.244620084762573242e+00,2.244362831115722656e+00,2.244105577468872070e+00,2.243848562240600586e+00,1.665742278099060059e+00,1.659266471862792969e+00,1.660835862159729004e+00,1.909624814987182617e+00,2.242563724517822266e+00,2.242307186126708984e+00,2.242050170898437500e+00,2.241793632507324219e+00,2.241537094116210938e+00,2.241280555725097656e+00,2.241024017333984375e+00,2.240767717361450195e+00,2.240511178970336914e+00,2.240255117416381836e+00,2.239998817443847656e+00,2.239742755889892578e+00,2.239486455917358398e+00,2.239230394363403320e+00,2.238974571228027344e+00,2.238718509674072266e+00,2.238462686538696289e+00,2.238206863403320312e+00,2.237951040267944336e+00,2.237695455551147461e+00,2.237439870834350586e+00,2.237184047698974609e+00,2.236928701400756836e+00,2.236673116683959961e+00,2.236417770385742188e+00,2.236162424087524414e+00,2.235907077789306641e+00,2.235651731491088867e+00,2.235396623611450195e+00,2.235141515731811523e+00,2.234886407852172852e+00
1.988191604614257812e+00,1.987989664077758789e+00,1.987788081169128418e+00,1.987586259841918945e+00,1.987384557723999023e+00,1.987182974815368652e+00,1.986981272697448730e+00,1.986779928207397461e+00,1.986578345298767090e+00,1.986376762390136719e+00,1.986175417900085449e+00,1.985973954200744629e+00,1.985772728919982910e+00,1.985571384429931641e+00,1.985369920730590820e+00,1.985168933868408203e+00,1.984967827796936035e+00,1.984766602516174316e+00,1.984565377235412598e+00,1.984364390373229980e+00,1.984163284301757812e+00,1.983962297439575195e+00,1.983761429786682129e+00,1.983560442924499512e+00,1.983359456062316895e+00,1.983158826828002930e+00,1.982957959175109863e+00,1.982757091522216797e+00,1.982556581497192383e+00,1.982355833053588867e+00,1.982155084609985352e+00,1.981954693794250488e+00,1.981753945350646973e+00,1.981553435325622559e+00,1.981353044509887695e+00,1.981152534484863281e+00,1.980952143669128418e+00,1.980751872062683105e+00,1.980551481246948242e+00,1.980351209640502930e+00,1.980151057243347168e+00,1.979950785636901855e+00,1.979750633239746094e+00,1.979550600051879883e+00,1.636394858360290527e+00,1.624279260635375977e+00,1.628307700157165527e+00,1.642352581024169922e+00,1.978550553321838379e+00,1.978350758552551270e+00,1.978150844573974609e+00,1.977951288223266602e+00,1.977751493453979492e+00,1.977551698684692383e+00,1.977352142333984375e+00,1.977152466773986816e+00,1.976952791213989258e+00,1.976753354072570801e+00,1.976553797721862793e+00,1.976354241371154785e+00,1.976154923439025879e+00,1.975955486297607422e+00,1.975756049156188965e+00,1.975556969642639160e+00,1.975357651710510254e+00,1.975158333778381348e+00,1.974959254264831543e+00,1.974760055541992188e+00,1.974560856819152832e+00,1.974361896514892578e+00,1.974162817001342773e+00,1.973963737487792969e+00,1.973765015602111816e+00,1.973566055297851562e+00,1.973367094993591309e+00,1.973168373107910156e+00,1.972969532012939453e+00,1.972770690917968750e+00,1.972572207450866699e+00,1.972373485565185547e+00
1.777705073356628418e+00,1.777543783187866211e+00,1.777382493019104004e+00,1.777221083641052246e+00,1.777059912681579590e+00,1.776898622512817383e+00,1.776737451553344727e+00,1.776576399803161621e+00,1.776415109634399414e+00,1.776254177093505859e+00,1.776093006134033203e+00,1.775931954383850098e+00,1.775771021842956543e+00,1.775609970092773438e+00,1.775449037551879883e+00,1.775288105010986328e+00,1.775127053260803223e+00,1.774966359138488770e+00,1.774805426597595215e+00,1.774644732475280762e+00,1.774483919143676758e+00,1.774323225021362305e+00,1.774162411689758301e+00,1.774001836776733398e+00,1.773841142654418945e+00,1.773680448532104492e+00,1.773519873619079590e+00,1.773359179496765137e+00,1.773198604583740234e+00,1.773038148880004883e+00,1.772877573966979980e+00,1.772717118263244629e+00,1.772556781768798828e+00,1.772396326065063477e+00,1.772235870361328125e+00,1.772075533866882324e+00,1.771915197372436523e+00,1.771754860877990723e+00,1.771594643592834473e+00,1.771434426307678223e+00,1.771274089813232422e+00,1.771113991737365723e+00,1.770953774452209473e+00,1.770793557167053223e+00,1.770633578300476074e+00,1.764826178550720215e+00,1.770313382148742676e+00,1.770153522491455078e+00,1.769993424415588379e+00,1.769833445549011230e+00,1.769673585891723633e+00,1.769513726234436035e+00,1.769353747367858887e+00,1.769194006919860840e+00,1.769034147262573242e+00,1.768874287605285645e+00,1.768714666366577148e+00,1.768554925918579102e+00,1.768395185470581055e+00,1.768235564231872559e+00,1.768075942993164062e+00,1.767916202545166016e+00,1.767756819725036621e+00,1.767597198486328125e+00,1.767437696456909180e+00,1.767278194427490234e+00,1.767118692398071289e+00,1.766959309577941895e+00,1.766799926757812500e+00,1.766640424728393555e+00,1.766481280326843262e+00,1.766321897506713867e+00,1.766162514686584473e+00,1.766003370285034180e+00,1.765844106674194336e+00,1.765684843063354492e+00,1.765525698661804199e+00,1.765366554260253906e+00,1.765207409858703613e+00,1.765048384666442871e+00
1.607519626617431641e+00,1.607387781143188477e+00,1.607255816459655762e+00,1.607124090194702148e+00,1.606992125511169434e+00,1.606860160827636719e+00,1.606728434562683105e+00,1.606596589088439941e+00,1.606464982032775879e+00,1.606333136558532715e+00,1.606201291084289551e+00,1.606069684028625488e+00,1.605937957763671875e+00,1.605806350708007812e+00,1.605674624443054199e+00,1.605543017387390137e+00,1.605411529541015625e+00,1.605279803276062012e+00,1.605148196220397949e+00,1.605016708374023438e+00,1.604885220527648926e+00,1.604753851890563965e+00,1.604622244834899902e+00,1.604490876197814941e+00,1.604359388351440430e+00,1.604228138923645020e+00,1.604096651077270508e+00,1.603965163230895996e+00,1.603833913803100586e+00,1.603702545166015625e+00,1.603571176528930664e+00,1.603440046310424805e+00,1.603308677673339844e+00,1.603177428245544434e+00,1.603046298027038574e+00,1.602915048599243164e+00,1.602783918380737305e+00,1.602652788162231445e+00,1.602521538734436035e+00,1.602390527725219727e+00,1.602259397506713867e+00,1.602128267288208008e+00,1.601997256278991699e+00,1.601866245269775391e+00,1.601735115051269531e+00,1.601604223251342773e+00,1.601473212242126465e+00,1.601342201232910156e+00,1.601211428642272949e+00,1.601080536842346191e+00,1.600949525833129883e+00,1.600818753242492676e+00,1.600687861442565918e+00,1.600556969642639160e+00,1.600426316261291504e+00,1.600295543670654297e+00,1.600164651870727539e+00,1.600034117698669434e+00,1.599903225898742676e+00,1.599772572517395020e+00,1.599641919136047363e+00,1.599511265754699707e+00,1.599380612373352051e+00,1.599250078201293945e+00,1.599119424819946289e+00,1.598988890647888184e+00,1.598858356475830078e+00,1.598727822303771973e+00,1.598597288131713867e+00,1.598466873168945312e+00,1.598336458206176758e+00,1.598205924034118652e+00,1.598075628280639648e+00,1.597945213317871094e+00,1.597814798355102539e+00,1.597684502601623535e+00,1.597554087638854980e+00,1.597423911094665527e+00,1.597293615341186523e+00,1.597163319587707520e+00
1.467072248458862305e+00,1.466962337493896484e+00,1.466852545738220215e+00,1.466742634773254395e+00,1.466632723808288574e+00,1.466522932052612305e+00,1.466413140296936035e+00,1.466303348541259766e+00,1.466193556785583496e+00,1.466083765029907227e+00,1.465974092483520508e+00,1.465864300727844238e+00,1.465754628181457520e+00,1.465644955635070801e+00,1.465535283088684082e+00,1.465425729751586914e+00,1.465315937995910645e+00,1.465206384658813477e+00,1.465096831321716309e+00,1.464987158775329590e+00,1.464877605438232422e+00,1.464768052101135254e+00,1.464658498764038086e+00,1.464549064636230469e+00,1.464439511299133301e+00,1.464330077171325684e+00,1.464220523834228516e+00,1.464111089706420898e+00,1.464001655578613281e+00,1.463892340660095215e+00,1.463782787322998047e+00,1.463673353195190430e+00,1.463564157485961914e+00,1.463454723358154297e+00,1.463345289230346680e+00,1.463236093521118164e+00,1.463126659393310547e+00,1.463017344474792480e+00,1.462908148765563965e+00,1.462798833847045898e+00,1.462689518928527832e+00,1.462580442428588867e+00,1.462471127510070801e+00,1.462361931800842285e+00,1.462252855300903320e+00,1.462143540382385254e+00,1.462034344673156738e+00,1.461925387382507324e+00,1.461816191673278809e+00,1.461707115173339844e+00,1.461598038673400879e+00,1.461488962173461914e+00,1.461380004882812500e+00,1.461270928382873535e+00,1.461161851882934570e+00,1.461052894592285156e+00,1.460943818092346191e+00,1.460834860801696777e+00,1.460726022720336914e+00,1.460616946220397949e+00,1.460507988929748535e+00,1.460399150848388672e+00,1.460290312767028809e+00,1.460181355476379395e+00,1.460072517395019531e+00,1.459963679313659668e+00,1.459854841232299805e+00,1.459746122360229492e+00,1.459637284278869629e+00,1.459528446197509766e+00,1.459419727325439453e+00,1.459310889244079590e+00,1.459202170372009277e+00,1.459093570709228516e+00,1.458984851837158203e+00,1.458876013755798340e+00,1.458767533302307129e+00,1.458658814430236816e+00,1.458550095558166504e+00,1.458441615104675293e+00
1.349194288253784180e+00,1.349101305007934570e+00,1.349008440971374512e+00,1.348915457725524902e+00,1.348822593688964844e+00,1.348729729652404785e+00,1.348636865615844727e+00,1.348544001579284668e+00,1.348451137542724609e+00,1.348358392715454102e+00,1.348265528678894043e+00,1.348172664642333984e+00,1.348079919815063477e+00,1.347987055778503418e+00,1.347894430160522461e+00,1.347801566123962402e+00,1.347708821296691895e+00,1.347616195678710938e+00,1.347523450851440430e+00,1.347430586814880371e+00,1.347338080406188965e+00,1.347245335578918457e+00,1.347152709960937500e+00,1.347060084342956543e+00,1.346967339515686035e+00,1.346874833106994629e+00,1.346782088279724121e+00,1.346689581871032715e+00,1.346596956253051758e+00,1.346504330635070801e+00,1.346411824226379395e+00,1.346319317817687988e+00,1.346226811408996582e+00,1.346134305000305176e+00,1.346041798591613770e+00,1.345949172973632812e+00,1.345856785774230957e+00,1.345764279365539551e+00,1.345671772956848145e+00,1.345579385757446289e+00,1.345486879348754883e+00,1.345394372940063477e+00,1.345302104949951172e+00,1.345209598541259766e+00,1.345117211341857910e+00,1.345024943351745605e+00,1.344932556152343750e+00,1.344840049743652344e+00,1.344747781753540039e+00,1.344655513763427734e+00,1.344563126564025879e+00,1.344470858573913574e+00,1.344378590583801270e+00,1.344286203384399414e+00,1.344194054603576660e+00,1.344101786613464355e+00,1.344009518623352051e+00,1.343917250633239746e+00,1.343825101852416992e+00,1.343732833862304688e+00,1.343640685081481934e+00,1.343548536300659180e+00,1.343456387519836426e+00,1.343364238739013672e+00,1.343271970748901367e+00,1.343179941177368164e+00,1.343087792396545410e+00,1.342995643615722656e+00,1.342903614044189453e+00,1.342811584472656250e+00,1.342719435691833496e+00,1.342627406120300293e+00,1.342535376548767090e+00,1.342443346977233887e+00,1.342351317405700684e+00,1.342259287834167480e+00,1.342167258262634277e+00,1.342075347900390625e+00,1.341983437538146973e+00,1.341891407966613770e+00
1.248850226402282715e+00,1.248770713806152344e+00,1.248691082000732422e+00,1.248611569404602051e+00,1.248531937599182129e+00,1.248452305793762207e+00,1.248372793197631836e+00,1.248293161392211914e+00,1.248213648796081543e+00,1.248134136199951172e+00,1.248054504394531250e+00,1.247974991798400879e+00,1.247895479202270508e+00,1.247815966606140137e+00,1.247736454010009766e+00,1.247656941413879395e+00,1.247577548027038574e+00,1.247498035430908203e+00,1.247418522834777832e+00,1.247339248657226562e+00,1.247259736061096191e+00,1.247180342674255371e+00,1.247100949287414551e+00,1.247021436691284180e+00,1.246942162513732910e+00,1.246862649917602539e+00,1.246783375740051270e+00,1.246703982353210449e+00,1.246624588966369629e+00,1.246545314788818359e+00,1.246465921401977539e+00,1.246386647224426270e+00,1.246307373046875000e+00,1.246227979660034180e+00,1.246148824691772461e+00,1.246069550514221191e+00,1.245990276336669922e+00,1.245911002159118652e+00,1.245831727981567383e+00,1.245752453804016113e+00,1.245673298835754395e+00,1.245594024658203125e+00,1.245514750480651855e+00,1.245435595512390137e+00,1.245356440544128418e+00,1.245277166366577148e+00,1.245198011398315430e+00,1.245118856430053711e+00,1.245039701461791992e+00,1.244960546493530273e+00,1.244881391525268555e+00,1.244802236557006836e+00,1.244723200798034668e+00,1.244644045829772949e+00,1.244564890861511230e+00,1.244485974311828613e+00,1.244406819343566895e+00,1.244327664375305176e+00,1.244248747825622559e+00,1.244169712066650391e+00,1.244090557098388672e+00,1.244011640548706055e+00,1.243932604789733887e+00,1.243853569030761719e+00,1.243774652481079102e+00,1.243695616722106934e+00,1.243616580963134766e+00,1.243537664413452148e+00,1.243458747863769531e+00,1.243379712104797363e+00,1.243300795555114746e+00,1.243221879005432129e+00,1.243142962455749512e+00,1.243064165115356445e+00,1.242985129356384277e+00,1.242906332015991211e+00,1.242827415466308594e+00,1.242748618125915527e+00,1.242669820785522461e+00,1.242590904235839844e+00
1.162399053573608398e+00,1.162330031394958496e+00,1.162261009216308594e+00,1.162192106246948242e+00,1.162123084068298340e+00,1.162054181098937988e+00,1.161985158920288086e+00,1.161916255950927734e+00,1.161847352981567383e+00,1.161778450012207031e+00,1.161709547042846680e+00,1.161640644073486328e+00,1.161571741104125977e+00,1.161502838134765625e+00,1.161433935165405273e+00,1.161365151405334473e+00,1.161296248435974121e+00,1.161227345466613770e+00,1.161158561706542969e+00,1.161089658737182617e+00,1.161020755767822266e+00,1.160952091217041016e+00,1.160883188247680664e+00,1.160814404487609863e+00,1.160745620727539062e+00,1.160676836967468262e+00,1.160608053207397461e+00,1.160539269447326660e+00,1.160470485687255859e+00,1.160401701927185059e+00,1.160332918167114258e+00,1.160264253616333008e+00,1.160195469856262207e+00,1.160126805305480957e+00,1.160058140754699707e+00,1.159989356994628906e+00,1.159920692443847656e+00,1.159852027893066406e+00,1.159783363342285156e+00,1.159714698791503906e+00,1.159646034240722656e+00,1.159577369689941406e+00,1.159508705139160156e+00,1.159440040588378906e+00,1.159371376037597656e+00,1.159302830696105957e+00,1.159234166145324707e+00,1.159165620803833008e+00,1.159096956253051758e+00,1.159028291702270508e+00,1.158959865570068359e+00,1.158891201019287109e+00,1.158822536468505859e+00,1.158754110336303711e+00,1.158685445785522461e+00,1.158616900444030762e+00,1.158548474311828613e+00,1.158479928970336914e+00,1.158411264419555664e+00,1.158342838287353516e+00,1.158274412155151367e+00,1.158205866813659668e+00,1.158137440681457520e+00,1.158068895339965820e+00,1.158000349998474121e+00,1.157931923866271973e+00,1.157863497734069824e+00,1.157794952392578125e+00,1.157726645469665527e+00,1.157658100128173828e+00,1.157589673995971680e+00,1.157521367073059082e+00,1.157452940940856934e+00,1.157384514808654785e+00,1.157316088676452637e+00,1.157247662544250488e+00,1.157179355621337891e+00,1.157111048698425293e+00,1.157042622566223145e+00,1.156974196434020996e+00
1.087141871452331543e+00,1.087081432342529297e+00,1.087021112442016602e+00,1.086960792541503906e+00,1.086900472640991211e+00,1.086840152740478516e+00,1.086779832839965820e+00,1.086719632148742676e+00,1.086659312248229980e+00,1.086598992347717285e+00,1.086538672447204590e+00,1.086478471755981445e+00,1.086418151855468750e+00,1.086357951164245605e+00,1.086297631263732910e+00,1.086237430572509766e+00,1.086177110671997070e+00,1.086116909980773926e+00,1.086056709289550781e+00,1.085996508598327637e+00,1.085936307907104492e+00,1.085876107215881348e+00,1.085815906524658203e+00,1.085755705833435059e+00,1.085695505142211914e+00,1.085635304450988770e+00,1.085575103759765625e+00,1.085515022277832031e+00,1.085454821586608887e+00,1.085394620895385742e+00,1.085334539413452148e+00,1.085274338722229004e+00,1.085214257240295410e+00,1.085154175758361816e+00,1.085093975067138672e+00,1.085033893585205078e+00,1.084973812103271484e+00,1.084913611412048340e+00,1.084853649139404297e+00,1.084793448448181152e+00,1.084733486175537109e+00,1.084673285484313965e+00,1.084613323211669922e+00,1.084553241729736328e+00,1.084493160247802734e+00,1.084433078765869141e+00,1.084373116493225098e+00,1.084313035011291504e+00,1.084253072738647461e+00,1.084192991256713867e+00,1.084133028984069824e+00,1.084072947502136230e+00,1.084012985229492188e+00,1.083953022956848145e+00,1.083892941474914551e+00,1.083833098411560059e+00,1.083773016929626465e+00,1.083713054656982422e+00,1.083653092384338379e+00,1.083593130111694336e+00,1.083533287048339844e+00,1.083473324775695801e+00,1.083413362503051758e+00,1.083353400230407715e+00,1.083293437957763672e+00,1.083233594894409180e+00,1.083173632621765137e+00,1.083113789558410645e+00,1.083053827285766602e+00,1.082993984222412109e+00,1.082934021949768066e+00,1.082874178886413574e+00,1.082814335823059082e+00,1.082754492759704590e+00,1.082694530487060547e+00,1.082634806632995605e+00,1.082574844360351562e+00,1.082515001296997070e+00,1.082455277442932129e+00,1.082395434379577637e+00
1.021036863327026367e+00,1.020983695983886719e+00,1.020930409431457520e+00,1.020877242088317871e+00,1.020823955535888672e+00,1.020770788192749023e+00,1.020717620849609375e+00,1.020664453506469727e+00,1.020611166954040527e+00,1.020557999610900879e+00,1.020504832267761230e+00,1.020451664924621582e+00,1.020398497581481934e+00,1.020345330238342285e+00,1.020292282104492188e+00,1.020238995552062988e+00,1.020185947418212891e+00,1.020132780075073242e+00,1.020079612731933594e+00,1.020026564598083496e+00,1.019973397254943848e+00,1.019920349121093750e+00,1.019867181777954102e+00,1.019814014434814453e+00,1.019760966300964355e+00,1.019707918167114258e+00,1.019654750823974609e+00,1.019601702690124512e+00,1.019548654556274414e+00,1.019495606422424316e+00,1.019442558288574219e+00,1.019389390945434570e+00,1.019336462020874023e+00,1.019283294677734375e+00,1.019230365753173828e+00,1.019177317619323730e+00,1.019124269485473633e+00,1.019071221351623535e+00,1.019018173217773438e+00,1.018965244293212891e+00,1.018912196159362793e+00,1.018859148025512695e+00,1.018806219100952148e+00,1.018753170967102051e+00,1.018700122833251953e+00,1.018647193908691406e+00,1.018594264984130859e+00,1.018541336059570312e+00,1.018488287925720215e+00,1.018435359001159668e+00,1.018382430076599121e+00,1.018329501152038574e+00,1.018276453018188477e+00,1.018223643302917480e+00,1.018170595169067383e+00,1.018117666244506836e+00,1.018064856529235840e+00,1.018011927604675293e+00,1.017958879470825195e+00,1.017906069755554199e+00,1.017853140830993652e+00,1.017800211906433105e+00,1.017747402191162109e+00,1.017694473266601562e+00,1.017641544342041016e+00,1.017588734626770020e+00,1.017535805702209473e+00,1.017482995986938477e+00,1.017430186271667480e+00,1.017377257347106934e+00,1.017324447631835938e+00,1.017271637916564941e+00,1.017218708992004395e+00,1.017165899276733398e+00,1.017113089561462402e+00,1.017060279846191406e+00,1.017007470130920410e+00,1.016954660415649414e+00,1.016901850700378418e+00,1.016849040985107422e+00
9.625104069709777832e-01,9.624630212783813477e-01,9.624157547950744629e-01,9.623684883117675781e-01,9.623211026191711426e-01,9.622738957405090332e-01,9.622266292572021484e-01,9.621793031692504883e-01,9.621320366859436035e-01,9.620848298072814941e-01,9.620376229286193848e-01,9.619902968406677246e-01,9.619430303573608398e-01,9.618958234786987305e-01,9.618485569953918457e-01,9.618013501167297363e-01,9.617541432380676270e-01,9.617068171501159668e-01,9.616596698760986328e-01,9.616124629974365234e-01,9.615651965141296387e-01,9.615179896354675293e-01,9.614708423614501953e-01,9.614236950874328613e-01,9.613764286041259766e-01,9.613292813301086426e-01,9.612821340560913086e-01,9.612348675727844238e-01,9.611877202987670898e-01,9.611405730247497559e-01,9.610933661460876465e-01,9.610462188720703125e-01,9.609990715980529785e-01,9.609518647193908691e-01,9.609047770500183105e-01,9.608576297760009766e-01,9.608105421066284180e-01,9.607633352279663086e-01,9.607162475585937500e-01,9.606691598892211914e-01,9.606219530105590820e-01,9.605748653411865234e-01,9.605277776718139648e-01,9.604806303977966309e-01,9.604335427284240723e-01,9.603865146636962891e-01,9.603394269943237305e-01,9.602922797203063965e-01,9.602452516555786133e-01,9.601981639862060547e-01,9.601511359214782715e-01,9.601041078567504883e-01,9.600569605827331543e-01,9.600099325180053711e-01,9.599629044532775879e-01,9.599158167839050293e-01,9.598687887191772461e-01,9.598217606544494629e-01,9.597746729850769043e-01,9.597276449203491211e-01,9.596806764602661133e-01,9.596335887908935547e-01,9.595866203308105469e-01,9.595395922660827637e-01,9.594925045967102051e-01,9.594455361366271973e-01,9.593986272811889648e-01,9.593515396118164062e-01,9.593045711517333984e-01,9.592576026916503906e-01,9.592105746269226074e-01,9.591636061668395996e-01,9.591166973114013672e-01,9.590696692466735840e-01,9.590227007865905762e-01,9.589757919311523438e-01,9.589287638664245605e-01,9.588818550109863281e-01,9.588349461555480957e-01,9.587879180908203125e-01
9.103295803070068359e-01,9.102872014045715332e-01,9.102449417114257812e-01,9.102026820182800293e-01,9.101604223251342773e-01,9.101180434226989746e-01,9.100757837295532227e-01,9.100335240364074707e-01,9.099911451339721680e-01,9.099489450454711914e-01,9.099066853523254395e-01,9.098643660545349121e-01,9.098221063613891602e-01,9.097798466682434082e-01,9.097375273704528809e-01,9.096953272819519043e-01,9.096530675888061523e-01,9.096108675003051758e-01,9.095685482025146484e-01,9.095263481140136719e-01,9.094841480255126953e-01,9.094418287277221680e-01,9.093996882438659668e-01,9.093574881553649902e-01,9.093151688575744629e-01,9.092729687690734863e-01,9.092308282852172852e-01,9.091885089874267578e-01,9.091463685035705566e-01,9.091041684150695801e-01,9.090620279312133789e-01,9.090197682380676270e-01,9.089776277542114258e-01,9.089354276657104492e-01,9.088932275772094727e-01,9.088510870933532715e-01,9.088088870048522949e-01,9.087666869163513184e-01,9.087245464324951172e-01,9.086824059486389160e-01,9.086402654647827148e-01,9.085980653762817383e-01,9.085559248924255371e-01,9.085138440132141113e-01,9.084716439247131348e-01,9.084295034408569336e-01,9.083874225616455078e-01,9.083452224731445312e-01,9.083031415939331055e-01,9.082610011100769043e-01,9.082188606262207031e-01,9.081767797470092773e-01,9.081346988677978516e-01,9.080926179885864258e-01,9.080505371093750000e-01,9.080084562301635742e-01,9.079663157463073730e-01,9.079242348670959473e-01,9.078822135925292969e-01,9.078400135040283203e-01,9.077979922294616699e-01,9.077559113502502441e-01,9.077137708663940430e-01,9.076717495918273926e-01,9.076297283172607422e-01,9.075875878334045410e-01,9.075455665588378906e-01,9.075035452842712402e-01,9.074614644050598145e-01,9.074194431304931641e-01,9.073774218559265137e-01,9.073353409767150879e-01,9.072933197021484375e-01,9.072512984275817871e-01,9.072092175483703613e-01,9.071672558784484863e-01,9.071252346038818359e-01,9.070831537246704102e-01,9.070411920547485352e-01,9.069992303848266602e-01
8.635156154632568359e-01,8.634775876998901367e-01,8.634394407272338867e-01,8.634014129638671875e-01,8.633633852005004883e-01,8.633252978324890137e-01,8.632872700691223145e-01,8.632492423057556152e-01,8.632110953330993652e-01,8.631731271743774414e-01,8.631350994110107422e-01,8.630970716476440430e-01,8.630589842796325684e-01,8.630209565162658691e-01,8.629829883575439453e-01,8.629449009895324707e-01,8.629069328308105469e-01,8.628689050674438477e-01,8.628308176994323730e-01,8.627928495407104492e-01,8.627548813819885254e-01,8.627167940139770508e-01,8.626788258552551270e-01,8.626408576965332031e-01,8.626028895378112793e-01,8.625648617744445801e-01,8.625268936157226562e-01,8.624889254570007324e-01,8.624508976936340332e-01,8.624129295349121094e-01,8.623750209808349609e-01,8.623369932174682617e-01,8.622990250587463379e-01,8.622611165046691895e-01,8.622230887413024902e-01,8.621851205825805664e-01,8.621472120285034180e-01,8.621093034744262695e-01,8.620712757110595703e-01,8.620333671569824219e-01,8.619954586029052734e-01,8.619574904441833496e-01,8.619195818901062012e-01,8.618816733360290527e-01,8.618436455726623535e-01,8.618057966232299805e-01,8.617678880691528320e-01,8.617299795150756836e-01,8.616920113563537598e-01,8.616541028022766113e-01,8.616162538528442383e-01,8.615782856941223145e-01,8.615404367446899414e-01,8.615025281906127930e-01,8.614646196365356445e-01,8.614267110824584961e-01,8.613888621330261230e-01,8.613510131835937500e-01,8.613131642341613770e-01,8.612751960754394531e-01,8.612373471260070801e-01,8.611995577812194824e-01,8.611615896224975586e-01,8.611238002777099609e-01,8.610859513282775879e-01,8.610480427742004395e-01,8.610101938247680664e-01,8.609723448753356934e-01,8.609345555305480957e-01,8.608966469764709473e-01,8.608588576316833496e-01,8.608210086822509766e-01,8.607831597328186035e-01,8.607453107833862305e-01,8.607075214385986328e-01,8.606696724891662598e-01,8.606318831443786621e-01,8.605940937995910645e-01,8.605561852455139160e-01,8.605183959007263184e-01
8.212810158729553223e-01,8.212466239929199219e-01,8.212121129035949707e-01,8.211777210235595703e-01,8.211433291435241699e-01,8.211089372634887695e-01,8.210744261741638184e-01,8.210400342941284180e-01,8.210056424140930176e-01,8.209711909294128418e-01,8.209367990493774414e-01,8.209024071693420410e-01,8.208679556846618652e-01,8.208335638046264648e-01,8.207991719245910645e-01,8.207647204399108887e-01,8.207303881645202637e-01,8.206959962844848633e-01,8.206616640090942383e-01,8.206272125244140625e-01,8.205928802490234375e-01,8.205584883689880371e-01,8.205240368843078613e-01,8.204897046089172363e-01,8.204553723335266113e-01,8.204209804534912109e-01,8.203865885734558105e-01,8.203522562980651855e-01,8.203178644180297852e-01,8.202835321426391602e-01,8.202491998672485352e-01,8.202148675918579102e-01,8.201804757118225098e-01,8.201461434364318848e-01,8.201118111610412598e-01,8.200774192810058594e-01,8.200431466102600098e-01,8.200088143348693848e-01,8.199744224548339844e-01,8.199401497840881348e-01,8.199058175086975098e-01,8.198715448379516602e-01,8.198371529579162598e-01,8.198028802871704102e-01,8.197685480117797852e-01,8.197342157363891602e-01,8.196999430656433105e-01,8.196656703948974609e-01,8.196312785148620605e-01,8.195970058441162109e-01,8.195627331733703613e-01,8.195284008979797363e-01,8.194941282272338867e-01,8.194598555564880371e-01,8.194255828857421875e-01,8.193912506103515625e-01,8.193569779396057129e-01,8.193227648735046387e-01,8.192884325981140137e-01,8.192541599273681641e-01,8.192199468612670898e-01,8.191856741905212402e-01,8.191514611244201660e-01,8.191171288490295410e-01,8.190829157829284668e-01,8.190487027168273926e-01,8.190143704414367676e-01,8.189801573753356934e-01,8.189459443092346191e-01,8.189116120338439941e-01,8.188773989677429199e-01,8.188431859016418457e-01,8.188089132308959961e-01,8.187747001647949219e-01,8.187404870986938477e-01,8.187062144279479980e-01,8.186720013618469238e-01,8.186378479003906250e-01,8.186035752296447754e-01,8.185693621635437012e-01
7.829852104187011719e-01,7.829539179801940918e-01,7.829226255416870117e-01,7.828912734985351562e-01,7.828600406646728516e-01,7.828287482261657715e-01,7.827973961830139160e-01,7.827661633491516113e-01,7.827348709106445312e-01,7.827035784721374512e-01,7.826722860336303711e-01,7.826410531997680664e-01,7.826098203659057617e-01,7.825784683227539062e-01,7.825472354888916016e-01,7.825160026550292969e-01,7.824846506118774414e-01,7.824534177780151367e-01,7.824221849441528320e-01,7.823908925056457520e-01,7.823596596717834473e-01,7.823284268379211426e-01,7.822971343994140625e-01,7.822659015655517578e-01,7.822346687316894531e-01,7.822034358978271484e-01,7.821721434593200684e-01,7.821409702301025391e-01,7.821097373962402344e-01,7.820784449577331543e-01,7.820472717285156250e-01,7.820160388946533203e-01,7.819848060607910156e-01,7.819535732269287109e-01,7.819223999977111816e-01,7.818911671638488770e-01,7.818599343299865723e-01,7.818287611007690430e-01,7.817975282669067383e-01,7.817662954330444336e-01,7.817351222038269043e-01,7.817039489746093750e-01,7.816727161407470703e-01,7.816414833068847656e-01,7.816103100776672363e-01,7.815790772438049316e-01,7.815479040145874023e-01,7.815167903900146484e-01,7.814856171607971191e-01,7.814543843269348145e-01,7.814232110977172852e-01,7.813920378684997559e-01,7.813608646392822266e-01,7.813296914100646973e-01,7.812985181808471680e-01,7.812673449516296387e-01,7.812361717224121094e-01,7.812050580978393555e-01,7.811738252639770508e-01,7.811427116394042969e-01,7.811115980148315430e-01,7.810804247856140137e-01,7.810492515563964844e-01,7.810181379318237305e-01,7.809870243072509766e-01,7.809558510780334473e-01,7.809247374534606934e-01,7.808935642242431641e-01,7.808624505996704102e-01,7.808313369750976562e-01,7.808001637458801270e-01,7.807690501213073730e-01,7.807379961013793945e-01,7.807068228721618652e-01,7.806757092475891113e-01,7.806445956230163574e-01,7.806134223937988281e-01,7.805823683738708496e-01,7.805512547492980957e-01,7.805200815200805664e-01
7.481016516685485840e-01,7.480731010437011719e-01,7.480445504188537598e-01,7.480159401893615723e-01,7.479873895645141602e-01,7.479588389396667480e-01,7.479302883148193359e-01,7.479016780853271484e-01,7.478731274604797363e-01,7.478446364402770996e-01,7.478160262107849121e-01,7.477874755859375000e-01,7.477589249610900879e-01,7.477303743362426758e-01,7.477018237113952637e-01,7.476733326911926270e-01,7.476447224617004395e-01,7.476161718368530273e-01,7.475876808166503906e-01,7.475591897964477539e-01,7.475305795669555664e-01,7.475020885467529297e-01,7.474735975265502930e-01,7.474449872970581055e-01,7.474164962768554688e-01,7.473880052566528320e-01,7.473594546318054199e-01,7.473309040069580078e-01,7.473024129867553711e-01,7.472738623619079590e-01,7.472453713417053223e-01,7.472168803215026855e-01,7.471883893013000488e-01,7.471598386764526367e-01,7.471314072608947754e-01,7.471029162406921387e-01,7.470743656158447266e-01,7.470458745956420898e-01,7.470173835754394531e-01,7.469888925552368164e-01,7.469604015350341797e-01,7.469319105148315430e-01,7.469034790992736816e-01,7.468749284744262695e-01,7.468464970588684082e-01,7.468180060386657715e-01,7.467895150184631348e-01,7.467610239982604980e-01,7.467325925827026367e-01,7.467041015625000000e-01,7.466756105422973633e-01,7.466471791267395020e-01,7.466186881065368652e-01,7.465902566909790039e-01,7.465618252754211426e-01,7.465333342552185059e-01,7.465048432350158691e-01,7.464764118194580078e-01,7.464479804039001465e-01,7.464194893836975098e-01,7.463910579681396484e-01,7.463626265525817871e-01,7.463341951370239258e-01,7.463057637214660645e-01,7.462773323059082031e-01,7.462488412857055664e-01,7.462204098701477051e-01,7.461920380592346191e-01,7.461636066436767578e-01,7.461352348327636719e-01,7.461068034172058105e-01,7.460783720016479492e-01,7.460499405860900879e-01,7.460215687751770020e-01,7.459930777549743652e-01,7.459647059440612793e-01,7.459362745285034180e-01,7.459078431129455566e-01,7.458794713020324707e-01,7.458510994911193848e-01
7.161938548088073730e-01,7.161676287651062012e-01,7.161414623260498047e-01,7.161152958869934082e-01,7.160890698432922363e-01,7.160629034042358398e-01,7.160367369651794434e-01,7.160105109214782715e-01,7.159843444824218750e-01,7.159581780433654785e-01,7.159320116043090820e-01,7.159058451652526855e-01,7.158796787261962891e-01,7.158535718917846680e-01,7.158273458480834961e-01,7.158011794090270996e-01,7.157750725746154785e-01,7.157488465309143066e-01,7.157227396965026855e-01,7.156965732574462891e-01,7.156704068183898926e-01,7.156442403793334961e-01,7.156181335449218750e-01,7.155919075012207031e-01,7.155658006668090820e-01,7.155396938323974609e-01,7.155135869979858398e-01,7.154873609542846680e-01,7.154612541198730469e-01,7.154351472854614258e-01,7.154089808464050293e-01,7.153828740119934082e-01,7.153567671775817871e-01,7.153306007385253906e-01,7.153044939041137695e-01,7.152783870697021484e-01,7.152522802352905273e-01,7.152261137962341309e-01,7.152000069618225098e-01,7.151739001274108887e-01,7.151477336883544922e-01,7.151216864585876465e-01,7.150955796241760254e-01,7.150694131851196289e-01,7.150433659553527832e-01,7.150172591209411621e-01,7.149910926818847656e-01,7.149650454521179199e-01,7.149389386177062988e-01,7.149128913879394531e-01,7.148867249488830566e-01,7.148606777191162109e-01,7.148345708847045898e-01,7.148084640502929688e-01,7.147823572158813477e-01,7.147563099861145020e-01,7.147302031517028809e-01,7.147041559219360352e-01,7.146780490875244141e-01,7.146519422531127930e-01,7.146258950233459473e-01,7.145998477935791016e-01,7.145738005638122559e-01,7.145476937294006348e-01,7.145216464996337891e-01,7.144955992698669434e-01,7.144694924354553223e-01,7.144434452056884766e-01,7.144173979759216309e-01,7.143912911415100098e-01,7.143652439117431641e-01,7.143392562866210938e-01,7.143131494522094727e-01,7.142871618270874023e-01,7.142611145973205566e-01,7.142350077629089355e-01,7.142090201377868652e-01,7.141829729080200195e-01,7.141568660736083984e-01,7.141308784484863281e-01
6.868965029716491699e-01,6.868723630905151367e-01,6.868482828140258789e-01,6.868242621421813965e-01,6.868001222610473633e-01,6.867760419845581055e-01,6.867519617080688477e-01,6.867279410362243652e-01,6.867038011550903320e-01,6.866797208786010742e-01,6.866557002067565918e-01,6.866315603256225586e-01,6.866075396537780762e-01,6.865834593772888184e-01,6.865593791007995605e-01,6.865352988243103027e-01,6.865112781524658203e-01,6.864871382713317871e-01,6.864631175994873047e-01,6.864390969276428223e-01,6.864150166511535645e-01,6.863909363746643066e-01,6.863669157028198242e-01,6.863428950309753418e-01,6.863187551498413086e-01,6.862947344779968262e-01,6.862707138061523438e-01,6.862466335296630859e-01,6.862226128578186035e-01,6.861985921859741211e-01,6.861745715141296387e-01,6.861504912376403809e-01,6.861264705657958984e-01,6.861024498939514160e-01,6.860783696174621582e-01,6.860543489456176758e-01,6.860303282737731934e-01,6.860062479972839355e-01,6.859822869300842285e-01,6.859582662582397461e-01,6.859341859817504883e-01,6.859101653099060059e-01,6.858862042427062988e-01,6.858621835708618164e-01,6.858381032943725586e-01,6.858141422271728516e-01,6.857901215553283691e-01,6.857661008834838867e-01,6.857420802116394043e-01,6.857180595397949219e-01,6.856940388679504395e-01,6.856700778007507324e-01,6.856460571289062500e-01,6.856220364570617676e-01,6.855980157852172852e-01,6.855740547180175781e-01,6.855500936508178711e-01,6.855260729789733887e-01,6.855020523071289062e-01,6.854780912399291992e-01,6.854540705680847168e-01,6.854301095008850098e-01,6.854061484336853027e-01,6.853821277618408203e-01,6.853581070899963379e-01,6.853341460227966309e-01,6.853101253509521484e-01,6.852861642837524414e-01,6.852622032165527344e-01,6.852382421493530273e-01,6.852142810821533203e-01,6.851903200149536133e-01,6.851663589477539062e-01,6.851423382759094238e-01,6.851183772087097168e-01,6.850944757461547852e-01,6.850705146789550781e-01,6.850465536117553711e-01,6.850225925445556641e-01,6.849986314773559570e-01
6.599018573760986328e-01,6.598796844482421875e-01,6.598573923110961914e-01,6.598351597785949707e-01,6.598129868507385254e-01,6.597906947135925293e-01,6.597685217857360840e-01,6.597462892532348633e-01,6.597240567207336426e-01,6.597018241882324219e-01,6.596796512603759766e-01,6.596573591232299805e-01,6.596351861953735352e-01,6.596129536628723145e-01,6.595907807350158691e-01,6.595685482025146484e-01,6.595463156700134277e-01,6.595241427421569824e-01,6.595019102096557617e-01,6.594796776771545410e-01,6.594575047492980957e-01,6.594352722167968750e-01,6.594130992889404297e-01,6.593909263610839844e-01,6.593686938285827637e-01,6.593464612960815430e-01,6.593242883682250977e-01,6.593021154403686523e-01,6.592798829078674316e-01,6.592577099800109863e-01,6.592355370521545410e-01,6.592133045196533203e-01,6.591911315917968750e-01,6.591689586639404297e-01,6.591467857360839844e-01,6.591246128082275391e-01,6.591024398803710938e-01,6.590802669525146484e-01,6.590580344200134277e-01,6.590359210968017578e-01,6.590137481689453125e-01,6.589915156364440918e-01,6.589693427085876465e-01,6.589472293853759766e-01,6.589249968528747559e-01,6.589028835296630859e-01,6.588807106018066406e-01,6.588585376739501953e-01,6.588363647460937500e-01,6.588141918182373047e-01,6.587920784950256348e-01,6.587698459625244141e-01,6.587477326393127441e-01,6.587256193161010742e-01,6.587033867835998535e-01,6.586812734603881836e-01,6.586591005325317383e-01,6.586369276046752930e-01,6.586148142814636230e-01,6.585927009582519531e-01,6.585705280303955078e-01,6.585483551025390625e-01,6.585262417793273926e-01,6.585041284561157227e-01,6.584819555282592773e-01,6.584598422050476074e-01,6.584377288818359375e-01,6.584155559539794922e-01,6.583933830261230469e-01,6.583712697029113770e-01,6.583491563796997070e-01,6.583270430564880371e-01,6.583049297332763672e-01,6.582828164100646973e-01,6.582606434822082520e-01,6.582385301589965820e-01,6.582164168357849121e-01,6.581942439079284668e-01,6.581721305847167969e-01,6.581501364707946777e-01
