3.097964286804199219e+00,3.176527738571166992e+00,3.259179830551147461e+00,3.346247673034667969e+00,3.438095331192016602e+00,3.535127162933349609e+00,3.637795448303222656e+00,3.746605157852172852e+00,3.862124681472778320e+00,3.984994649887084961e+00,4.115939617156982422e+00,4.255782604217529297e+00,4.405462265014648438e+00,5.000000000000000000e+00,5.000000000000000000e+00,5.000000000000000000e+00,5.000000000000000000e+00,5.000000000000000000e+00,5.000000000000000000e+00,5.000000000000000000e+00,5.000000000000000000e+00,5.000000000000000000e+00,5.000000000000000000e+00,5.000000000000000000e+00,5.000000000000000000e+00,5.000000000000000000e+00,5.000000000000000000e+00,5.000000000000000000e+00,5.000000000000000000e+00,5.000000000000000000e+00,5.000000000000000000e+00,5.000000000000000000e+00,5.000000000000000000e+00,5.000000000000000000e+00,5.000000000000000000e+00,5.000000000000000000e+00,5.000000000000000000e+00,5.000000000000000000e+00,5.000000000000000000e+00,5.000000000000000000e+00,5.000000000000000000e+00,5.000000000000000000e+00,5.000000000000000000e+00,5.000000000000000000e+00,5.000000000000000000e+00,5.000000000000000000e+00,5.000000000000000000e+00,5.000000000000000000e+00,5.000000000000000000e+00,5.000000000000000000e+00,5.000000000000000000e+00,5.000000000000000000e+00,5.000000000000000000e+00,5.000000000000000000e+00,5.000000000000000000e+00,5.000000000000000000e+00,5.000000000000000000e+00,5.000000000000000000e+00,5.000000000000000000e+00,5.000000000000000000e+00,5.000000000000000000e+00,5.000000000000000000e+00,5.000000000000000000e+00,5.000000000000000000e+00,5.000000000000000000e+00,5.000000000000000000e+00,5.000000000000000000e+00,5.000000000000000000e+00,5.000000000000000000e+00,5.000000000000000000e+00,5.000000000000000000e+00,5.000000000000000000e+00,5.000000000000000000e+00,4.399230957031250000e+00,4.268087387084960938e+00,4.144536495208740234e+00,4.027965068817138672e+00,3.917827367782592773e+00,3.813552379608154297e+00,3.714684009552001953e+00
3.097905397415161133e+00,3.176465988159179688e+00,3.259114503860473633e+00,3.346179008483886719e+00,3.438022851943969727e+00,3.535050630569458008e+00,3.637714147567749023e+00,3.746519088745117188e+00,3.862033367156982422e+00,3.984897613525390625e+00,4.115835666656494141e+00,4.255671501159667969e+00,4.405343055725097656e+00,4.565926551818847656e+00,5.000000000000000000e+00,5.000000000000000000e+00,5.000000000000000000e+00,5.000000000000000000e+00,5.000000000000000000e+00,5.000000000000000000e+00,5.000000000000000000e+00,5.000000000000000000e+00,5.000000000000000000e+00,5.000000000000000000e+00,5.000000000000000000e+00,5.000000000000000000e+00,5.000000000000000000e+00,5.000000000000000000e+00,5.000000000000000000e+00,5.000000000000000000e+00,5.000000000000000000e+00,5.000000000000000000e+00,5.000000000000000000e+00,5.000000000000000000e+00,5.000000000000000000e+00,5.000000000000000000e+00,5.000000000000000000e+00,5.000000000000000000e+00,5.000000000000000000e+00,5.000000000000000000e+00,5.000000000000000000e+00,5.000000000000000000e+00,5.000000000000000000e+00,5.000000000000000000e+00,5.000000000000000000e+00,5.000000000000000000e+00,5.000000000000000000e+00,5.000000000000000000e+00,5.000000000000000000e+00,5.000000000000000000e+00,5.000000000000000000e+00,5.000000000000000000e+00,5.000000000000000000e+00,5.000000000000000000e+00,5.000000000000000000e+00,5.000000000000000000e+00,5.000000000000000000e+00,5.000000000000000000e+00,5.000000000000000000e+00,5.000000000000000000e+00,5.000000000000000000e+00,5.000000000000000000e+00,5.000000000000000000e+00,5.000000000000000000e+00,5.000000000000000000e+00,5.000000000000000000e+00,5.000000000000000000e+00,5.000000000000000000e+00,5.000000000000000000e+00,5.000000000000000000e+00,5.000000000000000000e+00,5.000000000000000000e+00,4.538689613342285156e+00,4.399230957031250000e+00,4.268087387084960938e+00,4.144577980041503906e+00,4.028062820434570312e+00,3.917920112609863281e+00,3.813639879226684570e+00,3.714766979217529297e+00
3.097846746444702148e+00,3.176403999328613281e+00,3.259049415588378906e+00,3.346110343933105469e+00,3.437950372695922852e+00,3.534973859786987305e+00,3.637632846832275391e+00,3.746432781219482422e+00,3.861941814422607422e+00,3.984800100326538086e+00,4.115731716156005859e+00,4.255560398101806641e+00,4.405223846435546875e+00,4.565798759460449219e+00,4.738522052764892578e+00,5.000000000000000000e+00,5.000000000000000000e+00,5.000000000000000000e+00,5.000000000000000000e+00,5.000000000000000000e+00,5.000000000000000000e+00,5.000000000000000000e+00,5.000000000000000000e+00,5.000000000000000000e+00,5.000000000000000000e+00,5.000000000000000000e+00,5.000000000000000000e+00,5.000000000000000000e+00,5.000000000000000000e+00,5.000000000000000000e+00,5.000000000000000000e+00,5.000000000000000000e+00,5.000000000000000000e+00,5.000000000000000000e+00,5.000000000000000000e+00,5.000000000000000000e+00,5.000000000000000000e+00,5.000000000000000000e+00,5.000000000000000000e+00,5.000000000000000000e+00,5.000000000000000000e+00,5.000000000000000000e+00,5.000000000000000000e+00,5.000000000000000000e+00,5.000000000000000000e+00,5.000000000000000000e+00,5.000000000000000000e+00,5.000000000000000000e+00,5.000000000000000000e+00,5.000000000000000000e+00,5.000000000000000000e+00,5.000000000000000000e+00,5.000000000000000000e+00,5.000000000000000000e+00,5.000000000000000000e+00,5.000000000000000000e+00,5.000000000000000000e+00,5.000000000000000000e+00,5.000000000000000000e+00,5.000000000000000000e+00,5.000000000000000000e+00,5.000000000000000000e+00,5.000000000000000000e+00,5.000000000000000000e+00,5.000000000000000000e+00,5.000000000000000000e+00,5.000000000000000000e+00,5.000000000000000000e+00,5.000000000000000000e+00,5.000000000000000000e+00,5.000000000000000000e+00,4.687278747558593750e+00,4.538689136505126953e+00,4.399230957031250000e+00,4.268144607543945312e+00,4.144681453704833984e+00,4.028160572052001953e+00,3.918012619018554688e+00,3.813727855682373047e+00,3.714850187301635742e+00
3.097786664962768555e+00,3.176342248916625977e+00,3.258984565734863281e+00,3.346041440963745117e+00,3.437877655029296875e+00,3.534897089004516602e+00,3.637551784515380859e+00,3.746346712112426758e+00,3.861850261688232422e+00,3.984702587127685547e+00,4.115627765655517578e+00,4.255449295043945312e+00,4.405105113983154297e+00,4.565670967102050781e+00,4.738384246826171875e+00,4.924678802490234375e+00,5.000000000000000000e+00,5.000000000000000000e+00,5.000000000000000000e+00,5.000000000000000000e+00,5.000000000000000000e+00,5.000000000000000000e+00,5.000000000000000000e+00,5.000000000000000000e+00,5.000000000000000000e+00,5.000000000000000000e+00,5.000000000000000000e+00,5.000000000000000000e+00,5.000000000000000000e+00,5.000000000000000000e+00,5.000000000000000000e+00,5.000000000000000000e+00,5.000000000000000000e+00,5.000000000000000000e+00,5.000000000000000000e+00,5.000000000000000000e+00,5.000000000000000000e+00,5.000000000000000000e+00,5.000000000000000000e+00,5.000000000000000000e+00,5.000000000000000000e+00,5.000000000000000000e+00,5.000000000000000000e+00,5.000000000000000000e+00,5.000000000000000000e+00,5.000000000000000000e+00,5.000000000000000000e+00,5.000000000000000000e+00,5.000000000000000000e+00,5.000000000000000000e+00,5.000000000000000000e+00,5.000000000000000000e+00,5.000000000000000000e+00,5.000000000000000000e+00,5.000000000000000000e+00,5.000000000000000000e+00,5.000000000000000000e+00,5.000000000000000000e+00,5.000000000000000000e+00,5.000000000000000000e+00,5.000000000000000000e+00,5.000000000000000000e+00,5.000000000000000000e+00,5.000000000000000000e+00,5.000000000000000000e+00,5.000000000000000000e+00,5.000000000000000000e+00,5.000000000000000000e+00,5.000000000000000000e+00,5.000000000000000000e+00,4.845926761627197266e+00,4.687278747558593750e+00,4.538689136505126953e+00,4.399305343627929688e+00,4.268254280090332031e+00,4.144784927368164062e+00,4.028258800506591797e+00,3.918104887008666992e+00,3.813815355300903320e+00,3.714933633804321289e+00
3.097720623016357422e+00,3.176279067993164062e+00,3.258919239044189453e+00,3.345973253250122070e+00,3.437805414199829102e+00,3.534820318222045898e+00,3.637470483779907227e+00,3.746260643005371094e+00,3.861758708953857422e+00,3.984605073928833008e+00,4.115524291992187500e+00,4.255338191986083984e+00,4.404985904693603516e+00,4.565542697906494141e+00,4.738246917724609375e+00,4.924530506134033203e+00,5.000000000000000000e+00,5.000000000000000000e+00,5.000000000000000000e+00,5.000000000000000000e+00,5.000000000000000000e+00,5.000000000000000000e+00,5.000000000000000000e+00,5.000000000000000000e+00,5.000000000000000000e+00,5.000000000000000000e+00,5.000000000000000000e+00,5.000000000000000000e+00,5.000000000000000000e+00,5.000000000000000000e+00,5.000000000000000000e+00,5.000000000000000000e+00,5.000000000000000000e+00,5.000000000000000000e+00,5.000000000000000000e+00,5.000000000000000000e+00,5.000000000000000000e+00,5.000000000000000000e+00,5.000000000000000000e+00,5.000000000000000000e+00,5.000000000000000000e+00,5.000000000000000000e+00,5.000000000000000000e+00,5.000000000000000000e+00,5.000000000000000000e+00,5.000000000000000000e+00,5.000000000000000000e+00,5.000000000000000000e+00,5.000000000000000000e+00,5.000000000000000000e+00,5.000000000000000000e+00,5.000000000000000000e+00,5.000000000000000000e+00,5.000000000000000000e+00,5.000000000000000000e+00,5.000000000000000000e+00,5.000000000000000000e+00,5.000000000000000000e+00,5.000000000000000000e+00,5.000000000000000000e+00,5.000000000000000000e+00,5.000000000000000000e+00,5.000000000000000000e+00,5.000000000000000000e+00,5.000000000000000000e+00,5.000000000000000000e+00,5.000000000000000000e+00,5.000000000000000000e+00,5.000000000000000000e+00,5.000000000000000000e+00,4.845926284790039062e+00,4.687278270721435547e+00,4.538783073425292969e+00,4.399421691894531250e+00,4.268363952636718750e+00,4.144888401031494141e+00,4.028356075286865234e+00,3.918197393417358398e+00,3.813903093338012695e+00,3.715016603469848633e+00
3.097654581069946289e+00,3.176209688186645508e+00,3.258853197097778320e+00,3.345904350280761719e+00,3.437732934951782227e+00,3.534744024276733398e+00,3.637389659881591797e+00,3.746174335479736328e+00,3.861667156219482422e+00,3.984507560729980469e+00,4.115420341491699219e+00,4.255227088928222656e+00,4.404867172241210938e+00,4.565414905548095703e+00,4.738109111785888672e+00,4.924381732940673828e+00,5.000000000000000000e+00,5.000000000000000000e+00,5.000000000000000000e+00,5.000000000000000000e+00,5.000000000000000000e+00,5.000000000000000000e+00,5.000000000000000000e+00,5.000000000000000000e+00,5.000000000000000000e+00,5.000000000000000000e+00,5.000000000000000000e+00,5.000000000000000000e+00,5.000000000000000000e+00,5.000000000000000000e+00,5.000000000000000000e+00,5.000000000000000000e+00,5.000000000000000000e+00,5.000000000000000000e+00,5.000000000000000000e+00,5.000000000000000000e+00,5.000000000000000000e+00,5.000000000000000000e+00,5.000000000000000000e+00,5.000000000000000000e+00,5.000000000000000000e+00,5.000000000000000000e+00,5.000000000000000000e+00,5.000000000000000000e+00,5.000000000000000000e+00,5.000000000000000000e+00,5.000000000000000000e+00,5.000000000000000000e+00,5.000000000000000000e+00,5.000000000000000000e+00,5.000000000000000000e+00,5.000000000000000000e+00,5.000000000000000000e+00,5.000000000000000000e+00,5.000000000000000000e+00,5.000000000000000000e+00,5.000000000000000000e+00,5.000000000000000000e+00,5.000000000000000000e+00,5.000000000000000000e+00,5.000000000000000000e+00,5.000000000000000000e+00,5.000000000000000000e+00,5.000000000000000000e+00,5.000000000000000000e+00,5.000000000000000000e+00,5.000000000000000000e+00,5.000000000000000000e+00,5.000000000000000000e+00,5.000000000000000000e+00,4.845926284790039062e+00,4.687393665313720703e+00,4.538907051086425781e+00,4.399538516998291016e+00,4.268473625183105469e+00,4.144992351531982422e+00,4.028453826904296875e+00,3.918289899826049805e+00,3.813990592956542969e+00,3.715099811553955078e+00
3.097588539123535156e+00,3.176140308380126953e+00,3.258780002593994141e+00,3.345834732055664062e+00,3.437660455703735352e+00,3.534667253494262695e+00,3.637308359146118164e+00,3.746088743209838867e+00,3.861576080322265625e+00,3.984410285949707031e+00,4.115315914154052734e+00,4.255115985870361328e+00,4.404747962951660156e+00,4.565287113189697266e+00,4.737971305847167969e+00,4.924232482910156250e+00,5.000000000000000000e+00,5.000000000000000000e+00,5.000000000000000000e+00,5.000000000000000000e+00,5.000000000000000000e+00,5.000000000000000000e+00,5.000000000000000000e+00,5.000000000000000000e+00,5.000000000000000000e+00,5.000000000000000000e+00,5.000000000000000000e+00,5.000000000000000000e+00,5.000000000000000000e+00,5.000000000000000000e+00,5.000000000000000000e+00,5.000000000000000000e+00,5.000000000000000000e+00,5.000000000000000000e+00,5.000000000000000000e+00,5.000000000000000000e+00,5.000000000000000000e+00,5.000000000000000000e+00,5.000000000000000000e+00,5.000000000000000000e+00,5.000000000000000000e+00,5.000000000000000000e+00,5.000000000000000000e+00,5.000000000000000000e+00,5.000000000000000000e+00,5.000000000000000000e+00,5.000000000000000000e+00,5.000000000000000000e+00,5.000000000000000000e+00,5.000000000000000000e+00,5.000000000000000000e+00,5.000000000000000000e+00,5.000000000000000000e+00,3.347011327743530273e+00,3.340325832366943359e+00,5.000000000000000000e+00,5.000000000000000000e+00,5.000000000000000000e+00,5.000000000000000000e+00,5.000000000000000000e+00,5.000000000000000000e+00,5.000000000000000000e+00,5.000000000000000000e+00,5.000000000000000000e+00,5.000000000000000000e+00,5.000000000000000000e+00,5.000000000000000000e+00,5.000000000000000000e+00,5.000000000000000000e+00,5.000000000000000000e+00,4.846066474914550781e+00,4.687526226043701172e+00,4.539031028747558594e+00,4.399655342102050781e+00,4.268583297729492188e+00,4.145095825195312500e+00,4.028552055358886719e+00,3.918382167816162109e+00,3.814078092575073242e+00,3.715182781219482422e+00
3.097522497177124023e+00,3.176070928573608398e+00,3.258706808090209961e+00,3.345757722854614258e+00,3.437587022781372070e+00,3.534590721130371094e+00,3.637227296829223633e+00,3.746002435684204102e+00,3.861484527587890625e+00,3.984313249588012695e+00,4.115212440490722656e+00,4.255004882812500000e+00,4.404628753662109375e+00,4.565159320831298828e+00,4.737833499908447266e+00,4.924084186553955078e+00,5.000000000000000000e+00,5.000000000000000000e+00,5.000000000000000000e+00,5.000000000000000000e+00,5.000000000000000000e+00,5.000000000000000000e+00,5.000000000000000000e+00,5.000000000000000000e+00,5.000000000000000000e+00,5.000000000000000000e+00,5.000000000000000000e+00,5.000000000000000000e+00,5.000000000000000000e+00,5.000000000000000000e+00,5.000000000000000000e+00,5.000000000000000000e+00,5.000000000000000000e+00,5.000000000000000000e+00,5.000000000000000000e+00,5.000000000000000000e+00,5.000000000000000000e+00,5.000000000000000000e+00,5.000000000000000000e+00,5.000000000000000000e+00,5.000000000000000000e+00,5.000000000000000000e+00,5.000000000000000000e+00,5.000000000000000000e+00,5.000000000000000000e+00,5.000000000000000000e+00,5.000000000000000000e+00,5.000000000000000000e+00,5.000000000000000000e+00,5.000000000000000000e+00,5.000000000000000000e+00,5.000000000000000000e+00,5.000000000000000000e+00,3.334321975708007812e+00,3.327405929565429688e+00,5.000000000000000000e+00,5.000000000000000000e+00,5.000000000000000000e+00,5.000000000000000000e+00,5.000000000000000000e+00,5.000000000000000000e+00,5.000000000000000000e+00,5.000000000000000000e+00,5.000000000000000000e+00,5.000000000000000000e+00,5.000000000000000000e+00,5.000000000000000000e+00,5.000000000000000000e+00,5.000000000000000000e+00,5.000000000000000000e+00,4.846207618713378906e+00,4.687658786773681641e+00,4.539155483245849609e+00,4.399771690368652344e+00,4.268693447113037109e+00,4.145199298858642578e+00,4.028649806976318359e+00,3.918475151062011719e+00,3.814165830612182617e+00,3.715265989303588867e+00
3.097456455230712891e+00,3.176001310348510742e+00,3.258633852005004883e+00,3.345680475234985352e+00,3.437505722045898438e+00,3.534513235092163086e+00,3.637145996093750000e+00,3.745916366577148438e+00,3.861392974853515625e+00,3.984215736389160156e+00,4.115108489990234375e+00,4.254893779754638672e+00,4.404510021209716797e+00,4.565031528472900391e+00,4.737695693969726562e+00,4.923935413360595703e+00,5.000000000000000000e+00,5.000000000000000000e+00,5.000000000000000000e+00,5.000000000000000000e+00,5.000000000000000000e+00,5.000000000000000000e+00,5.000000000000000000e+00,5.000000000000000000e+00,5.000000000000000000e+00,5.000000000000000000e+00,5.000000000000000000e+00,5.000000000000000000e+00,5.000000000000000000e+00,5.000000000000000000e+00,5.000000000000000000e+00,5.000000000000000000e+00,5.000000000000000000e+00,5.000000000000000000e+00,5.000000000000000000e+00,5.000000000000000000e+00,5.000000000000000000e+00,5.000000000000000000e+00,5.000000000000000000e+00,5.000000000000000000e+00,5.000000000000000000e+00,5.000000000000000000e+00,5.000000000000000000e+00,5.000000000000000000e+00,5.000000000000000000e+00,5.000000000000000000e+00,5.000000000000000000e+00,5.000000000000000000e+00,5.000000000000000000e+00,5.000000000000000000e+00,5.000000000000000000e+00,5.000000000000000000e+00,3.445496082305908203e+00,3.349876642227172852e+00,3.341206312179565430e+00,5.000000000000000000e+00,5.000000000000000000e+00,5.000000000000000000e+00,5.000000000000000000e+00,5.000000000000000000e+00,5.000000000000000000e+00,5.000000000000000000e+00,5.000000000000000000e+00,5.000000000000000000e+00,5.000000000000000000e+00,5.000000000000000000e+00,5.000000000000000000e+00,5.000000000000000000e+00,5.000000000000000000e+00,5.000000000000000000e+00,4.846349716186523438e+00,4.687790870666503906e+00,4.539279460906982422e+00,4.399888038635253906e+00,4.268803119659423828e+00,4.145302772521972656e+00,4.028747081756591797e+00,3.918567657470703125e+00,3.814257621765136719e+00,3.715358972549438477e+00
3.097390413284301758e+00,3.175931930541992188e+00,3.258560657501220703e+00,3.345603466033935547e+00,3.437424421310424805e+00,3.534427165985107422e+00,3.637064456939697266e+00,3.745830297470092773e+00,3.861301422119140625e+00,3.984118223190307617e+00,4.115004539489746094e+00,4.254782676696777344e+00,4.404390811920166016e+00,4.564903736114501953e+00,4.737558364868164062e+00,4.923786640167236328e+00,5.000000000000000000e+00,5.000000000000000000e+00,5.000000000000000000e+00,5.000000000000000000e+00,5.000000000000000000e+00,5.000000000000000000e+00,5.000000000000000000e+00,5.000000000000000000e+00,5.000000000000000000e+00,5.000000000000000000e+00,5.000000000000000000e+00,5.000000000000000000e+00,5.000000000000000000e+00,5.000000000000000000e+00,5.000000000000000000e+00,5.000000000000000000e+00,5.000000000000000000e+00,5.000000000000000000e+00,5.000000000000000000e+00,5.000000000000000000e+00,5.000000000000000000e+00,5.000000000000000000e+00,5.000000000000000000e+00,5.000000000000000000e+00,5.000000000000000000e+00,5.000000000000000000e+00,5.000000000000000000e+00,5.000000000000000000e+00,5.000000000000000000e+00,5.000000000000000000e+00,5.000000000000000000e+00,5.000000000000000000e+00,5.000000000000000000e+00,5.000000000000000000e+00,5.000000000000000000e+00,5.000000000000000000e+00,5.000000000000000000e+00,3.375355720520019531e+00,3.356362342834472656e+00,5.000000000000000000e+00,5.000000000000000000e+00,5.000000000000000000e+00,5.000000000000000000e+00,5.000000000000000000e+00,5.000000000000000000e+00,5.000000000000000000e+00,5.000000000000000000e+00,5.000000000000000000e+00,5.000000000000000000e+00,5.000000000000000000e+00,5.000000000000000000e+00,5.000000000000000000e+00,5.000000000000000000e+00,5.000000000000000000e+00,4.846490859985351562e+00,4.687923431396484375e+00,4.539403438568115234e+00,4.400004863739013672e+00,4.268912792205810547e+00,4.145408153533935547e+00,4.028853893280029297e+00,3.918674707412719727e+00,3.814361333847045898e+00,3.715456724166870117e+00
3.097324371337890625e+00,3.175862550735473633e+00,3.258487701416015625e+00,3.345526456832885742e+00,3.437343120574951172e+00,3.534341096878051758e+00,3.636973381042480469e+00,3.745743751525878906e+00,3.861209869384765625e+00,3.984020948410034180e+00,4.114900588989257812e+00,4.254672050476074219e+00,4.404272079467773438e+00,4.564775943756103516e+00,4.737420558929443359e+00,4.923637866973876953e+00,5.000000000000000000e+00,5.000000000000000000e+00,5.000000000000000000e+00,5.000000000000000000e+00,5.000000000000000000e+00,5.000000000000000000e+00,5.000000000000000000e+00,5.000000000000000000e+00,5.000000000000000000e+00,5.000000000000000000e+00,5.000000000000000000e+00,5.000000000000000000e+00,5.000000000000000000e+00,5.000000000000000000e+00,5.000000000000000000e+00,5.000000000000000000e+00,5.000000000000000000e+00,5.000000000000000000e+00,5.000000000000000000e+00,5.000000000000000000e+00,5.000000000000000000e+00,5.000000000000000000e+00,5.000000000000000000e+00,5.000000000000000000e+00,5.000000000000000000e+00,5.000000000000000000e+00,5.000000000000000000e+00,5.000000000000000000e+00,5.000000000000000000e+00,5.000000000000000000e+00,5.000000000000000000e+00,5.000000000000000000e+00,5.000000000000000000e+00,5.000000000000000000e+00,5.000000000000000000e+00,5.000000000000000000e+00,5.000000000000000000e+00,3.431047677993774414e+00,3.431848287582397461e+00,3.387820243835449219e+00,3.405024766921997070e+00,3.412690639495849609e+00,5.000000000000000000e+00,5.000000000000000000e+00,5.000000000000000000e+00,5.000000000000000000e+00,5.000000000000000000e+00,5.000000000000000000e+00,5.000000000000000000e+00,5.000000000000000000e+00,5.000000000000000000e+00,5.000000000000000000e+00,5.000000000000000000e+00,5.000000000000000000e+00,4.846632480621337891e+00,4.688055992126464844e+00,4.539527893066406250e+00,4.400128841400146484e+00,4.269036769866943359e+00,4.145530223846435547e+00,4.028969287872314453e+00,3.918783664703369141e+00,3.814464569091796875e+00,3.715555191040039062e+00
3.097258329391479492e+00,3.175793409347534180e+00,3.258414506912231445e+00,3.345449447631835938e+00,3.437261819839477539e+00,3.534255266189575195e+00,3.636882305145263672e+00,3.745646953582763672e+00,3.861118316650390625e+00,3.983923435211181641e+00,4.114796638488769531e+00,4.254560947418212891e+00,4.404152870178222656e+00,4.564648151397705078e+00,4.737282752990722656e+00,4.923489093780517578e+00,5.000000000000000000e+00,5.000000000000000000e+00,5.000000000000000000e+00,5.000000000000000000e+00,5.000000000000000000e+00,5.000000000000000000e+00,5.000000000000000000e+00,5.000000000000000000e+00,5.000000000000000000e+00,5.000000000000000000e+00,5.000000000000000000e+00,5.000000000000000000e+00,5.000000000000000000e+00,5.000000000000000000e+00,5.000000000000000000e+00,5.000000000000000000e+00,5.000000000000000000e+00,5.000000000000000000e+00,5.000000000000000000e+00,5.000000000000000000e+00,5.000000000000000000e+00,5.000000000000000000e+00,5.000000000000000000e+00,5.000000000000000000e+00,5.000000000000000000e+00,5.000000000000000000e+00,5.000000000000000000e+00,5.000000000000000000e+00,5.000000000000000000e+00,5.000000000000000000e+00,5.000000000000000000e+00,5.000000000000000000e+00,5.000000000000000000e+00,5.000000000000000000e+00,3.416293859481811523e+00,3.406775712966918945e+00,3.371790647506713867e+00,3.357054710388183594e+00,3.349717140197753906e+00,3.351072788238525391e+00,3.361063003540039062e+00,3.394536256790161133e+00,5.000000000000000000e+00,5.000000000000000000e+00,5.000000000000000000e+00,5.000000000000000000e+00,5.000000000000000000e+00,5.000000000000000000e+00,5.000000000000000000e+00,5.000000000000000000e+00,5.000000000000000000e+00,5.000000000000000000e+00,5.000000000000000000e+00,5.000000000000000000e+00,4.846778869628906250e+00,4.688201904296875000e+00,4.539672851562500000e+00,4.400266647338867188e+00,4.269166946411132812e+00,4.145652770996093750e+00,4.029084682464599609e+00,3.918893098831176758e+00,3.814568042755126953e+00,3.715653419494628906e+00
3.097192287445068359e+00,3.175724029541015625e+00,3.258341312408447266e+00,3.345372438430786133e+00,3.437180519104003906e+00,3.534169197082519531e+00,3.636791229248046875e+00,3.745550394058227539e+00,3.861015796661376953e+00,3.983825922012329102e+00,4.114692687988281250e+00,4.254449844360351562e+00,4.404034137725830078e+00,4.564520359039306641e+00,4.737145423889160156e+00,4.923340797424316406e+00,5.000000000000000000e+00,5.000000000000000000e+00,5.000000000000000000e+00,5.000000000000000000e+00,5.000000000000000000e+00,5.000000000000000000e+00,5.000000000000000000e+00,5.000000000000000000e+00,5.000000000000000000e+00,5.000000000000000000e+00,5.000000000000000000e+00,5.000000000000000000e+00,5.000000000000000000e+00,5.000000000000000000e+00,5.000000000000000000e+00,5.000000000000000000e+00,5.000000000000000000e+00,5.000000000000000000e+00,5.000000000000000000e+00,5.000000000000000000e+00,5.000000000000000000e+00,5.000000000000000000e+00,5.000000000000000000e+00,5.000000000000000000e+00,5.000000000000000000e+00,5.000000000000000000e+00,5.000000000000000000e+00,5.000000000000000000e+00,5.000000000000000000e+00,5.000000000000000000e+00,5.000000000000000000e+00,5.000000000000000000e+00,5.000000000000000000e+00,3.490208864212036133e+00,3.412628650665283203e+00,3.380107641220092773e+00,3.340622186660766602e+00,3.319391012191772461e+00,3.316196918487548828e+00,3.318731784820556641e+00,3.361686468124389648e+00,3.396909236907958984e+00,5.000000000000000000e+00,5.000000000000000000e+00,5.000000000000000000e+00,5.000000000000000000e+00,5.000000000000000000e+00,5.000000000000000000e+00,5.000000000000000000e+00,5.000000000000000000e+00,5.000000000000000000e+00,5.000000000000000000e+00,5.000000000000000000e+00,5.000000000000000000e+00,4.846946239471435547e+00,4.688358306884765625e+00,4.539819717407226562e+00,4.400404453277587891e+00,4.269296169281005859e+00,4.145774841308593750e+00,4.029200553894042969e+00,3.919002294540405273e+00,3.814671754837036133e+00,3.715751886367797852e+00
3.097126245498657227e+00,3.175654411315917969e+00,3.258268356323242188e+00,3.345295667648315430e+00,3.437098979949951172e+00,3.534083127975463867e+00,3.636700153350830078e+00,3.745453834533691406e+00,3.860913276672363281e+00,3.983716726303100586e+00,4.114589214324951172e+00,4.254338741302490234e+00,4.403914928436279297e+00,4.564392566680908203e+00,4.737007617950439453e+00,4.923192024230957031e+00,5.000000000000000000e+00,5.000000000000000000e+00,5.000000000000000000e+00,5.000000000000000000e+00,5.000000000000000000e+00,5.000000000000000000e+00,5.000000000000000000e+00,5.000000000000000000e+00,5.000000000000000000e+00,5.000000000000000000e+00,5.000000000000000000e+00,5.000000000000000000e+00,5.000000000000000000e+00,5.000000000000000000e+00,5.000000000000000000e+00,5.000000000000000000e+00,5.000000000000000000e+00,5.000000000000000000e+00,5.000000000000000000e+00,5.000000000000000000e+00,5.000000000000000000e+00,5.000000000000000000e+00,5.000000000000000000e+00,5.000000000000000000e+00,5.000000000000000000e+00,5.000000000000000000e+00,5.000000000000000000e+00,5.000000000000000000e+00,5.000000000000000000e+00,5.000000000000000000e+00,5.000000000000000000e+00,5.000000000000000000e+00,5.000000000000000000e+00,5.000000000000000000e+00,3.429517030715942383e+00,3.391264915466308594e+00,3.342648267745971680e+00,3.316328525543212891e+00,3.317497014999389648e+00,3.326511383056640625e+00,3.371741533279418945e+00,3.395585060119628906e+00,5.000000000000000000e+00,5.000000000000000000e+00,5.000000000000000000e+00,5.000000000000000000e+00,5.000000000000000000e+00,5.000000000000000000e+00,5.000000000000000000e+00,5.000000000000000000e+00,5.000000000000000000e+00,5.000000000000000000e+00,5.000000000000000000e+00,5.000000000000000000e+00,4.847113132476806641e+00,4.688514709472656250e+00,4.539966106414794922e+00,4.400541782379150391e+00,4.269426345825195312e+00,4.145897388458251953e+00,4.029315948486328125e+00,3.919111728668212891e+00,3.814775466918945312e+00,3.715849637985229492e+00
3.097060203552246094e+00,3.175585031509399414e+00,3.258195161819458008e+00,3.345218658447265625e+00,3.437017679214477539e+00,3.533997297286987305e+00,3.636609077453613281e+00,3.745357275009155273e+00,3.860810518264770508e+00,3.983607530593872070e+00,4.114472866058349609e+00,4.254227638244628906e+00,4.403796195983886719e+00,4.564264774322509766e+00,4.736869812011718750e+00,4.923042774200439453e+00,5.000000000000000000e+00,5.000000000000000000e+00,5.000000000000000000e+00,5.000000000000000000e+00,5.000000000000000000e+00,5.000000000000000000e+00,5.000000000000000000e+00,5.000000000000000000e+00,5.000000000000000000e+00,5.000000000000000000e+00,5.000000000000000000e+00,5.000000000000000000e+00,5.000000000000000000e+00,5.000000000000000000e+00,5.000000000000000000e+00,5.000000000000000000e+00,5.000000000000000000e+00,5.000000000000000000e+00,5.000000000000000000e+00,5.000000000000000000e+00,5.000000000000000000e+00,5.000000000000000000e+00,5.000000000000000000e+00,5.000000000000000000e+00,5.000000000000000000e+00,5.000000000000000000e+00,5.000000000000000000e+00,5.000000000000000000e+00,5.000000000000000000e+00,5.000000000000000000e+00,5.000000000000000000e+00,5.000000000000000000e+00,5.000000000000000000e+00,5.000000000000000000e+00,3.449805259704589844e+00,3.418282508850097656e+00,3.347074270248413086e+00,3.318675756454467773e+00,3.310865640640258789e+00,3.324507713317871094e+00,5.000000000000000000e+00,3.383310556411743164e+00,3.403667688369750977e+00,5.000000000000000000e+00,5.000000000000000000e+00,5.000000000000000000e+00,5.000000000000000000e+00,5.000000000000000000e+00,5.000000000000000000e+00,5.000000000000000000e+00,5.000000000000000000e+00,5.000000000000000000e+00,5.000000000000000000e+00,5.000000000000000000e+00,4.847280502319335938e+00,4.688671112060546875e+00,4.540112972259521484e+00,4.400680065155029297e+00,4.269555568695068359e+00,4.146019458770751953e+00,4.029431343078613281e+00,3.919220685958862305e+00,3.814878702163696289e+00,3.715948104858398438e+00
3.096994161605834961e+00,3.175515651702880859e+00,3.258122205734252930e+00,3.345141649246215820e+00,3.436936378479003906e+00,3.533911705017089844e+00,3.636518001556396484e+00,3.745260715484619141e+00,3.860707998275756836e+00,3.983498096466064453e+00,4.114356040954589844e+00,4.254103660583496094e+00,4.403676986694335938e+00,4.564136981964111328e+00,4.736732482910156250e+00,4.922894477844238281e+00,5.000000000000000000e+00,5.000000000000000000e+00,5.000000000000000000e+00,5.000000000000000000e+00,5.000000000000000000e+00,5.000000000000000000e+00,5.000000000000000000e+00,5.000000000000000000e+00,5.000000000000000000e+00,5.000000000000000000e+00,5.000000000000000000e+00,5.000000000000000000e+00,5.000000000000000000e+00,5.000000000000000000e+00,5.000000000000000000e+00,5.000000000000000000e+00,5.000000000000000000e+00,5.000000000000000000e+00,5.000000000000000000e+00,5.000000000000000000e+00,5.000000000000000000e+00,5.000000000000000000e+00,5.000000000000000000e+00,5.000000000000000000e+00,5.000000000000000000e+00,5.000000000000000000e+00,5.000000000000000000e+00,5.000000000000000000e+00,5.000000000000000000e+00,5.000000000000000000e+00,5.000000000000000000e+00,5.000000000000000000e+00,5.000000000000000000e+00,5.000000000000000000e+00,3.462240457534790039e+00,3.437770366668701172e+00,3.346938848495483398e+00,3.319710969924926758e+00,3.313226461410522461e+00,3.328444719314575195e+00,5.000000000000000000e+00,3.402382135391235352e+00,3.402437448501586914e+00,5.000000000000000000e+00,5.000000000000000000e+00,5.000000000000000000e+00,5.000000000000000000e+00,5.000000000000000000e+00,5.000000000000000000e+00,5.000000000000000000e+00,5.000000000000000000e+00,5.000000000000000000e+00,5.000000000000000000e+00,5.000000000000000000e+00,4.847447395324707031e+00,4.688827514648437500e+00,4.540259838104248047e+00,4.400817394256591797e+00,4.269685745239257812e+00,4.146142005920410156e+00,4.029546737670898438e+00,3.919330120086669922e+00,3.814982414245605469e+00,3.716046333312988281e+00
3.096928119659423828e+00,3.175446271896362305e+00,3.258049011230468750e+00,3.345064640045166016e+00,3.436855077743530273e+00,3.533825635910034180e+00,3.636426925659179688e+00,3.745164155960083008e+00,3.860605239868164062e+00,3.983388900756835938e+00,4.114239692687988281e+00,4.253978729248046875e+00,4.403543949127197266e+00,4.564009189605712891e+00,4.736594676971435547e+00,4.922745704650878906e+00,5.000000000000000000e+00,5.000000000000000000e+00,5.000000000000000000e+00,5.000000000000000000e+00,5.000000000000000000e+00,5.000000000000000000e+00,5.000000000000000000e+00,5.000000000000000000e+00,5.000000000000000000e+00,5.000000000000000000e+00,5.000000000000000000e+00,5.000000000000000000e+00,5.000000000000000000e+00,5.000000000000000000e+00,5.000000000000000000e+00,5.000000000000000000e+00,5.000000000000000000e+00,5.000000000000000000e+00,5.000000000000000000e+00,5.000000000000000000e+00,5.000000000000000000e+00,5.000000000000000000e+00,5.000000000000000000e+00,5.000000000000000000e+00,5.000000000000000000e+00,5.000000000000000000e+00,5.000000000000000000e+00,5.000000000000000000e+00,5.000000000000000000e+00,5.000000000000000000e+00,5.000000000000000000e+00,5.000000000000000000e+00,5.000000000000000000e+00,5.000000000000000000e+00,3.477729320526123047e+00,3.405612945556640625e+00,3.331786155700683594e+00,3.308166503906250000e+00,3.312584638595581055e+00,3.317327499389648438e+00,5.000000000000000000e+00,3.416847467422485352e+00,3.373621225357055664e+00,5.000000000000000000e+00,5.000000000000000000e+00,5.000000000000000000e+00,5.000000000000000000e+00,5.000000000000000000e+00,5.000000000000000000e+00,5.000000000000000000e+00,5.000000000000000000e+00,5.000000000000000000e+00,5.000000000000000000e+00,5.000000000000000000e+00,4.847614765167236328e+00,4.688983917236328125e+00,4.540406703948974609e+00,4.400955677032470703e+00,4.269814968109130859e+00,4.146264076232910156e+00,4.029662609100341797e+00,3.919439554214477539e+00,3.815085887908935547e+00,3.716144800186157227e+00
3.096862316131591797e+00,3.175376892089843750e+00,3.257976055145263672e+00,3.344987392425537109e+00,3.436773777008056641e+00,3.533739805221557617e+00,3.636335849761962891e+00,3.745068073272705078e+00,3.860502719879150391e+00,3.983279705047607422e+00,4.114122867584228516e+00,4.253854274749755859e+00,4.403410911560058594e+00,4.563866615295410156e+00,4.736456871032714844e+00,4.922596931457519531e+00,5.000000000000000000e+00,5.000000000000000000e+00,5.000000000000000000e+00,5.000000000000000000e+00,5.000000000000000000e+00,5.000000000000000000e+00,5.000000000000000000e+00,5.000000000000000000e+00,5.000000000000000000e+00,5.000000000000000000e+00,5.000000000000000000e+00,5.000000000000000000e+00,5.000000000000000000e+00,5.000000000000000000e+00,5.000000000000000000e+00,5.000000000000000000e+00,5.000000000000000000e+00,5.000000000000000000e+00,5.000000000000000000e+00,5.000000000000000000e+00,5.000000000000000000e+00,5.000000000000000000e+00,5.000000000000000000e+00,5.000000000000000000e+00,5.000000000000000000e+00,5.000000000000000000e+00,5.000000000000000000e+00,5.000000000000000000e+00,5.000000000000000000e+00,5.000000000000000000e+00,5.000000000000000000e+00,5.000000000000000000e+00,5.000000000000000000e+00,5.000000000000000000e+00,3.496777057647705078e+00,3.401480436325073242e+00,3.345128536224365234e+00,3.317432880401611328e+00,3.309472084045410156e+00,3.326082706451416016e+00,5.000000000000000000e+00,3.407176017761230469e+00,3.335611104965209961e+00,5.000000000000000000e+00,5.000000000000000000e+00,5.000000000000000000e+00,5.000000000000000000e+00,5.000000000000000000e+00,5.000000000000000000e+00,5.000000000000000000e+00,5.000000000000000000e+00,5.000000000000000000e+00,5.000000000000000000e+00,5.000000000000000000e+00,4.847781658172607422e+00,4.689140319824218750e+00,4.540553092956542969e+00,4.401093006134033203e+00,4.269945144653320312e+00,4.146386623382568359e+00,4.029778003692626953e+00,3.919548988342285156e+00,3.815189599990844727e+00,3.716242790222167969e+00
3.096756696701049805e+00,3.175288438796997070e+00,3.257902860641479492e+00,3.344910383224487305e+00,3.436692476272583008e+00,3.533653736114501953e+00,3.636245012283325195e+00,3.744971513748168945e+00,3.860400199890136719e+00,3.983170986175537109e+00,4.114006519317626953e+00,4.253729820251464844e+00,4.403277397155761719e+00,4.563723087310791016e+00,4.736303806304931641e+00,4.922448635101318359e+00,5.000000000000000000e+00,5.000000000000000000e+00,5.000000000000000000e+00,5.000000000000000000e+00,5.000000000000000000e+00,5.000000000000000000e+00,5.000000000000000000e+00,5.000000000000000000e+00,5.000000000000000000e+00,5.000000000000000000e+00,5.000000000000000000e+00,5.000000000000000000e+00,5.000000000000000000e+00,5.000000000000000000e+00,5.000000000000000000e+00,5.000000000000000000e+00,5.000000000000000000e+00,5.000000000000000000e+00,5.000000000000000000e+00,5.000000000000000000e+00,5.000000000000000000e+00,5.000000000000000000e+00,5.000000000000000000e+00,5.000000000000000000e+00,5.000000000000000000e+00,5.000000000000000000e+00,5.000000000000000000e+00,5.000000000000000000e+00,5.000000000000000000e+00,5.000000000000000000e+00,5.000000000000000000e+00,5.000000000000000000e+00,5.000000000000000000e+00,5.000000000000000000e+00,3.475284099578857422e+00,3.408876895904541016e+00,3.344761133193969727e+00,3.334305763244628906e+00,3.316975355148315430e+00,3.334754943847656250e+00,3.374001026153564453e+00,5.000000000000000000e+00,3.317758083343505859e+00,3.284983158111572266e+00,5.000000000000000000e+00,5.000000000000000000e+00,5.000000000000000000e+00,5.000000000000000000e+00,5.000000000000000000e+00,5.000000000000000000e+00,5.000000000000000000e+00,5.000000000000000000e+00,5.000000000000000000e+00,5.000000000000000000e+00,4.847949028015136719e+00,4.689296722412109375e+00,4.540699958801269531e+00,4.401231288909912109e+00,4.270074367523193359e+00,4.146508693695068359e+00,4.029893398284912109e+00,3.919657945632934570e+00,3.815292835235595703e+00,3.716341018676757812e+00
3.096641063690185547e+00,3.175167083740234375e+00,3.257779359817504883e+00,3.344805002212524414e+00,3.436608076095581055e+00,3.533567905426025391e+00,3.636153936386108398e+00,3.744874954223632812e+00,3.860297441482543945e+00,3.983061790466308594e+00,4.113890171051025391e+00,4.253605365753173828e+00,4.403143882751464844e+00,4.563580036163330078e+00,4.736149311065673828e+00,4.922283172607421875e+00,5.000000000000000000e+00,5.000000000000000000e+00,5.000000000000000000e+00,5.000000000000000000e+00,5.000000000000000000e+00,5.000000000000000000e+00,5.000000000000000000e+00,5.000000000000000000e+00,5.000000000000000000e+00,5.000000000000000000e+00,5.000000000000000000e+00,5.000000000000000000e+00,5.000000000000000000e+00,5.000000000000000000e+00,5.000000000000000000e+00,5.000000000000000000e+00,5.000000000000000000e+00,5.000000000000000000e+00,5.000000000000000000e+00,5.000000000000000000e+00,5.000000000000000000e+00,5.000000000000000000e+00,5.000000000000000000e+00,5.000000000000000000e+00,5.000000000000000000e+00,5.000000000000000000e+00,5.000000000000000000e+00,5.000000000000000000e+00,5.000000000000000000e+00,5.000000000000000000e+00,5.000000000000000000e+00,5.000000000000000000e+00,5.000000000000000000e+00,5.000000000000000000e+00,3.466666936874389648e+00,3.378743648529052734e+00,3.290467023849487305e+00,3.269303321838378906e+00,3.364739179611206055e+00,3.353352069854736328e+00,3.378197908401489258e+00,5.000000000000000000e+00,5.000000000000000000e+00,3.234183788299560547e+00,5.000000000000000000e+00,5.000000000000000000e+00,5.000000000000000000e+00,5.000000000000000000e+00,5.000000000000000000e+00,5.000000000000000000e+00,5.000000000000000000e+00,5.000000000000000000e+00,5.000000000000000000e+00,5.000000000000000000e+00,4.848116397857666016e+00,4.689453601837158203e+00,4.540846347808837891e+00,4.401369094848632812e+00,4.270204544067382812e+00,4.146631240844726562e+00,4.030008792877197266e+00,3.919767379760742188e+00,3.815396547317504883e+00,3.716439485549926758e+00
3.096538066864013672e+00,3.175045490264892578e+00,3.257651567459106445e+00,3.344670534133911133e+00,3.436465740203857422e+00,3.533442020416259766e+00,3.636050701141357422e+00,3.744778394699096680e+00,3.860194921493530273e+00,3.982952594757080078e+00,4.113773822784423828e+00,4.253480911254882812e+00,4.403010368347167969e+00,4.563436508178710938e+00,4.735994815826416016e+00,4.922116279602050781e+00,5.000000000000000000e+00,5.000000000000000000e+00,5.000000000000000000e+00,5.000000000000000000e+00,5.000000000000000000e+00,5.000000000000000000e+00,5.000000000000000000e+00,5.000000000000000000e+00,5.000000000000000000e+00,5.000000000000000000e+00,5.000000000000000000e+00,5.000000000000000000e+00,5.000000000000000000e+00,5.000000000000000000e+00,5.000000000000000000e+00,5.000000000000000000e+00,5.000000000000000000e+00,5.000000000000000000e+00,5.000000000000000000e+00,5.000000000000000000e+00,5.000000000000000000e+00,5.000000000000000000e+00,5.000000000000000000e+00,5.000000000000000000e+00,5.000000000000000000e+00,5.000000000000000000e+00,5.000000000000000000e+00,5.000000000000000000e+00,5.000000000000000000e+00,5.000000000000000000e+00,5.000000000000000000e+00,5.000000000000000000e+00,5.000000000000000000e+00,5.000000000000000000e+00,3.451659202575683594e+00,3.350164651870727539e+00,3.266867399215698242e+00,3.236901998519897461e+00,3.379871368408203125e+00,3.355466127395629883e+00,3.380375862121582031e+00,5.000000000000000000e+00,5.000000000000000000e+00,5.000000000000000000e+00,3.206964969635009766e+00,5.000000000000000000e+00,5.000000000000000000e+00,5.000000000000000000e+00,5.000000000000000000e+00,5.000000000000000000e+00,5.000000000000000000e+00,5.000000000000000000e+00,5.000000000000000000e+00,5.000000000000000000e+00,4.848283767700195312e+00,4.689610004425048828e+00,4.540993213653564453e+00,4.401506900787353516e+00,4.270334243774414062e+00,4.146753787994384766e+00,4.030124664306640625e+00,3.919876813888549805e+00,3.815500259399414062e+00,3.716537952423095703e+00
3.096472024917602539e+00,3.174966335296630859e+00,3.257544040679931641e+00,3.344535350799560547e+00,3.436323404312133789e+00,3.533291816711425781e+00,3.635891437530517578e+00,3.744627952575683594e+00,3.860068798065185547e+00,3.982843399047851562e+00,4.113657474517822266e+00,4.253356456756591797e+00,4.402876853942871094e+00,4.563292980194091797e+00,4.735840797424316406e+00,4.921949863433837891e+00,5.000000000000000000e+00,5.000000000000000000e+00,5.000000000000000000e+00,5.000000000000000000e+00,5.000000000000000000e+00,5.000000000000000000e+00,5.000000000000000000e+00,5.000000000000000000e+00,5.000000000000000000e+00,5.000000000000000000e+00,5.000000000000000000e+00,5.000000000000000000e+00,5.000000000000000000e+00,5.000000000000000000e+00,5.000000000000000000e+00,5.000000000000000000e+00,5.000000000000000000e+00,5.000000000000000000e+00,5.000000000000000000e+00,5.000000000000000000e+00,5.000000000000000000e+00,5.000000000000000000e+00,5.000000000000000000e+00,5.000000000000000000e+00,5.000000000000000000e+00,5.000000000000000000e+00,5.000000000000000000e+00,5.000000000000000000e+00,5.000000000000000000e+00,5.000000000000000000e+00,5.000000000000000000e+00,5.000000000000000000e+00,5.000000000000000000e+00,5.000000000000000000e+00,3.457596540451049805e+00,3.396349191665649414e+00,3.248674631118774414e+00,3.216969013214111328e+00,3.246164083480834961e+00,3.362090110778808594e+00,3.399857759475708008e+00,5.000000000000000000e+00,5.000000000000000000e+00,5.000000000000000000e+00,5.000000000000000000e+00,5.000000000000000000e+00,5.000000000000000000e+00,5.000000000000000000e+00,5.000000000000000000e+00,5.000000000000000000e+00,5.000000000000000000e+00,5.000000000000000000e+00,5.000000000000000000e+00,5.000000000000000000e+00,4.848450660705566406e+00,4.689766407012939453e+00,4.541140079498291016e+00,4.401644706726074219e+00,4.270463943481445312e+00,4.146875858306884766e+00,4.030240058898925781e+00,3.919986248016357422e+00,3.815603971481323242e+00,3.716635942459106445e+00
3.096406221389770508e+00,3.174897193908691406e+00,3.257470846176147461e+00,3.344454765319824219e+00,3.436211347579956055e+00,3.533144712448120117e+00,3.635731935501098633e+00,3.744459152221679688e+00,3.859889507293701172e+00,3.982662677764892578e+00,4.113502979278564453e+00,4.253231525421142578e+00,4.402743816375732422e+00,4.563149929046630859e+00,4.735686302185058594e+00,4.921782970428466797e+00,5.000000000000000000e+00,5.000000000000000000e+00,5.000000000000000000e+00,5.000000000000000000e+00,5.000000000000000000e+00,5.000000000000000000e+00,5.000000000000000000e+00,5.000000000000000000e+00,5.000000000000000000e+00,5.000000000000000000e+00,5.000000000000000000e+00,5.000000000000000000e+00,5.000000000000000000e+00,5.000000000000000000e+00,5.000000000000000000e+00,5.000000000000000000e+00,5.000000000000000000e+00,5.000000000000000000e+00,5.000000000000000000e+00,5.000000000000000000e+00,5.000000000000000000e+00,5.000000000000000000e+00,5.000000000000000000e+00,5.000000000000000000e+00,5.000000000000000000e+00,5.000000000000000000e+00,5.000000000000000000e+00,5.000000000000000000e+00,5.000000000000000000e+00,5.000000000000000000e+00,5.000000000000000000e+00,5.000000000000000000e+00,5.000000000000000000e+00,5.000000000000000000e+00,3.426948070526123047e+00,5.000000000000000000e+00,3.237000703811645508e+00,3.194683790206909180e+00,3.215821981430053711e+00,3.384163379669189453e+00,5.000000000000000000e+00,5.000000000000000000e+00,5.000000000000000000e+00,5.000000000000000000e+00,5.000000000000000000e+00,5.000000000000000000e+00,5.000000000000000000e+00,5.000000000000000000e+00,5.000000000000000000e+00,5.000000000000000000e+00,5.000000000000000000e+00,5.000000000000000000e+00,5.000000000000000000e+00,5.000000000000000000e+00,4.848618030548095703e+00,4.689922809600830078e+00,4.541286945343017578e+00,4.401782512664794922e+00,4.270593643188476562e+00,4.146998405456542969e+00,4.030355930328369141e+00,3.920095205307006836e+00,3.815707206726074219e+00,3.716734170913696289e+00
3.096340179443359375e+00,3.174827814102172852e+00,3.257398128509521484e+00,3.344377994537353516e+00,3.436130285263061523e+00,3.533059120178222656e+00,3.635614871978759766e+00,3.744302749633789062e+00,3.859709501266479492e+00,3.982471704483032227e+00,4.113298892974853516e+00,4.253014087677001953e+00,4.402554035186767578e+00,4.562993526458740234e+00,4.735532283782958984e+00,4.921616077423095703e+00,5.000000000000000000e+00,5.000000000000000000e+00,5.000000000000000000e+00,5.000000000000000000e+00,5.000000000000000000e+00,5.000000000000000000e+00,5.000000000000000000e+00,5.000000000000000000e+00,5.000000000000000000e+00,5.000000000000000000e+00,5.000000000000000000e+00,5.000000000000000000e+00,5.000000000000000000e+00,5.000000000000000000e+00,5.000000000000000000e+00,5.000000000000000000e+00,5.000000000000000000e+00,5.000000000000000000e+00,5.000000000000000000e+00,5.000000000000000000e+00,5.000000000000000000e+00,5.000000000000000000e+00,5.000000000000000000e+00,5.000000000000000000e+00,5.000000000000000000e+00,5.000000000000000000e+00,5.000000000000000000e+00,5.000000000000000000e+00,5.000000000000000000e+00,5.000000000000000000e+00,5.000000000000000000e+00,5.000000000000000000e+00,5.000000000000000000e+00,5.000000000000000000e+00,3.410302400588989258e+00,5.000000000000000000e+00,3.254212617874145508e+00,3.170341014862060547e+00,3.181747198104858398e+00,3.410089015960693359e+00,5.000000000000000000e+00,5.000000000000000000e+00,5.000000000000000000e+00,5.000000000000000000e+00,5.000000000000000000e+00,5.000000000000000000e+00,5.000000000000000000e+00,5.000000000000000000e+00,5.000000000000000000e+00,5.000000000000000000e+00,5.000000000000000000e+00,5.000000000000000000e+00,5.000000000000000000e+00,5.000000000000000000e+00,4.848785400390625000e+00,4.690079212188720703e+00,4.541433334350585938e+00,4.401920318603515625e+00,4.270723342895507812e+00,4.147120952606201172e+00,4.030471324920654297e+00,3.920204639434814453e+00,3.815808773040771484e+00,3.716824293136596680e+00
3.096274137496948242e+00,3.174758434295654297e+00,3.257325172424316406e+00,3.344300985336303711e+00,3.436049222946166992e+00,3.532973289489746094e+00,3.635524272918701172e+00,3.744206666946411133e+00,3.859587430953979492e+00,3.982305288314819336e+00,4.113094806671142578e+00,4.252796173095703125e+00,4.402320384979248047e+00,4.562742233276367188e+00,4.735298156738281250e+00,4.921418190002441406e+00,5.000000000000000000e+00,5.000000000000000000e+00,5.000000000000000000e+00,5.000000000000000000e+00,5.000000000000000000e+00,5.000000000000000000e+00,5.000000000000000000e+00,5.000000000000000000e+00,5.000000000000000000e+00,5.000000000000000000e+00,5.000000000000000000e+00,5.000000000000000000e+00,5.000000000000000000e+00,5.000000000000000000e+00,5.000000000000000000e+00,5.000000000000000000e+00,5.000000000000000000e+00,5.000000000000000000e+00,5.000000000000000000e+00,5.000000000000000000e+00,5.000000000000000000e+00,5.000000000000000000e+00,5.000000000000000000e+00,5.000000000000000000e+00,5.000000000000000000e+00,5.000000000000000000e+00,5.000000000000000000e+00,5.000000000000000000e+00,5.000000000000000000e+00,5.000000000000000000e+00,5.000000000000000000e+00,5.000000000000000000e+00,5.000000000000000000e+00,5.000000000000000000e+00,5.000000000000000000e+00,5.000000000000000000e+00,3.286134481430053711e+00,3.158962488174438477e+00,3.154021978378295898e+00,3.433167457580566406e+00,5.000000000000000000e+00,5.000000000000000000e+00,5.000000000000000000e+00,5.000000000000000000e+00,5.000000000000000000e+00,5.000000000000000000e+00,5.000000000000000000e+00,5.000000000000000000e+00,5.000000000000000000e+00,5.000000000000000000e+00,5.000000000000000000e+00,5.000000000000000000e+00,5.000000000000000000e+00,5.000000000000000000e+00,4.848952770233154297e+00,4.690235614776611328e+00,4.541580200195312500e+00,4.402058124542236328e+00,4.270853042602539062e+00,4.147243022918701172e+00,4.030580520629882812e+00,3.920301437377929688e+00,3.815896034240722656e+00,3.716907262802124023e+00
3.096208333969116211e+00,3.174689054489135742e+00,3.257252216339111328e+00,3.344223976135253906e+00,3.435967922210693359e+00,3.532887220382690430e+00,3.635433435440063477e+00,3.744110345840454102e+00,3.859484910964965820e+00,3.982196331024169922e+00,4.112966537475585938e+00,4.252617835998535156e+00,4.402086734771728516e+00,4.562491416931152344e+00,4.735027790069580078e+00,4.921126365661621094e+00,5.000000000000000000e+00,5.000000000000000000e+00,5.000000000000000000e+00,5.000000000000000000e+00,5.000000000000000000e+00,5.000000000000000000e+00,5.000000000000000000e+00,5.000000000000000000e+00,5.000000000000000000e+00,5.000000000000000000e+00,5.000000000000000000e+00,5.000000000000000000e+00,5.000000000000000000e+00,5.000000000000000000e+00,5.000000000000000000e+00,5.000000000000000000e+00,5.000000000000000000e+00,5.000000000000000000e+00,5.000000000000000000e+00,5.000000000000000000e+00,5.000000000000000000e+00,5.000000000000000000e+00,5.000000000000000000e+00,5.000000000000000000e+00,5.000000000000000000e+00,5.000000000000000000e+00,5.000000000000000000e+00,5.000000000000000000e+00,5.000000000000000000e+00,5.000000000000000000e+00,5.000000000000000000e+00,5.000000000000000000e+00,5.000000000000000000e+00,5.000000000000000000e+00,5.000000000000000000e+00,5.000000000000000000e+00,5.000000000000000000e+00,3.168542146682739258e+00,3.162294387817382812e+00,3.463349103927612305e+00,5.000000000000000000e+00,5.000000000000000000e+00,5.000000000000000000e+00,5.000000000000000000e+00,5.000000000000000000e+00,5.000000000000000000e+00,5.000000000000000000e+00,5.000000000000000000e+00,5.000000000000000000e+00,5.000000000000000000e+00,5.000000000000000000e+00,5.000000000000000000e+00,5.000000000000000000e+00,5.000000000000000000e+00,4.849119663238525391e+00,4.690392494201660156e+00,4.541727066040039062e+00,4.402192592620849609e+00,4.270971775054931641e+00,4.147346973419189453e+00,4.030677795410156250e+00,3.920393466949462891e+00,3.815983295440673828e+00,3.716989994049072266e+00
3.096142530441284180e+00,3.174620151519775391e+00,3.257179498672485352e+00,3.344147443771362305e+00,3.435886621475219727e+00,3.532801389694213867e+00,3.635342359542846680e+00,3.744013786315917969e+00,3.859382390975952148e+00,3.982087135314941406e+00,4.112850666046142578e+00,4.252493381500244141e+00,4.401952266693115234e+00,4.562299251556396484e+00,4.734769821166992188e+00,4.920834541320800781e+00,5.000000000000000000e+00,5.000000000000000000e+00,5.000000000000000000e+00,5.000000000000000000e+00,5.000000000000000000e+00,5.000000000000000000e+00,5.000000000000000000e+00,5.000000000000000000e+00,5.000000000000000000e+00,5.000000000000000000e+00,5.000000000000000000e+00,5.000000000000000000e+00,5.000000000000000000e+00,5.000000000000000000e+00,5.000000000000000000e+00,5.000000000000000000e+00,5.000000000000000000e+00,5.000000000000000000e+00,5.000000000000000000e+00,5.000000000000000000e+00,5.000000000000000000e+00,5.000000000000000000e+00,5.000000000000000000e+00,5.000000000000000000e+00,5.000000000000000000e+00,5.000000000000000000e+00,5.000000000000000000e+00,5.000000000000000000e+00,5.000000000000000000e+00,5.000000000000000000e+00,5.000000000000000000e+00,5.000000000000000000e+00,5.000000000000000000e+00,5.000000000000000000e+00,5.000000000000000000e+00,5.000000000000000000e+00,5.000000000000000000e+00,3.180141925811767578e+00,3.183019638061523438e+00,5.000000000000000000e+00,5.000000000000000000e+00,5.000000000000000000e+00,5.000000000000000000e+00,5.000000000000000000e+00,5.000000000000000000e+00,5.000000000000000000e+00,5.000000000000000000e+00,5.000000000000000000e+00,5.000000000000000000e+00,5.000000000000000000e+00,5.000000000000000000e+00,5.000000000000000000e+00,5.000000000000000000e+00,5.000000000000000000e+00,4.849287509918212891e+00,4.690539836883544922e+00,4.541855812072753906e+00,4.402308464050292969e+00,4.271080970764160156e+00,4.147449970245361328e+00,4.030775547027587891e+00,3.920485496520996094e+00,3.816070556640625000e+00,3.717072725296020508e+00
3.096076488494873047e+00,3.174550771713256836e+00,3.257106304168701172e+00,3.344070434570312500e+00,3.435805559158325195e+00,3.532715797424316406e+00,3.635251760482788086e+00,3.743917703628540039e+00,3.859279870986938477e+00,3.981977939605712891e+00,4.112733840942382812e+00,4.252368927001953125e+00,4.401818752288818359e+00,4.562156200408935547e+00,4.734616279602050781e+00,4.920626640319824219e+00,5.000000000000000000e+00,5.000000000000000000e+00,5.000000000000000000e+00,5.000000000000000000e+00,5.000000000000000000e+00,5.000000000000000000e+00,5.000000000000000000e+00,5.000000000000000000e+00,5.000000000000000000e+00,5.000000000000000000e+00,5.000000000000000000e+00,5.000000000000000000e+00,5.000000000000000000e+00,5.000000000000000000e+00,5.000000000000000000e+00,5.000000000000000000e+00,5.000000000000000000e+00,5.000000000000000000e+00,5.000000000000000000e+00,5.000000000000000000e+00,5.000000000000000000e+00,5.000000000000000000e+00,5.000000000000000000e+00,5.000000000000000000e+00,5.000000000000000000e+00,5.000000000000000000e+00,5.000000000000000000e+00,5.000000000000000000e+00,5.000000000000000000e+00,5.000000000000000000e+00,5.000000000000000000e+00,5.000000000000000000e+00,5.000000000000000000e+00,5.000000000000000000e+00,5.000000000000000000e+00,5.000000000000000000e+00,5.000000000000000000e+00,3.182826757431030273e+00,3.188669204711914062e+00,5.000000000000000000e+00,5.000000000000000000e+00,5.000000000000000000e+00,5.000000000000000000e+00,5.000000000000000000e+00,5.000000000000000000e+00,5.000000000000000000e+00,5.000000000000000000e+00,5.000000000000000000e+00,5.000000000000000000e+00,5.000000000000000000e+00,5.000000000000000000e+00,5.000000000000000000e+00,5.000000000000000000e+00,5.000000000000000000e+00,4.849428653717041016e+00,4.690671443939208984e+00,4.541979789733886719e+00,4.402424812316894531e+00,4.271190166473388672e+00,4.147553443908691406e+00,4.030872821807861328e+00,3.920577526092529297e+00,3.816157817840576172e+00,3.717155456542968750e+00
3.096010446548461914e+00,3.174481391906738281e+00,3.257033348083496094e+00,3.343993425369262695e+00,3.435724258422851562e+00,3.532629966735839844e+00,3.635160923004150391e+00,3.743821144104003906e+00,3.859177827835083008e+00,3.981869220733642578e+00,4.112617969512939453e+00,4.252244949340820312e+00,4.401685714721679688e+00,4.562013149261474609e+00,4.734461784362792969e+00,4.920459747314453125e+00,5.000000000000000000e+00,5.000000000000000000e+00,5.000000000000000000e+00,5.000000000000000000e+00,5.000000000000000000e+00,5.000000000000000000e+00,5.000000000000000000e+00,5.000000000000000000e+00,5.000000000000000000e+00,5.000000000000000000e+00,5.000000000000000000e+00,5.000000000000000000e+00,5.000000000000000000e+00,5.000000000000000000e+00,5.000000000000000000e+00,5.000000000000000000e+00,5.000000000000000000e+00,5.000000000000000000e+00,5.000000000000000000e+00,5.000000000000000000e+00,5.000000000000000000e+00,5.000000000000000000e+00,5.000000000000000000e+00,5.000000000000000000e+00,5.000000000000000000e+00,5.000000000000000000e+00,5.000000000000000000e+00,5.000000000000000000e+00,5.000000000000000000e+00,5.000000000000000000e+00,5.000000000000000000e+00,5.000000000000000000e+00,5.000000000000000000e+00,5.000000000000000000e+00,5.000000000000000000e+00,5.000000000000000000e+00,5.000000000000000000e+00,3.179958581924438477e+00,3.177515745162963867e+00,5.000000000000000000e+00,5.000000000000000000e+00,5.000000000000000000e+00,5.000000000000000000e+00,5.000000000000000000e+00,5.000000000000000000e+00,5.000000000000000000e+00,5.000000000000000000e+00,5.000000000000000000e+00,5.000000000000000000e+00,5.000000000000000000e+00,5.000000000000000000e+00,5.000000000000000000e+00,5.000000000000000000e+00,5.000000000000000000e+00,4.849569320678710938e+00,4.690803527832031250e+00,4.542103290557861328e+00,4.402540683746337891e+00,4.271299362182617188e+00,4.147656440734863281e+00,4.030970096588134766e+00,3.920669794082641602e+00,3.816244840621948242e+00,3.717238187789916992e+00
3.095944881439208984e+00,3.174412012100219727e+00,3.256960391998291016e+00,3.343916416168212891e+00,3.435643196105957031e+00,3.532544136047363281e+00,3.635069847106933594e+00,3.743724584579467773e+00,3.859075307846069336e+00,3.981760025024414062e+00,4.112501621246337891e+00,4.252120494842529297e+00,4.401552677154541016e+00,4.561870098114013672e+00,4.734307765960693359e+00,4.920293807983398438e+00,5.000000000000000000e+00,5.000000000000000000e+00,5.000000000000000000e+00,5.000000000000000000e+00,5.000000000000000000e+00,5.000000000000000000e+00,5.000000000000000000e+00,5.000000000000000000e+00,5.000000000000000000e+00,5.000000000000000000e+00,5.000000000000000000e+00,5.000000000000000000e+00,5.000000000000000000e+00,5.000000000000000000e+00,5.000000000000000000e+00,5.000000000000000000e+00,5.000000000000000000e+00,5.000000000000000000e+00,5.000000000000000000e+00,5.000000000000000000e+00,5.000000000000000000e+00,5.000000000000000000e+00,5.000000000000000000e+00,5.000000000000000000e+00,5.000000000000000000e+00,5.000000000000000000e+00,5.000000000000000000e+00,5.000000000000000000e+00,5.000000000000000000e+00,5.000000000000000000e+00,5.000000000000000000e+00,5.000000000000000000e+00,5.000000000000000000e+00,5.000000000000000000e+00,5.000000000000000000e+00,5.000000000000000000e+00,5.000000000000000000e+00,3.183240175247192383e+00,3.166486740112304688e+00,5.000000000000000000e+00,5.000000000000000000e+00,5.000000000000000000e+00,5.000000000000000000e+00,5.000000000000000000e+00,5.000000000000000000e+00,5.000000000000000000e+00,5.000000000000000000e+00,5.000000000000000000e+00,5.000000000000000000e+00,5.000000000000000000e+00,5.000000000000000000e+00,5.000000000000000000e+00,5.000000000000000000e+00,5.000000000000000000e+00,4.849710464477539062e+00,4.690935134887695312e+00,4.542226791381835938e+00,4.402657032012939453e+00,4.271409034729003906e+00,4.147759437561035156e+00,4.031067371368408203e+00,3.920761823654174805e+00,3.816332101821899414e+00,3.717320919036865234e+00
3.095878839492797852e+00,3.174342870712280273e+00,3.256887674331665039e+00,3.343839883804321289e+00,3.435562133789062500e+00,3.532458543777465820e+00,3.634979009628295898e+00,3.743628263473510742e+00,3.858972787857055664e+00,3.981650829315185547e+00,4.112385272979736328e+00,4.251996040344238281e+00,4.401419162750244141e+00,4.561727046966552734e+00,4.734153270721435547e+00,4.920126914978027344e+00,5.000000000000000000e+00,5.000000000000000000e+00,5.000000000000000000e+00,5.000000000000000000e+00,5.000000000000000000e+00,5.000000000000000000e+00,5.000000000000000000e+00,5.000000000000000000e+00,5.000000000000000000e+00,5.000000000000000000e+00,5.000000000000000000e+00,5.000000000000000000e+00,5.000000000000000000e+00,5.000000000000000000e+00,5.000000000000000000e+00,5.000000000000000000e+00,5.000000000000000000e+00,5.000000000000000000e+00,5.000000000000000000e+00,5.000000000000000000e+00,5.000000000000000000e+00,5.000000000000000000e+00,5.000000000000000000e+00,5.000000000000000000e+00,5.000000000000000000e+00,5.000000000000000000e+00,5.000000000000000000e+00,5.000000000000000000e+00,5.000000000000000000e+00,5.000000000000000000e+00,5.000000000000000000e+00,5.000000000000000000e+00,5.000000000000000000e+00,5.000000000000000000e+00,5.000000000000000000e+00,5.000000000000000000e+00,5.000000000000000000e+00,3.190236091613769531e+00,3.157739162445068359e+00,5.000000000000000000e+00,5.000000000000000000e+00,5.000000000000000000e+00,5.000000000000000000e+00,5.000000000000000000e+00,5.000000000000000000e+00,5.000000000000000000e+00,5.000000000000000000e+00,5.000000000000000000e+00,5.000000000000000000e+00,5.000000000000000000e+00,5.000000000000000000e+00,5.000000000000000000e+00,5.000000000000000000e+00,5.000000000000000000e+00,4.849851608276367188e+00,4.691067218780517578e+00,4.542350769042968750e+00,4.402773380279541016e+00,4.271518230438232422e+00,4.147862434387207031e+00,4.031165122985839844e+00,3.920854330062866211e+00,3.816419839859008789e+00,3.717404127120971680e+00
3.095812797546386719e+00,3.174273490905761719e+00,3.256814479827880859e+00,3.343762874603271484e+00,3.435481071472167969e+00,3.532372713088989258e+00,3.634888410568237305e+00,3.743532180786132812e+00,3.858870744705200195e+00,3.981542348861694336e+00,4.112268924713134766e+00,4.251871585845947266e+00,4.401286125183105469e+00,4.561583995819091797e+00,4.733999252319335938e+00,4.919960498809814453e+00,5.000000000000000000e+00,5.000000000000000000e+00,5.000000000000000000e+00,5.000000000000000000e+00,5.000000000000000000e+00,5.000000000000000000e+00,5.000000000000000000e+00,5.000000000000000000e+00,5.000000000000000000e+00,5.000000000000000000e+00,5.000000000000000000e+00,5.000000000000000000e+00,5.000000000000000000e+00,5.000000000000000000e+00,5.000000000000000000e+00,5.000000000000000000e+00,5.000000000000000000e+00,5.000000000000000000e+00,5.000000000000000000e+00,5.000000000000000000e+00,5.000000000000000000e+00,5.000000000000000000e+00,5.000000000000000000e+00,5.000000000000000000e+00,5.000000000000000000e+00,5.000000000000000000e+00,5.000000000000000000e+00,5.000000000000000000e+00,5.000000000000000000e+00,5.000000000000000000e+00,5.000000000000000000e+00,5.000000000000000000e+00,5.000000000000000000e+00,5.000000000000000000e+00,5.000000000000000000e+00,5.000000000000000000e+00,3.788472890853881836e+00,3.197485446929931641e+00,3.153892517089843750e+00,5.000000000000000000e+00,5.000000000000000000e+00,5.000000000000000000e+00,5.000000000000000000e+00,5.000000000000000000e+00,5.000000000000000000e+00,5.000000000000000000e+00,5.000000000000000000e+00,5.000000000000000000e+00,5.000000000000000000e+00,5.000000000000000000e+00,5.000000000000000000e+00,5.000000000000000000e+00,5.000000000000000000e+00,5.000000000000000000e+00,4.849992275238037109e+00,4.691199302673339844e+00,4.542474269866943359e+00,4.402889728546142578e+00,4.271627902984619141e+00,4.147965908050537109e+00,4.031262397766113281e+00,3.920946359634399414e+00,3.816507101058959961e+00,3.717486858367919922e+00
3.095746994018554688e+00,3.174204111099243164e+00,3.256741523742675781e+00,3.343685865402221680e+00,3.435399770736694336e+00,3.532286643981933594e+00,3.634797334671020508e+00,3.743435621261596680e+00,3.858768224716186523e+00,3.981433153152465820e+00,4.112152576446533203e+00,4.251747608184814453e+00,4.401153087615966797e+00,4.561440944671630859e+00,4.733845710754394531e+00,4.855231761932373047e+00,4.854032039642333984e+00,4.852832317352294922e+00,4.851633548736572266e+00,4.850435256958007812e+00,4.849237442016601562e+00,4.848040103912353516e+00,4.846843719482421875e+00,4.845647811889648438e+00,4.844452381134033203e+00,4.843257904052734375e+00,4.842063426971435547e+00,4.840869903564453125e+00,4.839676856994628906e+00,4.838484287261962891e+00,4.837292671203613281e+00,4.836101055145263672e+00,4.834910869598388672e+00,4.833720684051513672e+00,4.832530975341796875e+00,4.831342220306396484e+00,4.830153942108154297e+00,4.828966140747070312e+00,4.827778816223144531e+00,4.826592445373535156e+00,4.825406551361083984e+00,4.824221134185791016e+00,4.823036193847656250e+00,4.821852207183837891e+00,4.820668220520019531e+00,4.819485187530517578e+00,4.818303108215332031e+00,4.817121028900146484e+00,4.815939426422119141e+00,4.814758777618408203e+00,4.813578605651855469e+00,4.812398910522460938e+00,3.726698637008666992e+00,3.735393285751342773e+00,3.158498764038085938e+00,4.807686328887939453e+00,4.806509494781494141e+00,4.805333614349365234e+00,4.804157733917236328e+00,4.802982807159423828e+00,4.801808834075927734e+00,4.800634384155273438e+00,4.799461364746093750e+00,4.798288822174072266e+00,4.797116756439208984e+00,4.795945167541503906e+00,4.794774055480957031e+00,4.793603897094726562e+00,4.792433738708496094e+00,4.791264533996582031e+00,4.790096282958984375e+00,4.691330909729003906e+00,4.542597770690917969e+00,4.403005599975585938e+00,4.271737098693847656e+00,4.148068904876708984e+00,4.031359672546386719e+00,3.921038389205932617e+00,3.816594362258911133e+00,3.717569828033447266e+00
3.095681190490722656e+00,3.174134969711303711e+00,3.256668806076049805e+00,3.343608856201171875e+00,3.435318470001220703e+00,3.532200813293457031e+00,3.634706497192382812e+00,3.743339300155639648e+00,3.771319389343261719e+00,3.770595550537109375e+00,3.769871473312377930e+00,3.769147872924804688e+00,3.768424749374389648e+00,3.767701625823974609e+00,3.766978740692138672e+00,3.766256570816040039e+00,3.765534400939941406e+00,3.764812231063842773e+00,3.764091014862060547e+00,3.763369321823120117e+00,3.762648344039916992e+00,3.761927843093872070e+00,3.761207103729248047e+00,3.760486602783203125e+00,3.759767055511474609e+00,3.759047269821166992e+00,3.758327960968017578e+00,3.757608890533447266e+00,3.756889820098876953e+00,3.756171464920043945e+00,3.755453109741210938e+00,3.754734754562377930e+00,3.754017353057861328e+00,3.753299713134765625e+00,3.752582311630249023e+00,3.751865625381469727e+00,3.751148939132690430e+00,3.750432252883911133e+00,3.749716520309448242e+00,3.749000549316406250e+00,3.748284816741943359e+00,3.747569799423217773e+00,3.746854543685913086e+00,3.746140003204345703e+00,3.745425462722778320e+00,3.744711160659790039e+00,3.743997573852539062e+00,3.743283748626708984e+00,3.742570161819458008e+00,3.741857290267944336e+00,3.741144418716430664e+00,3.740431547164916992e+00,3.739719629287719727e+00,3.739007472991943359e+00,3.094070911407470703e+00,3.062441349029541016e+00,3.736872911453247070e+00,3.736161708831787109e+00,3.735451459884643555e+00,3.734740972518920898e+00,3.734030723571777344e+00,3.733320951461791992e+00,3.732611179351806641e+00,3.731902122497558594e+00,3.731193065643310547e+00,3.730484008789062500e+00,3.729775905609130859e+00,3.729067325592041016e+00,3.728359222412109375e+00,3.727651834487915039e+00,3.726944208145141602e+00,3.726236820220947266e+00,3.725530385971069336e+00,3.724823474884033203e+00,3.724117040634155273e+00,3.723411083221435547e+00,3.722705125808715820e+00,3.721999883651733398e+00,3.721294403076171875e+00,3.717652559280395508e+00
3.083525896072387695e+00,3.083041906356811523e+00,3.082557916641235352e+00,3.082074165344238281e+00,3.081590652465820312e+00,3.081107139587402344e+00,3.080623626708984375e+00,3.080140590667724609e+00,3.079657554626464844e+00,3.079174518585205078e+00,3.078691959381103516e+00,3.078209161758422852e+00,3.077726840972900391e+00,3.077244520187377930e+00,3.076762437820434570e+00,3.076280593872070312e+00,3.075798749923706055e+00,3.075316905975341797e+00,3.074835538864135742e+00,3.074354171752929688e+00,3.073872804641723633e+00,3.073391914367675781e+00,3.072910785675048828e+00,3.072429895401000977e+00,3.071949481964111328e+00,3.071469068527221680e+00,3.070988655090332031e+00,3.070508480072021484e+00,3.070028543472290039e+00,3.069548606872558594e+00,3.069068908691406250e+00,3.068589210510253906e+00,3.068109989166259766e+00,3.067630767822265625e+00,3.067151546478271484e+00,3.066672801971435547e+00,3.066193819046020508e+00,3.065715074539184570e+00,3.065236806869506836e+00,3.064758300781250000e+00,3.064280033111572266e+00,3.063802003860473633e+00,3.063323974609375000e+00,3.062846183776855469e+00,3.062368869781494141e+00,3.061891317367553711e+00,3.061413764953613281e+00,3.060936689376831055e+00,3.060459613800048828e+00,3.059983015060424805e+00,3.059506177902221680e+00,3.059029340744018555e+00,3.058553218841552734e+00,3.058076858520507812e+00,3.057600498199462891e+00,3.057124614715576172e+00,3.056648731231689453e+00,3.056173086166381836e+00,3.055697679519653320e+00,3.055222034454345703e+00,3.054746866226196289e+00,3.054271936416625977e+00,3.053796768188476562e+00,3.053321838378906250e+00,3.052847385406494141e+00,3.052372694015502930e+00,3.051898241043090820e+00,3.051424264907836914e+00,3.050950050354003906e+00,3.050476312637329102e+00,3.050002574920654297e+00,3.049528837203979492e+00,3.049055576324462891e+00,3.048582077026367188e+00,3.048108816146850586e+00,3.047636032104492188e+00,3.047163009643554688e+00,3.046690225601196289e+00,3.046217679977416992e+00,3.045745134353637695e+00
2.605141401290893555e+00,2.604795694351196289e+00,2.604450464248657227e+00,2.604104995727539062e+00,2.603759765625000000e+00,2.603414535522460938e+00,2.603069543838500977e+00,2.602724552154541016e+00,2.602379560470581055e+00,2.602034807205200195e+00,2.601690053939819336e+00,2.601345539093017578e+00,2.601000785827636719e+00,2.600656509399414062e+00,2.600311994552612305e+00,2.599967718124389648e+00,2.599623680114746094e+00,2.599279642105102539e+00,2.598935365676879883e+00,2.598591566085815430e+00,2.598247766494750977e+00,2.597904205322265625e+00,2.597560405731201172e+00,2.597216844558715820e+00,2.596873521804809570e+00,2.596530199050903320e+00,2.596186876296997070e+00,2.595843791961669922e+00,2.595500469207763672e+00,2.595157623291015625e+00,2.594814777374267578e+00,2.594471931457519531e+00,2.594129085540771484e+00,2.593786478042602539e+00,2.593443870544433594e+00,2.593101501464843750e+00,2.592759132385253906e+00,2.592416763305664062e+00,2.592074632644653320e+00,2.591732740402221680e+00,2.591390609741210938e+00,2.591048717498779297e+00,2.590706825256347656e+00,2.590365171432495117e+00,2.590023517608642578e+00,2.589681863784790039e+00,2.589340448379516602e+00,2.588999271392822266e+00,2.588657855987548828e+00,2.588316679000854492e+00,2.587975740432739258e+00,2.587634563446044922e+00,2.587293624877929688e+00,2.586952924728393555e+00,2.586611986160278320e+00,2.586271524429321289e+00,2.585930824279785156e+00,2.585590362548828125e+00,2.585250139236450195e+00,2.584909915924072266e+00,2.584569454193115234e+00,2.584229469299316406e+00,2.583889484405517578e+00,2.583549499511718750e+00,2.583209753036499023e+00,2.582870006561279297e+00,2.582530260086059570e+00,2.582190752029418945e+00,2.581851243972778320e+00,2.581511735916137695e+00,2.581172466278076172e+00,2.580833196640014648e+00,2.580494165420532227e+00,2.580155134201049805e+00,2.579816102981567383e+00,2.579477310180664062e+00,2.579138517379760742e+00,2.578799724578857422e+00,2.578461408615112305e+00,2.578122615814208984e+00
2.255256175994873047e+00,2.254997253417968750e+00,2.254738330841064453e+00,2.254479646682739258e+00,2.254220724105834961e+00,2.253962039947509766e+00,2.253703355789184570e+00,2.253444671630859375e+00,2.253186225891113281e+00,2.252927780151367188e+00,2.252669334411621094e+00,2.252410888671875000e+00,2.252152681350708008e+00,2.251894474029541016e+00,2.251636266708374023e+00,2.251378059387207031e+00,2.251120090484619141e+00,2.250862121582031250e+00,2.250603914260864258e+00,2.250346183776855469e+00,2.250088214874267578e+00,2.249830484390258789e+00,2.249572753906250000e+00,2.249315023422241211e+00,2.249057531356811523e+00,2.248800039291381836e+00,2.248542547225952148e+00,2.248285055160522461e+00,2.248027801513671875e+00,2.247770309448242188e+00,2.247513294219970703e+00,2.247256040573120117e+00,2.246998786926269531e+00,2.246741771697998047e+00,2.246484756469726562e+00,2.246227741241455078e+00,2.245970964431762695e+00,2.245713949203491211e+00,2.245457172393798828e+00,2.245200634002685547e+00,2.244943857192993164e+00,2.244687080383300781e+00,2.244430780410766602e+00,2.244174242019653320e+00,2.243917703628540039e+00,2.243661403656005859e+00,2.243405103683471680e+00,2.243149042129516602e+00,2.242892742156982422e+00,2.242636442184448242e+00,2.242380619049072266e+00,2.242124557495117188e+00,2.241868495941162109e+00,2.241612672805786133e+00,2.241356611251831055e+00,2.241100788116455078e+00,2.240845203399658203e+00,2.240589618682861328e+00,2.240333795547485352e+00,2.240078449249267578e+00,2.239822864532470703e+00,2.239567279815673828e+00,2.239312171936035156e+00,2.239056825637817383e+00,2.238801479339599609e+00,2.238546371459960938e+00,2.238291025161743164e+00,2.238036155700683594e+00,2.237781047821044922e+00,2.237525939941406250e+00,2.237271308898925781e+00,2.237016201019287109e+00,2.236761569976806641e+00,2.236506700515747070e+00,2.236252069473266602e+00,2.235997438430786133e+00,2.235742807388305664e+00,2.235488414764404297e+00,2.235233783721923828e+00,2.234979629516601562e+00
1.988226294517517090e+00,1.988025069236755371e+00,1.987823843955993652e+00,1.987622499465942383e+00,1.987421512603759766e+00,1.987220406532287598e+00,1.987019419670104980e+00,1.986818194389343262e+00,1.986617326736450195e+00,1.986416459083557129e+00,1.986215353012084961e+00,1.986014604568481445e+00,1.985813856124877930e+00,1.985613107681274414e+00,1.985412240028381348e+00,1.985211610794067383e+00,1.985010862350463867e+00,1.984810233116149902e+00,1.984609842300415039e+00,1.984409332275390625e+00,1.984208583831787109e+00,1.984008193016052246e+00,1.983807921409606934e+00,1.983607411384582520e+00,1.983407139778137207e+00,1.983206868171691895e+00,1.983006477355957031e+00,1.982806324958801270e+00,1.982606172561645508e+00,1.982405900955200195e+00,1.982205867767333984e+00,1.982005953788757324e+00,1.981805682182312012e+00,1.981605887413024902e+00,1.981405973434448242e+00,1.981205940246582031e+00,1.981006145477294922e+00,1.980806350708007812e+00,1.980606436729431152e+00,1.980406761169433594e+00,1.980207204818725586e+00,1.980007410049438477e+00,1.979807853698730469e+00,1.979608297348022461e+00,1.979408621788024902e+00,1.979209184646606445e+00,1.979009866714477539e+00,1.978810310363769531e+00,1.978610992431640625e+00,1.978411674499511719e+00,1.978212237358093262e+00,1.978013038635253906e+00,1.977813959121704102e+00,1.977614879608154297e+00,1.977415561676025391e+00,1.977216482162475586e+00,1.977017521858215332e+00,1.976818323135375977e+00,1.976619482040405273e+00,1.976420640945434570e+00,1.976221561431884766e+00,1.976022720336914062e+00,1.975823998451232910e+00,1.975625157356262207e+00,1.975426435470581055e+00,1.975227832794189453e+00,1.975028991699218750e+00,1.974830508232116699e+00,1.974632024765014648e+00,1.974433302879333496e+00,1.974234819412231445e+00,1.974036455154418945e+00,1.973837971687316895e+00,1.973639607429504395e+00,1.973441362380981445e+00,1.973242878913879395e+00,1.973044753074645996e+00,1.972846627235412598e+00,1.972648262977600098e+00,1.972450137138366699e+00
1.777736306190490723e+00,1.777575492858886719e+00,1.777414679527282715e+00,1.777253627777099609e+00,1.777092933654785156e+00,1.776932120323181152e+00,1.776771306991577148e+00,1.776610612869262695e+00,1.776449918746948242e+00,1.776289343833923340e+00,1.776128530502319336e+00,1.775967955589294434e+00,1.775807499885559082e+00,1.775646805763244629e+00,1.775486230850219727e+00,1.775325894355773926e+00,1.775165200233459473e+00,1.775004863739013672e+00,1.774844527244567871e+00,1.774684190750122070e+00,1.774523615837097168e+00,1.774363398551940918e+00,1.774202942848205566e+00,1.774042725563049316e+00,1.773882508277893066e+00,1.773722410202026367e+00,1.773562073707580566e+00,1.773401975631713867e+00,1.773241877555847168e+00,1.773081660270690918e+00,1.772921681404113770e+00,1.772761702537536621e+00,1.772601485252380371e+00,1.772441625595092773e+00,1.772281646728515625e+00,1.772121667861938477e+00,1.771961808204650879e+00,1.771801948547363281e+00,1.771641969680786133e+00,1.771482229232788086e+00,1.771322488784790039e+00,1.771162629127502441e+00,1.771003007888793945e+00,1.770843386650085449e+00,1.770683526992797852e+00,1.770523905754089355e+00,1.770364403724670410e+00,1.770204663276672363e+00,1.770045161247253418e+00,1.769885778427124023e+00,1.769726037979125977e+00,1.769566655158996582e+00,1.769407272338867188e+00,1.769247770309448242e+00,1.769088387489318848e+00,1.768929123878479004e+00,1.768769741058349609e+00,1.768610477447509766e+00,1.768451213836669922e+00,1.768292069435119629e+00,1.768132686614990234e+00,1.767973661422729492e+00,1.767814517021179199e+00,1.767655253410339355e+00,1.767496228218078613e+00,1.767337203025817871e+00,1.767178058624267578e+00,1.767019152641296387e+00,1.766860127449035645e+00,1.766701102256774902e+00,1.766542196273803711e+00,1.766383409500122070e+00,1.766224384307861328e+00,1.766065597534179688e+00,1.765906929969787598e+00,1.765748023986816406e+00,1.765589237213134766e+00,1.765430688858032227e+00,1.765271902084350586e+00,1.765113234519958496e+00
1.607548117637634277e+00,1.607416629791259766e+00,1.607284903526306152e+00,1.607153415679931641e+00,1.607021927833557129e+00,1.606890439987182617e+00,1.606758952140808105e+00,1.606627583503723145e+00,1.606496214866638184e+00,1.606364607810974121e+00,1.606233358383178711e+00,1.606101989746093750e+00,1.605970501899719238e+00,1.605839252471923828e+00,1.605708003044128418e+00,1.605576753616333008e+00,1.605445384979248047e+00,1.605314254760742188e+00,1.605183124542236328e+00,1.605051755905151367e+00,1.604920625686645508e+00,1.604789614677429199e+00,1.604658484458923340e+00,1.604527235031127930e+00,1.604396224021911621e+00,1.604265093803405762e+00,1.604134082794189453e+00,1.604003071784973145e+00,1.603871941566467285e+00,1.603741049766540527e+00,1.603610157966613770e+00,1.603479266166687012e+00,1.603348255157470703e+00,1.603217363357543945e+00,1.603086590766906738e+00,1.602955579757690430e+00,1.602824807167053223e+00,1.602694034576416016e+00,1.602563142776489258e+00,1.602432489395141602e+00,1.602301716804504395e+00,1.602170944213867188e+00,1.602040290832519531e+00,1.601909637451171875e+00,1.601778864860534668e+00,1.601648330688476562e+00,1.601517677307128906e+00,1.601387023925781250e+00,1.601256489753723145e+00,1.601125955581665039e+00,1.600995421409606934e+00,1.600864887237548828e+00,1.600734472274780273e+00,1.600603938102722168e+00,1.600473523139953613e+00,1.600343108177185059e+00,1.600212574005126953e+00,1.600082278251647949e+00,1.599951982498168945e+00,1.599821448326110840e+00,1.599691271781921387e+00,1.599560976028442383e+00,1.599430561065673828e+00,1.599300384521484375e+00,1.599170207977294922e+00,1.599040031433105469e+00,1.598909735679626465e+00,1.598779678344726562e+00,1.598649501800537109e+00,1.598519325256347656e+00,1.598389267921447754e+00,1.598259210586547852e+00,1.598129034042358398e+00,1.597999095916748047e+00,1.597869038581848145e+00,1.597738981246948242e+00,1.597609043121337891e+00,1.597479104995727539e+00,1.597349047660827637e+00,1.597219228744506836e+00
1.467098236083984375e+00,1.466988563537597656e+00,1.466879010200500488e+00,1.466769576072692871e+00,1.466660022735595703e+00,1.466550350189208984e+00,1.466440916061401367e+00,1.466331481933593750e+00,1.466221928596496582e+00,1.466112494468688965e+00,1.466003060340881348e+00,1.465893626213073730e+00,1.465784192085266113e+00,1.465674877166748047e+00,1.465565443038940430e+00,1.465456008911132812e+00,1.465346693992614746e+00,1.465237379074096680e+00,1.465128183364868164e+00,1.465018749237060547e+00,1.464909553527832031e+00,1.464800238609313965e+00,1.464690923690795898e+00,1.464581727981567383e+00,1.464472532272338867e+00,1.464363455772399902e+00,1.464254140853881836e+00,1.464145064353942871e+00,1.464035749435424805e+00,1.463926672935485840e+00,1.463817596435546875e+00,1.463708400726318359e+00,1.463599324226379395e+00,1.463490366935729980e+00,1.463381171226501465e+00,1.463272213935852051e+00,1.463163137435913086e+00,1.463054180145263672e+00,1.462945103645324707e+00,1.462836265563964844e+00,1.462727308273315430e+00,1.462618231773376465e+00,1.462509393692016602e+00,1.462400555610656738e+00,1.462291598320007324e+00,1.462182760238647461e+00,1.462073922157287598e+00,1.461964964866638184e+00,1.461856126785278320e+00,1.461747407913208008e+00,1.461638569831848145e+00,1.461529850959777832e+00,1.461421012878417969e+00,1.461312294006347656e+00,1.461203575134277344e+00,1.461094856262207031e+00,1.460986137390136719e+00,1.460877418518066406e+00,1.460768818855285645e+00,1.460660099983215332e+00,1.460551500320434570e+00,1.460442900657653809e+00,1.460334181785583496e+00,1.460225701332092285e+00,1.460117101669311523e+00,1.460008502006530762e+00,1.459900021553039551e+00,1.459791541099548340e+00,1.459682941436767578e+00,1.459574460983276367e+00,1.459466099739074707e+00,1.459357619285583496e+00,1.459249138832092285e+00,1.459140777587890625e+00,1.459032416343688965e+00,1.458923935890197754e+00,1.458815574645996094e+00,1.458707213401794434e+00,1.458598852157592773e+00,1.458490490913391113e+00
1.349218368530273438e+00,1.349125623703002930e+00,1.349032998085021973e+00,1.348940372467041016e+00,1.348847627639770508e+00,1.348755002021789551e+00,1.348662376403808594e+00,1.348569869995117188e+00,1.348477125167846680e+00,1.348384618759155273e+00,1.348291993141174316e+00,1.348199367523193359e+00,1.348106861114501953e+00,1.348014354705810547e+00,1.347921848297119141e+00,1.347829341888427734e+00,1.347736835479736328e+00,1.347644448280334473e+00,1.347551822662353516e+00,1.347459435462951660e+00,1.347367048263549805e+00,1.347274661064147949e+00,1.347182154655456543e+00,1.347089767456054688e+00,1.346997380256652832e+00,1.346904993057250977e+00,1.346812605857849121e+00,1.346720337867736816e+00,1.346627950668334961e+00,1.346535563468933105e+00,1.346443295478820801e+00,1.346350908279418945e+00,1.346258640289306641e+00,1.346166372299194336e+00,1.346074104309082031e+00,1.345981836318969727e+00,1.345889568328857422e+00,1.345797300338745117e+00,1.345705151557922363e+00,1.345612883567810059e+00,1.345520734786987305e+00,1.345428586006164551e+00,1.345336437225341797e+00,1.345244288444519043e+00,1.345152020454406738e+00,1.345059990882873535e+00,1.344967842102050781e+00,1.344875693321228027e+00,1.344783663749694824e+00,1.344691514968872070e+00,1.344599485397338867e+00,1.344507455825805664e+00,1.344415426254272461e+00,1.344323277473449707e+00,1.344231247901916504e+00,1.344139337539672852e+00,1.344047307968139648e+00,1.343955278396606445e+00,1.343863368034362793e+00,1.343771338462829590e+00,1.343679428100585938e+00,1.343587517738342285e+00,1.343495488166809082e+00,1.343403697013854980e+00,1.343311786651611328e+00,1.343219876289367676e+00,1.343127965927124023e+00,1.343036174774169922e+00,1.342944264411926270e+00,1.342852473258972168e+00,1.342760682106018066e+00,1.342668771743774414e+00,1.342577099800109863e+00,1.342485308647155762e+00,1.342393517494201660e+00,1.342301726341247559e+00,1.342210054397583008e+00,1.342118382453918457e+00,1.342026591300964355e+00,1.341934919357299805e+00
1.248872637748718262e+00,1.248793244361877441e+00,1.248713850975036621e+00,1.248634338378906250e+00,1.248555064201354980e+00,1.248475670814514160e+00,1.248396396636962891e+00,1.248316884040832520e+00,1.248237609863281250e+00,1.248158335685729980e+00,1.248078942298889160e+00,1.247999668121337891e+00,1.247920393943786621e+00,1.247841119766235352e+00,1.247761726379394531e+00,1.247682452201843262e+00,1.247603297233581543e+00,1.247523903846740723e+00,1.247444748878479004e+00,1.247365474700927734e+00,1.247286319732666016e+00,1.247207045555114746e+00,1.247127890586853027e+00,1.247048735618591309e+00,1.246969461441040039e+00,1.246890306472778320e+00,1.246811151504516602e+00,1.246732115745544434e+00,1.246652841567993164e+00,1.246573805809020996e+00,1.246494650840759277e+00,1.246415495872497559e+00,1.246336460113525391e+00,1.246257305145263672e+00,1.246178150177001953e+00,1.246099114418029785e+00,1.246020078659057617e+00,1.245941042900085449e+00,1.245862007141113281e+00,1.245782971382141113e+00,1.245703935623168945e+00,1.245624899864196777e+00,1.245545983314514160e+00,1.245466828346252441e+00,1.245387911796569824e+00,1.245308995246887207e+00,1.245229959487915039e+00,1.245151042938232422e+00,1.245072126388549805e+00,1.244993209838867188e+00,1.244914174079895020e+00,1.244835376739501953e+00,1.244756460189819336e+00,1.244677543640136719e+00,1.244598627090454102e+00,1.244519829750061035e+00,1.244440913200378418e+00,1.244361996650695801e+00,1.244283199310302734e+00,1.244204401969909668e+00,1.244125604629516602e+00,1.244046807289123535e+00,1.243967890739440918e+00,1.243889093399047852e+00,1.243810415267944336e+00,1.243731498718261719e+00,1.243652820587158203e+00,1.243574142456054688e+00,1.243495345115661621e+00,1.243416547775268555e+00,1.243337869644165039e+00,1.243259072303771973e+00,1.243180394172668457e+00,1.243101835250854492e+00,1.243023037910461426e+00,1.242944359779357910e+00,1.242865800857543945e+00,1.242787003517150879e+00,1.242708444595336914e+00,1.242629885673522949e+00
1.162419795989990234e+00,1.162351012229919434e+00,1.162282228469848633e+00,1.162213444709777832e+00,1.162144660949707031e+00,1.162075877189636230e+00,1.162007093429565430e+00,1.161938309669494629e+00,1.161869645118713379e+00,1.161800980567932129e+00,1.161732196807861328e+00,1.161663413047790527e+00,1.161594748497009277e+00,1.161525964736938477e+00,1.161457300186157227e+00,1.161388635635375977e+00,1.161319971084594727e+00,1.161251306533813477e+00,1.161182641983032227e+00,1.161113977432250977e+00,1.161045312881469727e+00,1.160976648330688477e+00,1.160908102989196777e+00,1.160839557647705078e+00,1.160770773887634277e+00,1.160702228546142578e+00,1.160633683204650879e+00,1.160565018653869629e+00,1.160496473312377930e+00,1.160427927970886230e+00,1.160359382629394531e+00,1.160290718078613281e+00,1.160222291946411133e+00,1.160153746604919434e+00,1.160085082054138184e+00,1.160016655921936035e+00,1.159948110580444336e+00,1.159879684448242188e+00,1.159811139106750488e+00,1.159742593765258789e+00,1.159674048423767090e+00,1.159605622291564941e+00,1.159537196159362793e+00,1.159468650817871094e+00,1.159400224685668945e+00,1.159331798553466797e+00,1.159263372421264648e+00,1.159194946289062500e+00,1.159126520156860352e+00,1.159058094024658203e+00,1.158989667892456055e+00,1.158921241760253906e+00,1.158852815628051758e+00,1.158784508705139160e+00,1.158716201782226562e+00,1.158647775650024414e+00,1.158579349517822266e+00,1.158511042594909668e+00,1.158442735671997070e+00,1.158374309539794922e+00,1.158306121826171875e+00,1.158237814903259277e+00,1.158169507980346680e+00,1.158101201057434082e+00,1.158032894134521484e+00,1.157964587211608887e+00,1.157896280288696289e+00,1.157828092575073242e+00,1.157759785652160645e+00,1.157691597938537598e+00,1.157623291015625000e+00,1.157554984092712402e+00,1.157486796379089355e+00,1.157418608665466309e+00,1.157350420951843262e+00,1.157282233238220215e+00,1.157214045524597168e+00,1.157145738601684570e+00,1.157077670097351074e+00,1.157009482383728027e+00
1.087161302566528320e+00,1.087101221084594727e+00,1.087040901184082031e+00,1.086980819702148438e+00,1.086920619010925293e+00,1.086860537528991699e+00,1.086800336837768555e+00,1.086740255355834961e+00,1.086680054664611816e+00,1.086619973182678223e+00,1.086559772491455078e+00,1.086499691009521484e+00,1.086439609527587891e+00,1.086379528045654297e+00,1.086319446563720703e+00,1.086259365081787109e+00,1.086199283599853516e+00,1.086139202117919922e+00,1.086079120635986328e+00,1.086019039154052734e+00,1.085958957672119141e+00,1.085898995399475098e+00,1.085838913917541504e+00,1.085778832435607910e+00,1.085718870162963867e+00,1.085658907890319824e+00,1.085598826408386230e+00,1.085538864135742188e+00,1.085478782653808594e+00,1.085418820381164551e+00,1.085358858108520508e+00,1.085298895835876465e+00,1.085238933563232422e+00,1.085178971290588379e+00,1.085119009017944336e+00,1.085059046745300293e+00,1.084999084472656250e+00,1.084939122200012207e+00,1.084879159927368164e+00,1.084819316864013672e+00,1.084759354591369629e+00,1.084699392318725586e+00,1.084639549255371094e+00,1.084579586982727051e+00,1.084519743919372559e+00,1.084459900856018066e+00,1.084399938583374023e+00,1.084340095520019531e+00,1.084280252456665039e+00,1.084220290184020996e+00,1.084160447120666504e+00,1.084100604057312012e+00,1.084040760993957520e+00,1.083980917930603027e+00,1.083921074867248535e+00,1.083861231803894043e+00,1.083801507949829102e+00,1.083741664886474609e+00,1.083681821823120117e+00,1.083622097969055176e+00,1.083562254905700684e+00,1.083502411842346191e+00,1.083442687988281250e+00,1.083382964134216309e+00,1.083323240280151367e+00,1.083263397216796875e+00,1.083203673362731934e+00,1.083143949508666992e+00,1.083084225654602051e+00,1.083024501800537109e+00,1.082964777946472168e+00,1.082904934883117676e+00,1.082845330238342285e+00,1.082785606384277344e+00,1.082725882530212402e+00,1.082666158676147461e+00,1.082606554031372070e+00,1.082546830177307129e+00,1.082487106323242188e+00,1.082427501678466797e+00
1.021055221557617188e+00,1.021002054214477539e+00,1.020949006080627441e+00,1.020895957946777344e+00,1.020842909812927246e+00,1.020789861679077148e+00,1.020736813545227051e+00,1.020683765411376953e+00,1.020630717277526855e+00,1.020577669143676758e+00,1.020524621009826660e+00,1.020471692085266113e+00,1.020418524742126465e+00,1.020365595817565918e+00,1.020312547683715820e+00,1.020259499549865723e+00,1.020206570625305176e+00,1.020153522491455078e+00,1.020100593566894531e+00,1.020047545433044434e+00,1.019994616508483887e+00,1.019941687583923340e+00,1.019888639450073242e+00,1.019835710525512695e+00,1.019782781600952148e+00,1.019729852676391602e+00,1.019676804542541504e+00,1.019623875617980957e+00,1.019570946693420410e+00,1.019518017768859863e+00,1.019465088844299316e+00,1.019412279129028320e+00,1.019359350204467773e+00,1.019306421279907227e+00,1.019253492355346680e+00,1.019200563430786133e+00,1.019147634506225586e+00,1.019094824790954590e+00,1.019041895866394043e+00,1.018989086151123047e+00,1.018936157226562500e+00,1.018883347511291504e+00,1.018830537796020508e+00,1.018777608871459961e+00,1.018724799156188965e+00,1.018671989440917969e+00,1.018619060516357422e+00,1.018566250801086426e+00,1.018513441085815430e+00,1.018460631370544434e+00,1.018407821655273438e+00,1.018355011940002441e+00,1.018302202224731445e+00,1.018249392509460449e+00,1.018196582794189453e+00,1.018143773078918457e+00,1.018090963363647461e+00,1.018038272857666016e+00,1.017985463142395020e+00,1.017932653427124023e+00,1.017879962921142578e+00,1.017827153205871582e+00,1.017774462699890137e+00,1.017721652984619141e+00,1.017668962478637695e+00,1.017616152763366699e+00,1.017563462257385254e+00,1.017510771751403809e+00,1.017458081245422363e+00,1.017405271530151367e+00,1.017352700233459473e+00,1.017299890518188477e+00,1.017247200012207031e+00,1.017194509506225586e+00,1.017141819000244141e+00,1.017089128494262695e+00,1.017036557197570801e+00,1.016983747482299805e+00,1.016931176185607910e+00,1.016878485679626465e+00
9.625277519226074219e-01,9.624804854393005371e-01,9.624333381652832031e-01,9.623861312866210938e-01,9.623389840126037598e-01,9.622918367385864258e-01,9.622447490692138672e-01,9.621976017951965332e-01,9.621503949165344238e-01,9.621032476425170898e-01,9.620561599731445312e-01,9.620090126991271973e-01,9.619619250297546387e-01,9.619148373603820801e-01,9.618677496910095215e-01,9.618205428123474121e-01,9.617734551429748535e-01,9.617263674736022949e-01,9.616792798042297363e-01,9.616321921348571777e-01,9.615851640701293945e-01,9.615380764007568359e-01,9.614909291267395020e-01,9.614438414573669434e-01,9.613968133926391602e-01,9.613497257232666016e-01,9.613026976585388184e-01,9.612556695938110352e-01,9.612086415290832520e-01,9.611614942550659180e-01,9.611144661903381348e-01,9.610674381256103516e-01,9.610204696655273438e-01,9.609734416007995605e-01,9.609264135360717773e-01,9.608794450759887695e-01,9.608323574066162109e-01,9.607853293418884277e-01,9.607383608818054199e-01,9.606913924217224121e-01,9.606444239616394043e-01,9.605974555015563965e-01,9.605504870414733887e-01,9.605033993721008301e-01,9.604564309120178223e-01,9.604094624519348145e-01,9.603625535964965820e-01,9.603155851364135742e-01,9.602686166763305664e-01,9.602215886116027832e-01,9.601746797561645508e-01,9.601277112960815430e-01,9.600808024406433105e-01,9.600338935852050781e-01,9.599869847297668457e-01,9.599399566650390625e-01,9.598930478096008301e-01,9.598461389541625977e-01,9.597992897033691406e-01,9.597523808479309082e-01,9.597054719924926758e-01,9.596585035324096680e-01,9.596116542816162109e-01,9.595647454261779785e-01,9.595178961753845215e-01,9.594710469245910645e-01,9.594241380691528320e-01,9.593772292137145996e-01,9.593303799629211426e-01,9.592835307121276855e-01,9.592366814613342285e-01,9.591898322105407715e-01,9.591429829597473145e-01,9.590960741043090820e-01,9.590492248535156250e-01,9.590024352073669434e-01,9.589556455612182617e-01,9.589087963104248047e-01,9.588620066642761230e-01,9.588152170181274414e-01
