5.000000000000000000e+00,5.000000000000000000e+00,5.000000000000000000e+00,5.000000000000000000e+00,5.000000000000000000e+00,5.000000000000000000e+00,5.000000000000000000e+00,5.000000000000000000e+00,5.000000000000000000e+00,5.000000000000000000e+00,5.000000000000000000e+00,5.000000000000000000e+00,5.000000000000000000e+00,5.000000000000000000e+00,5.000000000000000000e+00,5.000000000000000000e+00,5.000000000000000000e+00,5.000000000000000000e+00,5.000000000000000000e+00,5.000000000000000000e+00,5.000000000000000000e+00,5.000000000000000000e+00,5.000000000000000000e+00,5.000000000000000000e+00,5.000000000000000000e+00,5.000000000000000000e+00,5.000000000000000000e+00,5.000000000000000000e+00,5.000000000000000000e+00,5.000000000000000000e+00,5.000000000000000000e+00,5.000000000000000000e+00,5.000000000000000000e+00,5.000000000000000000e+00,5.000000000000000000e+00,5.000000000000000000e+00,5.000000000000000000e+00,5.000000000000000000e+00,5.000000000000000000e+00,5.000000000000000000e+00,5.000000000000000000e+00,5.000000000000000000e+00,5.000000000000000000e+00,5.000000000000000000e+00,5.000000000000000000e+00,5.000000000000000000e+00,5.000000000000000000e+00,5.000000000000000000e+00,5.000000000000000000e+00,5.000000000000000000e+00,5.000000000000000000e+00,5.000000000000000000e+00,5.000000000000000000e+00,5.000000000000000000e+00,5.000000000000000000e+00,5.000000000000000000e+00,5.000000000000000000e+00,4.525410175323486328e+00,4.389252662658691406e+00,4.261049270629882812e+00,4.140122413635253906e+00,4.025869846343994141e+00,3.917754173278808594e+00,3.815293312072753906e+00,3.718055486679077148e+00,3.625650644302368164e+00,3.537727355957031250e+00,3.453967571258544922e+00,3.374082326889038086e+00,3.297808647155761719e+00,3.224907636642456055e+00,3.155159711837768555e+00,3.088364839553833008e+00,3.024339437484741211e+00,2.962914705276489258e+00,2.903935670852661133e+00,2.847258567810058594e+00,2.792751789093017578e+00,2.740292549133300781e+00,2.689767837524414062e+00
5.000000000000000000e+00,5.000000000000000000e+00,5.000000000000000000e+00,5.000000000000000000e+00,5.000000000000000000e+00,5.000000000000000000e+00,5.000000000000000000e+00,5.000000000000000000e+00,5.000000000000000000e+00,5.000000000000000000e+00,5.000000000000000000e+00,5.000000000000000000e+00,5.000000000000000000e+00,5.000000000000000000e+00,5.000000000000000000e+00,5.000000000000000000e+00,5.000000000000000000e+00,5.000000000000000000e+00,5.000000000000000000e+00,5.000000000000000000e+00,5.000000000000000000e+00,5.000000000000000000e+00,5.000000000000000000e+00,5.000000000000000000e+00,5.000000000000000000e+00,5.000000000000000000e+00,5.000000000000000000e+00,5.000000000000000000e+00,5.000000000000000000e+00,5.000000000000000000e+00,5.000000000000000000e+00,5.000000000000000000e+00,5.000000000000000000e+00,5.000000000000000000e+00,5.000000000000000000e+00,5.000000000000000000e+00,5.000000000000000000e+00,5.000000000000000000e+00,5.000000000000000000e+00,5.000000000000000000e+00,5.000000000000000000e+00,5.000000000000000000e+00,5.000000000000000000e+00,5.000000000000000000e+00,5.000000000000000000e+00,5.000000000000000000e+00,5.000000000000000000e+00,5.000000000000000000e+00,5.000000000000000000e+00,5.000000000000000000e+00,5.000000000000000000e+00,5.000000000000000000e+00,5.000000000000000000e+00,5.000000000000000000e+00,5.000000000000000000e+00,5.000000000000000000e+00,4.670400142669677734e+00,4.525517940521240234e+00,4.389353752136230469e+00,4.261144638061523438e+00,4.140212059020996094e+00,4.025955200195312500e+00,3.917834520339965820e+00,3.815369606018066406e+00,3.718127965927124023e+00,3.625719547271728516e+00,3.537792921066284180e+00,3.454030275344848633e+00,3.374141931533813477e+00,3.297865867614746094e+00,3.224961996078491211e+00,3.155211925506591797e+00,3.088414907455444336e+00,3.024387359619140625e+00,2.962960720062255859e+00,2.903979778289794922e+00,2.847301006317138672e+00,2.792796611785888672e+00,2.740342855453491211e+00,2.689822912216186523e+00
5.000000000000000000e+00,5.000000000000000000e+00,5.000000000000000000e+00,5.000000000000000000e+00,5.000000000000000000e+00,5.000000000000000000e+00,5.000000000000000000e+00,5.000000000000000000e+00,5.000000000000000000e+00,5.000000000000000000e+00,5.000000000000000000e+00,5.000000000000000000e+00,5.000000000000000000e+00,5.000000000000000000e+00,5.000000000000000000e+00,5.000000000000000000e+00,5.000000000000000000e+00,5.000000000000000000e+00,5.000000000000000000e+00,5.000000000000000000e+00,5.000000000000000000e+00,5.000000000000000000e+00,5.000000000000000000e+00,5.000000000000000000e+00,5.000000000000000000e+00,5.000000000000000000e+00,5.000000000000000000e+00,5.000000000000000000e+00,5.000000000000000000e+00,5.000000000000000000e+00,5.000000000000000000e+00,5.000000000000000000e+00,5.000000000000000000e+00,5.000000000000000000e+00,5.000000000000000000e+00,5.000000000000000000e+00,5.000000000000000000e+00,5.000000000000000000e+00,5.000000000000000000e+00,5.000000000000000000e+00,5.000000000000000000e+00,5.000000000000000000e+00,5.000000000000000000e+00,5.000000000000000000e+00,5.000000000000000000e+00,5.000000000000000000e+00,5.000000000000000000e+00,5.000000000000000000e+00,5.000000000000000000e+00,5.000000000000000000e+00,5.000000000000000000e+00,5.000000000000000000e+00,5.000000000000000000e+00,5.000000000000000000e+00,5.000000000000000000e+00,4.824987888336181641e+00,4.670514106750488281e+00,4.525625228881835938e+00,4.389454841613769531e+00,4.261240005493164062e+00,4.140302181243896484e+00,4.026040077209472656e+00,3.917915105819702148e+00,3.815446138381958008e+00,3.718199968338012695e+00,3.625788688659667969e+00,3.537858724594116211e+00,3.454092741012573242e+00,3.374201774597167969e+00,3.297922849655151367e+00,3.225016355514526367e+00,3.155264139175415039e+00,3.088464736938476562e+00,3.024435520172119141e+00,2.963012218475341797e+00,2.904037237167358398e+00,2.847363710403442383e+00,2.792860031127929688e+00,2.740403890609741211e+00,2.689881801605224609e+00
5.000000000000000000e+00,5.000000000000000000e+00,5.000000000000000000e+00,5.000000000000000000e+00,5.000000000000000000e+00,5.000000000000000000e+00,5.000000000000000000e+00,5.000000000000000000e+00,5.000000000000000000e+00,5.000000000000000000e+00,5.000000000000000000e+00,5.000000000000000000e+00,5.000000000000000000e+00,5.000000000000000000e+00,5.000000000000000000e+00,5.000000000000000000e+00,5.000000000000000000e+00,5.000000000000000000e+00,5.000000000000000000e+00,5.000000000000000000e+00,5.000000000000000000e+00,5.000000000000000000e+00,5.000000000000000000e+00,5.000000000000000000e+00,5.000000000000000000e+00,5.000000000000000000e+00,5.000000000000000000e+00,5.000000000000000000e+00,5.000000000000000000e+00,5.000000000000000000e+00,5.000000000000000000e+00,5.000000000000000000e+00,5.000000000000000000e+00,5.000000000000000000e+00,5.000000000000000000e+00,5.000000000000000000e+00,5.000000000000000000e+00,5.000000000000000000e+00,5.000000000000000000e+00,5.000000000000000000e+00,5.000000000000000000e+00,5.000000000000000000e+00,5.000000000000000000e+00,5.000000000000000000e+00,5.000000000000000000e+00,5.000000000000000000e+00,5.000000000000000000e+00,5.000000000000000000e+00,5.000000000000000000e+00,5.000000000000000000e+00,5.000000000000000000e+00,5.000000000000000000e+00,5.000000000000000000e+00,5.000000000000000000e+00,4.990159034729003906e+00,4.825109958648681641e+00,4.670628547668457031e+00,4.525732517242431641e+00,4.389555931091308594e+00,4.261334896087646484e+00,4.140391826629638672e+00,4.026124954223632812e+00,3.917995691299438477e+00,3.815522432327270508e+00,3.718272447586059570e+00,3.625857591629028320e+00,3.537924289703369141e+00,3.454155445098876953e+00,3.374261379241943359e+00,3.297979831695556641e+00,3.225070953369140625e+00,3.155323505401611328e+00,3.088530540466308594e+00,3.024507045745849609e+00,2.963083744049072266e+00,2.904105663299560547e+00,2.847429752349853516e+00,2.792923450469970703e+00,2.740464925765991211e+00,2.689940690994262695e+00
5.000000000000000000e+00,5.000000000000000000e+00,5.000000000000000000e+00,5.000000000000000000e+00,5.000000000000000000e+00,5.000000000000000000e+00,5.000000000000000000e+00,5.000000000000000000e+00,5.000000000000000000e+00,5.000000000000000000e+00,5.000000000000000000e+00,5.000000000000000000e+00,5.000000000000000000e+00,5.000000000000000000e+00,5.000000000000000000e+00,5.000000000000000000e+00,5.000000000000000000e+00,5.000000000000000000e+00,5.000000000000000000e+00,5.000000000000000000e+00,5.000000000000000000e+00,5.000000000000000000e+00,5.000000000000000000e+00,5.000000000000000000e+00,5.000000000000000000e+00,5.000000000000000000e+00,5.000000000000000000e+00,5.000000000000000000e+00,5.000000000000000000e+00,5.000000000000000000e+00,5.000000000000000000e+00,5.000000000000000000e+00,5.000000000000000000e+00,5.000000000000000000e+00,5.000000000000000000e+00,5.000000000000000000e+00,5.000000000000000000e+00,5.000000000000000000e+00,5.000000000000000000e+00,5.000000000000000000e+00,5.000000000000000000e+00,5.000000000000000000e+00,5.000000000000000000e+00,5.000000000000000000e+00,5.000000000000000000e+00,5.000000000000000000e+00,5.000000000000000000e+00,5.000000000000000000e+00,5.000000000000000000e+00,5.000000000000000000e+00,5.000000000000000000e+00,5.000000000000000000e+00,5.000000000000000000e+00,5.000000000000000000e+00,4.990289688110351562e+00,4.825231552124023438e+00,4.670742988586425781e+00,4.525840282440185547e+00,4.389657020568847656e+00,4.261430263519287109e+00,4.140481948852539062e+00,4.026209831237792969e+00,3.918076038360595703e+00,3.815598726272583008e+00,3.718345165252685547e+00,3.625926494598388672e+00,3.537989854812622070e+00,3.454217910766601562e+00,3.374330282211303711e+00,3.298056125640869141e+00,3.225153446197509766e+00,3.155404329299926758e+00,3.088608026504516602e+00,3.024581193923950195e+00,2.963155269622802734e+00,2.904174327850341797e+00,2.847495555877685547e+00,2.792986869812011719e+00,2.740519523620605469e+00,2.689986467361450195e+00
5.000000000000000000e+00,5.000000000000000000e+00,5.000000000000000000e+00,5.000000000000000000e+00,5.000000000000000000e+00,5.000000000000000000e+00,5.000000000000000000e+00,5.000000000000000000e+00,5.000000000000000000e+00,5.000000000000000000e+00,5.000000000000000000e+00,5.000000000000000000e+00,5.000000000000000000e+00,5.000000000000000000e+00,5.000000000000000000e+00,5.000000000000000000e+00,5.000000000000000000e+00,5.000000000000000000e+00,5.000000000000000000e+00,5.000000000000000000e+00,5.000000000000000000e+00,5.000000000000000000e+00,5.000000000000000000e+00,5.000000000000000000e+00,5.000000000000000000e+00,5.000000000000000000e+00,5.000000000000000000e+00,5.000000000000000000e+00,5.000000000000000000e+00,5.000000000000000000e+00,5.000000000000000000e+00,5.000000000000000000e+00,5.000000000000000000e+00,5.000000000000000000e+00,5.000000000000000000e+00,5.000000000000000000e+00,5.000000000000000000e+00,5.000000000000000000e+00,5.000000000000000000e+00,5.000000000000000000e+00,5.000000000000000000e+00,5.000000000000000000e+00,5.000000000000000000e+00,5.000000000000000000e+00,5.000000000000000000e+00,5.000000000000000000e+00,5.000000000000000000e+00,5.000000000000000000e+00,5.000000000000000000e+00,5.000000000000000000e+00,5.000000000000000000e+00,5.000000000000000000e+00,5.000000000000000000e+00,5.000000000000000000e+00,4.990420341491699219e+00,4.825354099273681641e+00,4.670857429504394531e+00,4.525947570800781250e+00,4.389758110046386719e+00,4.261525630950927734e+00,4.140572071075439453e+00,4.026294708251953125e+00,3.918156623840332031e+00,3.815675020217895508e+00,3.718417644500732422e+00,3.626007318496704102e+00,3.538078308105468750e+00,3.454313516616821289e+00,3.374423027038574219e+00,3.298144578933715820e+00,3.225238084793090820e+00,3.155485153198242188e+00,3.088685750961303711e+00,3.024655580520629883e+00,2.963226318359375000e+00,2.904234886169433594e+00,2.847546339035034180e+00,2.793028593063354492e+00,2.740559101104736328e+00,2.690024614334106445e+00
5.000000000000000000e+00,5.000000000000000000e+00,5.000000000000000000e+00,5.000000000000000000e+00,5.000000000000000000e+00,5.000000000000000000e+00,5.000000000000000000e+00,5.000000000000000000e+00,5.000000000000000000e+00,5.000000000000000000e+00,5.000000000000000000e+00,5.000000000000000000e+00,5.000000000000000000e+00,5.000000000000000000e+00,5.000000000000000000e+00,5.000000000000000000e+00,5.000000000000000000e+00,5.000000000000000000e+00,5.000000000000000000e+00,5.000000000000000000e+00,5.000000000000000000e+00,5.000000000000000000e+00,5.000000000000000000e+00,5.000000000000000000e+00,5.000000000000000000e+00,5.000000000000000000e+00,5.000000000000000000e+00,5.000000000000000000e+00,5.000000000000000000e+00,5.000000000000000000e+00,5.000000000000000000e+00,5.000000000000000000e+00,5.000000000000000000e+00,5.000000000000000000e+00,5.000000000000000000e+00,5.000000000000000000e+00,5.000000000000000000e+00,5.000000000000000000e+00,5.000000000000000000e+00,5.000000000000000000e+00,5.000000000000000000e+00,5.000000000000000000e+00,5.000000000000000000e+00,5.000000000000000000e+00,5.000000000000000000e+00,5.000000000000000000e+00,5.000000000000000000e+00,5.000000000000000000e+00,5.000000000000000000e+00,5.000000000000000000e+00,5.000000000000000000e+00,5.000000000000000000e+00,5.000000000000000000e+00,5.000000000000000000e+00,4.990550994873046875e+00,4.825476169586181641e+00,4.670971870422363281e+00,4.526054859161376953e+00,4.389859199523925781e+00,4.261620998382568359e+00,4.140661716461181641e+00,4.026381015777587891e+00,3.918252706527709961e+00,3.815779685974121094e+00,3.718530178070068359e+00,3.626114130020141602e+00,3.538180351257324219e+00,3.454410552978515625e+00,3.374515533447265625e+00,3.298232793807983398e+00,3.225322723388671875e+00,3.155565261840820312e+00,3.088753700256347656e+00,3.024712324142456055e+00,2.963272571563720703e+00,2.904279470443725586e+00,2.847589015960693359e+00,2.793069601058959961e+00,2.740598440170288086e+00,2.690062522888183594e+00
5.000000000000000000e+00,5.000000000000000000e+00,5.000000000000000000e+00,5.000000000000000000e+00,5.000000000000000000e+00,5.000000000000000000e+00,5.000000000000000000e+00,5.000000000000000000e+00,5.000000000000000000e+00,5.000000000000000000e+00,5.000000000000000000e+00,5.000000000000000000e+00,5.000000000000000000e+00,5.000000000000000000e+00,5.000000000000000000e+00,5.000000000000000000e+00,5.000000000000000000e+00,5.000000000000000000e+00,5.000000000000000000e+00,5.000000000000000000e+00,5.000000000000000000e+00,5.000000000000000000e+00,5.000000000000000000e+00,5.000000000000000000e+00,5.000000000000000000e+00,5.000000000000000000e+00,5.000000000000000000e+00,5.000000000000000000e+00,5.000000000000000000e+00,5.000000000000000000e+00,5.000000000000000000e+00,5.000000000000000000e+00,5.000000000000000000e+00,5.000000000000000000e+00,5.000000000000000000e+00,5.000000000000000000e+00,5.000000000000000000e+00,5.000000000000000000e+00,5.000000000000000000e+00,5.000000000000000000e+00,5.000000000000000000e+00,5.000000000000000000e+00,5.000000000000000000e+00,5.000000000000000000e+00,5.000000000000000000e+00,5.000000000000000000e+00,5.000000000000000000e+00,5.000000000000000000e+00,5.000000000000000000e+00,5.000000000000000000e+00,5.000000000000000000e+00,5.000000000000000000e+00,5.000000000000000000e+00,5.000000000000000000e+00,4.990681648254394531e+00,4.825598239898681641e+00,4.671086311340332031e+00,4.526162624359130859e+00,4.389963626861572266e+00,4.261735916137695312e+00,4.140786647796630859e+00,4.026513099670410156e+00,3.918377637863159180e+00,3.815898180007934570e+00,3.718642234802246094e+00,3.626221179962158203e+00,3.538282155990600586e+00,3.454507350921630859e+00,3.374606609344482422e+00,3.298309564590454102e+00,3.225386142730712891e+00,3.155617713928222656e+00,3.088803768157958984e+00,3.024760484695434570e+00,2.963318824768066406e+00,2.904323577880859375e+00,2.847631454467773438e+00,2.793110370635986328e+00,2.740637779235839844e+00,2.690100669860839844e+00
5.000000000000000000e+00,5.000000000000000000e+00,5.000000000000000000e+00,5.000000000000000000e+00,5.000000000000000000e+00,5.000000000000000000e+00,5.000000000000000000e+00,5.000000000000000000e+00,5.000000000000000000e+00,5.000000000000000000e+00,5.000000000000000000e+00,5.000000000000000000e+00,5.000000000000000000e+00,5.000000000000000000e+00,5.000000000000000000e+00,5.000000000000000000e+00,5.000000000000000000e+00,5.000000000000000000e+00,5.000000000000000000e+00,5.000000000000000000e+00,5.000000000000000000e+00,5.000000000000000000e+00,5.000000000000000000e+00,5.000000000000000000e+00,5.000000000000000000e+00,5.000000000000000000e+00,5.000000000000000000e+00,5.000000000000000000e+00,5.000000000000000000e+00,5.000000000000000000e+00,5.000000000000000000e+00,5.000000000000000000e+00,5.000000000000000000e+00,5.000000000000000000e+00,5.000000000000000000e+00,5.000000000000000000e+00,3.876074314117431641e+00,5.000000000000000000e+00,5.000000000000000000e+00,5.000000000000000000e+00,5.000000000000000000e+00,5.000000000000000000e+00,5.000000000000000000e+00,5.000000000000000000e+00,5.000000000000000000e+00,5.000000000000000000e+00,5.000000000000000000e+00,5.000000000000000000e+00,5.000000000000000000e+00,5.000000000000000000e+00,5.000000000000000000e+00,5.000000000000000000e+00,5.000000000000000000e+00,5.000000000000000000e+00,4.990812301635742188e+00,4.825726509094238281e+00,4.671226978302001953e+00,4.526313304901123047e+00,4.390120029449462891e+00,4.261883735656738281e+00,4.140925884246826172e+00,4.026645183563232422e+00,3.918502092361450195e+00,3.816016674041748047e+00,3.718754768371582031e+00,3.626325130462646484e+00,3.538369417190551758e+00,3.454579591751098633e+00,3.374666213989257812e+00,3.298366546630859375e+00,3.225440740585327148e+00,3.155669927597045898e+00,3.088853836059570312e+00,3.024808406829833984e+00,2.963365077972412109e+00,2.904368162155151367e+00,2.847674369812011719e+00,2.793151617050170898e+00,2.740677595138549805e+00,2.690138578414916992e+00
5.000000000000000000e+00,5.000000000000000000e+00,5.000000000000000000e+00,5.000000000000000000e+00,5.000000000000000000e+00,5.000000000000000000e+00,5.000000000000000000e+00,5.000000000000000000e+00,5.000000000000000000e+00,5.000000000000000000e+00,5.000000000000000000e+00,5.000000000000000000e+00,5.000000000000000000e+00,5.000000000000000000e+00,5.000000000000000000e+00,5.000000000000000000e+00,5.000000000000000000e+00,5.000000000000000000e+00,5.000000000000000000e+00,5.000000000000000000e+00,5.000000000000000000e+00,5.000000000000000000e+00,5.000000000000000000e+00,5.000000000000000000e+00,5.000000000000000000e+00,5.000000000000000000e+00,5.000000000000000000e+00,5.000000000000000000e+00,5.000000000000000000e+00,5.000000000000000000e+00,5.000000000000000000e+00,5.000000000000000000e+00,5.000000000000000000e+00,5.000000000000000000e+00,5.000000000000000000e+00,3.937162876129150391e+00,3.871070146560668945e+00,3.959409713745117188e+00,5.000000000000000000e+00,5.000000000000000000e+00,5.000000000000000000e+00,5.000000000000000000e+00,5.000000000000000000e+00,5.000000000000000000e+00,5.000000000000000000e+00,5.000000000000000000e+00,5.000000000000000000e+00,5.000000000000000000e+00,5.000000000000000000e+00,5.000000000000000000e+00,5.000000000000000000e+00,5.000000000000000000e+00,5.000000000000000000e+00,5.000000000000000000e+00,4.990998268127441406e+00,4.825915813446044922e+00,4.671404361724853516e+00,4.526479721069335938e+00,4.390276908874511719e+00,4.262031555175781250e+00,4.141065120697021484e+00,4.026776790618896484e+00,3.918622493743896484e+00,3.816116809844970703e+00,3.718837022781372070e+00,3.626394033432006836e+00,3.538434982299804688e+00,3.454642295837402344e+00,3.374726057052612305e+00,3.298424005508422852e+00,3.225495815277099609e+00,3.155722618103027344e+00,3.088904142379760742e+00,3.024856567382812500e+00,2.963411092758178711e+00,2.904412508010864258e+00,2.847716808319091797e+00,2.793192625045776367e+00,2.740716934204101562e+00,2.690176725387573242e+00
5.000000000000000000e+00,5.000000000000000000e+00,5.000000000000000000e+00,5.000000000000000000e+00,5.000000000000000000e+00,5.000000000000000000e+00,5.000000000000000000e+00,5.000000000000000000e+00,5.000000000000000000e+00,5.000000000000000000e+00,5.000000000000000000e+00,5.000000000000000000e+00,5.000000000000000000e+00,5.000000000000000000e+00,5.000000000000000000e+00,5.000000000000000000e+00,5.000000000000000000e+00,5.000000000000000000e+00,5.000000000000000000e+00,5.000000000000000000e+00,5.000000000000000000e+00,5.000000000000000000e+00,5.000000000000000000e+00,5.000000000000000000e+00,5.000000000000000000e+00,5.000000000000000000e+00,5.000000000000000000e+00,5.000000000000000000e+00,5.000000000000000000e+00,5.000000000000000000e+00,5.000000000000000000e+00,5.000000000000000000e+00,5.000000000000000000e+00,5.000000000000000000e+00,5.000000000000000000e+00,5.000000000000000000e+00,3.884883165359497070e+00,5.000000000000000000e+00,5.000000000000000000e+00,5.000000000000000000e+00,5.000000000000000000e+00,5.000000000000000000e+00,5.000000000000000000e+00,5.000000000000000000e+00,5.000000000000000000e+00,5.000000000000000000e+00,5.000000000000000000e+00,5.000000000000000000e+00,5.000000000000000000e+00,5.000000000000000000e+00,5.000000000000000000e+00,5.000000000000000000e+00,5.000000000000000000e+00,5.000000000000000000e+00,4.991200923919677734e+00,4.826105117797851562e+00,4.671581745147705078e+00,4.526646614074707031e+00,4.390433788299560547e+00,4.262172222137451172e+00,4.141182422637939453e+00,4.026872158050537109e+00,3.918703079223632812e+00,3.816193342208862305e+00,3.718909978866577148e+00,3.626463413238525391e+00,3.538501024246215820e+00,3.454705238342285156e+00,3.374786138534545898e+00,3.298480987548828125e+00,3.225550174713134766e+00,3.155774831771850586e+00,3.088954210281372070e+00,3.024904727935791016e+00,2.963457107543945312e+00,2.904456615447998047e+00,2.847759485244750977e+00,2.793233633041381836e+00,2.740756511688232422e+00,2.690214872360229492e+00
5.000000000000000000e+00,5.000000000000000000e+00,5.000000000000000000e+00,5.000000000000000000e+00,5.000000000000000000e+00,5.000000000000000000e+00,5.000000000000000000e+00,5.000000000000000000e+00,5.000000000000000000e+00,5.000000000000000000e+00,5.000000000000000000e+00,5.000000000000000000e+00,5.000000000000000000e+00,5.000000000000000000e+00,5.000000000000000000e+00,5.000000000000000000e+00,5.000000000000000000e+00,5.000000000000000000e+00,5.000000000000000000e+00,5.000000000000000000e+00,5.000000000000000000e+00,5.000000000000000000e+00,5.000000000000000000e+00,5.000000000000000000e+00,5.000000000000000000e+00,5.000000000000000000e+00,5.000000000000000000e+00,5.000000000000000000e+00,5.000000000000000000e+00,5.000000000000000000e+00,5.000000000000000000e+00,5.000000000000000000e+00,5.000000000000000000e+00,5.000000000000000000e+00,5.000000000000000000e+00,5.000000000000000000e+00,3.957722187042236328e+00,5.000000000000000000e+00,5.000000000000000000e+00,5.000000000000000000e+00,5.000000000000000000e+00,5.000000000000000000e+00,5.000000000000000000e+00,5.000000000000000000e+00,5.000000000000000000e+00,5.000000000000000000e+00,5.000000000000000000e+00,5.000000000000000000e+00,5.000000000000000000e+00,5.000000000000000000e+00,5.000000000000000000e+00,5.000000000000000000e+00,5.000000000000000000e+00,5.000000000000000000e+00,4.991403579711914062e+00,4.826294422149658203e+00,4.671749114990234375e+00,4.526784420013427734e+00,4.390545368194580078e+00,4.262267589569091797e+00,4.141272544860839844e+00,4.026957511901855469e+00,3.918784141540527344e+00,3.816270112991333008e+00,3.718982696533203125e+00,3.626532316207885742e+00,3.538566827774047852e+00,3.454767704010009766e+00,3.374845743179321289e+00,3.298538208007812500e+00,3.225604772567749023e+00,3.155827045440673828e+00,3.089004516601562500e+00,3.024952888488769531e+00,2.963503599166870117e+00,2.904501199722290039e+00,2.847802162170410156e+00,2.793274641036987305e+00,2.740795850753784180e+00,2.690252780914306641e+00
5.000000000000000000e+00,5.000000000000000000e+00,5.000000000000000000e+00,5.000000000000000000e+00,5.000000000000000000e+00,5.000000000000000000e+00,5.000000000000000000e+00,5.000000000000000000e+00,5.000000000000000000e+00,5.000000000000000000e+00,5.000000000000000000e+00,5.000000000000000000e+00,5.000000000000000000e+00,5.000000000000000000e+00,5.000000000000000000e+00,5.000000000000000000e+00,5.000000000000000000e+00,5.000000000000000000e+00,5.000000000000000000e+00,5.000000000000000000e+00,5.000000000000000000e+00,5.000000000000000000e+00,5.000000000000000000e+00,5.000000000000000000e+00,5.000000000000000000e+00,5.000000000000000000e+00,5.000000000000000000e+00,5.000000000000000000e+00,5.000000000000000000e+00,5.000000000000000000e+00,5.000000000000000000e+00,5.000000000000000000e+00,5.000000000000000000e+00,3.896303653717041016e+00,3.910304546356201172e+00,3.901650905609130859e+00,3.929476499557495117e+00,3.936886310577392578e+00,3.981560468673706055e+00,4.000382900238037109e+00,5.000000000000000000e+00,5.000000000000000000e+00,5.000000000000000000e+00,5.000000000000000000e+00,5.000000000000000000e+00,5.000000000000000000e+00,5.000000000000000000e+00,5.000000000000000000e+00,5.000000000000000000e+00,5.000000000000000000e+00,5.000000000000000000e+00,5.000000000000000000e+00,5.000000000000000000e+00,5.000000000000000000e+00,4.991569519042968750e+00,4.826428413391113281e+00,4.671864032745361328e+00,4.526892185211181641e+00,4.390646934509277344e+00,4.262362957000732422e+00,4.141362667083740234e+00,4.027042865753173828e+00,3.918864488601684570e+00,3.816346406936645508e+00,3.719055175781250000e+00,3.626601457595825195e+00,3.538632392883300781e+00,3.454830646514892578e+00,3.374905824661254883e+00,3.298595428466796875e+00,3.225659847259521484e+00,3.155879497528076172e+00,3.089054584503173828e+00,3.025000810623168945e+00,2.963549613952636719e+00,2.904545307159423828e+00,2.847844839096069336e+00,2.793315410614013672e+00,2.740835428237915039e+00,2.690290689468383789e+00
5.000000000000000000e+00,5.000000000000000000e+00,5.000000000000000000e+00,5.000000000000000000e+00,5.000000000000000000e+00,5.000000000000000000e+00,5.000000000000000000e+00,5.000000000000000000e+00,5.000000000000000000e+00,5.000000000000000000e+00,5.000000000000000000e+00,5.000000000000000000e+00,5.000000000000000000e+00,5.000000000000000000e+00,5.000000000000000000e+00,5.000000000000000000e+00,5.000000000000000000e+00,5.000000000000000000e+00,5.000000000000000000e+00,5.000000000000000000e+00,5.000000000000000000e+00,5.000000000000000000e+00,5.000000000000000000e+00,5.000000000000000000e+00,5.000000000000000000e+00,5.000000000000000000e+00,5.000000000000000000e+00,5.000000000000000000e+00,5.000000000000000000e+00,5.000000000000000000e+00,5.000000000000000000e+00,5.000000000000000000e+00,5.000000000000000000e+00,3.887617111206054688e+00,3.878066539764404297e+00,3.856460571289062500e+00,3.858249902725219727e+00,3.878362894058227539e+00,3.931698083877563477e+00,4.006659984588623047e+00,5.000000000000000000e+00,5.000000000000000000e+00,5.000000000000000000e+00,5.000000000000000000e+00,5.000000000000000000e+00,5.000000000000000000e+00,5.000000000000000000e+00,5.000000000000000000e+00,5.000000000000000000e+00,5.000000000000000000e+00,5.000000000000000000e+00,5.000000000000000000e+00,5.000000000000000000e+00,5.000000000000000000e+00,4.991700172424316406e+00,4.826550483703613281e+00,4.671978950500488281e+00,4.527000427246093750e+00,4.390748023986816406e+00,4.262458801269531250e+00,4.141452789306640625e+00,4.027127742767333984e+00,3.918945550918579102e+00,3.816423416137695312e+00,3.719128131866455078e+00,3.626670837402343750e+00,3.538698434829711914e+00,3.454893350601196289e+00,3.374965667724609375e+00,3.298652648925781250e+00,3.225714206695556641e+00,3.155931711196899414e+00,3.089104652404785156e+00,3.025048971176147461e+00,2.963595628738403320e+00,2.904589891433715820e+00,2.847887516021728516e+00,2.793356657028198242e+00,2.740875005722045898e+00,2.690328836441040039e+00
5.000000000000000000e+00,5.000000000000000000e+00,5.000000000000000000e+00,5.000000000000000000e+00,5.000000000000000000e+00,5.000000000000000000e+00,5.000000000000000000e+00,5.000000000000000000e+00,5.000000000000000000e+00,5.000000000000000000e+00,5.000000000000000000e+00,5.000000000000000000e+00,5.000000000000000000e+00,5.000000000000000000e+00,5.000000000000000000e+00,5.000000000000000000e+00,5.000000000000000000e+00,5.000000000000000000e+00,5.000000000000000000e+00,5.000000000000000000e+00,5.000000000000000000e+00,5.000000000000000000e+00,5.000000000000000000e+00,5.000000000000000000e+00,5.000000000000000000e+00,5.000000000000000000e+00,5.000000000000000000e+00,5.000000000000000000e+00,5.000000000000000000e+00,5.000000000000000000e+00,5.000000000000000000e+00,5.000000000000000000e+00,5.000000000000000000e+00,3.917235851287841797e+00,3.893758058547973633e+00,3.859688758850097656e+00,3.858028173446655273e+00,3.878570318222045898e+00,3.929971933364868164e+00,4.008076190948486328e+00,5.000000000000000000e+00,5.000000000000000000e+00,5.000000000000000000e+00,5.000000000000000000e+00,5.000000000000000000e+00,5.000000000000000000e+00,5.000000000000000000e+00,5.000000000000000000e+00,5.000000000000000000e+00,5.000000000000000000e+00,5.000000000000000000e+00,5.000000000000000000e+00,5.000000000000000000e+00,5.000000000000000000e+00,4.991831302642822266e+00,4.826673030853271484e+00,4.672093391418457031e+00,4.527108192443847656e+00,4.390849590301513672e+00,4.262554168701171875e+00,4.141542911529541016e+00,4.027213096618652344e+00,3.919026136398315430e+00,3.816499710083007812e+00,3.719200611114501953e+00,3.626739740371704102e+00,3.538764238357543945e+00,3.454956054687500000e+00,3.375025272369384766e+00,3.298709630966186523e+00,3.225769281387329102e+00,3.155984401702880859e+00,3.089154958724975586e+00,3.025097131729125977e+00,2.963641881942749023e+00,2.904634237289428711e+00,2.847929954528808594e+00,2.793397665023803711e+00,2.740914344787597656e+00,2.690366983413696289e+00
5.000000000000000000e+00,5.000000000000000000e+00,5.000000000000000000e+00,5.000000000000000000e+00,5.000000000000000000e+00,5.000000000000000000e+00,5.000000000000000000e+00,5.000000000000000000e+00,5.000000000000000000e+00,5.000000000000000000e+00,5.000000000000000000e+00,5.000000000000000000e+00,5.000000000000000000e+00,5.000000000000000000e+00,5.000000000000000000e+00,5.000000000000000000e+00,5.000000000000000000e+00,5.000000000000000000e+00,5.000000000000000000e+00,5.000000000000000000e+00,5.000000000000000000e+00,5.000000000000000000e+00,5.000000000000000000e+00,5.000000000000000000e+00,5.000000000000000000e+00,5.000000000000000000e+00,5.000000000000000000e+00,5.000000000000000000e+00,5.000000000000000000e+00,5.000000000000000000e+00,5.000000000000000000e+00,5.000000000000000000e+00,5.000000000000000000e+00,3.937400579452514648e+00,3.922809839248657227e+00,3.860441446304321289e+00,3.852326154708862305e+00,3.875902891159057617e+00,3.951922893524169922e+00,3.993240833282470703e+00,5.000000000000000000e+00,5.000000000000000000e+00,5.000000000000000000e+00,5.000000000000000000e+00,5.000000000000000000e+00,5.000000000000000000e+00,5.000000000000000000e+00,5.000000000000000000e+00,5.000000000000000000e+00,5.000000000000000000e+00,5.000000000000000000e+00,5.000000000000000000e+00,5.000000000000000000e+00,5.000000000000000000e+00,4.991962432861328125e+00,4.826795578002929688e+00,4.672208309173583984e+00,4.527215480804443359e+00,4.390951156616210938e+00,4.262650012969970703e+00,4.141633033752441406e+00,4.027298450469970703e+00,3.919106721878051758e+00,3.816576242446899414e+00,3.719273328781127930e+00,3.626809120178222656e+00,3.538830280303955078e+00,3.455018997192382812e+00,3.375085592269897461e+00,3.298767089843750000e+00,3.225823879241943359e+00,3.156036615371704102e+00,3.089205026626586914e+00,3.025145053863525391e+00,2.963688135147094727e+00,2.904678344726562500e+00,2.847972631454467773e+00,2.793438434600830078e+00,2.740953922271728516e+00,2.690405130386352539e+00
5.000000000000000000e+00,5.000000000000000000e+00,5.000000000000000000e+00,5.000000000000000000e+00,5.000000000000000000e+00,5.000000000000000000e+00,5.000000000000000000e+00,5.000000000000000000e+00,5.000000000000000000e+00,5.000000000000000000e+00,5.000000000000000000e+00,5.000000000000000000e+00,5.000000000000000000e+00,5.000000000000000000e+00,5.000000000000000000e+00,5.000000000000000000e+00,5.000000000000000000e+00,5.000000000000000000e+00,5.000000000000000000e+00,5.000000000000000000e+00,5.000000000000000000e+00,5.000000000000000000e+00,5.000000000000000000e+00,5.000000000000000000e+00,5.000000000000000000e+00,5.000000000000000000e+00,5.000000000000000000e+00,5.000000000000000000e+00,5.000000000000000000e+00,5.000000000000000000e+00,5.000000000000000000e+00,5.000000000000000000e+00,5.000000000000000000e+00,3.954623699188232422e+00,3.941539287567138672e+00,3.855439901351928711e+00,3.855280160903930664e+00,3.879965782165527344e+00,5.000000000000000000e+00,4.010679244995117188e+00,5.000000000000000000e+00,5.000000000000000000e+00,5.000000000000000000e+00,5.000000000000000000e+00,5.000000000000000000e+00,5.000000000000000000e+00,5.000000000000000000e+00,5.000000000000000000e+00,5.000000000000000000e+00,5.000000000000000000e+00,5.000000000000000000e+00,5.000000000000000000e+00,5.000000000000000000e+00,5.000000000000000000e+00,4.992093563079833984e+00,4.826918125152587891e+00,4.672322750091552734e+00,4.527323246002197266e+00,4.391052246093750000e+00,4.262744903564453125e+00,4.141723155975341797e+00,4.027383804321289062e+00,3.919187784194946289e+00,3.816653013229370117e+00,3.719346284866333008e+00,3.626878023147583008e+00,3.538896083831787109e+00,3.455081462860107422e+00,3.375145196914672852e+00,3.298824071884155273e+00,3.225878477096557617e+00,3.156088829040527344e+00,3.089255094528198242e+00,3.025193452835083008e+00,2.963734388351440430e+00,2.904722929000854492e+00,2.848015308380126953e+00,2.793479681015014648e+00,2.740993499755859375e+00,2.690443038940429688e+00
5.000000000000000000e+00,5.000000000000000000e+00,5.000000000000000000e+00,5.000000000000000000e+00,5.000000000000000000e+00,5.000000000000000000e+00,5.000000000000000000e+00,5.000000000000000000e+00,5.000000000000000000e+00,5.000000000000000000e+00,5.000000000000000000e+00,5.000000000000000000e+00,5.000000000000000000e+00,5.000000000000000000e+00,5.000000000000000000e+00,5.000000000000000000e+00,5.000000000000000000e+00,5.000000000000000000e+00,5.000000000000000000e+00,5.000000000000000000e+00,5.000000000000000000e+00,5.000000000000000000e+00,5.000000000000000000e+00,5.000000000000000000e+00,5.000000000000000000e+00,5.000000000000000000e+00,5.000000000000000000e+00,5.000000000000000000e+00,5.000000000000000000e+00,5.000000000000000000e+00,5.000000000000000000e+00,5.000000000000000000e+00,5.000000000000000000e+00,3.975310564041137695e+00,3.906015634536743164e+00,3.845882415771484375e+00,3.844701528549194336e+00,3.867644309997558594e+00,3.940261840820312500e+00,4.017132759094238281e+00,3.997224330902099609e+00,5.000000000000000000e+00,5.000000000000000000e+00,5.000000000000000000e+00,5.000000000000000000e+00,5.000000000000000000e+00,5.000000000000000000e+00,5.000000000000000000e+00,5.000000000000000000e+00,5.000000000000000000e+00,5.000000000000000000e+00,5.000000000000000000e+00,5.000000000000000000e+00,5.000000000000000000e+00,4.992228031158447266e+00,4.827043056488037109e+00,4.672439575195312500e+00,4.527431964874267578e+00,4.391153812408447266e+00,4.262840747833251953e+00,4.141813278198242188e+00,4.027469158172607422e+00,3.919268369674682617e+00,3.816729307174682617e+00,3.719418764114379883e+00,3.626947164535522461e+00,3.538961648941040039e+00,3.455144166946411133e+00,3.375205278396606445e+00,3.298881530761718750e+00,3.225933313369750977e+00,3.156141281127929688e+00,3.089305400848388672e+00,3.025241374969482422e+00,2.963780403137207031e+00,2.904767274856567383e+00,2.848057985305786133e+00,2.793520689010620117e+00,2.741032838821411133e+00,2.690480947494506836e+00
5.000000000000000000e+00,5.000000000000000000e+00,5.000000000000000000e+00,5.000000000000000000e+00,5.000000000000000000e+00,5.000000000000000000e+00,5.000000000000000000e+00,5.000000000000000000e+00,5.000000000000000000e+00,5.000000000000000000e+00,5.000000000000000000e+00,5.000000000000000000e+00,5.000000000000000000e+00,5.000000000000000000e+00,5.000000000000000000e+00,5.000000000000000000e+00,5.000000000000000000e+00,5.000000000000000000e+00,5.000000000000000000e+00,5.000000000000000000e+00,5.000000000000000000e+00,5.000000000000000000e+00,5.000000000000000000e+00,5.000000000000000000e+00,5.000000000000000000e+00,5.000000000000000000e+00,5.000000000000000000e+00,5.000000000000000000e+00,5.000000000000000000e+00,5.000000000000000000e+00,5.000000000000000000e+00,5.000000000000000000e+00,5.000000000000000000e+00,3.961033344268798828e+00,3.922081708908081055e+00,3.867995977401733398e+00,3.861326456069946289e+00,3.880534648895263672e+00,3.938016891479492188e+00,5.000000000000000000e+00,3.960886001586914062e+00,5.000000000000000000e+00,5.000000000000000000e+00,5.000000000000000000e+00,5.000000000000000000e+00,5.000000000000000000e+00,5.000000000000000000e+00,5.000000000000000000e+00,5.000000000000000000e+00,5.000000000000000000e+00,5.000000000000000000e+00,5.000000000000000000e+00,5.000000000000000000e+00,5.000000000000000000e+00,4.992365360260009766e+00,4.827171802520751953e+00,4.672559738159179688e+00,4.527544975280761719e+00,4.391260147094726562e+00,4.262940406799316406e+00,4.141907215118408203e+00,4.027556896209716797e+00,3.919351100921630859e+00,3.816807508468627930e+00,3.719492673873901367e+00,3.627016782760620117e+00,3.539027690887451172e+00,3.455207109451293945e+00,3.375265121459960938e+00,3.298938751220703125e+00,3.225987911224365234e+00,3.156193494796752930e+00,3.089355468750000000e+00,3.025289535522460938e+00,2.963826417922973633e+00,2.904811620712280273e+00,2.848100662231445312e+00,2.793561697006225586e+00,2.741072416305541992e+00,2.690519094467163086e+00
5.000000000000000000e+00,5.000000000000000000e+00,5.000000000000000000e+00,5.000000000000000000e+00,5.000000000000000000e+00,5.000000000000000000e+00,5.000000000000000000e+00,5.000000000000000000e+00,5.000000000000000000e+00,5.000000000000000000e+00,5.000000000000000000e+00,5.000000000000000000e+00,5.000000000000000000e+00,5.000000000000000000e+00,5.000000000000000000e+00,5.000000000000000000e+00,5.000000000000000000e+00,5.000000000000000000e+00,5.000000000000000000e+00,5.000000000000000000e+00,5.000000000000000000e+00,5.000000000000000000e+00,5.000000000000000000e+00,5.000000000000000000e+00,5.000000000000000000e+00,5.000000000000000000e+00,5.000000000000000000e+00,5.000000000000000000e+00,5.000000000000000000e+00,5.000000000000000000e+00,5.000000000000000000e+00,5.000000000000000000e+00,5.000000000000000000e+00,3.947712898254394531e+00,3.888934135437011719e+00,3.803547382354736328e+00,3.857989311218261719e+00,3.918397903442382812e+00,3.933873891830444336e+00,5.000000000000000000e+00,3.937042474746704102e+00,5.000000000000000000e+00,5.000000000000000000e+00,5.000000000000000000e+00,5.000000000000000000e+00,5.000000000000000000e+00,5.000000000000000000e+00,5.000000000000000000e+00,5.000000000000000000e+00,5.000000000000000000e+00,5.000000000000000000e+00,5.000000000000000000e+00,5.000000000000000000e+00,5.000000000000000000e+00,4.992502689361572266e+00,4.827300071716308594e+00,4.672680377960205078e+00,4.527657985687255859e+00,4.391366481781005859e+00,4.263041019439697266e+00,4.142001628875732422e+00,4.027646541595458984e+00,3.919435977935791016e+00,3.816887855529785156e+00,3.719568729400634766e+00,3.627089500427246094e+00,3.539096832275390625e+00,3.455272674560546875e+00,3.375327110290527344e+00,3.298997640609741211e+00,3.226043939590454102e+00,3.156247138977050781e+00,3.089406251907348633e+00,3.025337934494018555e+00,2.963872909545898438e+00,2.904855966567993164e+00,2.848143339157104492e+00,2.793602705001831055e+00,2.741111755371093750e+00,2.690557241439819336e+00
5.000000000000000000e+00,5.000000000000000000e+00,5.000000000000000000e+00,5.000000000000000000e+00,5.000000000000000000e+00,5.000000000000000000e+00,5.000000000000000000e+00,5.000000000000000000e+00,5.000000000000000000e+00,5.000000000000000000e+00,5.000000000000000000e+00,5.000000000000000000e+00,5.000000000000000000e+00,5.000000000000000000e+00,5.000000000000000000e+00,5.000000000000000000e+00,5.000000000000000000e+00,5.000000000000000000e+00,5.000000000000000000e+00,5.000000000000000000e+00,5.000000000000000000e+00,5.000000000000000000e+00,5.000000000000000000e+00,5.000000000000000000e+00,5.000000000000000000e+00,5.000000000000000000e+00,5.000000000000000000e+00,5.000000000000000000e+00,5.000000000000000000e+00,5.000000000000000000e+00,5.000000000000000000e+00,5.000000000000000000e+00,5.000000000000000000e+00,3.929350852966308594e+00,3.834091663360595703e+00,3.770390033721923828e+00,3.788313388824462891e+00,3.908347845077514648e+00,3.924121856689453125e+00,5.000000000000000000e+00,3.885892629623413086e+00,3.887495517730712891e+00,5.000000000000000000e+00,5.000000000000000000e+00,5.000000000000000000e+00,5.000000000000000000e+00,5.000000000000000000e+00,5.000000000000000000e+00,5.000000000000000000e+00,5.000000000000000000e+00,5.000000000000000000e+00,5.000000000000000000e+00,5.000000000000000000e+00,5.000000000000000000e+00,4.992640495300292969e+00,4.827428817749023438e+00,4.672801017761230469e+00,4.527771472930908203e+00,4.391473293304443359e+00,4.263141155242919922e+00,4.142096519470214844e+00,4.027736186981201172e+00,3.919521093368530273e+00,3.816968679428100586e+00,3.719645500183105469e+00,3.627162456512451172e+00,3.539166212081909180e+00,3.455338716506958008e+00,3.375390291213989258e+00,3.299057960510253906e+00,3.226101636886596680e+00,3.156302213668823242e+00,3.089459180831909180e+00,3.025388717651367188e+00,2.963921546936035156e+00,2.904902458190917969e+00,2.848187685012817383e+00,2.793645381927490234e+00,2.741152524948120117e+00,2.690596103668212891e+00
5.000000000000000000e+00,5.000000000000000000e+00,5.000000000000000000e+00,5.000000000000000000e+00,5.000000000000000000e+00,5.000000000000000000e+00,5.000000000000000000e+00,5.000000000000000000e+00,5.000000000000000000e+00,5.000000000000000000e+00,5.000000000000000000e+00,5.000000000000000000e+00,5.000000000000000000e+00,5.000000000000000000e+00,5.000000000000000000e+00,5.000000000000000000e+00,5.000000000000000000e+00,5.000000000000000000e+00,5.000000000000000000e+00,5.000000000000000000e+00,5.000000000000000000e+00,5.000000000000000000e+00,5.000000000000000000e+00,5.000000000000000000e+00,5.000000000000000000e+00,5.000000000000000000e+00,5.000000000000000000e+00,5.000000000000000000e+00,5.000000000000000000e+00,5.000000000000000000e+00,5.000000000000000000e+00,5.000000000000000000e+00,5.000000000000000000e+00,3.922882795333862305e+00,3.899450302124023438e+00,3.743421077728271484e+00,3.751998662948608398e+00,3.909985542297363281e+00,3.934103488922119141e+00,5.000000000000000000e+00,5.000000000000000000e+00,3.834051370620727539e+00,5.000000000000000000e+00,5.000000000000000000e+00,5.000000000000000000e+00,5.000000000000000000e+00,5.000000000000000000e+00,5.000000000000000000e+00,5.000000000000000000e+00,5.000000000000000000e+00,5.000000000000000000e+00,5.000000000000000000e+00,5.000000000000000000e+00,5.000000000000000000e+00,4.992778301239013672e+00,4.827557563781738281e+00,4.672921180725097656e+00,4.527884483337402344e+00,4.391579627990722656e+00,4.263241291046142578e+00,4.142191410064697266e+00,4.027825355529785156e+00,3.919605731964111328e+00,3.817049026489257812e+00,3.719721794128417969e+00,3.627234935760498047e+00,3.539235353469848633e+00,3.455404520034790039e+00,3.375453233718872070e+00,3.299118041992187500e+00,3.226159095764160156e+00,3.156357288360595703e+00,3.089511871337890625e+00,3.025439262390136719e+00,2.963969945907592773e+00,2.904948949813842773e+00,2.848232507705688477e+00,2.793688297271728516e+00,2.741194009780883789e+00,2.690636157989501953e+00
5.000000000000000000e+00,5.000000000000000000e+00,5.000000000000000000e+00,5.000000000000000000e+00,5.000000000000000000e+00,5.000000000000000000e+00,5.000000000000000000e+00,5.000000000000000000e+00,5.000000000000000000e+00,5.000000000000000000e+00,5.000000000000000000e+00,5.000000000000000000e+00,5.000000000000000000e+00,5.000000000000000000e+00,5.000000000000000000e+00,5.000000000000000000e+00,5.000000000000000000e+00,5.000000000000000000e+00,5.000000000000000000e+00,5.000000000000000000e+00,5.000000000000000000e+00,5.000000000000000000e+00,5.000000000000000000e+00,5.000000000000000000e+00,5.000000000000000000e+00,5.000000000000000000e+00,5.000000000000000000e+00,5.000000000000000000e+00,5.000000000000000000e+00,5.000000000000000000e+00,5.000000000000000000e+00,5.000000000000000000e+00,5.000000000000000000e+00,3.912212848663330078e+00,3.869818925857543945e+00,3.712177515029907227e+00,3.714603662490844727e+00,3.920320987701416016e+00,3.952137231826782227e+00,5.000000000000000000e+00,5.000000000000000000e+00,5.000000000000000000e+00,5.000000000000000000e+00,5.000000000000000000e+00,5.000000000000000000e+00,5.000000000000000000e+00,5.000000000000000000e+00,5.000000000000000000e+00,5.000000000000000000e+00,5.000000000000000000e+00,5.000000000000000000e+00,5.000000000000000000e+00,5.000000000000000000e+00,5.000000000000000000e+00,4.992915630340576172e+00,4.827685832977294922e+00,4.673041820526123047e+00,4.527997493743896484e+00,4.391685962677001953e+00,4.263341903686523438e+00,4.142285823822021484e+00,4.027915000915527344e+00,3.919690370559692383e+00,3.817129373550415039e+00,3.719798088073730469e+00,3.627307415008544922e+00,3.539304256439208984e+00,3.455470323562622070e+00,3.375515937805175781e+00,3.299178123474121094e+00,3.226216554641723633e+00,3.156412124633789062e+00,3.089564561843872070e+00,3.025489568710327148e+00,2.964018344879150391e+00,2.904995441436767578e+00,2.848277330398559570e+00,2.793731451034545898e+00,2.741235494613647461e+00,2.690675973892211914e+00
5.000000000000000000e+00,5.000000000000000000e+00,5.000000000000000000e+00,5.000000000000000000e+00,5.000000000000000000e+00,5.000000000000000000e+00,5.000000000000000000e+00,5.000000000000000000e+00,5.000000000000000000e+00,5.000000000000000000e+00,5.000000000000000000e+00,5.000000000000000000e+00,5.000000000000000000e+00,5.000000000000000000e+00,5.000000000000000000e+00,5.000000000000000000e+00,5.000000000000000000e+00,5.000000000000000000e+00,5.000000000000000000e+00,5.000000000000000000e+00,5.000000000000000000e+00,5.000000000000000000e+00,5.000000000000000000e+00,5.000000000000000000e+00,5.000000000000000000e+00,5.000000000000000000e+00,5.000000000000000000e+00,5.000000000000000000e+00,5.000000000000000000e+00,5.000000000000000000e+00,5.000000000000000000e+00,5.000000000000000000e+00,5.000000000000000000e+00,3.894987821578979492e+00,5.000000000000000000e+00,3.703509330749511719e+00,3.675518035888671875e+00,3.928963422775268555e+00,3.968876361846923828e+00,5.000000000000000000e+00,5.000000000000000000e+00,5.000000000000000000e+00,5.000000000000000000e+00,5.000000000000000000e+00,5.000000000000000000e+00,5.000000000000000000e+00,5.000000000000000000e+00,5.000000000000000000e+00,5.000000000000000000e+00,5.000000000000000000e+00,5.000000000000000000e+00,5.000000000000000000e+00,5.000000000000000000e+00,5.000000000000000000e+00,4.993052959442138672e+00,4.827814579010009766e+00,4.673161983489990234e+00,4.528110504150390625e+00,4.391792297363281250e+00,4.263442039489746094e+00,4.142380237579345703e+00,4.028004646301269531e+00,3.919775247573852539e+00,3.817209720611572266e+00,3.719874382019042969e+00,3.627379894256591797e+00,3.539373397827148438e+00,3.455536365509033203e+00,3.375578880310058594e+00,3.299237966537475586e+00,3.226273775100708008e+00,3.156466960906982422e+00,3.089617252349853516e+00,3.025540113449096680e+00,2.964066982269287109e+00,2.905042171478271484e+00,2.848321914672851562e+00,2.793774366378784180e+00,2.741276979446411133e+00,2.690716028213500977e+00
5.000000000000000000e+00,5.000000000000000000e+00,5.000000000000000000e+00,5.000000000000000000e+00,5.000000000000000000e+00,5.000000000000000000e+00,5.000000000000000000e+00,5.000000000000000000e+00,5.000000000000000000e+00,5.000000000000000000e+00,5.000000000000000000e+00,5.000000000000000000e+00,5.000000000000000000e+00,5.000000000000000000e+00,5.000000000000000000e+00,5.000000000000000000e+00,5.000000000000000000e+00,5.000000000000000000e+00,5.000000000000000000e+00,5.000000000000000000e+00,5.000000000000000000e+00,5.000000000000000000e+00,5.000000000000000000e+00,5.000000000000000000e+00,5.000000000000000000e+00,5.000000000000000000e+00,5.000000000000000000e+00,5.000000000000000000e+00,5.000000000000000000e+00,5.000000000000000000e+00,5.000000000000000000e+00,5.000000000000000000e+00,5.000000000000000000e+00,5.000000000000000000e+00,5.000000000000000000e+00,3.729576349258422852e+00,3.670213937759399414e+00,3.936479330062866211e+00,5.000000000000000000e+00,5.000000000000000000e+00,5.000000000000000000e+00,5.000000000000000000e+00,5.000000000000000000e+00,5.000000000000000000e+00,5.000000000000000000e+00,5.000000000000000000e+00,5.000000000000000000e+00,5.000000000000000000e+00,5.000000000000000000e+00,5.000000000000000000e+00,5.000000000000000000e+00,5.000000000000000000e+00,5.000000000000000000e+00,5.000000000000000000e+00,4.993190288543701172e+00,4.827942848205566406e+00,4.673282623291015625e+00,4.528223514556884766e+00,4.391898632049560547e+00,4.263542175292968750e+00,4.142475128173828125e+00,4.028093814849853516e+00,3.919859886169433594e+00,3.817289829254150391e+00,3.719950675964355469e+00,3.627452611923217773e+00,3.539442539215087891e+00,3.455602169036865234e+00,3.375641584396362305e+00,3.299298048019409180e+00,3.226331233978271484e+00,3.156522035598754883e+00,3.089669704437255859e+00,3.025590658187866211e+00,2.964115381240844727e+00,2.905088663101196289e+00,2.848366737365722656e+00,2.793817520141601562e+00,2.741318225860595703e+00,2.690755844116210938e+00
5.000000000000000000e+00,5.000000000000000000e+00,5.000000000000000000e+00,5.000000000000000000e+00,5.000000000000000000e+00,5.000000000000000000e+00,5.000000000000000000e+00,5.000000000000000000e+00,5.000000000000000000e+00,5.000000000000000000e+00,5.000000000000000000e+00,5.000000000000000000e+00,5.000000000000000000e+00,5.000000000000000000e+00,5.000000000000000000e+00,5.000000000000000000e+00,5.000000000000000000e+00,5.000000000000000000e+00,5.000000000000000000e+00,5.000000000000000000e+00,5.000000000000000000e+00,5.000000000000000000e+00,5.000000000000000000e+00,5.000000000000000000e+00,5.000000000000000000e+00,5.000000000000000000e+00,5.000000000000000000e+00,5.000000000000000000e+00,5.000000000000000000e+00,5.000000000000000000e+00,5.000000000000000000e+00,5.000000000000000000e+00,5.000000000000000000e+00,5.000000000000000000e+00,5.000000000000000000e+00,3.711469650268554688e+00,3.684152603149414062e+00,3.948416233062744141e+00,5.000000000000000000e+00,5.000000000000000000e+00,5.000000000000000000e+00,5.000000000000000000e+00,5.000000000000000000e+00,5.000000000000000000e+00,5.000000000000000000e+00,5.000000000000000000e+00,5.000000000000000000e+00,5.000000000000000000e+00,5.000000000000000000e+00,5.000000000000000000e+00,5.000000000000000000e+00,5.000000000000000000e+00,5.000000000000000000e+00,5.000000000000000000e+00,4.993328094482421875e+00,4.828071594238281250e+00,4.673402786254882812e+00,4.528336524963378906e+00,4.392004966735839844e+00,4.263642311096191406e+00,4.142569541931152344e+00,4.028183460235595703e+00,3.919944524765014648e+00,3.817370176315307617e+00,3.720026969909667969e+00,3.627525091171264648e+00,3.539511442184448242e+00,3.455667972564697266e+00,3.375704526901245117e+00,3.299358129501342773e+00,3.226388692855834961e+00,3.156576871871948242e+00,3.089722394943237305e+00,3.025641202926635742e+00,2.964163780212402344e+00,2.905135154724121094e+00,2.848411321640014648e+00,2.793860435485839844e+00,2.741359710693359375e+00,2.690795660018920898e+00
5.000000000000000000e+00,5.000000000000000000e+00,5.000000000000000000e+00,5.000000000000000000e+00,5.000000000000000000e+00,5.000000000000000000e+00,5.000000000000000000e+00,5.000000000000000000e+00,5.000000000000000000e+00,5.000000000000000000e+00,5.000000000000000000e+00,5.000000000000000000e+00,5.000000000000000000e+00,5.000000000000000000e+00,5.000000000000000000e+00,5.000000000000000000e+00,5.000000000000000000e+00,5.000000000000000000e+00,5.000000000000000000e+00,5.000000000000000000e+00,5.000000000000000000e+00,5.000000000000000000e+00,5.000000000000000000e+00,5.000000000000000000e+00,5.000000000000000000e+00,5.000000000000000000e+00,5.000000000000000000e+00,5.000000000000000000e+00,5.000000000000000000e+00,5.000000000000000000e+00,5.000000000000000000e+00,5.000000000000000000e+00,5.000000000000000000e+00,5.000000000000000000e+00,5.000000000000000000e+00,3.719807147979736328e+00,3.693077564239501953e+00,4.000603199005126953e+00,5.000000000000000000e+00,5.000000000000000000e+00,5.000000000000000000e+00,5.000000000000000000e+00,5.000000000000000000e+00,5.000000000000000000e+00,5.000000000000000000e+00,5.000000000000000000e+00,5.000000000000000000e+00,5.000000000000000000e+00,5.000000000000000000e+00,5.000000000000000000e+00,5.000000000000000000e+00,5.000000000000000000e+00,5.000000000000000000e+00,5.000000000000000000e+00,4.993465423583984375e+00,4.828199863433837891e+00,4.673523426055908203e+00,4.528449535369873047e+00,4.392111301422119141e+00,4.263742446899414062e+00,4.142664432525634766e+00,4.028272628784179688e+00,3.920029401779174805e+00,3.817450523376464844e+00,3.720103263854980469e+00,3.627597570419311523e+00,3.539580583572387695e+00,3.455733776092529297e+00,3.375767230987548828e+00,3.299417972564697266e+00,3.226445913314819336e+00,3.156631946563720703e+00,3.089775085449218750e+00,3.025691509246826172e+00,2.964212179183959961e+00,2.905181646347045898e+00,2.848456144332885742e+00,2.793903589248657227e+00,2.741401195526123047e+00,2.690835714340209961e+00
5.000000000000000000e+00,5.000000000000000000e+00,5.000000000000000000e+00,5.000000000000000000e+00,5.000000000000000000e+00,5.000000000000000000e+00,5.000000000000000000e+00,5.000000000000000000e+00,5.000000000000000000e+00,5.000000000000000000e+00,5.000000000000000000e+00,5.000000000000000000e+00,5.000000000000000000e+00,5.000000000000000000e+00,5.000000000000000000e+00,5.000000000000000000e+00,5.000000000000000000e+00,5.000000000000000000e+00,5.000000000000000000e+00,5.000000000000000000e+00,5.000000000000000000e+00,5.000000000000000000e+00,5.000000000000000000e+00,5.000000000000000000e+00,5.000000000000000000e+00,5.000000000000000000e+00,5.000000000000000000e+00,5.000000000000000000e+00,5.000000000000000000e+00,5.000000000000000000e+00,5.000000000000000000e+00,5.000000000000000000e+00,5.000000000000000000e+00,5.000000000000000000e+00,5.000000000000000000e+00,3.726475954055786133e+00,3.683688879013061523e+00,4.076807975769042969e+00,5.000000000000000000e+00,5.000000000000000000e+00,5.000000000000000000e+00,5.000000000000000000e+00,5.000000000000000000e+00,5.000000000000000000e+00,5.000000000000000000e+00,5.000000000000000000e+00,5.000000000000000000e+00,5.000000000000000000e+00,5.000000000000000000e+00,5.000000000000000000e+00,5.000000000000000000e+00,5.000000000000000000e+00,5.000000000000000000e+00,5.000000000000000000e+00,4.993602752685546875e+00,4.828328609466552734e+00,4.673643589019775391e+00,4.528562545776367188e+00,4.392217636108398438e+00,4.263842582702636719e+00,4.142758846282958984e+00,4.028362274169921875e+00,3.920114040374755859e+00,3.817530870437622070e+00,3.720179557800292969e+00,3.627670049667358398e+00,3.539649724960327148e+00,3.455799579620361328e+00,3.375830173492431641e+00,3.299478054046630859e+00,3.226503372192382812e+00,3.156686782836914062e+00,3.089827775955200195e+00,3.025742053985595703e+00,2.964260578155517578e+00,2.905228137969970703e+00,2.848500967025756836e+00,2.793946504592895508e+00,2.741442680358886719e+00,2.690875530242919922e+00
5.000000000000000000e+00,5.000000000000000000e+00,5.000000000000000000e+00,5.000000000000000000e+00,5.000000000000000000e+00,5.000000000000000000e+00,5.000000000000000000e+00,5.000000000000000000e+00,5.000000000000000000e+00,5.000000000000000000e+00,5.000000000000000000e+00,5.000000000000000000e+00,5.000000000000000000e+00,5.000000000000000000e+00,5.000000000000000000e+00,5.000000000000000000e+00,5.000000000000000000e+00,5.000000000000000000e+00,5.000000000000000000e+00,5.000000000000000000e+00,5.000000000000000000e+00,5.000000000000000000e+00,5.000000000000000000e+00,5.000000000000000000e+00,5.000000000000000000e+00,5.000000000000000000e+00,5.000000000000000000e+00,5.000000000000000000e+00,5.000000000000000000e+00,5.000000000000000000e+00,5.000000000000000000e+00,5.000000000000000000e+00,5.000000000000000000e+00,5.000000000000000000e+00,5.000000000000000000e+00,5.000000000000000000e+00,3.674335956573486328e+00,5.000000000000000000e+00,5.000000000000000000e+00,5.000000000000000000e+00,5.000000000000000000e+00,5.000000000000000000e+00,5.000000000000000000e+00,5.000000000000000000e+00,5.000000000000000000e+00,5.000000000000000000e+00,5.000000000000000000e+00,5.000000000000000000e+00,5.000000000000000000e+00,5.000000000000000000e+00,5.000000000000000000e+00,5.000000000000000000e+00,5.000000000000000000e+00,5.000000000000000000e+00,4.993740558624267578e+00,4.828456878662109375e+00,4.673764228820800781e+00,4.528676033020019531e+00,4.392323970794677734e+00,4.263943195343017578e+00,4.142853260040283203e+00,4.028451919555664062e+00,3.920198678970336914e+00,3.817611217498779297e+00,3.720255851745605469e+00,3.627742767333984375e+00,3.539718866348266602e+00,3.455865383148193359e+00,3.375892877578735352e+00,3.299538135528564453e+00,3.226560831069946289e+00,3.156741619110107422e+00,3.089880228042602539e+00,3.025792598724365234e+00,2.964308977127075195e+00,2.905274629592895508e+00,2.848545551300048828e+00,2.793989658355712891e+00,2.741484165191650391e+00,2.690915584564208984e+00
5.000000000000000000e+00,5.000000000000000000e+00,5.000000000000000000e+00,5.000000000000000000e+00,5.000000000000000000e+00,5.000000000000000000e+00,5.000000000000000000e+00,5.000000000000000000e+00,5.000000000000000000e+00,5.000000000000000000e+00,5.000000000000000000e+00,5.000000000000000000e+00,5.000000000000000000e+00,5.000000000000000000e+00,5.000000000000000000e+00,5.000000000000000000e+00,5.000000000000000000e+00,5.000000000000000000e+00,5.000000000000000000e+00,5.000000000000000000e+00,5.000000000000000000e+00,5.000000000000000000e+00,5.000000000000000000e+00,5.000000000000000000e+00,5.000000000000000000e+00,5.000000000000000000e+00,5.000000000000000000e+00,5.000000000000000000e+00,5.000000000000000000e+00,5.000000000000000000e+00,5.000000000000000000e+00,5.000000000000000000e+00,5.000000000000000000e+00,5.000000000000000000e+00,5.000000000000000000e+00,5.000000000000000000e+00,3.681490659713745117e+00,5.000000000000000000e+00,5.000000000000000000e+00,5.000000000000000000e+00,5.000000000000000000e+00,5.000000000000000000e+00,5.000000000000000000e+00,5.000000000000000000e+00,5.000000000000000000e+00,5.000000000000000000e+00,5.000000000000000000e+00,5.000000000000000000e+00,5.000000000000000000e+00,5.000000000000000000e+00,5.000000000000000000e+00,5.000000000000000000e+00,5.000000000000000000e+00,5.000000000000000000e+00,4.993877887725830078e+00,4.828585624694824219e+00,4.673884391784667969e+00,4.528789043426513672e+00,4.392430305480957031e+00,4.264043331146240234e+00,4.142948150634765625e+00,4.028541088104248047e+00,3.920283555984497070e+00,3.817691564559936523e+00,3.720332145690917969e+00,3.627815246582031250e+00,3.539787769317626953e+00,3.455931186676025391e+00,3.375955820083618164e+00,3.299598217010498047e+00,3.226618289947509766e+00,3.156796693801879883e+00,3.089932918548583984e+00,3.025842905044555664e+00,2.964357614517211914e+00,2.905321359634399414e+00,2.848590373992919922e+00,2.794032573699951172e+00,2.741525411605834961e+00,2.690955400466918945e+00
5.000000000000000000e+00,5.000000000000000000e+00,5.000000000000000000e+00,5.000000000000000000e+00,5.000000000000000000e+00,5.000000000000000000e+00,5.000000000000000000e+00,5.000000000000000000e+00,5.000000000000000000e+00,5.000000000000000000e+00,5.000000000000000000e+00,5.000000000000000000e+00,5.000000000000000000e+00,5.000000000000000000e+00,5.000000000000000000e+00,5.000000000000000000e+00,5.000000000000000000e+00,5.000000000000000000e+00,5.000000000000000000e+00,5.000000000000000000e+00,5.000000000000000000e+00,5.000000000000000000e+00,5.000000000000000000e+00,5.000000000000000000e+00,5.000000000000000000e+00,5.000000000000000000e+00,5.000000000000000000e+00,5.000000000000000000e+00,5.000000000000000000e+00,5.000000000000000000e+00,5.000000000000000000e+00,5.000000000000000000e+00,5.000000000000000000e+00,5.000000000000000000e+00,5.000000000000000000e+00,5.000000000000000000e+00,3.692577362060546875e+00,5.000000000000000000e+00,5.000000000000000000e+00,5.000000000000000000e+00,5.000000000000000000e+00,5.000000000000000000e+00,5.000000000000000000e+00,5.000000000000000000e+00,5.000000000000000000e+00,5.000000000000000000e+00,5.000000000000000000e+00,5.000000000000000000e+00,5.000000000000000000e+00,5.000000000000000000e+00,5.000000000000000000e+00,5.000000000000000000e+00,5.000000000000000000e+00,5.000000000000000000e+00,4.994015216827392578e+00,4.828713893890380859e+00,4.674005031585693359e+00,4.528902053833007812e+00,4.392536640167236328e+00,4.264143466949462891e+00,4.143042564392089844e+00,4.028630733489990234e+00,3.920368194580078125e+00,3.817772150039672852e+00,3.720408439636230469e+00,3.627887964248657227e+00,3.539856910705566406e+00,3.455997228622436523e+00,3.376018762588500977e+00,3.299658060073852539e+00,3.226675510406494141e+00,3.156851530075073242e+00,3.089985609054565430e+00,3.025893449783325195e+00,2.964406013488769531e+00,2.905367851257324219e+00,2.848635196685791016e+00,2.794075727462768555e+00,2.741566896438598633e+00,2.690995454788208008e+00
4.871528625488281250e+00,4.870316982269287109e+00,4.869106292724609375e+00,4.867897033691406250e+00,4.866687297821044922e+00,4.865478515625000000e+00,4.864270687103271484e+00,4.863062858581542969e+00,4.861855983734130859e+00,4.860650062561035156e+00,4.859444141387939453e+00,4.858238697052001953e+00,4.857034206390380859e+00,4.855830669403076172e+00,4.854627132415771484e+00,4.853424072265625000e+00,4.852222442626953125e+00,4.851020812988281250e+00,4.849819660186767578e+00,4.848619461059570312e+00,4.847419738769531250e+00,4.846220493316650391e+00,4.845021724700927734e+00,4.843823909759521484e+00,4.842626571655273438e+00,4.841429710388183594e+00,4.840233802795410156e+00,4.839037895202636719e+00,4.837842464447021484e+00,4.836648464202880859e+00,4.835454463958740234e+00,4.834260940551757812e+00,4.833068370819091797e+00,4.831876277923583984e+00,4.830684661865234375e+00,4.829493999481201172e+00,3.619277238845825195e+00,4.827114105224609375e+00,4.825924873352050781e+00,4.824736595153808594e+00,4.823548316955566406e+00,4.822360992431640625e+00,4.821174144744873047e+00,4.819987773895263672e+00,4.818802356719970703e+00,4.817616939544677734e+00,4.816432952880859375e+00,4.815248489379882812e+00,4.814065456390380859e+00,4.812882900238037109e+00,4.811700344085693359e+00,4.810518741607666016e+00,4.809338092803955078e+00,4.808157444000244141e+00,4.806977748870849609e+00,4.805798053741455078e+00,4.674125671386718750e+00,4.529015064239501953e+00,4.392642974853515625e+00,4.264243602752685547e+00,4.143137454986572266e+00,4.028720378875732422e+00,3.920453071594238281e+00,3.817852497100830078e+00,3.720484733581542969e+00,3.627960443496704102e+00,3.539926052093505859e+00,3.456063032150268555e+00,3.376081466674804688e+00,3.299718141555786133e+00,3.226732969284057617e+00,3.156906604766845703e+00,3.090038299560546875e+00,3.025943994522094727e+00,2.964454412460327148e+00,2.905414342880249023e+00,2.848679780960083008e+00,2.794118642807006836e+00,2.741608381271362305e+00,2.691035270690917969e+00
3.776057481765747070e+00,3.775329589843750000e+00,3.774602174758911133e+00,3.773874998092651367e+00,3.773148059844970703e+00,3.772421360015869141e+00,3.771694898605346680e+00,3.770969152450561523e+00,3.770243406295776367e+00,3.769517898559570312e+00,3.768792629241943359e+00,3.768067598342895508e+00,3.767343044281005859e+00,3.766618490219116211e+00,3.765894889831542969e+00,3.765171051025390625e+00,3.764447212219238281e+00,3.763724088668823242e+00,3.763000965118408203e+00,3.762278318405151367e+00,3.761556148529052734e+00,3.760833978652954102e+00,3.760112047195434570e+00,3.759390354156494141e+00,3.758669137954711914e+00,3.757947921752929688e+00,3.757227182388305664e+00,3.756506919860839844e+00,3.755786657333374023e+00,3.755066871643066406e+00,3.754347085952758789e+00,3.753627538681030273e+00,3.752908468246459961e+00,3.752189874649047852e+00,3.751471281051635742e+00,3.750752925872802734e+00,3.750035047531127930e+00,3.749317169189453125e+00,3.748599767684936523e+00,3.747882366180419922e+00,3.747165918350219727e+00,3.746449232101440430e+00,3.745732784271240234e+00,3.745016574859619141e+00,3.744300842285156250e+00,3.743585109710693359e+00,3.742869853973388672e+00,3.742155313491821289e+00,3.741440534591674805e+00,3.740725994110107422e+00,3.740011692047119141e+00,3.739297866821289062e+00,3.738584280014038086e+00,3.737871170043945312e+00,3.737158060073852539e+00,3.736445188522338867e+00,3.735732555389404297e+00,3.735020160675048828e+00,3.734308242797851562e+00,3.733596324920654297e+00,3.732885360717773438e+00,3.732174158096313477e+00,3.731463193893432617e+00,3.730752468109130859e+00,3.720561265945434570e+00,3.628032922744750977e+00,3.539995193481445312e+00,3.456128835678100586e+00,3.376144409179687500e+00,3.299778223037719727e+00,3.226790428161621094e+00,3.156961441040039062e+00,3.090090990066528320e+00,3.025994539260864258e+00,2.964502811431884766e+00,2.905460834503173828e+00,2.848724603652954102e+00,2.794161796569824219e+00,2.741649866104125977e+00,2.691075325012207031e+00
3.082817316055297852e+00,3.082332611083984375e+00,3.081847667694091797e+00,3.081362724304199219e+00,3.080878257751464844e+00,3.080393791198730469e+00,3.079909324645996094e+00,3.079425096511840820e+00,3.078941345214843750e+00,3.078457593917846680e+00,3.077973842620849609e+00,3.077490091323852539e+00,3.077006816864013672e+00,3.076523542404174805e+00,3.076040506362915039e+00,3.075557708740234375e+00,3.075074911117553711e+00,3.074592113494873047e+00,3.074109554290771484e+00,3.073627233505249023e+00,3.073144912719726562e+00,3.072663307189941406e+00,3.072181224822998047e+00,3.071699619293212891e+00,3.071218013763427734e+00,3.070736408233642578e+00,3.070255279541015625e+00,3.069773912429809570e+00,3.069293260574340820e+00,3.068812370300292969e+00,3.068331718444824219e+00,3.067851066589355469e+00,3.067370653152465820e+00,3.066890478134155273e+00,3.066410779953002930e+00,3.065930843353271484e+00,3.065450906753540039e+00,3.064971446990966797e+00,3.064491748809814453e+00,3.064012527465820312e+00,3.063533306121826172e+00,3.063054561614990234e+00,3.062575578689575195e+00,3.062096834182739258e+00,3.061618328094482422e+00,3.061139822006225586e+00,3.060661554336547852e+00,3.060183525085449219e+00,3.059705495834350586e+00,3.059227705001831055e+00,3.058749914169311523e+00,3.058272361755371094e+00,3.057795047760009766e+00,3.057317733764648438e+00,3.056840896606445312e+00,3.056364059448242188e+00,3.055887222290039062e+00,3.055410385131835938e+00,3.054934024810791016e+00,3.054457664489746094e+00,3.053981304168701172e+00,3.053505659103393555e+00,3.053029537200927734e+00,3.052553892135620117e+00,3.052078247070312500e+00,3.051602840423583984e+00,3.051127433776855469e+00,3.050652503967285156e+00,3.050177335739135742e+00,3.049702644348144531e+00,3.049227714538574219e+00,3.048753261566162109e+00,3.048278808593750000e+00,3.026044845581054688e+00,2.964551448822021484e+00,2.905507326126098633e+00,2.848769426345825195e+00,2.794204711914062500e+00,2.741691350936889648e+00,2.691115140914916992e+00
2.604636669158935547e+00,2.604290246963500977e+00,2.603944301605224609e+00,2.603598356246948242e+00,2.603252172470092773e+00,2.602906227111816406e+00,2.602560520172119141e+00,2.602214813232421875e+00,2.601869106292724609e+00,2.601523637771606445e+00,2.601178169250488281e+00,2.600832939147949219e+00,2.600487709045410156e+00,2.600142478942871094e+00,2.599797248840332031e+00,2.599452495574951172e+00,2.599107503890991211e+00,2.598762750625610352e+00,2.598417997360229492e+00,2.598073244094848633e+00,2.597728729248046875e+00,2.597384452819824219e+00,2.597040176391601562e+00,2.596695899963378906e+00,2.596351623535156250e+00,2.596007585525512695e+00,2.595663547515869141e+00,2.595319747924804688e+00,2.594976186752319336e+00,2.594632387161254883e+00,2.594288825988769531e+00,2.593945264816284180e+00,2.593601703643798828e+00,2.593258380889892578e+00,2.592915058135986328e+00,2.592571973800659180e+00,2.592228889465332031e+00,2.591886043548583984e+00,2.591542959213256836e+00,2.591200351715087891e+00,2.590857505798339844e+00,2.590514898300170898e+00,2.590172529220581055e+00,2.589830160140991211e+00,2.589487791061401367e+00,2.589145421981811523e+00,2.588803291320800781e+00,2.588461160659790039e+00,2.588119268417358398e+00,2.587777376174926758e+00,2.587435722351074219e+00,2.587093830108642578e+00,2.586752176284790039e+00,2.586410760879516602e+00,2.586069345474243164e+00,2.585728168487548828e+00,2.585386753082275391e+00,2.585045576095581055e+00,2.584704399108886719e+00,2.584363460540771484e+00,2.584022521972656250e+00,2.583682060241699219e+00,2.583341121673583984e+00,2.583000659942626953e+00,2.582659959793090820e+00,2.582319498062133789e+00,2.581979036331176758e+00,2.581638813018798828e+00,2.581298828125000000e+00,2.580958604812622070e+00,2.580618619918823242e+00,2.580278635025024414e+00,2.579938888549804688e+00,2.579599142074584961e+00,2.579259395599365234e+00,2.578920125961303711e+00,2.578580617904663086e+00,2.578241109848022461e+00,2.577901840209960938e+00,2.577562570571899414e+00
2.254878759384155273e+00,2.254619359970092773e+00,2.254359722137451172e+00,2.254100561141967773e+00,2.253841161727905273e+00,2.253581762313842773e+00,2.253322601318359375e+00,2.253063440322875977e+00,2.252804279327392578e+00,2.252545356750488281e+00,2.252286434173583984e+00,2.252027511596679688e+00,2.251768589019775391e+00,2.251509904861450195e+00,2.251250982284545898e+00,2.250992298126220703e+00,2.250733852386474609e+00,2.250475168228149414e+00,2.250216722488403320e+00,2.249958276748657227e+00,2.249699831008911133e+00,2.249441385269165039e+00,2.249183177947998047e+00,2.248925209045410156e+00,2.248667001724243164e+00,2.248408794403076172e+00,2.248150825500488281e+00,2.247892856597900391e+00,2.247634887695312500e+00,2.247377157211303711e+00,2.247119426727294922e+00,2.246861696243286133e+00,2.246603965759277344e+00,2.246346235275268555e+00,2.246088743209838867e+00,2.245831251144409180e+00,2.245573759078979492e+00,2.245316505432128906e+00,2.245059013366699219e+00,2.244801759719848633e+00,2.244544506072998047e+00,2.244287490844726562e+00,2.244030475616455078e+00,2.243773460388183594e+00,2.243516445159912109e+00,2.243259429931640625e+00,2.243002653121948242e+00,2.242745876312255859e+00,2.242489099502563477e+00,2.242232561111450195e+00,2.241975784301757812e+00,2.241719245910644531e+00,2.241462707519531250e+00,2.241206169128417969e+00,2.240949869155883789e+00,2.240693569183349609e+00,2.240437269210815430e+00,2.240181207656860352e+00,2.239924907684326172e+00,2.239668846130371094e+00,2.239412784576416016e+00,2.239156723022460938e+00,2.238901138305664062e+00,2.238645076751708984e+00,2.238389253616333008e+00,2.238133668899536133e+00,2.237877845764160156e+00,2.237622261047363281e+00,2.237366676330566406e+00,2.237111330032348633e+00,2.236855745315551758e+00,2.236600399017333984e+00,2.236345052719116211e+00,2.236089706420898438e+00,2.235834598541259766e+00,2.235579490661621094e+00,2.235324382781982422e+00,2.235069274902343750e+00,2.234814405441284180e+00,2.234559297561645508e+00
1.987939715385437012e+00,1.987737178802490234e+00,1.987534523010253906e+00,1.987331986427307129e+00,1.987129569053649902e+00,1.986926913261413574e+00,1.986724615097045898e+00,1.986522555351257324e+00,1.986320972442626953e+00,1.986119747161865234e+00,1.985918521881103516e+00,1.985717058181762695e+00,1.985515832901000977e+00,1.985314488410949707e+00,1.985113501548767090e+00,1.984912157058715820e+00,1.984711170196533203e+00,1.984510302543640137e+00,1.984309077262878418e+00,1.984108209609985352e+00,1.983907103538513184e+00,1.983706355094909668e+00,1.983505368232727051e+00,1.983304619789123535e+00,1.983103990554809570e+00,1.982903122901916504e+00,1.982702493667602539e+00,1.982501745223999023e+00,1.982301235198974609e+00,1.982100486755371094e+00,1.981900095939636230e+00,1.981699705123901367e+00,1.981499075889587402e+00,1.981298804283142090e+00,1.981098294258117676e+00,1.980898022651672363e+00,1.980697631835937500e+00,1.980497479438781738e+00,1.980297446250915527e+00,1.980097055435180664e+00,1.979897022247314453e+00,1.979696869850158691e+00,1.979496955871582031e+00,1.979297041893005371e+00,1.979096889495849609e+00,1.978897094726562500e+00,1.978697061538696289e+00,1.978497385978698730e+00,1.978297352790832520e+00,1.978097677230834961e+00,1.977898120880126953e+00,1.977698326110839844e+00,1.977498769760131836e+00,1.977298974990844727e+00,1.977099537849426270e+00,1.976899862289428711e+00,1.976700544357299805e+00,1.976501226425170898e+00,1.976301670074462891e+00,1.976102352142333984e+00,1.975902915000915527e+00,1.975703716278076172e+00,1.975504398345947266e+00,1.975305318832397461e+00,1.975106239318847656e+00,1.974906921386718750e+00,1.974707961082458496e+00,1.974508762359619141e+00,1.974309921264648438e+00,1.974110841751098633e+00,1.973912000656127930e+00,1.973713159561157227e+00,1.973514199256896973e+00,1.973315596580505371e+00,1.973116636276245117e+00,1.972918033599853516e+00,1.972719430923461914e+00,1.972520709037780762e+00,1.972322225570678711e+00,1.972123503684997559e+00
1.777513265609741211e+00,1.777351379394531250e+00,1.777189254760742188e+00,1.777027368545532227e+00,1.776865601539611816e+00,1.776703715324401855e+00,1.776541709899902344e+00,1.776379942893981934e+00,1.776218295097351074e+00,1.776056408882141113e+00,1.775894641876220703e+00,1.775732994079589844e+00,1.775571227073669434e+00,1.775409579277038574e+00,1.775248050689697266e+00,1.775086879730224609e+00,1.774925947189331055e+00,1.774765253067016602e+00,1.774604558944702148e+00,1.774443745613098145e+00,1.774283051490783691e+00,1.774122238159179688e+00,1.773961663246154785e+00,1.773800969123840332e+00,1.773640394210815430e+00,1.773479938507080078e+00,1.773319363594055176e+00,1.773158907890319824e+00,1.772998332977294922e+00,1.772837877273559570e+00,1.772677421569824219e+00,1.772517085075378418e+00,1.772356748580932617e+00,1.772196292877197266e+00,1.772036075592041016e+00,1.771875739097595215e+00,1.771715521812438965e+00,1.771555423736572266e+00,1.771395087242126465e+00,1.771234989166259766e+00,1.771074771881103516e+00,1.770914793014526367e+00,1.770754575729370117e+00,1.770594596862792969e+00,1.770434617996215820e+00,1.770274519920349121e+00,1.770114660263061523e+00,1.769954562187194824e+00,1.769794821739196777e+00,1.769634842872619629e+00,1.769475102424621582e+00,1.769315361976623535e+00,1.769155383110046387e+00,1.768995761871337891e+00,1.768835902214050293e+00,1.768676280975341797e+00,1.768516540527343750e+00,1.768356919288635254e+00,1.768197417259216309e+00,1.768037676811218262e+00,1.767878174781799316e+00,1.767718553543090820e+00,1.767559170722961426e+00,1.767399549484252930e+00,1.767240166664123535e+00,1.767080903053283691e+00,1.766921401023864746e+00,1.766762137413024902e+00,1.766602754592895508e+00,1.766443490982055664e+00,1.766284227371215820e+00,1.766124963760375977e+00,1.765965819358825684e+00,1.765806555747985840e+00,1.765647411346435547e+00,1.765488266944885254e+00,1.765329241752624512e+00,1.765170216560363770e+00,1.765011072158813477e+00,1.764852166175842285e+00
1.607370734214782715e+00,1.607238292694091797e+00,1.607105851173400879e+00,1.606973290443420410e+00,1.606840968132019043e+00,1.606708645820617676e+00,1.606576204299926758e+00,1.606443881988525391e+00,1.606311559677124023e+00,1.606179237365722656e+00,1.606046915054321289e+00,1.605914711952209473e+00,1.605782389640808105e+00,1.605650186538696289e+00,1.605518102645874023e+00,1.605386018753051758e+00,1.605253696441650391e+00,1.605121612548828125e+00,1.604989647865295410e+00,1.604857444763183594e+00,1.604725360870361328e+00,1.604593396186828613e+00,1.604461312294006348e+00,1.604329943656921387e+00,1.604198455810546875e+00,1.604067206382751465e+00,1.603935956954956055e+00,1.603804469108581543e+00,1.603673338890075684e+00,1.603541970252990723e+00,1.603410720825195312e+00,1.603279471397399902e+00,1.603148341178894043e+00,1.603017210960388184e+00,1.602885961532592773e+00,1.602754831314086914e+00,1.602623701095581055e+00,1.602492570877075195e+00,1.602361559867858887e+00,1.602230429649353027e+00,1.602099537849426270e+00,1.601968407630920410e+00,1.601837515830993652e+00,1.601706385612487793e+00,1.601575493812561035e+00,1.601444721221923828e+00,1.601313710212707520e+00,1.601182818412780762e+00,1.601051926612854004e+00,1.600921154022216797e+00,1.600790262222290039e+00,1.600659489631652832e+00,1.600528836250305176e+00,1.600397944450378418e+00,1.600267291069030762e+00,1.600136518478393555e+00,1.600005865097045898e+00,1.599875092506408691e+00,1.599744439125061035e+00,1.599613904953002930e+00,1.599483251571655273e+00,1.599352717399597168e+00,1.599222064018249512e+00,1.599091529846191406e+00,1.598960995674133301e+00,1.598830580711364746e+00,1.598700165748596191e+00,1.598569512367248535e+00,1.598439216613769531e+00,1.598308682441711426e+00,1.598178386688232422e+00,1.598048090934753418e+00,1.597917675971984863e+00,1.597787380218505859e+00,1.597656965255737305e+00,1.597526788711547852e+00,1.597396373748779297e+00,1.597266197204589844e+00,1.597136020660400391e+00,1.597005724906921387e+00
1.466954588890075684e+00,1.466844320297241211e+00,1.466734051704406738e+00,1.466623544692993164e+00,1.466513395309448242e+00,1.466403126716613770e+00,1.466292738914489746e+00,1.466182589530944824e+00,1.466072320938110352e+00,1.465962052345275879e+00,1.465851902961730957e+00,1.465741753578186035e+00,1.465631723403930664e+00,1.465521454811096191e+00,1.465411305427551270e+00,1.465301275253295898e+00,1.465191125869750977e+00,1.465081095695495605e+00,1.464971065521240234e+00,1.464860916137695312e+00,1.464750885963439941e+00,1.464640974998474121e+00,1.464530825614929199e+00,1.464420914649963379e+00,1.464311003684997559e+00,1.464201092720031738e+00,1.464091062545776367e+00,1.463981270790100098e+00,1.463871359825134277e+00,1.463761448860168457e+00,1.463651657104492188e+00,1.463542461395263672e+00,1.463433027267456055e+00,1.463323712348937988e+00,1.463214516639709473e+00,1.463105082511901855e+00,1.462995886802673340e+00,1.462886571884155273e+00,1.462777376174926758e+00,1.462668299674987793e+00,1.462558984756469727e+00,1.462449908256530762e+00,1.462340593338012695e+00,1.462231516838073730e+00,1.462122321128845215e+00,1.462013244628906250e+00,1.461904168128967285e+00,1.461795091629028320e+00,1.461686015129089355e+00,1.461576938629150391e+00,1.461467862129211426e+00,1.461358785629272461e+00,1.461249828338623047e+00,1.461140990257263184e+00,1.461031913757324219e+00,1.460922956466674805e+00,1.460813999176025391e+00,1.460705161094665527e+00,1.460596084594726562e+00,1.460487246513366699e+00,1.460378527641296387e+00,1.460269570350646973e+00,1.460160732269287109e+00,1.460051894187927246e+00,1.459943056106567383e+00,1.459834337234497070e+00,1.459725499153137207e+00,1.459616780281066895e+00,1.459507942199707031e+00,1.459399342536926270e+00,1.459290504455566406e+00,1.459181904792785645e+00,1.459073185920715332e+00,1.458964467048645020e+00,1.458855867385864258e+00,1.458747148513793945e+00,1.458638668060302734e+00,1.458529949188232422e+00,1.458421468734741211e+00,1.458312869071960449e+00
1.349100351333618164e+00,1.349007010459899902e+00,1.348913788795471191e+00,1.348820328712463379e+00,1.348727107048034668e+00,1.348633885383605957e+00,1.348540544509887695e+00,1.348447322845458984e+00,1.348354101181030273e+00,1.348260879516601562e+00,1.348167657852172852e+00,1.348074555397033691e+00,1.347981333732604980e+00,1.347888112068176270e+00,1.347795009613037109e+00,1.347701907157897949e+00,1.347608685493469238e+00,1.347515583038330078e+00,1.347422480583190918e+00,1.347329378128051758e+00,1.347236394882202148e+00,1.347143292427062988e+00,1.347050189971923828e+00,1.346957206726074219e+00,1.346864223480224609e+00,1.346771240234375000e+00,1.346678137779235840e+00,1.346585154533386230e+00,1.346492290496826172e+00,1.346399188041687012e+00,1.346306324005126953e+00,1.346213340759277344e+00,1.346120357513427734e+00,1.346027493476867676e+00,1.345934629440307617e+00,1.345841765403747559e+00,1.345748782157897949e+00,1.345656037330627441e+00,1.345563411712646484e+00,1.345471024513244629e+00,1.345378637313842773e+00,1.345286250114440918e+00,1.345193862915039062e+00,1.345101475715637207e+00,1.345009207725524902e+00,1.344916701316833496e+00,1.344824433326721191e+00,1.344732165336608887e+00,1.344639897346496582e+00,1.344547629356384277e+00,1.344455242156982422e+00,1.344363093376159668e+00,1.344270706176757812e+00,1.344178557395935059e+00,1.344086289405822754e+00,1.343994021415710449e+00,1.343901872634887695e+00,1.343809604644775391e+00,1.343717575073242188e+00,1.343625307083129883e+00,1.343533158302307129e+00,1.343441128730773926e+00,1.343348860740661621e+00,1.343256831169128418e+00,1.343164682388305664e+00,1.343072652816772461e+00,1.342980623245239258e+00,1.342888474464416504e+00,1.342796444892883301e+00,1.342704415321350098e+00,1.342612385749816895e+00,1.342520356178283691e+00,1.342428326606750488e+00,1.342336416244506836e+00,1.342244386672973633e+00,1.342152476310729980e+00,1.342060446739196777e+00,1.341968536376953125e+00,1.341876626014709473e+00,1.341784715652465820e+00
1.248774528503417969e+00,1.248694658279418945e+00,1.248614668846130371e+00,1.248534679412841797e+00,1.248454809188842773e+00,1.248374938964843750e+00,1.248294949531555176e+00,1.248215079307556152e+00,1.248135209083557129e+00,1.248055338859558105e+00,1.247975468635559082e+00,1.247895598411560059e+00,1.247815728187561035e+00,1.247735857963562012e+00,1.247656106948852539e+00,1.247576236724853516e+00,1.247496366500854492e+00,1.247416615486145020e+00,1.247336864471435547e+00,1.247256994247436523e+00,1.247177243232727051e+00,1.247097611427307129e+00,1.247017860412597656e+00,1.246937990188598633e+00,1.246858358383178711e+00,1.246778607368469238e+00,1.246698856353759766e+00,1.246619224548339844e+00,1.246539592742919922e+00,1.246459841728210449e+00,1.246380209922790527e+00,1.246300578117370605e+00,1.246220827102661133e+00,1.246141314506530762e+00,1.246061682701110840e+00,1.245982050895690918e+00,1.245902419090270996e+00,1.245822787284851074e+00,1.245743274688720703e+00,1.245663642883300781e+00,1.245584130287170410e+00,1.245504617691040039e+00,1.245424985885620117e+00,1.245345473289489746e+00,1.245265960693359375e+00,1.245186448097229004e+00,1.245107293128967285e+00,1.245028257369995117e+00,1.244949102401733398e+00,1.244869947433471680e+00,1.244790911674499512e+00,1.244711756706237793e+00,1.244632720947265625e+00,1.244553565979003906e+00,1.244474530220031738e+00,1.244395613670349121e+00,1.244316458702087402e+00,1.244237422943115234e+00,1.244158387184143066e+00,1.244079470634460449e+00,1.244000315666198730e+00,1.243921399116516113e+00,1.243842482566833496e+00,1.243763446807861328e+00,1.243684530258178711e+00,1.243605494499206543e+00,1.243526577949523926e+00,1.243447780609130859e+00,1.243368744850158691e+00,1.243289828300476074e+00,1.243210911750793457e+00,1.243132114410400391e+00,1.243053197860717773e+00,1.242974281311035156e+00,1.242895483970642090e+00,1.242816567420959473e+00,1.242737770080566406e+00,1.242658853530883789e+00,1.242580175399780273e+00,1.242501258850097656e+00
1.162337422370910645e+00,1.162268161773681641e+00,1.162198901176452637e+00,1.162129640579223633e+00,1.162060379981994629e+00,1.161991119384765625e+00,1.161921977996826172e+00,1.161852717399597168e+00,1.161783456802368164e+00,1.161714315414428711e+00,1.161645054817199707e+00,1.161575913429260254e+00,1.161506652832031250e+00,1.161437511444091797e+00,1.161368370056152344e+00,1.161299228668212891e+00,1.161229968070983887e+00,1.161160826683044434e+00,1.161091804504394531e+00,1.161022663116455078e+00,1.160953521728515625e+00,1.160884380340576172e+00,1.160815358161926270e+00,1.160746216773986816e+00,1.160677075386047363e+00,1.160608053207397461e+00,1.160538911819458008e+00,1.160469889640808105e+00,1.160400867462158203e+00,1.160331726074218750e+00,1.160262703895568848e+00,1.160193800926208496e+00,1.160124778747558594e+00,1.160055637359619141e+00,1.159986734390258789e+00,1.159917712211608887e+00,1.159848690032958984e+00,1.159779787063598633e+00,1.159710764884948730e+00,1.159641742706298828e+00,1.159572839736938477e+00,1.159503936767578125e+00,1.159434914588928223e+00,1.159366011619567871e+00,1.159297108650207520e+00,1.159228205680847168e+00,1.159159302711486816e+00,1.159090399742126465e+00,1.159021496772766113e+00,1.158952593803405762e+00,1.158883810043334961e+00,1.158814907073974609e+00,1.158746004104614258e+00,1.158677339553833008e+00,1.158608794212341309e+00,1.158540248870849609e+00,1.158471822738647461e+00,1.158403277397155762e+00,1.158334851264953613e+00,1.158266305923461914e+00,1.158197879791259766e+00,1.158129453659057617e+00,1.158060908317565918e+00,1.157992482185363770e+00,1.157923936843872070e+00,1.157855629920959473e+00,1.157787084579467773e+00,1.157718658447265625e+00,1.157650351524353027e+00,1.157581925392150879e+00,1.157513499259948730e+00,1.157445073127746582e+00,1.157376766204833984e+00,1.157308340072631836e+00,1.157239913940429688e+00,1.157171607017517090e+00,1.157103300094604492e+00,1.157034993171691895e+00,1.156966567039489746e+00,1.156898260116577148e+00
1.087091565132141113e+00,1.087030887603759766e+00,1.086970329284667969e+00,1.086909770965576172e+00,1.086849212646484375e+00,1.086788654327392578e+00,1.086728096008300781e+00,1.086667537689208984e+00,1.086606979370117188e+00,1.086546421051025391e+00,1.086485862731933594e+00,1.086425423622131348e+00,1.086364865303039551e+00,1.086304306983947754e+00,1.086243867874145508e+00,1.086183309555053711e+00,1.086122870445251465e+00,1.086062312126159668e+00,1.086001873016357422e+00,1.085941433906555176e+00,1.085880875587463379e+00,1.085820436477661133e+00,1.085759997367858887e+00,1.085699558258056641e+00,1.085639119148254395e+00,1.085578680038452148e+00,1.085518240928649902e+00,1.085457801818847656e+00,1.085397481918334961e+00,1.085337042808532715e+00,1.085276603698730469e+00,1.085216283798217773e+00,1.085155844688415527e+00,1.085095405578613281e+00,1.085035085678100586e+00,1.084974765777587891e+00,1.084914326667785645e+00,1.084854006767272949e+00,1.084793686866760254e+00,1.084733247756958008e+00,1.084672927856445312e+00,1.084612727165222168e+00,1.084552407264709473e+00,1.084491968154907227e+00,1.084431767463684082e+00,1.084371447563171387e+00,1.084311127662658691e+00,1.084250807762145996e+00,1.084190607070922852e+00,1.084130287170410156e+00,1.084070086479187012e+00,1.084009766578674316e+00,1.083949446678161621e+00,1.083889245986938477e+00,1.083829045295715332e+00,1.083768844604492188e+00,1.083708524703979492e+00,1.083648324012756348e+00,1.083588242530822754e+00,1.083527922630310059e+00,1.083467721939086914e+00,1.083407759666442871e+00,1.083347916603088379e+00,1.083287954330444336e+00,1.083228111267089844e+00,1.083168148994445801e+00,1.083108305931091309e+00,1.083048343658447266e+00,1.082988500595092773e+00,1.082928657531738281e+00,1.082868814468383789e+00,1.082808971405029297e+00,1.082749128341674805e+00,1.082689285278320312e+00,1.082629442214965820e+00,1.082569599151611328e+00,1.082509756088256836e+00,1.082449913024902344e+00,1.082390189170837402e+00,1.082330346107482910e+00
1.020995616912841797e+00,1.020942211151123047e+00,1.020888805389404297e+00,1.020835399627685547e+00,1.020781874656677246e+00,1.020728468894958496e+00,1.020675063133239746e+00,1.020621657371520996e+00,1.020568251609802246e+00,1.020514845848083496e+00,1.020461440086364746e+00,1.020408034324645996e+00,1.020354628562927246e+00,1.020301342010498047e+00,1.020247817039489746e+00,1.020194530487060547e+00,1.020141124725341797e+00,1.020087718963623047e+00,1.020034432411193848e+00,1.019981145858764648e+00,1.019927740097045898e+00,1.019874334335327148e+00,1.019821047782897949e+00,1.019767642021179199e+00,1.019714355468750000e+00,1.019661068916320801e+00,1.019607782363891602e+00,1.019554495811462402e+00,1.019501209259033203e+00,1.019447922706604004e+00,1.019394516944885254e+00,1.019341349601745605e+00,1.019288063049316406e+00,1.019234776496887207e+00,1.019181489944458008e+00,1.019128203392028809e+00,1.019074916839599609e+00,1.019021749496459961e+00,1.018968462944030762e+00,1.018915295600891113e+00,1.018862009048461914e+00,1.018808722496032715e+00,1.018755555152893066e+00,1.018702268600463867e+00,1.018649101257324219e+00,1.018595933914184570e+00,1.018542647361755371e+00,1.018489480018615723e+00,1.018436312675476074e+00,1.018383145332336426e+00,1.018329977989196777e+00,1.018276810646057129e+00,1.018223643302917480e+00,1.018170475959777832e+00,1.018117308616638184e+00,1.018064141273498535e+00,1.018010973930358887e+00,1.017957925796508789e+00,1.017904758453369141e+00,1.017851591110229492e+00,1.017798542976379395e+00,1.017745375633239746e+00,1.017692208290100098e+00,1.017639160156250000e+00,1.017586112022399902e+00,1.017532944679260254e+00,1.017479896545410156e+00,1.017426848411560059e+00,1.017373800277709961e+00,1.017320990562438965e+00,1.017268180847167969e+00,1.017215251922607422e+00,1.017162442207336426e+00,1.017109632492065430e+00,1.017056822776794434e+00,1.017004013061523438e+00,1.016951203346252441e+00,1.016898512840270996e+00,1.016845703125000000e+00,1.016792893409729004e+00
9.624766111373901367e-01,9.624289870262145996e-01,9.623814821243286133e-01,9.623340368270874023e-01,9.622865319252014160e-01,9.622390866279602051e-01,9.621916413307189941e-01,9.621440768241882324e-01,9.620966315269470215e-01,9.620491862297058105e-01,9.620017409324645996e-01,9.619542956352233887e-01,9.619068503379821777e-01,9.618594646453857422e-01,9.618119001388549805e-01,9.617645144462585449e-01,9.617170691490173340e-01,9.616696834564208984e-01,9.616222977638244629e-01,9.615749120712280273e-01,9.615274071693420410e-01,9.614800214767456055e-01,9.614326357841491699e-01,9.613852500915527344e-01,9.613378643989562988e-01,9.612904787063598633e-01,9.612430930137634277e-01,9.611956477165222168e-01,9.611483216285705566e-01,9.611009359359741211e-01,9.610536098480224609e-01,9.610062241554260254e-01,9.609588980674743652e-01,9.609114527702331543e-01,9.608641266822814941e-01,9.608168005943298340e-01,9.607694745063781738e-01,9.607222080230712891e-01,9.606748819351196289e-01,9.606275558471679688e-01,9.605801701545715332e-01,9.605328440666198730e-01,9.604855775833129883e-01,9.604383111000061035e-01,9.603909850120544434e-01,9.603437185287475586e-01,9.602963328361511230e-01,9.602490663528442383e-01,9.602017998695373535e-01,9.601545333862304688e-01,9.601073265075683594e-01,9.600600600242614746e-01,9.600127935409545898e-01,9.599654674530029297e-01,9.599182009696960449e-01,9.598709940910339355e-01,9.598237276077270508e-01,9.597765207290649414e-01,9.597293138504028320e-01,9.596819877624511719e-01,9.596347808837890625e-01,9.595875740051269531e-01,9.595403671264648438e-01,9.594932198524475098e-01,9.594460129737854004e-01,9.593988060951232910e-01,9.593515396118164062e-01,9.593043327331542969e-01,9.592571854591369629e-01,9.592100381851196289e-01,9.591628313064575195e-01,9.591156840324401855e-01,9.590684175491333008e-01,9.590212702751159668e-01,9.589741230010986328e-01,9.589269757270812988e-01,9.588800072669982910e-01,9.588330984115600586e-01,9.587861895561218262e-01,9.587391614913940430e-01
9.103018641471862793e-01,9.102593660354614258e-01,9.102168679237365723e-01,9.101744294166564941e-01,9.101318717002868652e-01,9.100894331932067871e-01,9.100469350814819336e-01,9.100044965744018555e-01,9.099620580673217773e-01,9.099196195602416992e-01,9.098771810531616211e-01,9.098346233367919922e-01,9.097921848297119141e-01,9.097498059272766113e-01,9.097073674201965332e-01,9.096649289131164551e-01,9.096224904060363770e-01,9.095799922943115234e-01,9.095376133918762207e-01,9.094951748847961426e-01,9.094527959823608398e-01,9.094104170799255371e-01,9.093680381774902344e-01,9.093255996704101562e-01,9.092831611633300781e-01,9.092407822608947754e-01,9.091984033584594727e-01,9.091560244560241699e-01,9.091136455535888672e-01,9.090712666511535645e-01,9.090288281440734863e-01,9.089864492416381836e-01,9.089441299438476562e-01,9.089017510414123535e-01,9.088594317436218262e-01,9.088171124458312988e-01,9.087747335433959961e-01,9.087322950363159180e-01,9.086899757385253906e-01,9.086476564407348633e-01,9.086053371429443359e-01,9.085630178451538086e-01,9.085206985473632812e-01,9.084783196449279785e-01,9.084360003471374512e-01,9.083936810493469238e-01,9.083514213562011719e-01,9.083091020584106445e-01,9.082668423652648926e-01,9.082245230674743652e-01,9.081821441650390625e-01,9.081398844718933105e-01,9.080976247787475586e-01,9.080553650856018066e-01,9.080131053924560547e-01,9.079708456993103027e-01,9.079284667968750000e-01,9.078862071037292480e-01,9.078439474105834961e-01,9.078017473220825195e-01,9.077594876289367676e-01,9.077172279357910156e-01,9.076750278472900391e-01,9.076327085494995117e-01,9.075904488563537598e-01,9.075482487678527832e-01,9.075059890747070312e-01,9.074637889862060547e-01,9.074215888977050781e-01,9.073792695999145508e-01,9.073370695114135742e-01,9.072948694229125977e-01,9.072526693344116211e-01,9.072105288505554199e-01,9.071683287620544434e-01,9.071261286735534668e-01,9.070838689804077148e-01,9.070416688919067383e-01,9.069995284080505371e-01,9.069573283195495605e-01
