1.934130907058715820e+00,1.960861802101135254e+00,1.988341927528381348e+00,2.016603231430053711e+00,2.045679569244384766e+00,2.075606584548950195e+00,2.106422185897827148e+00,2.138166666030883789e+00,2.170882701873779297e+00,2.204615354537963867e+00,2.239412784576416016e+00,2.275326251983642578e+00,2.312410593032836914e+00,2.350723743438720703e+00,2.390327692031860352e+00,2.431289196014404297e+00,2.473681449890136719e+00,2.517580986022949219e+00,2.563067197799682617e+00,2.610227108001708984e+00,2.659154891967773438e+00,2.709952116012573242e+00,2.762726306915283203e+00,2.817591190338134766e+00,2.874679803848266602e+00,2.934129238128662109e+00,2.996089696884155273e+00,3.060723543167114258e+00,3.128207445144653320e+00,3.198734045028686523e+00,3.272514104843139648e+00,3.349778413772583008e+00,3.430778980255126953e+00,3.515794277191162109e+00,3.605129718780517578e+00,3.699124097824096680e+00,3.798150300979614258e+00,3.902624845504760742e+00,4.013008594512939453e+00,4.129818439483642578e+00,4.253631114959716797e+00,4.385097503662109375e+00,4.524950027465820312e+00,4.674015998840332031e+00,4.833238601684570312e+00,5.000000000000000000e+00,5.000000000000000000e+00,5.000000000000000000e+00,5.000000000000000000e+00,5.000000000000000000e+00,5.000000000000000000e+00,5.000000000000000000e+00,5.000000000000000000e+00,5.000000000000000000e+00,5.000000000000000000e+00,5.000000000000000000e+00,5.000000000000000000e+00,5.000000000000000000e+00,4.595672130584716797e+00,5.000000000000000000e+00,5.000000000000000000e+00,5.000000000000000000e+00,5.000000000000000000e+00,5.000000000000000000e+00,5.000000000000000000e+00,5.000000000000000000e+00,5.000000000000000000e+00,5.000000000000000000e+00,5.000000000000000000e+00,5.000000000000000000e+00,5.000000000000000000e+00,5.000000000000000000e+00,5.000000000000000000e+00,5.000000000000000000e+00,5.000000000000000000e+00,5.000000000000000000e+00,5.000000000000000000e+00,5.000000000000000000e+00,5.000000000000000000e+00,5.000000000000000000e+00
1.934102535247802734e+00,1.960832715034484863e+00,1.988312005996704102e+00,2.016572475433349609e+00,2.045647859573364258e+00,2.075573921203613281e+00,2.106388807296752930e+00,2.138132095336914062e+00,2.170846939086914062e+00,2.204578399658203125e+00,2.239374876022338867e+00,2.275287151336669922e+00,2.312370300292968750e+00,2.350682020187377930e+00,2.390284776687622070e+00,2.431244611740112305e+00,2.473632812500000000e+00,2.517525434494018555e+00,2.563005208969116211e+00,2.610162973403930664e+00,2.659088373184204102e+00,2.709882974624633789e+00,2.762655973434448242e+00,2.817524909973144531e+00,2.874617576599121094e+00,2.934064626693725586e+00,2.996022224426269531e+00,3.060653209686279297e+00,3.128133535385131836e+00,3.198657274246215820e+00,3.272433757781982422e+00,3.349694013595581055e+00,3.430690526962280273e+00,3.515701532363891602e+00,3.605032205581665039e+00,3.699021339416503906e+00,3.798041820526123047e+00,3.902509927749633789e+00,4.012887477874755859e+00,4.129691123962402344e+00,4.253497123718261719e+00,4.384954929351806641e+00,4.524797916412353516e+00,4.673853874206542969e+00,4.833065032958984375e+00,5.000000000000000000e+00,5.000000000000000000e+00,5.000000000000000000e+00,5.000000000000000000e+00,5.000000000000000000e+00,5.000000000000000000e+00,5.000000000000000000e+00,5.000000000000000000e+00,5.000000000000000000e+00,5.000000000000000000e+00,5.000000000000000000e+00,5.000000000000000000e+00,5.000000000000000000e+00,4.586163520812988281e+00,4.632675170898437500e+00,5.000000000000000000e+00,5.000000000000000000e+00,5.000000000000000000e+00,5.000000000000000000e+00,5.000000000000000000e+00,5.000000000000000000e+00,5.000000000000000000e+00,5.000000000000000000e+00,5.000000000000000000e+00,5.000000000000000000e+00,5.000000000000000000e+00,5.000000000000000000e+00,5.000000000000000000e+00,5.000000000000000000e+00,5.000000000000000000e+00,5.000000000000000000e+00,5.000000000000000000e+00,5.000000000000000000e+00,5.000000000000000000e+00,5.000000000000000000e+00
1.934074282646179199e+00,1.960803627967834473e+00,1.988282084465026855e+00,2.016541719436645508e+00,2.045616388320922852e+00,2.075541496276855469e+00,2.106355190277099609e+00,2.138097763061523438e+00,2.170811414718627930e+00,2.204541921615600586e+00,2.239336967468261719e+00,2.275248289108276367e+00,2.312329769134521484e+00,2.350640296936035156e+00,2.390241384506225586e+00,2.431200027465820312e+00,2.473586559295654297e+00,2.517477273941040039e+00,2.562953948974609375e+00,2.610103845596313477e+00,2.659021615982055664e+00,2.709813833236694336e+00,2.762584209442138672e+00,2.817450284957885742e+00,2.874540090560913086e+00,2.933991432189941406e+00,2.995953798294067383e+00,3.060582637786865234e+00,3.128060102462768555e+00,3.198580265045166016e+00,3.272353172302246094e+00,3.349609851837158203e+00,3.430602312088012695e+00,3.515608787536621094e+00,3.604934692382812500e+00,3.698918104171752930e+00,3.797933578491210938e+00,3.902395486831665039e+00,4.012766361236572266e+00,4.129562854766845703e+00,4.253361701965332031e+00,4.384811878204345703e+00,4.524645805358886719e+00,4.673691749572753906e+00,4.832891464233398438e+00,5.000000000000000000e+00,5.000000000000000000e+00,5.000000000000000000e+00,5.000000000000000000e+00,5.000000000000000000e+00,5.000000000000000000e+00,5.000000000000000000e+00,5.000000000000000000e+00,5.000000000000000000e+00,5.000000000000000000e+00,5.000000000000000000e+00,5.000000000000000000e+00,5.000000000000000000e+00,4.593416213989257812e+00,4.665398597717285156e+00,5.000000000000000000e+00,5.000000000000000000e+00,5.000000000000000000e+00,5.000000000000000000e+00,5.000000000000000000e+00,5.000000000000000000e+00,5.000000000000000000e+00,5.000000000000000000e+00,5.000000000000000000e+00,5.000000000000000000e+00,5.000000000000000000e+00,5.000000000000000000e+00,5.000000000000000000e+00,5.000000000000000000e+00,5.000000000000000000e+00,5.000000000000000000e+00,5.000000000000000000e+00,5.000000000000000000e+00,5.000000000000000000e+00,5.000000000000000000e+00
1.934046149253845215e+00,1.960774779319763184e+00,1.988252401351928711e+00,2.016510963439941406e+00,2.045584678649902344e+00,2.075508832931518555e+00,2.106321573257446289e+00,2.138063192367553711e+00,2.170775890350341797e+00,2.204504966735839844e+00,2.239299058914184570e+00,2.275208950042724609e+00,2.312289476394653320e+00,2.350598573684692383e+00,2.390198469161987305e+00,2.431155443191528320e+00,2.473540306091308594e+00,2.517429590225219727e+00,2.562904357910156250e+00,2.610052347183227539e+00,2.658967494964599609e+00,2.709750890731811523e+00,2.762512207031250000e+00,2.817375659942626953e+00,2.874462366104125977e+00,2.933910369873046875e+00,2.995869398117065430e+00,3.060501813888549805e+00,3.127984285354614258e+00,3.198503494262695312e+00,3.272272825241088867e+00,3.349525213241577148e+00,3.430513858795166016e+00,3.515515565872192383e+00,3.604836940765380859e+00,3.698815345764160156e+00,3.797825336456298828e+00,3.902281284332275391e+00,4.012645721435546875e+00,4.129434585571289062e+00,4.253225326538085938e+00,4.384667873382568359e+00,4.524493694305419922e+00,4.673529148101806641e+00,4.832717895507812500e+00,5.000000000000000000e+00,5.000000000000000000e+00,5.000000000000000000e+00,5.000000000000000000e+00,5.000000000000000000e+00,5.000000000000000000e+00,5.000000000000000000e+00,5.000000000000000000e+00,5.000000000000000000e+00,5.000000000000000000e+00,5.000000000000000000e+00,5.000000000000000000e+00,4.723041534423828125e+00,4.674295425415039062e+00,4.603189945220947266e+00,4.550632953643798828e+00,4.509914398193359375e+00,5.000000000000000000e+00,5.000000000000000000e+00,5.000000000000000000e+00,5.000000000000000000e+00,5.000000000000000000e+00,5.000000000000000000e+00,5.000000000000000000e+00,5.000000000000000000e+00,5.000000000000000000e+00,5.000000000000000000e+00,5.000000000000000000e+00,5.000000000000000000e+00,5.000000000000000000e+00,5.000000000000000000e+00,5.000000000000000000e+00,5.000000000000000000e+00,5.000000000000000000e+00,5.000000000000000000e+00
1.934017896652221680e+00,1.960745573043823242e+00,1.988222479820251465e+00,2.016480207443237305e+00,2.045552968978881836e+00,2.075476408004760742e+00,2.106288194656372070e+00,2.138028621673583984e+00,2.170740365982055664e+00,2.204468488693237305e+00,2.239261388778686523e+00,2.275170087814331055e+00,2.312249183654785156e+00,2.350556850433349609e+00,2.390155076980590820e+00,2.431110620498657227e+00,2.473494052886962891e+00,2.517381668090820312e+00,2.562854766845703125e+00,2.610000848770141602e+00,2.658914089202880859e+00,2.709695577621459961e+00,2.762454748153686523e+00,2.817308902740478516e+00,2.874385833740234375e+00,2.933829307556152344e+00,2.995784759521484375e+00,3.060413599014282227e+00,3.127892255783081055e+00,3.198413610458374023e+00,3.272188186645507812e+00,3.349441051483154297e+00,3.430425405502319336e+00,3.515422821044921875e+00,3.604739427566528320e+00,3.698712587356567383e+00,3.797716856002807617e+00,3.902166843414306641e+00,4.012524604797363281e+00,4.129306316375732422e+00,4.253089904785156250e+00,4.384523391723632812e+00,4.524340152740478516e+00,4.673366546630859375e+00,4.832544326782226562e+00,5.000000000000000000e+00,5.000000000000000000e+00,5.000000000000000000e+00,5.000000000000000000e+00,5.000000000000000000e+00,5.000000000000000000e+00,5.000000000000000000e+00,5.000000000000000000e+00,5.000000000000000000e+00,5.000000000000000000e+00,5.000000000000000000e+00,4.744347095489501953e+00,4.654923439025878906e+00,4.588801383972167969e+00,4.540297508239746094e+00,4.543677330017089844e+00,4.510344505310058594e+00,5.000000000000000000e+00,5.000000000000000000e+00,5.000000000000000000e+00,5.000000000000000000e+00,5.000000000000000000e+00,5.000000000000000000e+00,5.000000000000000000e+00,5.000000000000000000e+00,5.000000000000000000e+00,5.000000000000000000e+00,5.000000000000000000e+00,5.000000000000000000e+00,5.000000000000000000e+00,5.000000000000000000e+00,5.000000000000000000e+00,5.000000000000000000e+00,5.000000000000000000e+00,5.000000000000000000e+00
1.933989524841308594e+00,1.960716485977172852e+00,1.988192558288574219e+00,2.016449689865112305e+00,2.045521497726440430e+00,2.075443983078002930e+00,2.106254816055297852e+00,2.137994050979614258e+00,2.170704603195190430e+00,2.204431533813476562e+00,2.239223241806030273e+00,2.275130748748779297e+00,2.312208652496337891e+00,2.350515127182006836e+00,2.390112161636352539e+00,2.431066036224365234e+00,2.473448038101196289e+00,2.517333745956420898e+00,2.562805175781250000e+00,2.609949588775634766e+00,2.658860683441162109e+00,2.709640264511108398e+00,2.762397289276123047e+00,2.817248821258544922e+00,2.874323368072509766e+00,2.933758258819580078e+00,2.995702981948852539e+00,3.060325384140014648e+00,3.127799987792968750e+00,3.198317289352416992e+00,3.272087335586547852e+00,3.349340915679931641e+00,3.430330753326416016e+00,3.515329837799072266e+00,3.604641914367675781e+00,3.698609828948974609e+00,3.797608137130737305e+00,3.902052402496337891e+00,4.012403488159179688e+00,4.129178524017333984e+00,4.252954006195068359e+00,4.384378910064697266e+00,4.524186134338378906e+00,4.673202991485595703e+00,4.832370281219482422e+00,5.000000000000000000e+00,5.000000000000000000e+00,5.000000000000000000e+00,5.000000000000000000e+00,5.000000000000000000e+00,5.000000000000000000e+00,5.000000000000000000e+00,5.000000000000000000e+00,5.000000000000000000e+00,5.000000000000000000e+00,5.000000000000000000e+00,4.728848934173583984e+00,4.611846923828125000e+00,4.570661067962646484e+00,4.540765762329101562e+00,4.561321735382080078e+00,4.508861541748046875e+00,5.000000000000000000e+00,5.000000000000000000e+00,5.000000000000000000e+00,5.000000000000000000e+00,5.000000000000000000e+00,5.000000000000000000e+00,5.000000000000000000e+00,5.000000000000000000e+00,5.000000000000000000e+00,5.000000000000000000e+00,5.000000000000000000e+00,5.000000000000000000e+00,5.000000000000000000e+00,5.000000000000000000e+00,5.000000000000000000e+00,5.000000000000000000e+00,5.000000000000000000e+00,5.000000000000000000e+00
1.933961272239685059e+00,1.960687398910522461e+00,1.988162636756896973e+00,2.016418933868408203e+00,2.045489788055419922e+00,2.075411319732666016e+00,2.106221199035644531e+00,2.137959480285644531e+00,2.170669078826904297e+00,2.204395055770874023e+00,2.239185571670532227e+00,2.275091886520385742e+00,2.312168359756469727e+00,2.350473403930664062e+00,2.390069007873535156e+00,2.431021451950073242e+00,2.473401784896850586e+00,2.517285823822021484e+00,2.562755584716796875e+00,2.609897851943969727e+00,2.658807277679443359e+00,2.709584712982177734e+00,2.762339353561401367e+00,2.817188978195190430e+00,2.874261140823364258e+00,2.933693408966064453e+00,2.995635271072387695e+00,3.060249567031860352e+00,3.127712249755859375e+00,3.198220968246459961e+00,3.271986722946166992e+00,3.349235296249389648e+00,3.430219888687133789e+00,3.515218019485473633e+00,3.604535341262817383e+00,3.698507070541381836e+00,3.797499895095825195e+00,3.901938199996948242e+00,4.012282848358154297e+00,4.129050254821777344e+00,4.252818107604980469e+00,4.384234428405761719e+00,4.524032115936279297e+00,4.673038959503173828e+00,4.832195281982421875e+00,5.000000000000000000e+00,5.000000000000000000e+00,5.000000000000000000e+00,5.000000000000000000e+00,5.000000000000000000e+00,5.000000000000000000e+00,5.000000000000000000e+00,5.000000000000000000e+00,5.000000000000000000e+00,5.000000000000000000e+00,5.000000000000000000e+00,4.780238151550292969e+00,4.617791652679443359e+00,4.561717510223388672e+00,4.545891761779785156e+00,4.591288089752197266e+00,4.505993366241455078e+00,5.000000000000000000e+00,5.000000000000000000e+00,5.000000000000000000e+00,5.000000000000000000e+00,5.000000000000000000e+00,5.000000000000000000e+00,5.000000000000000000e+00,5.000000000000000000e+00,5.000000000000000000e+00,5.000000000000000000e+00,5.000000000000000000e+00,5.000000000000000000e+00,5.000000000000000000e+00,5.000000000000000000e+00,5.000000000000000000e+00,5.000000000000000000e+00,5.000000000000000000e+00,5.000000000000000000e+00
1.933933138847351074e+00,1.960658550262451172e+00,1.988132953643798828e+00,2.016388177871704102e+00,2.045458316802978516e+00,2.075378894805908203e+00,2.106187820434570312e+00,2.137925148010253906e+00,2.170633554458618164e+00,2.204358100891113281e+00,2.239147663116455078e+00,2.275052547454833984e+00,2.312127828598022461e+00,2.350431680679321289e+00,2.390025854110717773e+00,2.430976867675781250e+00,2.473355531692504883e+00,2.517238140106201172e+00,2.562705993652343750e+00,2.609846591949462891e+00,2.658753871917724609e+00,2.709529399871826172e+00,2.762281894683837891e+00,2.817129135131835938e+00,2.874198913574218750e+00,2.933628320693969727e+00,2.995567321777343750e+00,3.060178518295288086e+00,3.127638339996337891e+00,3.198139190673828125e+00,3.271891832351684570e+00,3.349129676818847656e+00,3.430109262466430664e+00,3.515101671218872070e+00,3.604413032531738281e+00,3.698381185531616211e+00,3.797379970550537109e+00,3.901823759078979492e+00,4.012161731719970703e+00,4.128921985626220703e+00,4.252681732177734375e+00,4.384089946746826172e+00,4.523878574371337891e+00,4.672874927520751953e+00,4.832019805908203125e+00,5.000000000000000000e+00,5.000000000000000000e+00,5.000000000000000000e+00,5.000000000000000000e+00,5.000000000000000000e+00,5.000000000000000000e+00,5.000000000000000000e+00,5.000000000000000000e+00,5.000000000000000000e+00,5.000000000000000000e+00,5.000000000000000000e+00,4.793266296386718750e+00,4.614906311035156250e+00,4.569375991821289062e+00,4.543310642242431641e+00,4.613950729370117188e+00,4.509720802307128906e+00,4.504805564880371094e+00,5.000000000000000000e+00,5.000000000000000000e+00,5.000000000000000000e+00,5.000000000000000000e+00,5.000000000000000000e+00,5.000000000000000000e+00,5.000000000000000000e+00,5.000000000000000000e+00,5.000000000000000000e+00,5.000000000000000000e+00,5.000000000000000000e+00,5.000000000000000000e+00,5.000000000000000000e+00,5.000000000000000000e+00,5.000000000000000000e+00,5.000000000000000000e+00,5.000000000000000000e+00
1.933904767036437988e+00,1.960629463195800781e+00,1.988103032112121582e+00,2.016357421875000000e+00,2.045426607131958008e+00,2.075346231460571289e+00,2.106154203414916992e+00,2.137890577316284180e+00,2.170597791671752930e+00,2.204321622848510742e+00,2.239109754562377930e+00,2.275013685226440430e+00,2.312087535858154297e+00,2.350389957427978516e+00,2.389982700347900391e+00,2.430932283401489258e+00,2.473309516906738281e+00,2.517190217971801758e+00,2.562656164169311523e+00,2.609795093536376953e+00,2.658700466156005859e+00,2.709473848342895508e+00,2.762224197387695312e+00,2.817069053649902344e+00,2.874136209487915039e+00,2.933563470840454102e+00,2.995499610900878906e+00,3.060107946395874023e+00,3.127564430236816406e+00,3.198062181472778320e+00,3.271811008453369141e+00,3.349041700363159180e+00,3.430006742477416992e+00,3.514985322952270508e+00,3.604290723800659180e+00,3.698252439498901367e+00,3.797244071960449219e+00,3.901681423187255859e+00,4.012025356292724609e+00,4.128792762756347656e+00,4.252546310424804688e+00,4.383945941925048828e+00,4.523725032806396484e+00,4.672710895538330078e+00,4.831843852996826172e+00,5.000000000000000000e+00,5.000000000000000000e+00,5.000000000000000000e+00,5.000000000000000000e+00,5.000000000000000000e+00,5.000000000000000000e+00,5.000000000000000000e+00,5.000000000000000000e+00,5.000000000000000000e+00,5.000000000000000000e+00,5.000000000000000000e+00,4.853281497955322266e+00,4.602903842926025391e+00,4.565003871917724609e+00,4.547409534454345703e+00,4.584999084472656250e+00,4.447544574737548828e+00,5.000000000000000000e+00,5.000000000000000000e+00,5.000000000000000000e+00,5.000000000000000000e+00,5.000000000000000000e+00,5.000000000000000000e+00,5.000000000000000000e+00,5.000000000000000000e+00,5.000000000000000000e+00,5.000000000000000000e+00,5.000000000000000000e+00,5.000000000000000000e+00,5.000000000000000000e+00,5.000000000000000000e+00,5.000000000000000000e+00,5.000000000000000000e+00,5.000000000000000000e+00,5.000000000000000000e+00
1.933876514434814453e+00,1.960600376129150391e+00,1.988073110580444336e+00,2.016326665878295898e+00,2.045395135879516602e+00,2.075313806533813477e+00,2.106120824813842773e+00,2.137856006622314453e+00,2.170562267303466797e+00,2.204284906387329102e+00,2.239072084426879883e+00,2.274974346160888672e+00,2.312047004699707031e+00,2.350347995758056641e+00,2.389939546585083008e+00,2.430887460708618164e+00,2.473263025283813477e+00,2.517142295837402344e+00,2.562606811523437500e+00,2.609743595123291016e+00,2.658647060394287109e+00,2.709418296813964844e+00,2.762166500091552734e+00,2.817009449005126953e+00,2.874073982238769531e+00,2.933498620986938477e+00,2.995432138442993164e+00,3.060037136077880859e+00,3.127490520477294922e+00,3.197984695434570312e+00,3.271730184555053711e+00,3.348956823348999023e+00,3.429917812347412109e+00,3.514889955520629883e+00,3.604179143905639648e+00,3.698123455047607422e+00,3.797108411788940430e+00,3.901537895202636719e+00,4.011873722076416016e+00,4.128632545471191406e+00,4.252390384674072266e+00,4.383797645568847656e+00,4.523571014404296875e+00,4.672546386718750000e+00,4.831668853759765625e+00,5.000000000000000000e+00,5.000000000000000000e+00,5.000000000000000000e+00,5.000000000000000000e+00,5.000000000000000000e+00,5.000000000000000000e+00,5.000000000000000000e+00,5.000000000000000000e+00,5.000000000000000000e+00,5.000000000000000000e+00,5.000000000000000000e+00,4.806346416473388672e+00,4.631480216979980469e+00,4.584070682525634766e+00,4.548428058624267578e+00,4.558081626892089844e+00,4.424883365631103516e+00,5.000000000000000000e+00,5.000000000000000000e+00,5.000000000000000000e+00,5.000000000000000000e+00,5.000000000000000000e+00,5.000000000000000000e+00,5.000000000000000000e+00,5.000000000000000000e+00,5.000000000000000000e+00,5.000000000000000000e+00,5.000000000000000000e+00,5.000000000000000000e+00,5.000000000000000000e+00,5.000000000000000000e+00,5.000000000000000000e+00,5.000000000000000000e+00,5.000000000000000000e+00,5.000000000000000000e+00
1.933848381042480469e+00,1.960571527481079102e+00,1.988043427467346191e+00,2.016296148300170898e+00,2.045363426208496094e+00,2.075281143188476562e+00,2.106087207794189453e+00,2.137821435928344727e+00,2.170526742935180664e+00,2.204248189926147461e+00,2.239033937454223633e+00,2.274935483932495117e+00,2.312006711959838867e+00,2.350306510925292969e+00,2.389896392822265625e+00,2.430842876434326172e+00,2.473217010498046875e+00,2.517094612121582031e+00,2.562557220458984375e+00,2.609692335128784180e+00,2.658593654632568359e+00,2.709362745285034180e+00,2.762108802795410156e+00,2.816949367523193359e+00,2.874011516571044922e+00,2.933433294296264648e+00,2.995364189147949219e+00,3.059966564178466797e+00,3.127416610717773438e+00,3.197907686233520508e+00,3.271649360656738281e+00,3.348872423171997070e+00,3.429829120635986328e+00,3.514796733856201172e+00,3.604081153869628906e+00,3.698019981384277344e+00,3.796986341476440430e+00,3.901396036148071289e+00,4.011722564697265625e+00,4.128471851348876953e+00,4.252220153808593750e+00,4.383616447448730469e+00,4.523392200469970703e+00,4.672374725341796875e+00,4.831493377685546875e+00,5.000000000000000000e+00,5.000000000000000000e+00,5.000000000000000000e+00,5.000000000000000000e+00,5.000000000000000000e+00,5.000000000000000000e+00,5.000000000000000000e+00,5.000000000000000000e+00,5.000000000000000000e+00,5.000000000000000000e+00,5.000000000000000000e+00,4.636843204498291016e+00,4.565266132354736328e+00,4.610045909881591797e+00,4.551479339599609375e+00,4.547781467437744141e+00,5.000000000000000000e+00,4.353583812713623047e+00,5.000000000000000000e+00,5.000000000000000000e+00,5.000000000000000000e+00,5.000000000000000000e+00,5.000000000000000000e+00,5.000000000000000000e+00,5.000000000000000000e+00,5.000000000000000000e+00,5.000000000000000000e+00,5.000000000000000000e+00,5.000000000000000000e+00,5.000000000000000000e+00,5.000000000000000000e+00,5.000000000000000000e+00,5.000000000000000000e+00,5.000000000000000000e+00,5.000000000000000000e+00
1.933820128440856934e+00,1.960542321205139160e+00,1.988013505935668945e+00,2.016265392303466797e+00,2.045331954956054688e+00,2.075248718261718750e+00,2.106053590774536133e+00,2.137786865234375000e+00,2.170491218566894531e+00,2.204211473464965820e+00,2.238996267318725586e+00,2.274896383285522461e+00,2.311966419219970703e+00,2.350264549255371094e+00,2.389853239059448242e+00,2.430798292160034180e+00,2.473170757293701172e+00,2.517046689987182617e+00,2.562507629394531250e+00,2.609640836715698242e+00,2.658540248870849609e+00,2.709307432174682617e+00,2.762051343917846680e+00,2.816889524459838867e+00,2.873949289321899414e+00,2.933368444442749023e+00,2.995296478271484375e+00,3.059895992279052734e+00,3.127342939376831055e+00,3.197830200195312500e+00,3.271568298339843750e+00,3.348787546157836914e+00,3.429739952087402344e+00,3.514703273773193359e+00,3.603982925415039062e+00,3.697916507720947266e+00,3.796877622604370117e+00,3.901281118392944336e+00,4.011588096618652344e+00,4.128315448760986328e+00,4.252049922943115234e+00,4.383435726165771484e+00,4.523199558258056641e+00,4.672169208526611328e+00,4.831285953521728516e+00,5.000000000000000000e+00,5.000000000000000000e+00,5.000000000000000000e+00,5.000000000000000000e+00,5.000000000000000000e+00,5.000000000000000000e+00,5.000000000000000000e+00,5.000000000000000000e+00,5.000000000000000000e+00,5.000000000000000000e+00,5.000000000000000000e+00,4.593539237976074219e+00,4.537529945373535156e+00,4.642720222473144531e+00,4.561187744140625000e+00,4.558749198913574219e+00,5.000000000000000000e+00,5.000000000000000000e+00,5.000000000000000000e+00,5.000000000000000000e+00,5.000000000000000000e+00,5.000000000000000000e+00,5.000000000000000000e+00,5.000000000000000000e+00,5.000000000000000000e+00,5.000000000000000000e+00,5.000000000000000000e+00,5.000000000000000000e+00,5.000000000000000000e+00,5.000000000000000000e+00,5.000000000000000000e+00,5.000000000000000000e+00,5.000000000000000000e+00,5.000000000000000000e+00,5.000000000000000000e+00
1.933791756629943848e+00,1.960513234138488770e+00,1.987983584403991699e+00,2.016234636306762695e+00,2.045300245285034180e+00,2.075216293334960938e+00,2.106020212173461914e+00,2.137752294540405273e+00,2.170455455780029297e+00,2.204174757003784180e+00,2.238958358764648438e+00,2.274857282638549805e+00,2.311926126480102539e+00,2.350223064422607422e+00,2.389810085296630859e+00,2.430753707885742188e+00,2.473124504089355469e+00,2.516998767852783203e+00,2.562458038330078125e+00,2.609589338302612305e+00,2.658487081527709961e+00,2.709252119064331055e+00,2.761993646621704102e+00,2.816829442977905273e+00,2.873886585235595703e+00,2.933303356170654297e+00,2.995228528976440430e+00,3.059824943542480469e+00,3.127268791198730469e+00,3.197753190994262695e+00,3.271487712860107422e+00,3.348702907562255859e+00,3.429651260375976562e+00,3.514610052108764648e+00,3.603884935379028320e+00,3.697813272476196289e+00,3.796768903732299805e+00,3.901166439056396484e+00,4.011466503143310547e+00,4.128186702728271484e+00,4.251902103424072266e+00,4.383261680603027344e+00,4.523006916046142578e+00,4.671963691711425781e+00,4.831066131591796875e+00,5.000000000000000000e+00,5.000000000000000000e+00,5.000000000000000000e+00,5.000000000000000000e+00,5.000000000000000000e+00,5.000000000000000000e+00,5.000000000000000000e+00,5.000000000000000000e+00,5.000000000000000000e+00,5.000000000000000000e+00,5.000000000000000000e+00,4.547554016113281250e+00,4.506388664245605469e+00,5.000000000000000000e+00,4.582795143127441406e+00,4.588269233703613281e+00,5.000000000000000000e+00,5.000000000000000000e+00,5.000000000000000000e+00,5.000000000000000000e+00,5.000000000000000000e+00,5.000000000000000000e+00,5.000000000000000000e+00,5.000000000000000000e+00,5.000000000000000000e+00,5.000000000000000000e+00,5.000000000000000000e+00,5.000000000000000000e+00,5.000000000000000000e+00,5.000000000000000000e+00,5.000000000000000000e+00,5.000000000000000000e+00,5.000000000000000000e+00,5.000000000000000000e+00,5.000000000000000000e+00
1.933763504028320312e+00,1.960484147071838379e+00,1.987953662872314453e+00,2.016203880310058594e+00,2.045268774032592773e+00,2.075183629989624023e+00,2.105986595153808594e+00,2.137717962265014648e+00,2.170419931411743164e+00,2.204138040542602539e+00,2.238920450210571289e+00,2.274818181991577148e+00,2.311885833740234375e+00,2.350181341171264648e+00,2.389766931533813477e+00,2.430708885192871094e+00,2.473078250885009766e+00,2.516950845718383789e+00,2.562408208847045898e+00,2.609537839889526367e+00,2.658433437347412109e+00,2.709196567535400391e+00,2.761935949325561523e+00,2.816769599914550781e+00,2.873824357986450195e+00,2.933238506317138672e+00,2.995161056518554688e+00,3.059754371643066406e+00,3.127195119857788086e+00,3.197675943374633789e+00,3.271406888961791992e+00,3.348618030548095703e+00,3.429562330245971680e+00,3.514516592025756836e+00,3.603786706924438477e+00,3.697709798812866211e+00,3.796659946441650391e+00,3.901051282882690430e+00,4.011345386505126953e+00,4.128057956695556641e+00,4.251765251159667969e+00,4.383116245269775391e+00,4.522841930389404297e+00,4.671769142150878906e+00,4.830846309661865234e+00,5.000000000000000000e+00,5.000000000000000000e+00,5.000000000000000000e+00,5.000000000000000000e+00,5.000000000000000000e+00,5.000000000000000000e+00,5.000000000000000000e+00,5.000000000000000000e+00,5.000000000000000000e+00,5.000000000000000000e+00,5.000000000000000000e+00,4.500081539154052734e+00,4.481272220611572266e+00,5.000000000000000000e+00,4.609700679779052734e+00,4.649361133575439453e+00,5.000000000000000000e+00,5.000000000000000000e+00,5.000000000000000000e+00,5.000000000000000000e+00,5.000000000000000000e+00,5.000000000000000000e+00,5.000000000000000000e+00,5.000000000000000000e+00,5.000000000000000000e+00,5.000000000000000000e+00,5.000000000000000000e+00,5.000000000000000000e+00,5.000000000000000000e+00,5.000000000000000000e+00,5.000000000000000000e+00,5.000000000000000000e+00,5.000000000000000000e+00,5.000000000000000000e+00,5.000000000000000000e+00
1.933735370635986328e+00,1.960455298423767090e+00,1.987923979759216309e+00,2.016173124313354492e+00,2.045237064361572266e+00,2.075151205062866211e+00,2.105953216552734375e+00,2.137683391571044922e+00,2.170384407043457031e+00,2.204101324081420898e+00,2.238882541656494141e+00,2.274779081344604492e+00,2.311845302581787109e+00,2.350139617919921875e+00,2.389723777770996094e+00,2.430664300918579102e+00,2.473032236099243164e+00,2.516903162002563477e+00,2.562358856201171875e+00,2.609486579895019531e+00,2.658380270004272461e+00,2.709141254425048828e+00,2.761878490447998047e+00,2.816709756851196289e+00,2.873761892318725586e+00,2.933173418045043945e+00,2.995093107223510742e+00,3.059683561325073242e+00,3.127121210098266602e+00,3.197598695755004883e+00,3.271326065063476562e+00,3.348533391952514648e+00,3.429473638534545898e+00,3.514423370361328125e+00,3.603688716888427734e+00,3.697606801986694336e+00,3.796551227569580078e+00,3.900936603546142578e+00,4.011223793029785156e+00,4.127929210662841797e+00,4.251628875732421875e+00,4.382971286773681641e+00,4.522687435150146484e+00,4.671604156494140625e+00,4.830661296844482422e+00,5.000000000000000000e+00,5.000000000000000000e+00,5.000000000000000000e+00,5.000000000000000000e+00,5.000000000000000000e+00,5.000000000000000000e+00,5.000000000000000000e+00,5.000000000000000000e+00,5.000000000000000000e+00,5.000000000000000000e+00,5.000000000000000000e+00,4.503971099853515625e+00,4.480763912200927734e+00,5.000000000000000000e+00,4.632701396942138672e+00,5.000000000000000000e+00,5.000000000000000000e+00,5.000000000000000000e+00,5.000000000000000000e+00,5.000000000000000000e+00,5.000000000000000000e+00,5.000000000000000000e+00,5.000000000000000000e+00,5.000000000000000000e+00,5.000000000000000000e+00,5.000000000000000000e+00,5.000000000000000000e+00,5.000000000000000000e+00,5.000000000000000000e+00,5.000000000000000000e+00,5.000000000000000000e+00,5.000000000000000000e+00,5.000000000000000000e+00,5.000000000000000000e+00,5.000000000000000000e+00
1.933707118034362793e+00,1.960426211357116699e+00,1.987894058227539062e+00,2.016142368316650391e+00,2.045205354690551758e+00,2.075118541717529297e+00,2.105919599533081055e+00,2.137648820877075195e+00,2.170348882675170898e+00,2.204064607620239258e+00,2.238844633102416992e+00,2.274739980697631836e+00,2.311805009841918945e+00,2.350097894668579102e+00,2.389680624008178711e+00,2.430619716644287109e+00,2.472985982894897461e+00,2.516855239868164062e+00,2.562309026718139648e+00,2.609435081481933594e+00,2.658326625823974609e+00,2.709085702896118164e+00,2.761820793151855469e+00,2.816649675369262695e+00,2.873699665069580078e+00,2.933108568191528320e+00,2.995025396347045898e+00,3.059612989425659180e+00,3.127047300338745117e+00,3.197521448135375977e+00,3.271245241165161133e+00,3.348448991775512695e+00,3.429384946823120117e+00,3.514329910278320312e+00,3.603590488433837891e+00,3.697503328323364258e+00,3.796442031860351562e+00,3.900821447372436523e+00,4.011102199554443359e+00,4.127800464630126953e+00,4.251492500305175781e+00,4.382825851440429688e+00,4.522532939910888672e+00,4.671439170837402344e+00,4.830485343933105469e+00,5.000000000000000000e+00,5.000000000000000000e+00,5.000000000000000000e+00,5.000000000000000000e+00,5.000000000000000000e+00,5.000000000000000000e+00,5.000000000000000000e+00,5.000000000000000000e+00,5.000000000000000000e+00,5.000000000000000000e+00,5.000000000000000000e+00,4.512628555297851562e+00,4.484684944152832031e+00,5.000000000000000000e+00,4.686774253845214844e+00,4.716651916503906250e+00,5.000000000000000000e+00,5.000000000000000000e+00,5.000000000000000000e+00,5.000000000000000000e+00,5.000000000000000000e+00,5.000000000000000000e+00,5.000000000000000000e+00,5.000000000000000000e+00,5.000000000000000000e+00,5.000000000000000000e+00,5.000000000000000000e+00,5.000000000000000000e+00,5.000000000000000000e+00,5.000000000000000000e+00,5.000000000000000000e+00,5.000000000000000000e+00,5.000000000000000000e+00,5.000000000000000000e+00,5.000000000000000000e+00
1.933678746223449707e+00,1.960397124290466309e+00,1.987864136695861816e+00,2.016111850738525391e+00,2.045173883438110352e+00,2.075086116790771484e+00,2.105886220932006836e+00,2.137614488601684570e+00,2.170313358306884766e+00,2.204028129577636719e+00,2.238806724548339844e+00,2.274700880050659180e+00,2.311764478683471680e+00,2.350056171417236328e+00,2.389637470245361328e+00,2.430575132369995117e+00,2.472939729690551758e+00,2.516807317733764648e+00,2.562259674072265625e+00,2.609383583068847656e+00,2.658273458480834961e+00,2.709030389785766602e+00,2.761763334274291992e+00,2.816589832305908203e+00,2.873637437820434570e+00,2.933043718338012695e+00,2.994957447052001953e+00,3.059542179107666016e+00,3.126973390579223633e+00,3.197444200515747070e+00,3.271164178848266602e+00,3.348364114761352539e+00,3.429295778274536133e+00,3.514236688613891602e+00,3.603492498397827148e+00,3.697400093078613281e+00,3.796333312988281250e+00,3.900706529617309570e+00,4.010980606079101562e+00,4.127671718597412109e+00,4.251355648040771484e+00,4.382681369781494141e+00,4.522378444671630859e+00,4.671274185180664062e+00,4.830308914184570312e+00,5.000000000000000000e+00,5.000000000000000000e+00,5.000000000000000000e+00,5.000000000000000000e+00,5.000000000000000000e+00,5.000000000000000000e+00,5.000000000000000000e+00,5.000000000000000000e+00,5.000000000000000000e+00,5.000000000000000000e+00,5.000000000000000000e+00,4.486502647399902344e+00,4.470325469970703125e+00,5.000000000000000000e+00,4.769215106964111328e+00,4.761551380157470703e+00,5.000000000000000000e+00,5.000000000000000000e+00,5.000000000000000000e+00,5.000000000000000000e+00,5.000000000000000000e+00,5.000000000000000000e+00,5.000000000000000000e+00,5.000000000000000000e+00,5.000000000000000000e+00,5.000000000000000000e+00,5.000000000000000000e+00,5.000000000000000000e+00,5.000000000000000000e+00,5.000000000000000000e+00,5.000000000000000000e+00,5.000000000000000000e+00,5.000000000000000000e+00,5.000000000000000000e+00,5.000000000000000000e+00
1.933650732040405273e+00,1.960368275642395020e+00,1.987834453582763672e+00,2.016081094741821289e+00,2.045142173767089844e+00,2.075053453445434570e+00,2.105852603912353516e+00,2.137579917907714844e+00,2.170277595520019531e+00,2.203991413116455078e+00,2.238769054412841797e+00,2.274661779403686523e+00,2.311724185943603516e+00,2.350014448165893555e+00,2.389594554901123047e+00,2.430530548095703125e+00,2.472893714904785156e+00,2.516759634017944336e+00,2.562210083007812500e+00,2.609332084655761719e+00,2.658220052719116211e+00,2.708974838256835938e+00,2.761705636978149414e+00,2.816529750823974609e+00,2.873574733734130859e+00,2.932978391647338867e+00,2.994889974594116211e+00,3.059471607208251953e+00,3.126899719238281250e+00,3.197366952896118164e+00,3.271083593368530273e+00,3.348279476165771484e+00,3.429207324981689453e+00,3.514143705368041992e+00,3.603394746780395508e+00,3.697296619415283203e+00,3.796224355697631836e+00,3.900591373443603516e+00,4.010859012603759766e+00,4.127542972564697266e+00,4.251219272613525391e+00,4.382535934448242188e+00,4.522223949432373047e+00,4.671109676361083984e+00,4.830132484436035156e+00,5.000000000000000000e+00,5.000000000000000000e+00,5.000000000000000000e+00,5.000000000000000000e+00,5.000000000000000000e+00,5.000000000000000000e+00,5.000000000000000000e+00,5.000000000000000000e+00,5.000000000000000000e+00,5.000000000000000000e+00,5.000000000000000000e+00,4.472390174865722656e+00,4.459403514862060547e+00,5.000000000000000000e+00,4.809854507446289062e+00,4.809634208679199219e+00,5.000000000000000000e+00,5.000000000000000000e+00,5.000000000000000000e+00,5.000000000000000000e+00,5.000000000000000000e+00,5.000000000000000000e+00,5.000000000000000000e+00,5.000000000000000000e+00,5.000000000000000000e+00,5.000000000000000000e+00,5.000000000000000000e+00,5.000000000000000000e+00,5.000000000000000000e+00,5.000000000000000000e+00,5.000000000000000000e+00,5.000000000000000000e+00,5.000000000000000000e+00,5.000000000000000000e+00,5.000000000000000000e+00
1.933622479438781738e+00,1.960339188575744629e+00,1.987804532051086426e+00,2.016050338745117188e+00,2.045110702514648438e+00,2.075021028518676758e+00,2.105819225311279297e+00,2.137545347213745117e+00,2.170242071151733398e+00,2.203954696655273438e+00,2.238731145858764648e+00,2.274622678756713867e+00,2.311683654785156250e+00,2.349972724914550781e+00,2.389551162719726562e+00,2.430485725402832031e+00,2.472847461700439453e+00,2.516711711883544922e+00,2.562160491943359375e+00,2.609280824661254883e+00,2.658166646957397461e+00,2.708919525146484375e+00,2.761647939682006836e+00,2.816469907760620117e+00,2.873512506484985352e+00,2.932913541793823242e+00,2.994822263717651367e+00,3.059401035308837891e+00,3.126825571060180664e+00,3.197289705276489258e+00,3.271002531051635742e+00,3.348194599151611328e+00,3.429118156433105469e+00,3.514050245285034180e+00,3.603296279907226562e+00,3.697193622589111328e+00,3.796115636825561523e+00,3.900476694107055664e+00,4.010737895965576172e+00,4.127414226531982422e+00,4.251082897186279297e+00,4.382390975952148438e+00,4.522069454193115234e+00,4.670945167541503906e+00,4.829956531524658203e+00,5.000000000000000000e+00,5.000000000000000000e+00,5.000000000000000000e+00,5.000000000000000000e+00,5.000000000000000000e+00,5.000000000000000000e+00,5.000000000000000000e+00,5.000000000000000000e+00,5.000000000000000000e+00,5.000000000000000000e+00,5.000000000000000000e+00,4.458356857299804688e+00,4.453849315643310547e+00,5.000000000000000000e+00,4.857315540313720703e+00,4.863213062286376953e+00,5.000000000000000000e+00,5.000000000000000000e+00,5.000000000000000000e+00,5.000000000000000000e+00,5.000000000000000000e+00,5.000000000000000000e+00,5.000000000000000000e+00,5.000000000000000000e+00,5.000000000000000000e+00,5.000000000000000000e+00,5.000000000000000000e+00,5.000000000000000000e+00,5.000000000000000000e+00,5.000000000000000000e+00,5.000000000000000000e+00,5.000000000000000000e+00,5.000000000000000000e+00,5.000000000000000000e+00,5.000000000000000000e+00
1.933594107627868652e+00,1.960310101509094238e+00,1.987774610519409180e+00,2.016019821166992188e+00,2.045079231262207031e+00,2.074988365173339844e+00,2.105785608291625977e+00,2.137510776519775391e+00,2.170206546783447266e+00,2.203917980194091797e+00,2.238693237304687500e+00,2.274583578109741211e+00,2.311643600463867188e+00,2.349931001663208008e+00,2.389508247375488281e+00,2.430441379547119141e+00,2.472801208496093750e+00,2.516664028167724609e+00,2.562110900878906250e+00,2.609229564666748047e+00,2.658113479614257812e+00,2.708863973617553711e+00,2.761590242385864258e+00,2.816409826278686523e+00,2.873450040817260742e+00,2.932848453521728516e+00,2.994754314422607422e+00,3.059329986572265625e+00,3.126751899719238281e+00,3.197212457656860352e+00,3.270921945571899414e+00,3.348110198974609375e+00,3.429029464721679688e+00,3.513957023620605469e+00,3.603198528289794922e+00,3.697090625762939453e+00,3.796006917953491211e+00,3.900361537933349609e+00,4.010616302490234375e+00,4.127285480499267578e+00,4.250946044921875000e+00,4.382246017456054688e+00,4.521914958953857422e+00,4.670780181884765625e+00,4.829780578613281250e+00,4.999987125396728516e+00,5.000000000000000000e+00,5.000000000000000000e+00,5.000000000000000000e+00,5.000000000000000000e+00,5.000000000000000000e+00,5.000000000000000000e+00,5.000000000000000000e+00,5.000000000000000000e+00,5.000000000000000000e+00,5.000000000000000000e+00,5.000000000000000000e+00,5.000000000000000000e+00,5.000000000000000000e+00,4.869367599487304688e+00,5.000000000000000000e+00,5.000000000000000000e+00,5.000000000000000000e+00,5.000000000000000000e+00,5.000000000000000000e+00,5.000000000000000000e+00,5.000000000000000000e+00,5.000000000000000000e+00,5.000000000000000000e+00,5.000000000000000000e+00,5.000000000000000000e+00,5.000000000000000000e+00,5.000000000000000000e+00,5.000000000000000000e+00,5.000000000000000000e+00,5.000000000000000000e+00,5.000000000000000000e+00,5.000000000000000000e+00,5.000000000000000000e+00,5.000000000000000000e+00
1.933565855026245117e+00,1.960281014442443848e+00,1.987744808197021484e+00,2.015989065170288086e+00,2.045047521591186523e+00,2.074955940246582031e+00,2.105752229690551758e+00,2.137476444244384766e+00,2.170171022415161133e+00,2.203881263732910156e+00,2.238655567169189453e+00,2.274544715881347656e+00,2.311603307723999023e+00,2.349889278411865234e+00,2.389464855194091797e+00,2.430396556854248047e+00,2.472754955291748047e+00,2.516616106033325195e+00,2.562061309814453125e+00,2.609177827835083008e+00,2.658059835433959961e+00,2.708808660507202148e+00,2.761532783508300781e+00,2.816350221633911133e+00,2.873387813568115234e+00,2.932783603668212891e+00,2.994686841964721680e+00,3.059259414672851562e+00,3.126678228378295898e+00,3.197135448455810547e+00,3.270840883255004883e+00,3.348025321960449219e+00,3.428940534591674805e+00,3.513863563537597656e+00,3.603100061416625977e+00,3.696987152099609375e+00,3.795897960662841797e+00,3.900246858596801758e+00,4.010494709014892578e+00,4.127157211303710938e+00,4.250809669494628906e+00,4.382101058959960938e+00,4.521760940551757812e+00,4.670615196228027344e+00,4.821078777313232422e+00,4.819891452789306641e+00,4.818705081939697266e+00,4.817518711090087891e+00,4.816333293914794922e+00,4.815148353576660156e+00,4.813963890075683594e+00,4.812780857086181641e+00,4.811597347259521484e+00,4.810414791107177734e+00,4.809232711791992188e+00,4.808051586151123047e+00,4.806870460510253906e+00,4.805690288543701172e+00,4.804510593414306641e+00,4.803331375122070312e+00,4.802153110504150391e+00,4.800974845886230469e+00,4.799798011779785156e+00,4.798621177673339844e+00,4.797444820404052734e+00,4.796269416809082031e+00,4.795094013214111328e+00,4.793919563293457031e+00,4.792746067047119141e+00,4.791572570800781250e+00,4.790400028228759766e+00,4.789227485656738281e+00,4.788056373596191406e+00,4.786885261535644531e+00,4.785714626312255859e+00,4.784544944763183594e+00,4.783375263214111328e+00,4.782206535339355469e+00,4.781038761138916016e+00,4.779870986938476562e+00
1.933537721633911133e+00,1.960252165794372559e+00,1.987715125083923340e+00,2.015958309173583984e+00,2.045016050338745117e+00,2.074923515319824219e+00,2.105718851089477539e+00,2.137441873550415039e+00,2.170135259628295898e+00,2.203844547271728516e+00,2.238617658615112305e+00,2.274505376815795898e+00,2.311562776565551758e+00,2.349847555160522461e+00,2.389421939849853516e+00,2.430351972579956055e+00,2.472708940505981445e+00,2.516568183898925781e+00,2.562011718750000000e+00,2.609126567840576172e+00,2.658006668090820312e+00,2.708753347396850586e+00,2.761475324630737305e+00,2.816290140151977539e+00,2.873325347900390625e+00,2.932718515396118164e+00,2.994618892669677734e+00,3.059188604354858398e+00,3.126604318618774414e+00,3.197058200836181641e+00,3.270760297775268555e+00,3.347940683364868164e+00,3.428851842880249023e+00,3.513770580291748047e+00,3.603002309799194336e+00,3.696884155273437500e+00,3.751411914825439453e+00,3.750693082809448242e+00,3.749974727630615234e+00,3.749255895614624023e+00,3.748538017272949219e+00,3.747820377349853516e+00,3.747103214263916016e+00,3.746386051177978516e+00,3.745668888092041016e+00,3.744952201843261719e+00,3.744235992431640625e+00,3.743519544601440430e+00,3.742803812026977539e+00,3.742088079452514648e+00,3.741372823715209961e+00,3.740658044815063477e+00,3.739943027496337891e+00,3.739228725433349609e+00,3.738514661788940430e+00,3.737800359725952148e+00,3.737086772918701172e+00,3.736373662948608398e+00,3.735660076141357422e+00,3.734947443008422852e+00,3.734235048294067383e+00,3.733522415161132812e+00,3.732810497283935547e+00,3.732099056243896484e+00,3.731387138366699219e+00,3.730676174163818359e+00,3.729964971542358398e+00,3.729254245758056641e+00,3.728543996810913086e+00,3.727833747863769531e+00,3.727123975753784180e+00,3.726414442062377930e+00,3.725704908370971680e+00,3.724995851516723633e+00,3.724287271499633789e+00,3.723578453063964844e+00,3.722870349884033203e+00,3.722162485122680664e+00,3.721454620361328125e+00,3.720747232437133789e+00
1.933509469032287598e+00,1.960223078727722168e+00,1.987685203552246094e+00,2.015927553176879883e+00,2.044984340667724609e+00,2.074890851974487305e+00,2.105685234069824219e+00,2.137407302856445312e+00,2.170099735260009766e+00,2.203807830810546875e+00,2.238579750061035156e+00,2.274466514587402344e+00,2.311522483825683594e+00,2.349805831909179688e+00,2.389378786087036133e+00,2.430307626724243164e+00,2.472662687301635742e+00,2.516520261764526367e+00,2.561962127685546875e+00,2.609075069427490234e+00,2.657953262329101562e+00,2.708697795867919922e+00,2.761417627334594727e+00,2.816230297088623047e+00,2.873263120651245117e+00,2.932653665542602539e+00,2.994551181793212891e+00,3.059118032455444336e+00,3.070214033126831055e+00,3.069732427597045898e+00,3.069251060485839844e+00,3.068769931793212891e+00,3.068289041519165039e+00,3.067808151245117188e+00,3.067327260971069336e+00,3.066846847534179688e+00,3.066366434097290039e+00,3.065886259078979492e+00,3.065406084060668945e+00,3.064926385879516602e+00,3.064446210861206055e+00,3.063966512680053711e+00,3.063487052917480469e+00,3.063007831573486328e+00,3.062528610229492188e+00,3.062049388885498047e+00,3.061570405960083008e+00,3.061091661453247070e+00,3.060613155364990234e+00,3.060134410858154297e+00,3.059656143188476562e+00,3.059178113937377930e+00,3.058699846267700195e+00,3.058222055435180664e+00,3.057744026184082031e+00,3.057266473770141602e+00,3.056789159774780273e+00,3.056311607360839844e+00,3.055834531784057617e+00,3.055357694625854492e+00,3.054880619049072266e+00,3.054404020309448242e+00,3.053927421569824219e+00,3.053450822830200195e+00,3.052974700927734375e+00,3.052498579025268555e+00,3.052022457122802734e+00,3.051546573638916016e+00,3.051071166992187500e+00,3.050595283508300781e+00,3.050120115280151367e+00,3.049644708633422852e+00,3.049169540405273438e+00,3.048694849014282227e+00,3.048219919204711914e+00,3.047745227813720703e+00,3.047270774841308594e+00,3.046796321868896484e+00,3.046322345733642578e+00,3.045848369598388672e+00
1.933481097221374512e+00,1.960193991661071777e+00,1.987655282020568848e+00,2.015897035598754883e+00,2.044952869415283203e+00,2.074858427047729492e+00,2.105651855468750000e+00,2.137372970581054688e+00,2.170064210891723633e+00,2.203771114349365234e+00,2.238541841506958008e+00,2.274427413940429688e+00,2.311481952667236328e+00,2.349764108657836914e+00,2.389335632324218750e+00,2.430262804031372070e+00,2.472616434097290039e+00,2.516472578048706055e+00,2.561912536621093750e+00,2.598732233047485352e+00,2.598387479782104492e+00,2.598042488098144531e+00,2.597697734832763672e+00,2.597353219985961914e+00,2.597008466720581055e+00,2.596663951873779297e+00,2.596319675445556641e+00,2.595975399017333984e+00,2.595631122589111328e+00,2.595287084579467773e+00,2.594942808151245117e+00,2.594598770141601562e+00,2.594254970550537109e+00,2.593911170959472656e+00,2.593567609786987305e+00,2.593223810195922852e+00,2.592880487442016602e+00,2.592536926269531250e+00,2.592193841934204102e+00,2.591850519180297852e+00,2.591507196426391602e+00,2.591164350509643555e+00,2.590821266174316406e+00,2.590478420257568359e+00,2.590135812759399414e+00,2.589793205261230469e+00,2.589450359344482422e+00,2.589107990264892578e+00,2.588765621185302734e+00,2.588423252105712891e+00,2.588081121444702148e+00,2.587738752365112305e+00,2.587396621704101562e+00,2.587054729461669922e+00,2.586712837219238281e+00,2.586370944976806641e+00,2.586029291152954102e+00,2.585687637329101562e+00,2.585346221923828125e+00,2.585004568099975586e+00,2.584663391113281250e+00,2.584322214126586914e+00,2.583980798721313477e+00,2.583639860153198242e+00,2.583298921585083008e+00,2.582957744598388672e+00,2.582617044448852539e+00,2.582276344299316406e+00,2.581935644149780273e+00,2.581595182418823242e+00,2.581254720687866211e+00,2.580914258956909180e+00,2.580574035644531250e+00,2.580233812332153320e+00,2.579893589019775391e+00,2.579553604125976562e+00,2.579213619232177734e+00,2.578873872756958008e+00,2.578534126281738281e+00,2.578194379806518555e+00
1.933453083038330078e+00,1.960165143013000488e+00,1.987625360488891602e+00,2.015866279602050781e+00,2.044921159744262695e+00,2.074825763702392578e+00,2.105618238449096680e+00,2.137338399887084961e+00,2.170028686523437500e+00,2.203734636306762695e+00,2.238503932952880859e+00,2.252521753311157227e+00,2.252262592315673828e+00,2.252003669738769531e+00,2.251744508743286133e+00,2.251485347747802734e+00,2.251226663589477539e+00,2.250967741012573242e+00,2.250708818435668945e+00,2.250450134277343750e+00,2.250191450119018555e+00,2.249932765960693359e+00,2.249674320220947266e+00,2.249415636062622070e+00,2.249157190322875977e+00,2.248898744583129883e+00,2.248640537261962891e+00,2.248382091522216797e+00,2.248123884201049805e+00,2.247865915298461914e+00,2.247607707977294922e+00,2.247349500656127930e+00,2.247091531753540039e+00,2.246833801269531250e+00,2.246575832366943359e+00,2.246318101882934570e+00,2.246060371398925781e+00,2.245802640914916992e+00,2.245544910430908203e+00,2.245287418365478516e+00,2.245029926300048828e+00,2.244772434234619141e+00,2.244514942169189453e+00,2.244257688522338867e+00,2.244000434875488281e+00,2.243743181228637695e+00,2.243485927581787109e+00,2.243228912353515625e+00,2.242971897125244141e+00,2.242714881896972656e+00,2.242458105087280273e+00,2.242201089859008789e+00,2.241944313049316406e+00,2.241687536239624023e+00,2.241430759429931641e+00,2.241174221038818359e+00,2.240917444229125977e+00,2.240661144256591797e+00,2.240404605865478516e+00,2.240148067474365234e+00,2.239891767501831055e+00,2.239635467529296875e+00,2.239379167556762695e+00,2.239123106002807617e+00,2.238866806030273438e+00,2.238610744476318359e+00,2.238354921340942383e+00,2.238098859786987305e+00,2.237843036651611328e+00,2.237587213516235352e+00,2.237331390380859375e+00,2.237075567245483398e+00,2.236819982528686523e+00,2.236564397811889648e+00,2.236308813095092773e+00,2.236053466796875000e+00,2.235797882080078125e+00,2.235542535781860352e+00,2.235287189483642578e+00,2.235031843185424805e+00
1.933424711227416992e+00,1.960136055946350098e+00,1.987595677375793457e+00,1.987712979316711426e+00,1.987511157989501953e+00,1.987309455871582031e+00,1.987107634544372559e+00,1.986906051635742188e+00,1.986704349517822266e+00,1.986502766609191895e+00,1.986300945281982422e+00,1.986099481582641602e+00,1.985898017883300781e+00,1.985696554183959961e+00,1.985495209693908691e+00,1.985293865203857422e+00,1.985092520713806152e+00,1.984891295433044434e+00,1.984690070152282715e+00,1.984488844871520996e+00,1.984287500381469727e+00,1.984086394309997559e+00,1.983885288238525391e+00,1.983684301376342773e+00,1.983483314514160156e+00,1.983282327651977539e+00,1.983081459999084473e+00,1.982880592346191406e+00,1.982679843902587891e+00,1.982478976249694824e+00,1.982278227806091309e+00,1.982077360153198242e+00,1.981876730918884277e+00,1.981676101684570312e+00,1.981475472450256348e+00,1.981274962425231934e+00,1.981074452400207520e+00,1.980873942375183105e+00,1.980673551559448242e+00,1.980473160743713379e+00,1.980272889137268066e+00,1.980072617530822754e+00,1.979872107505798340e+00,1.979671835899353027e+00,1.979471683502197266e+00,1.979271531105041504e+00,1.979071497917175293e+00,1.978871345520019531e+00,1.978671431541442871e+00,1.978471398353576660e+00,1.978271484375000000e+00,1.978071570396423340e+00,1.977871537208557129e+00,1.977671742439270020e+00,1.977471947669982910e+00,1.977272152900695801e+00,1.977072477340698242e+00,1.976872920989990234e+00,1.976673245429992676e+00,1.976473689079284668e+00,1.976274132728576660e+00,1.976074457168579102e+00,1.975875020027160645e+00,1.975675582885742188e+00,1.975476264953613281e+00,1.975276947021484375e+00,1.975077390670776367e+00,1.974878072738647461e+00,1.974678874015808105e+00,1.974479794502258301e+00,1.974280595779418945e+00,1.974081516265869141e+00,1.973882317543029785e+00,1.973683238029479980e+00,1.973484277725219727e+00,1.973285317420959473e+00,1.973086476325988770e+00,1.972887635231018066e+00,1.972688555717468262e+00,1.972489833831787109e+00
1.777809262275695801e+00,1.777647852897644043e+00,1.777486443519592285e+00,1.777325034141540527e+00,1.777163624763488770e+00,1.777002215385437012e+00,1.776840925216674805e+00,1.776679635047912598e+00,1.776518464088439941e+00,1.776357173919677734e+00,1.776196002960205078e+00,1.776034951210021973e+00,1.775873780250549316e+00,1.775712728500366211e+00,1.775551676750183105e+00,1.775390625000000000e+00,1.775229454040527344e+00,1.775068521499633789e+00,1.774907588958740234e+00,1.774746656417846680e+00,1.774585843086242676e+00,1.774424910545349121e+00,1.774264097213745117e+00,1.774103283882141113e+00,1.773942589759826660e+00,1.773781895637512207e+00,1.773620963096618652e+00,1.773460268974304199e+00,1.773299574851989746e+00,1.773138999938964844e+00,1.772978425025939941e+00,1.772817850112915039e+00,1.772657394409179688e+00,1.772496819496154785e+00,1.772336363792419434e+00,1.772175908088684082e+00,1.772015452384948730e+00,1.771854877471923828e+00,1.771694540977478027e+00,1.771534204483032227e+00,1.771373987197875977e+00,1.771213650703430176e+00,1.771053433418273926e+00,1.770893216133117676e+00,1.770733118057250977e+00,1.770572900772094727e+00,1.770412802696228027e+00,1.770252704620361328e+00,1.770092487335205078e+00,1.769932389259338379e+00,1.769772410392761230e+00,1.769612431526184082e+00,1.769452452659606934e+00,1.769292593002319336e+00,1.769132614135742188e+00,1.768972754478454590e+00,1.768812894821166992e+00,1.768653154373168945e+00,1.768493413925170898e+00,1.768333435058593750e+00,1.768173694610595703e+00,1.768014073371887207e+00,1.767854332923889160e+00,1.767694711685180664e+00,1.767535090446472168e+00,1.767375588417053223e+00,1.767215847969055176e+00,1.767056345939636230e+00,1.766896843910217285e+00,1.766737341880798340e+00,1.766577959060668945e+00,1.766418337821960449e+00,1.766258955001831055e+00,1.766099691390991211e+00,1.765940308570861816e+00,1.765781044960021973e+00,1.765621781349182129e+00,1.765462398529052734e+00,1.765303254127502441e+00,1.765144109725952148e+00
1.607606768608093262e+00,1.607474803924560547e+00,1.607342839241027832e+00,1.607210874557495117e+00,1.607078909873962402e+00,1.606947064399719238e+00,1.606815099716186523e+00,1.606683254241943359e+00,1.606551408767700195e+00,1.606419563293457031e+00,1.606287717819213867e+00,1.606155872344970703e+00,1.606024026870727539e+00,1.605892300605773926e+00,1.605760574340820312e+00,1.605628848075866699e+00,1.605497241020202637e+00,1.605365514755249023e+00,1.605233907699584961e+00,1.605102300643920898e+00,1.604970693588256836e+00,1.604839086532592773e+00,1.604707479476928711e+00,1.604575872421264648e+00,1.604444384574890137e+00,1.604312896728515625e+00,1.604181408882141113e+00,1.604050040245056152e+00,1.603918552398681641e+00,1.603787183761596680e+00,1.603655815124511719e+00,1.603524446487426758e+00,1.603392958641052246e+00,1.603261709213256836e+00,1.603130340576171875e+00,1.602999091148376465e+00,1.602867841720581055e+00,1.602736592292785645e+00,1.602605462074279785e+00,1.602474212646484375e+00,1.602343082427978516e+00,1.602211952209472656e+00,1.602080821990966797e+00,1.601949572563171387e+00,1.601818442344665527e+00,1.601687431335449219e+00,1.601556420326232910e+00,1.601425409317016602e+00,1.601294398307800293e+00,1.601163506507873535e+00,1.601032495498657227e+00,1.600901603698730469e+00,1.600770711898803711e+00,1.600639820098876953e+00,1.600508809089660645e+00,1.600377917289733887e+00,1.600247144699096680e+00,1.600116372108459473e+00,1.599985480308532715e+00,1.599854707717895508e+00,1.599724054336547852e+00,1.599593281745910645e+00,1.599462628364562988e+00,1.599331974983215332e+00,1.599201321601867676e+00,1.599070549011230469e+00,1.598939895629882812e+00,1.598809361457824707e+00,1.598678827285766602e+00,1.598548293113708496e+00,1.598417758941650391e+00,1.598287105560302734e+00,1.598156571388244629e+00,1.598026156425476074e+00,1.597895741462707520e+00,1.597765326499938965e+00,1.597634792327880859e+00,1.597504377365112305e+00,1.597374081611633301e+00,1.597243666648864746e+00
1.467146515846252441e+00,1.467036604881286621e+00,1.466926574707031250e+00,1.466816663742065430e+00,1.466706871986389160e+00,1.466596961021423340e+00,1.466486930847167969e+00,1.466377139091491699e+00,1.466267228126525879e+00,1.466157436370849609e+00,1.466047644615173340e+00,1.465937852859497070e+00,1.465828061103820801e+00,1.465718388557434082e+00,1.465608596801757812e+00,1.465498924255371094e+00,1.465389251708984375e+00,1.465279340744018555e+00,1.465169787406921387e+00,1.465060114860534668e+00,1.464950442314147949e+00,1.464840769767761230e+00,1.464731216430664062e+00,1.464621663093566895e+00,1.464512109756469727e+00,1.464402556419372559e+00,1.464293003082275391e+00,1.464183449745178223e+00,1.464073896408081055e+00,1.463964343070983887e+00,1.463854908943176270e+00,1.463745474815368652e+00,1.463636040687561035e+00,1.463526606559753418e+00,1.463417172431945801e+00,1.463307738304138184e+00,1.463198423385620117e+00,1.463089108467102051e+00,1.462979555130004883e+00,1.462870240211486816e+00,1.462760925292968750e+00,1.462651729583740234e+00,1.462542414665222168e+00,1.462433099746704102e+00,1.462323904037475586e+00,1.462214708328247070e+00,1.462105512619018555e+00,1.461996316909790039e+00,1.461887121200561523e+00,1.461777806282043457e+00,1.461668729782104492e+00,1.461559534072875977e+00,1.461450457572937012e+00,1.461341381072998047e+00,1.461232304573059082e+00,1.461123228073120117e+00,1.461014151573181152e+00,1.460905194282531738e+00,1.460796117782592773e+00,1.460687160491943359e+00,1.460578083992004395e+00,1.460469126701354980e+00,1.460360169410705566e+00,1.460251212120056152e+00,1.460142374038696289e+00,1.460033416748046875e+00,1.459924578666687012e+00,1.459815621376037598e+00,1.459706783294677734e+00,1.459597945213317871e+00,1.459489226341247559e+00,1.459380269050598145e+00,1.459271430969238281e+00,1.459162712097167969e+00,1.459053993225097656e+00,1.458945155143737793e+00,1.458836317062377930e+00,1.458727717399597168e+00,1.458618998527526855e+00,1.458510279655456543e+00
1.349258661270141602e+00,1.349165558815002441e+00,1.349072575569152832e+00,1.348979592323303223e+00,1.348886609077453613e+00,1.348793745040893555e+00,1.348700761795043945e+00,1.348607897758483887e+00,1.348514914512634277e+00,1.348422050476074219e+00,1.348329186439514160e+00,1.348236322402954102e+00,1.348143458366394043e+00,1.348050594329833984e+00,1.347957730293273926e+00,1.347864985466003418e+00,1.347772121429443359e+00,1.347679376602172852e+00,1.347586631774902344e+00,1.347493886947631836e+00,1.347401142120361328e+00,1.347308397293090820e+00,1.347215652465820312e+00,1.347122907638549805e+00,1.347030162811279297e+00,1.346937537193298340e+00,1.346844792366027832e+00,1.346752166748046875e+00,1.346659541130065918e+00,1.346566915512084961e+00,1.346474289894104004e+00,1.346381664276123047e+00,1.346289157867431641e+00,1.346196532249450684e+00,1.346103906631469727e+00,1.346011281013488770e+00,1.345918774604797363e+00,1.345826268196105957e+00,1.345733761787414551e+00,1.345641255378723145e+00,1.345548748970031738e+00,1.345456242561340332e+00,1.345363736152648926e+00,1.345271348953247070e+00,1.345178842544555664e+00,1.345086336135864258e+00,1.344993948936462402e+00,1.344901561737060547e+00,1.344809174537658691e+00,1.344716787338256836e+00,1.344624400138854980e+00,1.344532132148742676e+00,1.344439744949340820e+00,1.344347357749938965e+00,1.344255089759826660e+00,1.344162702560424805e+00,1.344070434570312500e+00,1.343978166580200195e+00,1.343885898590087891e+00,1.343793630599975586e+00,1.343701362609863281e+00,1.343609213829040527e+00,1.343516945838928223e+00,1.343424797058105469e+00,1.343332529067993164e+00,1.343240380287170410e+00,1.343148112297058105e+00,1.343055963516235352e+00,1.342963814735412598e+00,1.342871665954589844e+00,1.342779636383056641e+00,1.342687487602233887e+00,1.342595458030700684e+00,1.342503309249877930e+00,1.342411279678344727e+00,1.342319250106811523e+00,1.342227220535278320e+00,1.342135071754455566e+00,1.342043042182922363e+00,1.341951131820678711e+00
1.248906612396240234e+00,1.248826980590820312e+00,1.248747348785400391e+00,1.248667716979980469e+00,1.248587965965270996e+00,1.248508453369140625e+00,1.248428821563720703e+00,1.248349070549011230e+00,1.248269438743591309e+00,1.248189926147460938e+00,1.248110294342041016e+00,1.248030781745910645e+00,1.247951149940490723e+00,1.247871637344360352e+00,1.247792124748229980e+00,1.247712612152099609e+00,1.247633099555969238e+00,1.247553586959838867e+00,1.247473955154418945e+00,1.247394442558288574e+00,1.247314929962158203e+00,1.247235536575317383e+00,1.247156023979187012e+00,1.247076630592346191e+00,1.246997237205505371e+00,1.246917724609375000e+00,1.246838331222534180e+00,1.246758937835693359e+00,1.246679544448852539e+00,1.246600031852722168e+00,1.246520638465881348e+00,1.246441364288330078e+00,1.246361970901489258e+00,1.246282577514648438e+00,1.246203303337097168e+00,1.246123909950256348e+00,1.246044635772705078e+00,1.245965361595153809e+00,1.245886087417602539e+00,1.245806694030761719e+00,1.245727419853210449e+00,1.245648145675659180e+00,1.245568871498107910e+00,1.245489597320556641e+00,1.245410442352294922e+00,1.245331168174743652e+00,1.245251893997192383e+00,1.245172739028930664e+00,1.245093584060668945e+00,1.245014309883117676e+00,1.244935154914855957e+00,1.244855880737304688e+00,1.244776725769042969e+00,1.244697690010070801e+00,1.244618535041809082e+00,1.244539380073547363e+00,1.244460225105285645e+00,1.244381189346313477e+00,1.244302034378051758e+00,1.244222998619079590e+00,1.244143962860107422e+00,1.244064807891845703e+00,1.243985652923583984e+00,1.243906617164611816e+00,1.243827581405639648e+00,1.243748664855957031e+00,1.243669629096984863e+00,1.243590593338012695e+00,1.243511557579040527e+00,1.243432641029357910e+00,1.243353605270385742e+00,1.243274688720703125e+00,1.243195652961730957e+00,1.243116736412048340e+00,1.243037819862365723e+00,1.242958903312683105e+00,1.242879986763000488e+00,1.242801070213317871e+00,1.242722153663635254e+00,1.242643237113952637e+00
1.162448883056640625e+00,1.162379860877990723e+00,1.162310838699340820e+00,1.162241697311401367e+00,1.162172794342041016e+00,1.162103772163391113e+00,1.162034749984741211e+00,1.161965847015380859e+00,1.161896824836730957e+00,1.161827921867370605e+00,1.161758899688720703e+00,1.161689996719360352e+00,1.161621093750000000e+00,1.161552190780639648e+00,1.161483168601989746e+00,1.161414265632629395e+00,1.161345362663269043e+00,1.161276459693908691e+00,1.161207556724548340e+00,1.161138653755187988e+00,1.161069869995117188e+00,1.161000967025756836e+00,1.160932064056396484e+00,1.160863280296325684e+00,1.160794377326965332e+00,1.160725593566894531e+00,1.160656690597534180e+00,1.160587906837463379e+00,1.160519123077392578e+00,1.160450339317321777e+00,1.160381555557250977e+00,1.160312771797180176e+00,1.160243988037109375e+00,1.160175204277038574e+00,1.160106420516967773e+00,1.160037636756896973e+00,1.159968852996826172e+00,1.159900188446044922e+00,1.159831404685974121e+00,1.159762740135192871e+00,1.159694075584411621e+00,1.159625291824340820e+00,1.159556627273559570e+00,1.159487962722778320e+00,1.159419298171997070e+00,1.159350633621215820e+00,1.159281849861145020e+00,1.159213304519653320e+00,1.159144639968872070e+00,1.159075975418090820e+00,1.159007310867309570e+00,1.158938765525817871e+00,1.158870100975036621e+00,1.158801555633544922e+00,1.158733010292053223e+00,1.158664345741271973e+00,1.158595800399780273e+00,1.158527135848999023e+00,1.158458590507507324e+00,1.158390045166015625e+00,1.158321499824523926e+00,1.158252954483032227e+00,1.158184528350830078e+00,1.158115983009338379e+00,1.158047437667846680e+00,1.157979011535644531e+00,1.157910466194152832e+00,1.157841920852661133e+00,1.157773375511169434e+00,1.157704949378967285e+00,1.157636523246765137e+00,1.157568097114562988e+00,1.157499670982360840e+00,1.157431125640869141e+00,1.157362699508666992e+00,1.157294392585754395e+00,1.157225966453552246e+00,1.157157540321350098e+00,1.157088994979858398e+00,1.157020688056945801e+00
1.087186336517333984e+00,1.087126016616821289e+00,1.087065577507019043e+00,1.087005257606506348e+00,1.086944937705993652e+00,1.086884498596191406e+00,1.086824178695678711e+00,1.086763858795166016e+00,1.086703538894653320e+00,1.086643099784851074e+00,1.086582779884338379e+00,1.086522579193115234e+00,1.086462259292602539e+00,1.086401939392089844e+00,1.086341619491577148e+00,1.086281418800354004e+00,1.086221098899841309e+00,1.086160898208618164e+00,1.086100578308105469e+00,1.086040377616882324e+00,1.085980057716369629e+00,1.085919737815856934e+00,1.085859537124633789e+00,1.085799336433410645e+00,1.085739135742187500e+00,1.085678935050964355e+00,1.085618734359741211e+00,1.085558533668518066e+00,1.085498332977294922e+00,1.085438132286071777e+00,1.085377812385559082e+00,1.085317730903625488e+00,1.085257530212402344e+00,1.085197329521179199e+00,1.085137248039245605e+00,1.085077047348022461e+00,1.085016965866088867e+00,1.084956765174865723e+00,1.084896683692932129e+00,1.084836602210998535e+00,1.084776401519775391e+00,1.084716200828552246e+00,1.084656119346618652e+00,1.084596037864685059e+00,1.084535956382751465e+00,1.084475874900817871e+00,1.084415793418884277e+00,1.084355711936950684e+00,1.084295749664306641e+00,1.084235668182373047e+00,1.084175586700439453e+00,1.084115624427795410e+00,1.084055423736572266e+00,1.083995461463928223e+00,1.083935379981994629e+00,1.083875417709350586e+00,1.083815455436706543e+00,1.083755373954772949e+00,1.083695411682128906e+00,1.083635449409484863e+00,1.083575487136840820e+00,1.083515524864196777e+00,1.083455562591552734e+00,1.083395481109619141e+00,1.083335518836975098e+00,1.083275556564331055e+00,1.083215594291687012e+00,1.083155751228332520e+00,1.083095788955688477e+00,1.083035826683044434e+00,1.082975983619689941e+00,1.082916021347045898e+00,1.082856178283691406e+00,1.082796216011047363e+00,1.082736253738403320e+00,1.082676410675048828e+00,1.082616567611694336e+00,1.082556605339050293e+00,1.082496762275695801e+00,1.082436919212341309e+00
1.021077036857604980e+00,1.021023750305175781e+00,1.020970463752746582e+00,1.020917296409606934e+00,1.020863890647888184e+00,1.020810723304748535e+00,1.020757436752319336e+00,1.020704269409179688e+00,1.020651102066040039e+00,1.020597815513610840e+00,1.020544648170471191e+00,1.020491480827331543e+00,1.020438194274902344e+00,1.020385026931762695e+00,1.020331859588623047e+00,1.020278692245483398e+00,1.020225524902343750e+00,1.020172357559204102e+00,1.020119190216064453e+00,1.020066022872924805e+00,1.020012855529785156e+00,1.019959688186645508e+00,1.019906520843505859e+00,1.019853472709655762e+00,1.019800305366516113e+00,1.019747138023376465e+00,1.019693970680236816e+00,1.019640922546386719e+00,1.019587755203247070e+00,1.019534707069396973e+00,1.019481658935546875e+00,1.019428491592407227e+00,1.019375443458557129e+00,1.019322395324707031e+00,1.019269227981567383e+00,1.019216179847717285e+00,1.019163131713867188e+00,1.019110083580017090e+00,1.019057035446166992e+00,1.019003987312316895e+00,1.018950939178466797e+00,1.018897891044616699e+00,1.018844842910766602e+00,1.018791794776916504e+00,1.018738865852355957e+00,1.018685817718505859e+00,1.018632769584655762e+00,1.018579721450805664e+00,1.018526792526245117e+00,1.018473744392395020e+00,1.018420815467834473e+00,1.018367767333984375e+00,1.018314838409423828e+00,1.018261909484863281e+00,1.018208861351013184e+00,1.018155932426452637e+00,1.018103003501892090e+00,1.018050074577331543e+00,1.017997026443481445e+00,1.017944097518920898e+00,1.017891168594360352e+00,1.017838239669799805e+00,1.017785310745239258e+00,1.017732381820678711e+00,1.017679572105407715e+00,1.017626643180847168e+00,1.017573714256286621e+00,1.017520785331726074e+00,1.017467975616455078e+00,1.017415046691894531e+00,1.017362117767333984e+00,1.017309308052062988e+00,1.017256379127502441e+00,1.017203569412231445e+00,1.017150759696960449e+00,1.017097830772399902e+00,1.017045021057128906e+00,1.016992211341857910e+00,1.016939401626586914e+00,1.016886591911315918e+00
9.625467061996459961e-01,9.624993205070495605e-01,9.624520540237426758e-01,9.624046683311462402e-01,9.623574614524841309e-01,9.623100757598876953e-01,9.622628092765808105e-01,9.622154831886291504e-01,9.621682167053222656e-01,9.621208906173706055e-01,9.620735645294189453e-01,9.620263576507568359e-01,9.619790315628051758e-01,9.619318246841430664e-01,9.618844985961914062e-01,9.618372917175292969e-01,9.617899656295776367e-01,9.617427587509155273e-01,9.616954922676086426e-01,9.616482853889465332e-01,9.616010189056396484e-01,9.615536928176879883e-01,9.615065455436706543e-01,9.614592790603637695e-01,9.614121317863464355e-01,9.613648653030395508e-01,9.613177180290222168e-01,9.612704515457153320e-01,9.612233042716979980e-01,9.611760377883911133e-01,9.611288905143737793e-01,9.610816836357116699e-01,9.610344171524047852e-01,9.609873294830322266e-01,9.609400629997253418e-01,9.608929753303527832e-01,9.608457684516906738e-01,9.607986807823181152e-01,9.607514739036560059e-01,9.607043862342834473e-01,9.606571793556213379e-01,9.606100916862487793e-01,9.605628848075866699e-01,9.605156779289245605e-01,9.604686498641967773e-01,9.604214429855346680e-01,9.603744149208068848e-01,9.603272080421447754e-01,9.602801799774169922e-01,9.602330327033996582e-01,9.601860046386718750e-01,9.601388573646545410e-01,9.600918292999267578e-01,9.600446820259094238e-01,9.599975347518920898e-01,9.599505066871643066e-01,9.599034190177917480e-01,9.598563909530639648e-01,9.598092436790466309e-01,9.597622752189636230e-01,9.597151279449462891e-01,9.596681594848632812e-01,9.596210718154907227e-01,9.595741033554077148e-01,9.595270156860351562e-01,9.594799280166625977e-01,9.594329595565795898e-01,9.593858718872070312e-01,9.593389034271240234e-01,9.592918753623962402e-01,9.592449069023132324e-01,9.591978192329406738e-01,9.591509103775024414e-01,9.591038227081298828e-01,9.590569138526916504e-01,9.590098857879638672e-01,9.589628577232360840e-01,9.589159488677978516e-01,9.588689208030700684e-01,9.588220119476318359e-01
9.103627800941467285e-01,9.103204011917114258e-01,9.102781414985656738e-01,9.102357625961303711e-01,9.101935029029846191e-01,9.101511240005493164e-01,9.101087450981140137e-01,9.100664854049682617e-01,9.100241661071777344e-01,9.099819064140319824e-01,9.099395275115966797e-01,9.098973274230957031e-01,9.098549485206604004e-01,9.098127484321594238e-01,9.097703695297241211e-01,9.097281694412231445e-01,9.096858501434326172e-01,9.096435308456420898e-01,9.096013307571411133e-01,9.095590114593505859e-01,9.095168113708496094e-01,9.094744920730590820e-01,9.094322919845581055e-01,9.093899726867675781e-01,9.093478322029113770e-01,9.093055129051208496e-01,9.092633128166198730e-01,9.092210531234741211e-01,9.091787934303283691e-01,9.091365933418273926e-01,9.090943336486816406e-01,9.090521931648254395e-01,9.090099334716796875e-01,9.089677333831787109e-01,9.089254736900329590e-01,9.088833332061767578e-01,9.088411331176757812e-01,9.087989926338195801e-01,9.087567329406738281e-01,9.087144732475280762e-01,9.086723923683166504e-01,9.086301326751708984e-01,9.085880517959594727e-01,9.085457921028137207e-01,9.085037112236022949e-01,9.084615111351013184e-01,9.084193706512451172e-01,9.083771705627441406e-01,9.083349704742431641e-01,9.082928895950317383e-01,9.082506895065307617e-01,9.082086086273193359e-01,9.081664085388183594e-01,9.081243872642517090e-01,9.080821871757507324e-01,9.080401062965393066e-01,9.079979658126831055e-01,9.079558849334716797e-01,9.079137444496154785e-01,9.078716039657592773e-01,9.078295230865478516e-01,9.077873826026916504e-01,9.077453613281250000e-01,9.077032208442687988e-01,9.076611399650573730e-01,9.076190590858459473e-01,9.075769782066345215e-01,9.075348973274230957e-01,9.074928760528564453e-01,9.074507355690002441e-01,9.074086546897888184e-01,9.073666334152221680e-01,9.073245525360107422e-01,9.072825312614440918e-01,9.072404503822326660e-01,9.071984291076660156e-01,9.071563482284545898e-01,9.071143865585327148e-01,9.070723056793212891e-01,9.070302844047546387e-01
8.635461330413818359e-01,8.635079860687255859e-01,8.634698390960693359e-01,8.634318113327026367e-01,8.633937239646911621e-01,8.633556962013244629e-01,8.633175492286682129e-01,8.632795214653015137e-01,8.632414340972900391e-01,8.632034063339233398e-01,8.631653189659118652e-01,8.631272912025451660e-01,8.630892038345336914e-01,8.630510568618774414e-01,8.630130887031555176e-01,8.629750013351440430e-01,8.629369735717773438e-01,8.628989458084106445e-01,8.628609180450439453e-01,8.628228306770324707e-01,8.627848625183105469e-01,8.627468347549438477e-01,8.627087473869323730e-01,8.626707792282104492e-01,8.626326918601989746e-01,8.625947237014770508e-01,8.625566959381103516e-01,8.625187277793884277e-01,8.624807000160217285e-01,8.624427318572998047e-01,8.624047040939331055e-01,8.623667359352111816e-01,8.623287081718444824e-01,8.622906804084777832e-01,8.622527718544006348e-01,8.622147440910339355e-01,8.621768355369567871e-01,8.621388077735900879e-01,8.621008992195129395e-01,8.620628714561462402e-01,8.620249629020690918e-01,8.619869351387023926e-01,8.619490265846252441e-01,8.619110584259033203e-01,8.618730902671813965e-01,8.618351817131042480e-01,8.617971539497375488e-01,8.617593050003051758e-01,8.617213368415832520e-01,8.616834282875061035e-01,8.616454601287841797e-01,8.616075515747070312e-01,8.615696430206298828e-01,8.615317344665527344e-01,8.614937663078308105e-01,8.614558577537536621e-01,8.614179491996765137e-01,8.613800406455993652e-01,8.613421916961669922e-01,8.613042235374450684e-01,8.612663745880126953e-01,8.612284660339355469e-01,8.611906170845031738e-01,8.611526489257812500e-01,8.611148595809936523e-01,8.610769510269165039e-01,8.610389828681945801e-01,8.610011935234069824e-01,8.609632849693298340e-01,8.609254360198974609e-01,8.608875274658203125e-01,8.608497381210327148e-01,8.608118295669555664e-01,8.607740402221679688e-01,8.607361316680908203e-01,8.606983423233032227e-01,8.606604337692260742e-01,8.606225848197937012e-01,8.605847954750061035e-01,8.605469465255737305e-01
8.213090896606445312e-01,8.212746977806091309e-01,8.212401866912841797e-01,8.212057948112487793e-01,8.211712837219238281e-01,8.211368918418884277e-01,8.211023807525634766e-01,8.210679292678833008e-01,8.210335373878479004e-01,8.209990859031677246e-01,8.209646940231323242e-01,8.209301829338073730e-01,8.208958506584167480e-01,8.208613395690917969e-01,8.208270072937011719e-01,8.207925558090209961e-01,8.207581639289855957e-01,8.207237124443054199e-01,8.206892609596252441e-01,8.206549286842346191e-01,8.206204771995544434e-01,8.205860853195190430e-01,8.205516934394836426e-01,8.205173015594482422e-01,8.204829096794128418e-01,8.204485774040222168e-01,8.204141259193420410e-01,8.203797936439514160e-01,8.203454017639160156e-01,8.203109502792358398e-01,8.202766180038452148e-01,8.202422261238098145e-01,8.202078938484191895e-01,8.201735019683837891e-01,8.201391696929931641e-01,8.201047778129577637e-01,8.200704455375671387e-01,8.200360536575317383e-01,8.200017809867858887e-01,8.199673891067504883e-01,8.199329972267150879e-01,8.198986649513244629e-01,8.198643326759338379e-01,8.198300004005432129e-01,8.197956681251525879e-01,8.197613358497619629e-01,8.197270035743713379e-01,8.196927309036254883e-01,8.196583390235900879e-01,8.196240663528442383e-01,8.195897340774536133e-01,8.195553421974182129e-01,8.195211291313171387e-01,8.194867372512817383e-01,8.194524645805358887e-01,8.194181323051452637e-01,8.193839192390441895e-01,8.193495869636535645e-01,8.193153142929077148e-01,8.192809820175170898e-01,8.192467093467712402e-01,8.192124366760253906e-01,8.191781044006347656e-01,8.191438317298889160e-01,8.191095590591430664e-01,8.190752863883972168e-01,8.190410137176513672e-01,8.190068006515502930e-01,8.189724683761596680e-01,8.189382553100585938e-01,8.189039826393127441e-01,8.188696503639221191e-01,8.188354372978210449e-01,8.188011646270751953e-01,8.187669515609741211e-01,8.187326788902282715e-01,8.186984658241271973e-01,8.186641931533813477e-01,8.186299800872802734e-01,8.185957074165344238e-01
7.830111980438232422e-01,7.829799056053161621e-01,7.829485535621643066e-01,7.829172015190124512e-01,7.828859686851501465e-01,7.828546166419982910e-01,7.828233242034912109e-01,7.827920317649841309e-01,7.827607393264770508e-01,7.827293872833251953e-01,7.826981544494628906e-01,7.826668024063110352e-01,7.826355695724487305e-01,7.826042175292968750e-01,7.825729250907897949e-01,7.825416922569274902e-01,7.825103402137756348e-01,7.824791073799133301e-01,7.824478149414062500e-01,7.824165821075439453e-01,7.823852896690368652e-01,7.823540568351745605e-01,7.823227047920227051e-01,7.822915315628051758e-01,7.822602391242980957e-01,7.822289466857910156e-01,7.821977138519287109e-01,7.821664214134216309e-01,7.821351885795593262e-01,7.821038961410522461e-01,7.820727229118347168e-01,7.820414304733276367e-01,7.820101976394653320e-01,7.819789648056030273e-01,7.819476723670959473e-01,7.819164991378784180e-01,7.818852066993713379e-01,7.818540334701538086e-01,7.818227410316467285e-01,7.817915678024291992e-01,7.817603349685668945e-01,7.817291617393493652e-01,7.816978693008422852e-01,7.816666960716247559e-01,7.816354632377624512e-01,7.816042304039001465e-01,7.815730571746826172e-01,7.815418243408203125e-01,7.815106511116027832e-01,7.814794182777404785e-01,7.814482450485229492e-01,7.814170122146606445e-01,7.813858985900878906e-01,7.813546657562255859e-01,7.813234925270080566e-01,7.812922596931457520e-01,7.812610864639282227e-01,7.812299132347106934e-01,7.811987400054931641e-01,7.811675667762756348e-01,7.811363935470581055e-01,7.811052203178405762e-01,7.810740470886230469e-01,7.810429334640502930e-01,7.810117006301879883e-01,7.809805870056152344e-01,7.809494137763977051e-01,7.809182405471801758e-01,7.808871269226074219e-01,7.808558940887451172e-01,7.808248400688171387e-01,7.807936072349548340e-01,7.807625532150268555e-01,7.807313799858093262e-01,7.807002663612365723e-01,7.806690931320190430e-01,7.806379795074462891e-01,7.806068062782287598e-01,7.805756926536560059e-01,7.805445790290832520e-01
7.481258511543273926e-01,7.480972409248352051e-01,7.480686902999877930e-01,7.480400800704956055e-01,7.480115294456481934e-01,7.479829192161560059e-01,7.479543685913085938e-01,7.479257583618164062e-01,7.478971481323242188e-01,7.478685975074768066e-01,7.478399872779846191e-01,7.478114962577819824e-01,7.477828860282897949e-01,7.477543354034423828e-01,7.477257251739501953e-01,7.476972341537475586e-01,7.476686239242553711e-01,7.476401329040527344e-01,7.476115226745605469e-01,7.475829720497131348e-01,7.475544214248657227e-01,7.475258708000183105e-01,7.474973201751708984e-01,7.474687695503234863e-01,7.474402785301208496e-01,7.474117279052734375e-01,7.473831772804260254e-01,7.473546266555786133e-01,7.473261356353759766e-01,7.472975850105285645e-01,7.472690343856811523e-01,7.472405433654785156e-01,7.472119927406311035e-01,7.471835017204284668e-01,7.471549510955810547e-01,7.471264600753784180e-01,7.470979094505310059e-01,7.470694184303283691e-01,7.470408678054809570e-01,7.470124363899230957e-01,7.469838857650756836e-01,7.469553351402282715e-01,7.469269037246704102e-01,7.468983530998229980e-01,7.468698620796203613e-01,7.468413710594177246e-01,7.468128800392150879e-01,7.467843890190124512e-01,7.467559576034545898e-01,7.467274069786071777e-01,7.466989755630493164e-01,7.466704249382019043e-01,7.466419339179992676e-01,7.466135025024414062e-01,7.465850114822387695e-01,7.465565800666809082e-01,7.465280294418334961e-01,7.464995980262756348e-01,7.464711070060729980e-01,7.464426755905151367e-01,7.464141845703125000e-01,7.463857531547546387e-01,7.463572621345520020e-01,7.463287711143493652e-01,7.463003993034362793e-01,7.462719082832336426e-01,7.462434768676757812e-01,7.462149858474731445e-01,7.461866140365600586e-01,7.461581230163574219e-01,7.461296916007995605e-01,7.461012601852416992e-01,7.460728287696838379e-01,7.460443973541259766e-01,7.460159063339233398e-01,7.459875345230102539e-01,7.459590435028076172e-01,7.459306716918945312e-01,7.459021806716918945e-01,7.458738088607788086e-01
7.162163853645324707e-01,7.161901593208312988e-01,7.161639928817749023e-01,7.161377668380737305e-01,7.161115407943725586e-01,7.160853743553161621e-01,7.160591483116149902e-01,7.160329818725585938e-01,7.160067558288574219e-01,7.159806489944458008e-01,7.159544229507446289e-01,7.159282565116882324e-01,7.159020304679870605e-01,7.158759236335754395e-01,7.158496975898742676e-01,7.158234715461730957e-01,7.157973647117614746e-01,7.157711386680603027e-01,7.157450318336486816e-01,7.157188057899475098e-01,7.156926989555358887e-01,7.156664729118347168e-01,7.156403660774230957e-01,7.156141400337219238e-01,7.155880331993103027e-01,7.155618667602539062e-01,7.155356407165527344e-01,7.155095338821411133e-01,7.154833674430847168e-01,7.154572606086730957e-01,7.154310345649719238e-01,7.154049277305603027e-01,7.153787612915039062e-01,7.153526544570922852e-01,7.153264880180358887e-01,7.153003811836242676e-01,7.152742147445678711e-01,7.152480483055114746e-01,7.152219414710998535e-01,7.151957750320434570e-01,7.151697278022766113e-01,7.151435613632202148e-01,7.151174545288085938e-01,7.150912880897521973e-01,7.150652408599853516e-01,7.150390744209289551e-01,7.150129079818725586e-01,7.149868607521057129e-01,7.149606943130493164e-01,7.149346470832824707e-01,7.149084806442260742e-01,7.148824334144592285e-01,7.148562669754028320e-01,7.148302197456359863e-01,7.148040533065795898e-01,7.147780060768127441e-01,7.147518992424011230e-01,7.147257328033447266e-01,7.146996855735778809e-01,7.146735787391662598e-01,7.146475315093994141e-01,7.146213650703430176e-01,7.145953178405761719e-01,7.145692110061645508e-01,7.145431637763977051e-01,7.145170569419860840e-01,7.144910097122192383e-01,7.144649028778076172e-01,7.144387960433959961e-01,7.144127488136291504e-01,7.143866419792175293e-01,7.143605947494506836e-01,7.143345475196838379e-01,7.143085002899169922e-01,7.142823934555053711e-01,7.142563462257385254e-01,7.142302989959716797e-01,7.142042517662048340e-01,7.141781449317932129e-01,7.141520977020263672e-01
6.869176030158996582e-01,6.868935227394104004e-01,6.868693828582763672e-01,6.868453025817871094e-01,6.868212223052978516e-01,6.867971420288085938e-01,6.867730021476745605e-01,6.867489218711853027e-01,6.867248415946960449e-01,6.867007613182067871e-01,6.866766214370727539e-01,6.866525411605834961e-01,6.866284608840942383e-01,6.866043806076049805e-01,6.865803003311157227e-01,6.865562200546264648e-01,6.865321397781372070e-01,6.865080595016479492e-01,6.864840388298034668e-01,6.864598989486694336e-01,6.864358186721801758e-01,6.864117980003356934e-01,6.863876581192016602e-01,6.863636374473571777e-01,6.863395571708679199e-01,6.863155364990234375e-01,6.862914562225341797e-01,6.862673759460449219e-01,6.862432956695556641e-01,6.862192749977111816e-01,6.861951947212219238e-01,6.861711144447326660e-01,6.861470937728881836e-01,6.861230134963989258e-01,6.860989928245544434e-01,6.860749125480651855e-01,6.860509514808654785e-01,6.860268712043762207e-01,6.860028505325317383e-01,6.859787702560424805e-01,6.859547495841979980e-01,6.859307289123535156e-01,6.859066486358642578e-01,6.858826279640197754e-01,6.858586072921752930e-01,6.858345866203308105e-01,6.858105063438415527e-01,6.857865452766418457e-01,6.857624650001525879e-01,6.857385039329528809e-01,6.857144236564636230e-01,6.856904625892639160e-01,6.856663823127746582e-01,6.856423616409301758e-01,6.856184005737304688e-01,6.855943202972412109e-01,6.855703592300415039e-01,6.855463385581970215e-01,6.855223774909973145e-01,6.854982972145080566e-01,6.854743361473083496e-01,6.854503154754638672e-01,6.854263544082641602e-01,6.854023337364196777e-01,6.853783130645751953e-01,6.853543519973754883e-01,6.853303313255310059e-01,6.853063702583312988e-01,6.852823495864868164e-01,6.852583885192871094e-01,6.852343678474426270e-01,6.852104067802429199e-01,6.851863861083984375e-01,6.851624250411987305e-01,6.851384043693542480e-01,6.851144433021545410e-01,6.850904822349548340e-01,6.850664615631103516e-01,6.850425004959106445e-01,6.850185394287109375e-01
6.599217057228088379e-01,6.598994731903076172e-01,6.598772406578063965e-01,6.598550081253051758e-01,6.598327755928039551e-01,6.598104834556579590e-01,6.597882509231567383e-01,6.597660183906555176e-01,6.597437858581542969e-01,6.597215533256530762e-01,6.596993207931518555e-01,6.596770882606506348e-01,6.596548557281494141e-01,6.596326231956481934e-01,6.596104502677917480e-01,6.595881581306457520e-01,6.595659255981445312e-01,6.595437526702880859e-01,6.595215201377868652e-01,6.594992876052856445e-01,6.594770550727844238e-01,6.594548821449279785e-01,6.594326496124267578e-01,6.594104766845703125e-01,6.593881845474243164e-01,6.593660116195678711e-01,6.593437790870666504e-01,6.593215465545654297e-01,6.592993736267089844e-01,6.592771410942077637e-01,6.592549681663513184e-01,6.592327356338500977e-01,6.592105627059936523e-01,6.591883301734924316e-01,6.591662168502807617e-01,6.591439843177795410e-01,6.591218113899230957e-01,6.590995788574218750e-01,6.590773463249206543e-01,6.590552330017089844e-01,6.590330004692077637e-01,6.590108275413513184e-01,6.589886546134948730e-01,6.589664816856384277e-01,6.589442491531372070e-01,6.589221358299255371e-01,6.588999032974243164e-01,6.588777303695678711e-01,6.588555574417114258e-01,6.588333845138549805e-01,6.588112115859985352e-01,6.587890386581420898e-01,6.587668657302856445e-01,6.587446928024291992e-01,6.587225198745727539e-01,6.587003469467163086e-01,6.586782336235046387e-01,6.586560010910034180e-01,6.586338877677917480e-01,6.586117148399353027e-01,6.585895419120788574e-01,6.585673689842224121e-01,6.585451960563659668e-01,6.585230827331542969e-01,6.585009098052978516e-01,6.584787964820861816e-01,6.584566235542297363e-01,6.584345102310180664e-01,6.584123373031616211e-01,6.583901643753051758e-01,6.583680510520935059e-01,6.583458781242370605e-01,6.583237648010253906e-01,6.583015918731689453e-01,6.582794785499572754e-01,6.582573056221008301e-01,6.582351922988891602e-01,6.582130789756774902e-01,6.581909656524658203e-01,6.581687927246093750e-01
6.349674463272094727e-01,6.349468231201171875e-01,6.349262595176696777e-01,6.349056959152221680e-01,6.348850727081298828e-01,6.348645091056823730e-01,6.348439455032348633e-01,6.348233222961425781e-01,6.348027586936950684e-01,6.347821354866027832e-01,6.347615718841552734e-01,6.347410082817077637e-01,6.347203850746154785e-01,6.346998214721679688e-01,6.346791982650756836e-01,6.346586942672729492e-01,6.346380710601806641e-01,6.346175074577331543e-01,6.345969438552856445e-01,6.345763802528381348e-01,6.345558166503906250e-01,6.345352530479431152e-01,6.345146298408508301e-01,6.344940662384033203e-01,6.344735026359558105e-01,6.344529390335083008e-01,6.344323754310607910e-01,6.344118118286132812e-01,6.343913078308105469e-01,6.343706846237182617e-01,6.343501806259155273e-01,6.343296170234680176e-01,6.343089938163757324e-01,6.342884898185729980e-01,6.342679262161254883e-01,6.342473626136779785e-01,6.342267990112304688e-01,6.342062950134277344e-01,6.341857314109802246e-01,6.341652274131774902e-01,6.341446638107299805e-01,6.341241002082824707e-01,6.341035366058349609e-01,6.340829730033874512e-01,6.340624690055847168e-01,6.340419054031372070e-01,6.340214014053344727e-01,6.340008378028869629e-01,6.339803338050842285e-01,6.339597702026367188e-01,6.339392662048339844e-01,6.339187622070312500e-01,6.338982582092285156e-01,6.338776946067810059e-01,6.338571310043334961e-01,6.338366270065307617e-01,6.338161230087280273e-01,6.337956190109252930e-01,6.337750554084777832e-01,6.337545514106750488e-01,6.337340474128723145e-01,6.337135434150695801e-01,6.336929798126220703e-01,6.336725354194641113e-01,6.336519718170166016e-01,6.336314082145690918e-01,6.336109638214111328e-01,6.335904002189636230e-01,6.335699558258056641e-01,6.335493922233581543e-01,6.335289478302001953e-01,6.335083842277526855e-01,6.334879398345947266e-01,6.334674358367919922e-01,6.334469318389892578e-01,6.334264278411865234e-01,6.334059238433837891e-01,6.333854198455810547e-01,6.333649158477783203e-01,6.333444714546203613e-01
6.118317246437072754e-01,6.118125915527343750e-01,6.117934584617614746e-01,6.117743253707885742e-01,6.117552518844604492e-01,6.117361187934875488e-01,6.117169857025146484e-01,6.116979122161865234e-01,6.116787195205688477e-01,6.116596460342407227e-01,6.116405129432678223e-01,6.116214394569396973e-01,6.116023063659667969e-01,6.115832328796386719e-01,6.115640997886657715e-01,6.115450263023376465e-01,6.115258932113647461e-01,6.115067601203918457e-01,6.114876866340637207e-01,6.114685535430908203e-01,6.114494800567626953e-01,6.114303469657897949e-01,6.114112734794616699e-01,6.113921999931335449e-01,6.113731265068054199e-01,6.113539934158325195e-01,6.113349199295043945e-01,6.113157868385314941e-01,6.112967133522033691e-01,6.112776398658752441e-01,6.112585067749023438e-01,6.112394332885742188e-01,6.112203598022460938e-01,6.112012863159179688e-01,6.111822128295898438e-01,6.111631393432617188e-01,6.111440062522888184e-01,6.111249923706054688e-01,6.111058592796325684e-01,6.110867857933044434e-01,6.110677123069763184e-01,6.110486388206481934e-01,6.110295653343200684e-01,6.110104918479919434e-01,6.109914183616638184e-01,6.109723448753356934e-01,6.109533309936523438e-01,6.109341979026794434e-01,6.109151840209960938e-01,6.108961105346679688e-01,6.108769774436950684e-01,6.108579635620117188e-01,6.108388900756835938e-01,6.108198165893554688e-01,6.108007431030273438e-01,6.107817292213439941e-01,6.107626557350158691e-01,6.107436418533325195e-01,6.107245087623596191e-01,6.107054948806762695e-01,6.106864213943481445e-01,6.106673479080200195e-01,6.106483340263366699e-01,6.106292605400085449e-01,6.106102466583251953e-01,6.105911731719970703e-01,6.105721592903137207e-01,6.105530858039855957e-01,6.105340719223022461e-01,6.105149984359741211e-01,6.104959845542907715e-01,6.104769110679626465e-01,6.104578971862792969e-01,6.104388833045959473e-01,6.104198098182678223e-01,6.104007959365844727e-01,6.103817224502563477e-01,6.103627085685729980e-01,6.103436946868896484e-01,6.103246808052062988e-01
5.903226137161254883e-01,5.903047919273376465e-01,5.902869701385498047e-01,5.902692079544067383e-01,5.902513861656188965e-01,5.902336239814758301e-01,5.902158021926879883e-01,5.901980400085449219e-01,5.901802182197570801e-01,5.901624560356140137e-01,5.901446342468261719e-01,5.901268720626831055e-01,5.901090502738952637e-01,5.900912284851074219e-01,5.900734663009643555e-01,5.900557041168212891e-01,5.900379419326782227e-01,5.900201201438903809e-01,5.900023579597473145e-01,5.899845361709594727e-01,5.899667739868164062e-01,5.899490118026733398e-01,5.899312496185302734e-01,5.899134278297424316e-01,5.898956656455993652e-01,5.898779034614562988e-01,5.898600816726684570e-01,5.898423790931701660e-01,5.898245573043823242e-01,5.898067951202392578e-01,5.897890329360961914e-01,5.897712707519531250e-01,5.897535085678100586e-01,5.897357463836669922e-01,5.897179841995239258e-01,5.897001624107360840e-01,5.896824598312377930e-01,5.896646380424499512e-01,5.896469354629516602e-01,5.896291136741638184e-01,5.896114110946655273e-01,5.895935893058776855e-01,5.895758867263793945e-01,5.895581245422363281e-01,5.895403623580932617e-01,5.895226001739501953e-01,5.895048379898071289e-01,5.894870758056640625e-01,5.894693136215209961e-01,5.894516110420227051e-01,5.894338488578796387e-01,5.894160866737365723e-01,5.893983244895935059e-01,5.893806219100952148e-01,5.893628597259521484e-01,5.893450975418090820e-01,5.893273949623107910e-01,5.893096327781677246e-01,5.892918705940246582e-01,5.892741084098815918e-01,5.892564058303833008e-01,5.892386436462402344e-01,5.892209410667419434e-01,5.892031788825988770e-01,5.891854763031005859e-01,5.891677141189575195e-01,5.891499519348144531e-01,5.891322493553161621e-01,5.891144871711730957e-01,5.890967845916748047e-01,5.890790820121765137e-01,5.890613794326782227e-01,5.890436172485351562e-01,5.890259146690368652e-01,5.890081524848937988e-01,5.889904499053955078e-01,5.889727473258972168e-01,5.889549851417541504e-01,5.889372825622558594e-01,5.889195203781127930e-01
5.702744722366333008e-01,5.702579021453857422e-01,5.702412724494934082e-01,5.702246427536010742e-01,5.702080130577087402e-01,5.701914429664611816e-01,5.701748132705688477e-01,5.701581835746765137e-01,5.701416134834289551e-01,5.701249837875366211e-01,5.701084136962890625e-01,5.700917840003967285e-01,5.700752139091491699e-01,5.700585842132568359e-01,5.700420141220092773e-01,5.700253844261169434e-01,5.700088143348693848e-01,5.699921846389770508e-01,5.699755549430847168e-01,5.699589848518371582e-01,5.699423551559448242e-01,5.699257850646972656e-01,5.699092149734497070e-01,5.698926448822021484e-01,5.698760151863098145e-01,5.698594450950622559e-01,5.698428153991699219e-01,5.698262453079223633e-01,5.698096752166748047e-01,5.697930455207824707e-01,5.697764754295349121e-01,5.697599053382873535e-01,5.697433352470397949e-01,5.697267055511474609e-01,5.697101950645446777e-01,5.696935653686523438e-01,5.696769952774047852e-01,5.696604251861572266e-01,5.696438550949096680e-01,5.696272850036621094e-01,5.696106553077697754e-01,5.695941448211669922e-01,5.695775151252746582e-01,5.695610046386718750e-01,5.695443749427795410e-01,5.695278644561767578e-01,5.695112347602844238e-01,5.694947242736816406e-01,5.694780945777893066e-01,5.694615840911865234e-01,5.694449543952941895e-01,5.694283843040466309e-01,5.694118738174438477e-01,5.693953037261962891e-01,5.693787336349487305e-01,5.693621635437011719e-01,5.693455934524536133e-01,5.693290233612060547e-01,5.693125128746032715e-01,5.692959427833557129e-01,5.692793726921081543e-01,5.692628026008605957e-01,5.692462325096130371e-01,5.692297220230102539e-01,5.692131519317626953e-01,5.691965818405151367e-01,5.691800117492675781e-01,5.691635012626647949e-01,5.691469311714172363e-01,5.691304206848144531e-01,5.691138505935668945e-01,5.690973401069641113e-01,5.690807700157165527e-01,5.690641999244689941e-01,5.690476894378662109e-01,5.690311193466186523e-01,5.690146088600158691e-01,5.689980387687683105e-01,5.689815282821655273e-01,5.689649581909179688e-01
