3.098562717437744141e+00,3.177163600921630859e+00,3.259856462478637695e+00,3.346981048583984375e+00,3.438893079757690430e+00,3.535995721817016602e+00,3.638741493225097656e+00,3.747636795043945312e+00,3.863250494003295898e+00,3.986224889755249023e+00,4.117286205291748047e+00,4.257257938385009766e+00,4.407082080841064453e+00,4.567836284637451172e+00,4.740761756896972656e+00,4.927295207977294922e+00,5.000000000000000000e+00,5.000000000000000000e+00,5.000000000000000000e+00,5.000000000000000000e+00,5.000000000000000000e+00,5.000000000000000000e+00,5.000000000000000000e+00,5.000000000000000000e+00,5.000000000000000000e+00,5.000000000000000000e+00,5.000000000000000000e+00,5.000000000000000000e+00,5.000000000000000000e+00,5.000000000000000000e+00,5.000000000000000000e+00,5.000000000000000000e+00,5.000000000000000000e+00,5.000000000000000000e+00,5.000000000000000000e+00,5.000000000000000000e+00,5.000000000000000000e+00,5.000000000000000000e+00,5.000000000000000000e+00,5.000000000000000000e+00,5.000000000000000000e+00,5.000000000000000000e+00,5.000000000000000000e+00,5.000000000000000000e+00,5.000000000000000000e+00,5.000000000000000000e+00,5.000000000000000000e+00,5.000000000000000000e+00,5.000000000000000000e+00,5.000000000000000000e+00,5.000000000000000000e+00,5.000000000000000000e+00,2.657284975051879883e+00,2.635555028915405273e+00,2.593046426773071289e+00,2.568135499954223633e+00,2.553431034088134766e+00,2.546555042266845703e+00,2.539262533187866211e+00,2.542022705078125000e+00,2.559351205825805664e+00,2.548733711242675781e+00,5.000000000000000000e+00,5.000000000000000000e+00,5.000000000000000000e+00,5.000000000000000000e+00,5.000000000000000000e+00,5.000000000000000000e+00,5.000000000000000000e+00,5.000000000000000000e+00,4.843960762023925781e+00,4.685553073883056641e+00,4.537178516387939453e+00,4.397912502288818359e+00,4.266941070556640625e+00,4.143544673919677734e+00,4.027084827423095703e+00,3.916992664337158203e+00,3.812759876251220703e+00,3.713930368423461914e+00
3.098496675491333008e+00,3.177094221115112305e+00,3.259783267974853516e+00,3.346891164779663086e+00,3.438796520233154297e+00,3.535893201828002930e+00,3.638633012771606445e+00,3.747521638870239258e+00,3.863128662109375000e+00,3.986095190048217773e+00,4.117147445678710938e+00,4.257109642028808594e+00,4.406923294067382812e+00,4.567665576934814453e+00,4.740577697753906250e+00,4.927096843719482422e+00,5.000000000000000000e+00,5.000000000000000000e+00,5.000000000000000000e+00,5.000000000000000000e+00,5.000000000000000000e+00,5.000000000000000000e+00,5.000000000000000000e+00,5.000000000000000000e+00,5.000000000000000000e+00,5.000000000000000000e+00,5.000000000000000000e+00,5.000000000000000000e+00,5.000000000000000000e+00,5.000000000000000000e+00,5.000000000000000000e+00,5.000000000000000000e+00,5.000000000000000000e+00,5.000000000000000000e+00,5.000000000000000000e+00,5.000000000000000000e+00,5.000000000000000000e+00,5.000000000000000000e+00,5.000000000000000000e+00,5.000000000000000000e+00,5.000000000000000000e+00,5.000000000000000000e+00,5.000000000000000000e+00,5.000000000000000000e+00,5.000000000000000000e+00,5.000000000000000000e+00,5.000000000000000000e+00,5.000000000000000000e+00,5.000000000000000000e+00,5.000000000000000000e+00,5.000000000000000000e+00,2.642155885696411133e+00,2.617190599441528320e+00,2.586670398712158203e+00,2.556262254714965820e+00,2.531288146972656250e+00,2.520871639251708984e+00,2.507800102233886719e+00,2.515826463699340820e+00,2.543747186660766602e+00,2.587377071380615234e+00,2.565218687057495117e+00,5.000000000000000000e+00,5.000000000000000000e+00,5.000000000000000000e+00,5.000000000000000000e+00,5.000000000000000000e+00,5.000000000000000000e+00,5.000000000000000000e+00,5.000000000000000000e+00,4.844101905822753906e+00,4.685685634613037109e+00,4.537302494049072266e+00,4.398028850555419922e+00,4.267050266265869141e+00,4.143648147583007812e+00,4.027182579040527344e+00,3.917084932327270508e+00,3.812847375869750977e+00,3.714013338088989258e+00
3.098430633544921875e+00,3.177025079727172852e+00,3.259710073471069336e+00,3.346814155578613281e+00,3.438701391220092773e+00,3.535791158676147461e+00,3.638524770736694336e+00,3.747406482696533203e+00,3.863006353378295898e+00,3.985965013504028320e+00,4.117008686065673828e+00,4.256961345672607422e+00,4.406764507293701172e+00,4.567494869232177734e+00,4.740393638610839844e+00,4.926898002624511719e+00,5.000000000000000000e+00,5.000000000000000000e+00,5.000000000000000000e+00,5.000000000000000000e+00,5.000000000000000000e+00,5.000000000000000000e+00,5.000000000000000000e+00,5.000000000000000000e+00,5.000000000000000000e+00,5.000000000000000000e+00,5.000000000000000000e+00,5.000000000000000000e+00,5.000000000000000000e+00,5.000000000000000000e+00,5.000000000000000000e+00,5.000000000000000000e+00,5.000000000000000000e+00,5.000000000000000000e+00,5.000000000000000000e+00,5.000000000000000000e+00,5.000000000000000000e+00,5.000000000000000000e+00,5.000000000000000000e+00,5.000000000000000000e+00,5.000000000000000000e+00,5.000000000000000000e+00,5.000000000000000000e+00,5.000000000000000000e+00,5.000000000000000000e+00,5.000000000000000000e+00,5.000000000000000000e+00,5.000000000000000000e+00,5.000000000000000000e+00,5.000000000000000000e+00,2.695907592773437500e+00,2.653098344802856445e+00,2.620860815048217773e+00,2.572897672653198242e+00,2.543424367904663086e+00,2.532953500747680664e+00,2.522211313247680664e+00,2.506926298141479492e+00,2.513699054718017578e+00,2.541880130767822266e+00,2.584370851516723633e+00,2.578479528427124023e+00,5.000000000000000000e+00,5.000000000000000000e+00,5.000000000000000000e+00,5.000000000000000000e+00,5.000000000000000000e+00,5.000000000000000000e+00,5.000000000000000000e+00,5.000000000000000000e+00,4.844243049621582031e+00,4.685817718505859375e+00,4.537426948547363281e+00,4.398145198822021484e+00,4.267160415649414062e+00,4.143751621246337891e+00,4.027280330657958984e+00,3.917177915573120117e+00,3.812934875488281250e+00,3.714096307754516602e+00
3.098364591598510742e+00,3.176955461502075195e+00,3.259636878967285156e+00,3.346736907958984375e+00,3.438620090484619141e+00,3.535690069198608398e+00,3.638416290283203125e+00,3.747291803359985352e+00,3.862884521484375000e+00,3.985835313796997070e+00,4.116869926452636719e+00,4.256813049316406250e+00,4.406605243682861328e+00,4.567324161529541016e+00,4.740210056304931641e+00,4.926699638366699219e+00,5.000000000000000000e+00,5.000000000000000000e+00,5.000000000000000000e+00,5.000000000000000000e+00,5.000000000000000000e+00,5.000000000000000000e+00,5.000000000000000000e+00,5.000000000000000000e+00,5.000000000000000000e+00,5.000000000000000000e+00,5.000000000000000000e+00,5.000000000000000000e+00,5.000000000000000000e+00,5.000000000000000000e+00,5.000000000000000000e+00,5.000000000000000000e+00,5.000000000000000000e+00,5.000000000000000000e+00,5.000000000000000000e+00,5.000000000000000000e+00,5.000000000000000000e+00,5.000000000000000000e+00,5.000000000000000000e+00,5.000000000000000000e+00,5.000000000000000000e+00,5.000000000000000000e+00,5.000000000000000000e+00,5.000000000000000000e+00,5.000000000000000000e+00,5.000000000000000000e+00,5.000000000000000000e+00,5.000000000000000000e+00,5.000000000000000000e+00,5.000000000000000000e+00,5.000000000000000000e+00,2.662214994430541992e+00,2.637943506240844727e+00,2.578616380691528320e+00,2.551072359085083008e+00,2.524305105209350586e+00,2.512631177902221680e+00,2.510291337966918945e+00,2.524994373321533203e+00,2.559163808822631836e+00,2.585186243057250977e+00,2.588916778564453125e+00,5.000000000000000000e+00,5.000000000000000000e+00,5.000000000000000000e+00,5.000000000000000000e+00,5.000000000000000000e+00,5.000000000000000000e+00,5.000000000000000000e+00,5.000000000000000000e+00,4.844384670257568359e+00,4.685950279235839844e+00,4.537550926208496094e+00,4.398262023925781250e+00,4.267270088195800781e+00,4.143855094909667969e+00,4.027378082275390625e+00,3.917270183563232422e+00,3.813019752502441406e+00,3.714173316955566406e+00
3.098298311233520508e+00,3.176886081695556641e+00,3.259563922882080078e+00,3.346660137176513672e+00,3.438538551330566406e+00,3.535604000091552734e+00,3.638309478759765625e+00,3.747176647186279297e+00,3.862762212753295898e+00,3.985705137252807617e+00,4.116731166839599609e+00,4.256664752960205078e+00,4.406446456909179688e+00,4.567153453826904297e+00,4.740026473999023438e+00,4.926501274108886719e+00,5.000000000000000000e+00,5.000000000000000000e+00,5.000000000000000000e+00,5.000000000000000000e+00,5.000000000000000000e+00,5.000000000000000000e+00,5.000000000000000000e+00,5.000000000000000000e+00,5.000000000000000000e+00,5.000000000000000000e+00,5.000000000000000000e+00,5.000000000000000000e+00,5.000000000000000000e+00,5.000000000000000000e+00,5.000000000000000000e+00,5.000000000000000000e+00,5.000000000000000000e+00,5.000000000000000000e+00,5.000000000000000000e+00,5.000000000000000000e+00,5.000000000000000000e+00,5.000000000000000000e+00,5.000000000000000000e+00,5.000000000000000000e+00,5.000000000000000000e+00,5.000000000000000000e+00,5.000000000000000000e+00,5.000000000000000000e+00,5.000000000000000000e+00,5.000000000000000000e+00,5.000000000000000000e+00,5.000000000000000000e+00,5.000000000000000000e+00,5.000000000000000000e+00,5.000000000000000000e+00,2.664891958236694336e+00,2.646198511123657227e+00,2.594737529754638672e+00,2.548474073410034180e+00,2.521646499633789062e+00,2.509492397308349609e+00,2.505495071411132812e+00,2.515660047531127930e+00,2.574705123901367188e+00,2.587058782577514648e+00,2.599527597427368164e+00,5.000000000000000000e+00,5.000000000000000000e+00,5.000000000000000000e+00,5.000000000000000000e+00,5.000000000000000000e+00,5.000000000000000000e+00,5.000000000000000000e+00,5.000000000000000000e+00,4.844526290893554688e+00,4.686082839965820312e+00,4.537674903869628906e+00,4.398378372192382812e+00,4.267379760742187500e+00,4.143956661224365234e+00,4.027470111846923828e+00,3.917352914810180664e+00,3.813097238540649414e+00,3.714246749877929688e+00
3.098232507705688477e+00,3.176816463470458984e+00,3.259490728378295898e+00,3.346583127975463867e+00,3.438457250595092773e+00,3.535518407821655273e+00,3.638218164443969727e+00,3.747062921524047852e+00,3.862640380859375000e+00,3.985574960708618164e+00,4.116592407226562500e+00,4.256516933441162109e+00,4.406287670135498047e+00,4.566982746124267578e+00,4.739842414855957031e+00,4.926302433013916016e+00,5.000000000000000000e+00,5.000000000000000000e+00,5.000000000000000000e+00,5.000000000000000000e+00,5.000000000000000000e+00,5.000000000000000000e+00,5.000000000000000000e+00,5.000000000000000000e+00,5.000000000000000000e+00,5.000000000000000000e+00,5.000000000000000000e+00,5.000000000000000000e+00,5.000000000000000000e+00,5.000000000000000000e+00,5.000000000000000000e+00,5.000000000000000000e+00,5.000000000000000000e+00,5.000000000000000000e+00,5.000000000000000000e+00,5.000000000000000000e+00,5.000000000000000000e+00,5.000000000000000000e+00,5.000000000000000000e+00,5.000000000000000000e+00,5.000000000000000000e+00,5.000000000000000000e+00,5.000000000000000000e+00,5.000000000000000000e+00,5.000000000000000000e+00,5.000000000000000000e+00,5.000000000000000000e+00,5.000000000000000000e+00,5.000000000000000000e+00,5.000000000000000000e+00,5.000000000000000000e+00,2.665626764297485352e+00,2.637465476989746094e+00,2.595784425735473633e+00,2.548666000366210938e+00,2.524670362472534180e+00,2.511157274246215820e+00,2.506852388381958008e+00,2.515570878982543945e+00,2.590654611587524414e+00,2.595782995223999023e+00,2.611588716506958008e+00,5.000000000000000000e+00,5.000000000000000000e+00,5.000000000000000000e+00,5.000000000000000000e+00,5.000000000000000000e+00,5.000000000000000000e+00,5.000000000000000000e+00,5.000000000000000000e+00,4.844667434692382812e+00,4.686214923858642578e+00,4.537798881530761719e+00,4.398489952087402344e+00,4.267479896545410156e+00,4.144048690795898438e+00,4.027556419372558594e+00,3.917434930801391602e+00,3.813174962997436523e+00,3.714320421218872070e+00
3.098166465759277344e+00,3.176747083663940430e+00,3.259417772293090820e+00,3.346506118774414062e+00,3.438375711441040039e+00,3.535432338714599609e+00,3.638127088546752930e+00,3.746966361999511719e+00,3.862519025802612305e+00,3.985445261001586914e+00,4.116453647613525391e+00,4.256368637084960938e+00,4.406128406524658203e+00,4.566812038421630859e+00,4.739658832550048828e+00,4.926103591918945312e+00,5.000000000000000000e+00,5.000000000000000000e+00,5.000000000000000000e+00,5.000000000000000000e+00,5.000000000000000000e+00,5.000000000000000000e+00,5.000000000000000000e+00,5.000000000000000000e+00,5.000000000000000000e+00,5.000000000000000000e+00,5.000000000000000000e+00,5.000000000000000000e+00,5.000000000000000000e+00,5.000000000000000000e+00,5.000000000000000000e+00,5.000000000000000000e+00,5.000000000000000000e+00,5.000000000000000000e+00,5.000000000000000000e+00,5.000000000000000000e+00,5.000000000000000000e+00,5.000000000000000000e+00,5.000000000000000000e+00,5.000000000000000000e+00,5.000000000000000000e+00,5.000000000000000000e+00,5.000000000000000000e+00,5.000000000000000000e+00,5.000000000000000000e+00,5.000000000000000000e+00,5.000000000000000000e+00,5.000000000000000000e+00,5.000000000000000000e+00,5.000000000000000000e+00,5.000000000000000000e+00,2.669600725173950195e+00,2.641026496887207031e+00,2.609952211380004883e+00,2.544847011566162109e+00,2.524767875671386719e+00,2.510573148727416992e+00,2.496137857437133789e+00,2.502382278442382812e+00,2.588830232620239258e+00,2.613297700881958008e+00,2.625572443008422852e+00,5.000000000000000000e+00,5.000000000000000000e+00,5.000000000000000000e+00,5.000000000000000000e+00,5.000000000000000000e+00,5.000000000000000000e+00,5.000000000000000000e+00,5.000000000000000000e+00,4.844805717468261719e+00,4.686338424682617188e+00,4.537909030914306641e+00,4.398593425750732422e+00,4.267577648162841797e+00,4.144140243530273438e+00,4.027643203735351562e+00,3.917517185211181641e+00,3.813252925872802734e+00,3.714394330978393555e+00
3.098100423812866211e+00,3.176677703857421875e+00,3.259344816207885742e+00,3.346428871154785156e+00,3.438294410705566406e+00,3.535346269607543945e+00,3.638036012649536133e+00,3.746870040893554688e+00,3.862416267395019531e+00,3.985315561294555664e+00,4.116315364837646484e+00,4.256220340728759766e+00,4.405969619750976562e+00,4.566641330718994141e+00,4.739474773406982422e+00,4.925905227661132812e+00,5.000000000000000000e+00,5.000000000000000000e+00,5.000000000000000000e+00,5.000000000000000000e+00,5.000000000000000000e+00,5.000000000000000000e+00,5.000000000000000000e+00,5.000000000000000000e+00,5.000000000000000000e+00,5.000000000000000000e+00,5.000000000000000000e+00,5.000000000000000000e+00,5.000000000000000000e+00,5.000000000000000000e+00,5.000000000000000000e+00,5.000000000000000000e+00,5.000000000000000000e+00,5.000000000000000000e+00,5.000000000000000000e+00,5.000000000000000000e+00,5.000000000000000000e+00,5.000000000000000000e+00,5.000000000000000000e+00,5.000000000000000000e+00,5.000000000000000000e+00,5.000000000000000000e+00,5.000000000000000000e+00,5.000000000000000000e+00,5.000000000000000000e+00,5.000000000000000000e+00,5.000000000000000000e+00,5.000000000000000000e+00,5.000000000000000000e+00,5.000000000000000000e+00,5.000000000000000000e+00,2.675536632537841797e+00,2.648969650268554688e+00,2.584653139114379883e+00,2.536995410919189453e+00,2.515792608261108398e+00,2.500859737396240234e+00,2.490394353866577148e+00,2.495999336242675781e+00,2.542049884796142578e+00,2.630432605743408203e+00,2.639191389083862305e+00,5.000000000000000000e+00,5.000000000000000000e+00,5.000000000000000000e+00,5.000000000000000000e+00,5.000000000000000000e+00,5.000000000000000000e+00,5.000000000000000000e+00,5.000000000000000000e+00,4.844931125640869141e+00,4.686455726623535156e+00,4.538019180297851562e+00,4.398697376251220703e+00,4.267674922943115234e+00,4.144232273101806641e+00,4.027729988098144531e+00,3.917598962783813477e+00,3.813330411911010742e+00,3.714468002319335938e+00
3.098034381866455078e+00,3.176608324050903320e+00,3.259271621704101562e+00,3.346351861953735352e+00,3.438213348388671875e+00,3.535260200500488281e+00,3.637944936752319336e+00,3.746773481369018555e+00,3.862313508987426758e+00,3.985206604003906250e+00,4.116176605224609375e+00,4.256072044372558594e+00,4.405810832977294922e+00,4.566470623016357422e+00,4.739290714263916016e+00,4.925706386566162109e+00,5.000000000000000000e+00,5.000000000000000000e+00,5.000000000000000000e+00,5.000000000000000000e+00,5.000000000000000000e+00,5.000000000000000000e+00,5.000000000000000000e+00,5.000000000000000000e+00,5.000000000000000000e+00,5.000000000000000000e+00,5.000000000000000000e+00,5.000000000000000000e+00,5.000000000000000000e+00,5.000000000000000000e+00,5.000000000000000000e+00,5.000000000000000000e+00,5.000000000000000000e+00,5.000000000000000000e+00,5.000000000000000000e+00,5.000000000000000000e+00,5.000000000000000000e+00,5.000000000000000000e+00,5.000000000000000000e+00,5.000000000000000000e+00,5.000000000000000000e+00,5.000000000000000000e+00,5.000000000000000000e+00,5.000000000000000000e+00,5.000000000000000000e+00,5.000000000000000000e+00,5.000000000000000000e+00,5.000000000000000000e+00,5.000000000000000000e+00,5.000000000000000000e+00,5.000000000000000000e+00,2.672456741333007812e+00,2.648771286010742188e+00,2.597378492355346680e+00,2.547093629837036133e+00,2.522803544998168945e+00,2.509145021438598633e+00,2.502850055694580078e+00,2.511842727661132812e+00,2.550973415374755859e+00,2.624026060104370117e+00,2.618435621261596680e+00,5.000000000000000000e+00,5.000000000000000000e+00,5.000000000000000000e+00,5.000000000000000000e+00,5.000000000000000000e+00,5.000000000000000000e+00,5.000000000000000000e+00,5.000000000000000000e+00,4.845056533813476562e+00,4.686573028564453125e+00,4.538129329681396484e+00,4.398800373077392578e+00,4.267772197723388672e+00,4.144323825836181641e+00,4.027816772460937500e+00,3.917680978775024414e+00,3.813408136367797852e+00,3.714541673660278320e+00
3.097968339920043945e+00,3.176538944244384766e+00,3.259198427200317383e+00,3.346274852752685547e+00,3.438132047653198242e+00,3.535174131393432617e+00,3.637854099273681641e+00,3.746676683425903320e+00,3.862210750579833984e+00,3.985097408294677734e+00,4.116060256958007812e+00,4.255923748016357422e+00,4.405652046203613281e+00,4.566300392150878906e+00,4.739107131958007812e+00,4.925508022308349609e+00,5.000000000000000000e+00,5.000000000000000000e+00,5.000000000000000000e+00,5.000000000000000000e+00,5.000000000000000000e+00,5.000000000000000000e+00,5.000000000000000000e+00,5.000000000000000000e+00,5.000000000000000000e+00,5.000000000000000000e+00,5.000000000000000000e+00,5.000000000000000000e+00,5.000000000000000000e+00,5.000000000000000000e+00,5.000000000000000000e+00,5.000000000000000000e+00,5.000000000000000000e+00,5.000000000000000000e+00,5.000000000000000000e+00,5.000000000000000000e+00,5.000000000000000000e+00,5.000000000000000000e+00,5.000000000000000000e+00,5.000000000000000000e+00,5.000000000000000000e+00,5.000000000000000000e+00,5.000000000000000000e+00,5.000000000000000000e+00,5.000000000000000000e+00,5.000000000000000000e+00,5.000000000000000000e+00,5.000000000000000000e+00,5.000000000000000000e+00,5.000000000000000000e+00,5.000000000000000000e+00,2.625046253204345703e+00,2.617358922958374023e+00,2.590889215469360352e+00,2.551213741302490234e+00,2.528382062911987305e+00,2.518930435180664062e+00,2.513976097106933594e+00,2.506428718566894531e+00,2.518013954162597656e+00,2.621830463409423828e+00,2.613636255264282227e+00,5.000000000000000000e+00,5.000000000000000000e+00,5.000000000000000000e+00,5.000000000000000000e+00,5.000000000000000000e+00,5.000000000000000000e+00,5.000000000000000000e+00,5.000000000000000000e+00,4.845181941986083984e+00,4.686690330505371094e+00,4.538239479064941406e+00,4.398903846740722656e+00,4.267869472503662109e+00,4.144415855407714844e+00,4.027903556823730469e+00,3.917763233184814453e+00,3.813486099243164062e+00,3.714615583419799805e+00
3.097902536392211914e+00,3.176469564437866211e+00,3.259125232696533203e+00,3.346198081970214844e+00,3.438050746917724609e+00,3.535088062286376953e+00,3.637763023376464844e+00,3.746580123901367188e+00,3.862108469009399414e+00,3.984987974166870117e+00,4.115943431854248047e+00,4.255798816680908203e+00,4.405493259429931641e+00,4.566129207611083984e+00,4.738923549652099609e+00,4.925309658050537109e+00,5.000000000000000000e+00,5.000000000000000000e+00,5.000000000000000000e+00,5.000000000000000000e+00,5.000000000000000000e+00,5.000000000000000000e+00,5.000000000000000000e+00,5.000000000000000000e+00,5.000000000000000000e+00,5.000000000000000000e+00,5.000000000000000000e+00,5.000000000000000000e+00,5.000000000000000000e+00,5.000000000000000000e+00,5.000000000000000000e+00,5.000000000000000000e+00,5.000000000000000000e+00,5.000000000000000000e+00,5.000000000000000000e+00,5.000000000000000000e+00,5.000000000000000000e+00,5.000000000000000000e+00,5.000000000000000000e+00,5.000000000000000000e+00,5.000000000000000000e+00,5.000000000000000000e+00,5.000000000000000000e+00,5.000000000000000000e+00,5.000000000000000000e+00,5.000000000000000000e+00,5.000000000000000000e+00,5.000000000000000000e+00,5.000000000000000000e+00,5.000000000000000000e+00,5.000000000000000000e+00,2.594718933105468750e+00,2.600068330764770508e+00,2.588599205017089844e+00,2.564481735229492188e+00,2.552773714065551758e+00,2.540854692459106445e+00,2.492297172546386719e+00,2.462621450424194336e+00,2.471254110336303711e+00,2.623395204544067383e+00,2.608791112899780273e+00,5.000000000000000000e+00,5.000000000000000000e+00,5.000000000000000000e+00,5.000000000000000000e+00,5.000000000000000000e+00,5.000000000000000000e+00,5.000000000000000000e+00,5.000000000000000000e+00,4.845307350158691406e+00,4.686808109283447266e+00,4.538349628448486328e+00,4.399007320404052734e+00,4.267966747283935547e+00,4.144507408142089844e+00,4.027990341186523438e+00,3.917845249176025391e+00,3.813563585281372070e+00,3.714689254760742188e+00
3.097836494445800781e+00,3.176399946212768555e+00,3.259052276611328125e+00,3.346121072769165039e+00,3.437969207763671875e+00,3.535002470016479492e+00,3.637671947479248047e+00,3.746483564376831055e+00,3.862005949020385742e+00,3.984878540039062500e+00,4.115827083587646484e+00,4.255674362182617188e+00,4.405359268188476562e+00,4.565958976745605469e+00,4.738739490509033203e+00,4.925111293792724609e+00,5.000000000000000000e+00,5.000000000000000000e+00,5.000000000000000000e+00,5.000000000000000000e+00,5.000000000000000000e+00,5.000000000000000000e+00,5.000000000000000000e+00,5.000000000000000000e+00,5.000000000000000000e+00,5.000000000000000000e+00,5.000000000000000000e+00,5.000000000000000000e+00,5.000000000000000000e+00,5.000000000000000000e+00,5.000000000000000000e+00,5.000000000000000000e+00,5.000000000000000000e+00,5.000000000000000000e+00,5.000000000000000000e+00,5.000000000000000000e+00,5.000000000000000000e+00,5.000000000000000000e+00,5.000000000000000000e+00,5.000000000000000000e+00,5.000000000000000000e+00,5.000000000000000000e+00,5.000000000000000000e+00,5.000000000000000000e+00,5.000000000000000000e+00,5.000000000000000000e+00,5.000000000000000000e+00,5.000000000000000000e+00,5.000000000000000000e+00,5.000000000000000000e+00,5.000000000000000000e+00,2.553940534591674805e+00,2.603802919387817383e+00,2.584831476211547852e+00,2.560668706893920898e+00,2.565675973892211914e+00,2.492675065994262695e+00,2.452596902847290039e+00,2.440255165100097656e+00,2.451203346252441406e+00,2.623255968093872070e+00,2.598412275314331055e+00,5.000000000000000000e+00,5.000000000000000000e+00,5.000000000000000000e+00,5.000000000000000000e+00,5.000000000000000000e+00,5.000000000000000000e+00,5.000000000000000000e+00,5.000000000000000000e+00,4.845432758331298828e+00,4.686924934387207031e+00,4.538459300994873047e+00,4.399110794067382812e+00,4.268064022064208984e+00,4.144599437713623047e+00,4.028076648712158203e+00,3.917927026748657227e+00,3.813641309738159180e+00,3.714762926101684570e+00
3.097770452499389648e+00,3.176330566406250000e+00,3.258979320526123047e+00,3.346043825149536133e+00,3.437887907028198242e+00,3.534916400909423828e+00,3.637580871582031250e+00,3.746386766433715820e+00,3.861903190612792969e+00,3.984769344329833984e+00,4.115710735321044922e+00,4.255549430847167969e+00,4.405225753784179688e+00,4.565814495086669922e+00,4.738555908203125000e+00,4.924912929534912109e+00,5.000000000000000000e+00,5.000000000000000000e+00,5.000000000000000000e+00,5.000000000000000000e+00,5.000000000000000000e+00,5.000000000000000000e+00,5.000000000000000000e+00,5.000000000000000000e+00,5.000000000000000000e+00,5.000000000000000000e+00,5.000000000000000000e+00,5.000000000000000000e+00,5.000000000000000000e+00,5.000000000000000000e+00,5.000000000000000000e+00,5.000000000000000000e+00,5.000000000000000000e+00,5.000000000000000000e+00,5.000000000000000000e+00,5.000000000000000000e+00,5.000000000000000000e+00,5.000000000000000000e+00,5.000000000000000000e+00,5.000000000000000000e+00,5.000000000000000000e+00,5.000000000000000000e+00,5.000000000000000000e+00,5.000000000000000000e+00,5.000000000000000000e+00,5.000000000000000000e+00,5.000000000000000000e+00,5.000000000000000000e+00,5.000000000000000000e+00,5.000000000000000000e+00,5.000000000000000000e+00,2.527407646179199219e+00,5.000000000000000000e+00,2.576038122177124023e+00,2.552676916122436523e+00,2.560252189636230469e+00,2.477152585983276367e+00,2.438027858734130859e+00,2.425400495529174805e+00,2.436424732208251953e+00,5.000000000000000000e+00,2.607611894607543945e+00,5.000000000000000000e+00,5.000000000000000000e+00,5.000000000000000000e+00,5.000000000000000000e+00,5.000000000000000000e+00,5.000000000000000000e+00,5.000000000000000000e+00,5.000000000000000000e+00,4.845558166503906250e+00,4.687042713165283203e+00,4.538569450378417969e+00,4.399214267730712891e+00,4.268161773681640625e+00,4.144690990447998047e+00,4.028163433074951172e+00,3.918009281158447266e+00,3.813719272613525391e+00,3.714836835861206055e+00
3.097756385803222656e+00,3.176285505294799805e+00,3.258906364440917969e+00,3.345966815948486328e+00,3.437806844711303711e+00,3.534830570220947266e+00,3.637489795684814453e+00,3.746290683746337891e+00,3.861800432205200195e+00,3.984659910202026367e+00,4.115593910217285156e+00,4.255425453186035156e+00,4.405092239379882812e+00,4.565670967102050781e+00,4.738399505615234375e+00,4.924714088439941406e+00,5.000000000000000000e+00,5.000000000000000000e+00,5.000000000000000000e+00,5.000000000000000000e+00,5.000000000000000000e+00,5.000000000000000000e+00,5.000000000000000000e+00,5.000000000000000000e+00,5.000000000000000000e+00,5.000000000000000000e+00,5.000000000000000000e+00,5.000000000000000000e+00,5.000000000000000000e+00,5.000000000000000000e+00,5.000000000000000000e+00,5.000000000000000000e+00,5.000000000000000000e+00,5.000000000000000000e+00,5.000000000000000000e+00,5.000000000000000000e+00,5.000000000000000000e+00,5.000000000000000000e+00,5.000000000000000000e+00,5.000000000000000000e+00,5.000000000000000000e+00,5.000000000000000000e+00,5.000000000000000000e+00,5.000000000000000000e+00,5.000000000000000000e+00,5.000000000000000000e+00,5.000000000000000000e+00,5.000000000000000000e+00,5.000000000000000000e+00,5.000000000000000000e+00,2.539043903350830078e+00,2.485224246978759766e+00,2.670559644699096680e+00,2.579199075698852539e+00,2.552698612213134766e+00,2.559719324111938477e+00,2.463864803314208984e+00,2.425087213516235352e+00,2.411062002182006836e+00,2.424510717391967773e+00,2.596180438995361328e+00,2.586152791976928711e+00,5.000000000000000000e+00,5.000000000000000000e+00,5.000000000000000000e+00,5.000000000000000000e+00,5.000000000000000000e+00,5.000000000000000000e+00,5.000000000000000000e+00,5.000000000000000000e+00,4.845684051513671875e+00,4.687160015106201172e+00,4.538679599761962891e+00,4.399317741394042969e+00,4.268259048461914062e+00,4.144783020019531250e+00,4.028250217437744141e+00,3.918091297149658203e+00,3.813796758651733398e+00,3.714910507202148438e+00
3.097756385803222656e+00,3.176285505294799805e+00,3.258899927139282227e+00,3.345926761627197266e+00,3.437728643417358398e+00,3.534744501113891602e+00,3.637398719787597656e+00,3.746194124221801758e+00,3.861697912216186523e+00,3.984551191329956055e+00,4.115477561950683594e+00,4.255300521850585938e+00,4.404958724975585938e+00,4.565527915954589844e+00,4.738245010375976562e+00,4.924544811248779297e+00,5.000000000000000000e+00,5.000000000000000000e+00,5.000000000000000000e+00,5.000000000000000000e+00,5.000000000000000000e+00,5.000000000000000000e+00,5.000000000000000000e+00,5.000000000000000000e+00,5.000000000000000000e+00,5.000000000000000000e+00,5.000000000000000000e+00,5.000000000000000000e+00,5.000000000000000000e+00,5.000000000000000000e+00,5.000000000000000000e+00,5.000000000000000000e+00,5.000000000000000000e+00,5.000000000000000000e+00,5.000000000000000000e+00,5.000000000000000000e+00,5.000000000000000000e+00,5.000000000000000000e+00,5.000000000000000000e+00,5.000000000000000000e+00,5.000000000000000000e+00,5.000000000000000000e+00,5.000000000000000000e+00,5.000000000000000000e+00,5.000000000000000000e+00,5.000000000000000000e+00,5.000000000000000000e+00,5.000000000000000000e+00,5.000000000000000000e+00,5.000000000000000000e+00,2.477686882019042969e+00,5.000000000000000000e+00,5.000000000000000000e+00,2.585783004760742188e+00,2.559081315994262695e+00,2.565762042999267578e+00,2.450718641281127930e+00,2.409354209899902344e+00,2.397297620773315430e+00,2.412023544311523438e+00,2.583781242370605469e+00,2.576674699783325195e+00,5.000000000000000000e+00,5.000000000000000000e+00,5.000000000000000000e+00,5.000000000000000000e+00,5.000000000000000000e+00,5.000000000000000000e+00,5.000000000000000000e+00,5.000000000000000000e+00,4.845809459686279297e+00,4.687277793884277344e+00,4.538790225982666016e+00,4.399421215057373047e+00,4.268356323242187500e+00,4.144875049591064453e+00,4.028337001800537109e+00,3.918173551559448242e+00,3.813874959945678711e+00,3.714984655380249023e+00
3.097740411758422852e+00,3.176285505294799805e+00,3.258899927139282227e+00,3.345926761627197266e+00,3.437728643417358398e+00,3.534710645675659180e+00,3.637323379516601562e+00,3.746097326278686523e+00,3.861595153808593750e+00,3.984441757202148438e+00,4.115361213684082031e+00,4.255176067352294922e+00,4.404825210571289062e+00,4.565384387969970703e+00,4.738090991973876953e+00,4.924377918243408203e+00,5.000000000000000000e+00,5.000000000000000000e+00,5.000000000000000000e+00,5.000000000000000000e+00,5.000000000000000000e+00,5.000000000000000000e+00,5.000000000000000000e+00,5.000000000000000000e+00,5.000000000000000000e+00,5.000000000000000000e+00,5.000000000000000000e+00,5.000000000000000000e+00,5.000000000000000000e+00,5.000000000000000000e+00,5.000000000000000000e+00,5.000000000000000000e+00,5.000000000000000000e+00,5.000000000000000000e+00,5.000000000000000000e+00,5.000000000000000000e+00,5.000000000000000000e+00,5.000000000000000000e+00,5.000000000000000000e+00,5.000000000000000000e+00,5.000000000000000000e+00,5.000000000000000000e+00,5.000000000000000000e+00,5.000000000000000000e+00,5.000000000000000000e+00,5.000000000000000000e+00,5.000000000000000000e+00,5.000000000000000000e+00,5.000000000000000000e+00,5.000000000000000000e+00,2.524538516998291016e+00,5.000000000000000000e+00,5.000000000000000000e+00,2.593378305435180664e+00,2.566952228546142578e+00,2.571478128433227539e+00,2.434080600738525391e+00,2.395257234573364258e+00,2.379101037979125977e+00,2.441574096679687500e+00,5.000000000000000000e+00,2.566196203231811523e+00,5.000000000000000000e+00,5.000000000000000000e+00,5.000000000000000000e+00,5.000000000000000000e+00,5.000000000000000000e+00,5.000000000000000000e+00,5.000000000000000000e+00,5.000000000000000000e+00,4.845934867858886719e+00,4.687394618988037109e+00,4.538899898529052734e+00,4.399524688720703125e+00,4.268453598022460938e+00,4.144966602325439453e+00,4.028423786163330078e+00,3.918255567550659180e+00,3.813952445983886719e+00,3.715058088302612305e+00
3.097674369812011719e+00,3.176229953765869141e+00,3.258873462677001953e+00,3.345926761627197266e+00,3.437728643417358398e+00,3.534710645675659180e+00,3.637323379516601562e+00,3.746071577072143555e+00,3.861523151397705078e+00,3.984332561492919922e+00,4.115244388580322266e+00,4.255051612854003906e+00,4.404691696166992188e+00,4.565240859985351562e+00,4.737936496734619141e+00,4.924211502075195312e+00,5.000000000000000000e+00,5.000000000000000000e+00,5.000000000000000000e+00,5.000000000000000000e+00,5.000000000000000000e+00,5.000000000000000000e+00,5.000000000000000000e+00,5.000000000000000000e+00,5.000000000000000000e+00,5.000000000000000000e+00,5.000000000000000000e+00,5.000000000000000000e+00,5.000000000000000000e+00,5.000000000000000000e+00,5.000000000000000000e+00,5.000000000000000000e+00,5.000000000000000000e+00,5.000000000000000000e+00,5.000000000000000000e+00,5.000000000000000000e+00,5.000000000000000000e+00,5.000000000000000000e+00,5.000000000000000000e+00,5.000000000000000000e+00,5.000000000000000000e+00,5.000000000000000000e+00,5.000000000000000000e+00,5.000000000000000000e+00,5.000000000000000000e+00,5.000000000000000000e+00,5.000000000000000000e+00,5.000000000000000000e+00,5.000000000000000000e+00,5.000000000000000000e+00,5.000000000000000000e+00,5.000000000000000000e+00,5.000000000000000000e+00,2.602387905120849609e+00,2.573868751525878906e+00,2.577219486236572266e+00,2.422533750534057617e+00,2.378381490707397461e+00,2.361242294311523438e+00,5.000000000000000000e+00,5.000000000000000000e+00,5.000000000000000000e+00,5.000000000000000000e+00,5.000000000000000000e+00,5.000000000000000000e+00,5.000000000000000000e+00,5.000000000000000000e+00,5.000000000000000000e+00,5.000000000000000000e+00,5.000000000000000000e+00,4.846060752868652344e+00,4.687512397766113281e+00,4.539010047912597656e+00,4.399628162384033203e+00,4.268551349639892578e+00,4.145058631896972656e+00,4.028510570526123047e+00,3.918337345123291016e+00,3.814030170440673828e+00,3.715131759643554688e+00
3.097607851028442383e+00,3.176160097122192383e+00,3.258800268173217773e+00,3.345855474472045898e+00,3.437689304351806641e+00,3.534706354141235352e+00,3.637323379516601562e+00,3.746071577072143555e+00,3.861523151397705078e+00,3.984317064285278320e+00,4.115177154541015625e+00,4.254926681518554688e+00,4.404558181762695312e+00,4.565097332000732422e+00,4.737782001495361328e+00,4.924044609069824219e+00,5.000000000000000000e+00,5.000000000000000000e+00,5.000000000000000000e+00,5.000000000000000000e+00,5.000000000000000000e+00,5.000000000000000000e+00,5.000000000000000000e+00,5.000000000000000000e+00,5.000000000000000000e+00,5.000000000000000000e+00,5.000000000000000000e+00,5.000000000000000000e+00,5.000000000000000000e+00,5.000000000000000000e+00,5.000000000000000000e+00,5.000000000000000000e+00,5.000000000000000000e+00,5.000000000000000000e+00,5.000000000000000000e+00,5.000000000000000000e+00,5.000000000000000000e+00,5.000000000000000000e+00,5.000000000000000000e+00,5.000000000000000000e+00,5.000000000000000000e+00,5.000000000000000000e+00,5.000000000000000000e+00,5.000000000000000000e+00,5.000000000000000000e+00,5.000000000000000000e+00,5.000000000000000000e+00,5.000000000000000000e+00,5.000000000000000000e+00,5.000000000000000000e+00,5.000000000000000000e+00,5.000000000000000000e+00,5.000000000000000000e+00,2.606577873229980469e+00,2.580318927764892578e+00,2.581635951995849609e+00,2.410131454467773438e+00,2.364348173141479492e+00,2.351691246032714844e+00,5.000000000000000000e+00,5.000000000000000000e+00,5.000000000000000000e+00,5.000000000000000000e+00,5.000000000000000000e+00,5.000000000000000000e+00,5.000000000000000000e+00,5.000000000000000000e+00,5.000000000000000000e+00,5.000000000000000000e+00,5.000000000000000000e+00,4.846186161041259766e+00,4.687629699707031250e+00,4.539120197296142578e+00,4.399731636047363281e+00,4.268648624420166016e+00,4.145150661468505859e+00,4.028597354888916016e+00,3.918419837951660156e+00,3.814108133316040039e+00,3.715205907821655273e+00
3.097541809082031250e+00,3.176090717315673828e+00,3.258726835250854492e+00,3.345777988433837891e+00,3.437607526779174805e+00,3.534620523452758789e+00,3.637267827987670898e+00,3.746055126190185547e+00,3.861523151397705078e+00,3.984317064285278320e+00,4.115177154541015625e+00,4.254925251007080078e+00,4.404498100280761719e+00,4.564970016479492188e+00,4.737627506256103516e+00,4.923877716064453125e+00,5.000000000000000000e+00,5.000000000000000000e+00,5.000000000000000000e+00,5.000000000000000000e+00,5.000000000000000000e+00,5.000000000000000000e+00,5.000000000000000000e+00,5.000000000000000000e+00,5.000000000000000000e+00,5.000000000000000000e+00,5.000000000000000000e+00,5.000000000000000000e+00,5.000000000000000000e+00,5.000000000000000000e+00,5.000000000000000000e+00,5.000000000000000000e+00,5.000000000000000000e+00,5.000000000000000000e+00,5.000000000000000000e+00,5.000000000000000000e+00,5.000000000000000000e+00,5.000000000000000000e+00,5.000000000000000000e+00,5.000000000000000000e+00,5.000000000000000000e+00,5.000000000000000000e+00,5.000000000000000000e+00,5.000000000000000000e+00,5.000000000000000000e+00,5.000000000000000000e+00,5.000000000000000000e+00,5.000000000000000000e+00,5.000000000000000000e+00,5.000000000000000000e+00,5.000000000000000000e+00,5.000000000000000000e+00,5.000000000000000000e+00,2.613861083984375000e+00,2.586843967437744141e+00,2.587736845016479492e+00,2.410485744476318359e+00,2.364001512527465820e+00,2.356894254684448242e+00,5.000000000000000000e+00,5.000000000000000000e+00,5.000000000000000000e+00,5.000000000000000000e+00,5.000000000000000000e+00,5.000000000000000000e+00,5.000000000000000000e+00,5.000000000000000000e+00,5.000000000000000000e+00,5.000000000000000000e+00,5.000000000000000000e+00,4.846311569213867188e+00,4.687747001647949219e+00,4.539230346679687500e+00,4.399834632873535156e+00,4.268745899200439453e+00,4.145242214202880859e+00,4.028684139251708984e+00,3.918501615524291992e+00,3.814187526702880859e+00,3.715284824371337891e+00
3.097475528717041016e+00,3.176020860671997070e+00,3.258653640747070312e+00,3.345700979232788086e+00,3.437526226043701172e+00,3.534533977508544922e+00,3.637176275253295898e+00,3.745958566665649414e+00,3.861448049545288086e+00,3.984285354614257812e+00,4.115177154541015625e+00,4.254925251007080078e+00,4.404498100280761719e+00,4.564970016479492188e+00,4.737577915191650391e+00,4.923751354217529297e+00,5.000000000000000000e+00,5.000000000000000000e+00,5.000000000000000000e+00,5.000000000000000000e+00,5.000000000000000000e+00,5.000000000000000000e+00,5.000000000000000000e+00,5.000000000000000000e+00,5.000000000000000000e+00,5.000000000000000000e+00,5.000000000000000000e+00,5.000000000000000000e+00,5.000000000000000000e+00,5.000000000000000000e+00,5.000000000000000000e+00,5.000000000000000000e+00,5.000000000000000000e+00,5.000000000000000000e+00,5.000000000000000000e+00,5.000000000000000000e+00,5.000000000000000000e+00,5.000000000000000000e+00,5.000000000000000000e+00,5.000000000000000000e+00,5.000000000000000000e+00,5.000000000000000000e+00,5.000000000000000000e+00,5.000000000000000000e+00,5.000000000000000000e+00,5.000000000000000000e+00,5.000000000000000000e+00,5.000000000000000000e+00,5.000000000000000000e+00,5.000000000000000000e+00,5.000000000000000000e+00,5.000000000000000000e+00,5.000000000000000000e+00,2.625530481338500977e+00,2.591044425964355469e+00,2.596930742263793945e+00,2.431670904159545898e+00,2.377180337905883789e+00,2.378278493881225586e+00,5.000000000000000000e+00,5.000000000000000000e+00,5.000000000000000000e+00,5.000000000000000000e+00,5.000000000000000000e+00,5.000000000000000000e+00,5.000000000000000000e+00,5.000000000000000000e+00,5.000000000000000000e+00,5.000000000000000000e+00,5.000000000000000000e+00,4.846436977386474609e+00,4.687864780426025391e+00,4.539340496063232422e+00,4.399938583374023438e+00,4.268843173980712891e+00,4.145334243774414062e+00,4.028774738311767578e+00,3.918591737747192383e+00,3.814275026321411133e+00,3.715368032455444336e+00
3.097409486770629883e+00,3.175951480865478516e+00,3.258580207824707031e+00,3.345623493194580078e+00,3.437444448471069336e+00,3.534448146820068359e+00,3.637085199356079102e+00,3.745861530303955078e+00,3.861345052719116211e+00,3.984175443649291992e+00,4.115077495574951172e+00,4.254873275756835938e+00,4.404498100280761719e+00,4.564970016479492188e+00,4.737577915191650391e+00,4.923751354217529297e+00,5.000000000000000000e+00,5.000000000000000000e+00,5.000000000000000000e+00,5.000000000000000000e+00,5.000000000000000000e+00,5.000000000000000000e+00,5.000000000000000000e+00,5.000000000000000000e+00,5.000000000000000000e+00,5.000000000000000000e+00,5.000000000000000000e+00,5.000000000000000000e+00,5.000000000000000000e+00,5.000000000000000000e+00,5.000000000000000000e+00,5.000000000000000000e+00,5.000000000000000000e+00,5.000000000000000000e+00,5.000000000000000000e+00,5.000000000000000000e+00,5.000000000000000000e+00,5.000000000000000000e+00,5.000000000000000000e+00,5.000000000000000000e+00,5.000000000000000000e+00,5.000000000000000000e+00,5.000000000000000000e+00,5.000000000000000000e+00,5.000000000000000000e+00,5.000000000000000000e+00,5.000000000000000000e+00,5.000000000000000000e+00,5.000000000000000000e+00,5.000000000000000000e+00,5.000000000000000000e+00,5.000000000000000000e+00,5.000000000000000000e+00,5.000000000000000000e+00,2.604882240295410156e+00,2.614981889724731445e+00,2.456229686737060547e+00,2.392528772354125977e+00,2.391944408416748047e+00,5.000000000000000000e+00,5.000000000000000000e+00,5.000000000000000000e+00,5.000000000000000000e+00,5.000000000000000000e+00,5.000000000000000000e+00,5.000000000000000000e+00,5.000000000000000000e+00,5.000000000000000000e+00,5.000000000000000000e+00,5.000000000000000000e+00,4.846562862396240234e+00,4.687982082366943359e+00,4.539450645446777344e+00,4.400044441223144531e+00,4.268948078155517578e+00,4.145437240600585938e+00,4.028872966766357422e+00,3.918684244155883789e+00,3.814362525939941406e+00,3.715451002120971680e+00
3.097343206405639648e+00,3.175881624221801758e+00,3.258507251739501953e+00,3.345546483993530273e+00,3.437363147735595703e+00,3.534361600875854492e+00,3.636993885040283203e+00,3.745764493942260742e+00,3.861242294311523438e+00,3.984066247940063477e+00,4.114960670471191406e+00,4.254748821258544922e+00,4.404367446899414062e+00,4.564893245697021484e+00,4.737562179565429688e+00,4.923751354217529297e+00,5.000000000000000000e+00,5.000000000000000000e+00,5.000000000000000000e+00,5.000000000000000000e+00,5.000000000000000000e+00,5.000000000000000000e+00,5.000000000000000000e+00,5.000000000000000000e+00,5.000000000000000000e+00,5.000000000000000000e+00,5.000000000000000000e+00,5.000000000000000000e+00,5.000000000000000000e+00,5.000000000000000000e+00,5.000000000000000000e+00,5.000000000000000000e+00,5.000000000000000000e+00,5.000000000000000000e+00,5.000000000000000000e+00,5.000000000000000000e+00,5.000000000000000000e+00,5.000000000000000000e+00,5.000000000000000000e+00,5.000000000000000000e+00,5.000000000000000000e+00,5.000000000000000000e+00,5.000000000000000000e+00,5.000000000000000000e+00,5.000000000000000000e+00,5.000000000000000000e+00,5.000000000000000000e+00,5.000000000000000000e+00,5.000000000000000000e+00,5.000000000000000000e+00,5.000000000000000000e+00,5.000000000000000000e+00,5.000000000000000000e+00,2.799941539764404297e+00,2.657965660095214844e+00,2.688972234725952148e+00,2.463745832443237305e+00,2.407688617706298828e+00,2.402223110198974609e+00,5.000000000000000000e+00,5.000000000000000000e+00,5.000000000000000000e+00,5.000000000000000000e+00,5.000000000000000000e+00,5.000000000000000000e+00,5.000000000000000000e+00,5.000000000000000000e+00,5.000000000000000000e+00,5.000000000000000000e+00,5.000000000000000000e+00,4.846688270568847656e+00,4.688105583190917969e+00,4.539572238922119141e+00,4.400161266326904297e+00,4.269057750701904297e+00,4.145540714263916016e+00,4.028970718383789062e+00,3.918777227401733398e+00,3.814450502395629883e+00,3.715534448623657227e+00
3.097277164459228516e+00,3.175812244415283203e+00,3.258433818817138672e+00,3.345468997955322266e+00,3.437281370162963867e+00,3.534275770187377930e+00,3.636902809143066406e+00,3.745667934417724609e+00,3.861139297485351562e+00,3.983956575393676758e+00,4.114843845367431641e+00,4.254623889923095703e+00,4.404233932495117188e+00,4.564749240875244141e+00,4.737407684326171875e+00,4.923640727996826172e+00,5.000000000000000000e+00,5.000000000000000000e+00,5.000000000000000000e+00,5.000000000000000000e+00,5.000000000000000000e+00,5.000000000000000000e+00,5.000000000000000000e+00,5.000000000000000000e+00,5.000000000000000000e+00,5.000000000000000000e+00,5.000000000000000000e+00,5.000000000000000000e+00,5.000000000000000000e+00,5.000000000000000000e+00,5.000000000000000000e+00,5.000000000000000000e+00,5.000000000000000000e+00,5.000000000000000000e+00,5.000000000000000000e+00,5.000000000000000000e+00,5.000000000000000000e+00,5.000000000000000000e+00,5.000000000000000000e+00,5.000000000000000000e+00,5.000000000000000000e+00,5.000000000000000000e+00,5.000000000000000000e+00,5.000000000000000000e+00,5.000000000000000000e+00,5.000000000000000000e+00,5.000000000000000000e+00,5.000000000000000000e+00,5.000000000000000000e+00,5.000000000000000000e+00,5.000000000000000000e+00,5.000000000000000000e+00,5.000000000000000000e+00,5.000000000000000000e+00,2.746564626693725586e+00,2.764305830001831055e+00,2.457915306091308594e+00,2.408529281616210938e+00,2.403422355651855469e+00,5.000000000000000000e+00,5.000000000000000000e+00,5.000000000000000000e+00,5.000000000000000000e+00,5.000000000000000000e+00,5.000000000000000000e+00,5.000000000000000000e+00,5.000000000000000000e+00,5.000000000000000000e+00,5.000000000000000000e+00,5.000000000000000000e+00,4.846829891204833984e+00,4.688238143920898438e+00,4.539696216583251953e+00,4.400278091430664062e+00,4.269167900085449219e+00,4.145644664764404297e+00,4.029068470001220703e+00,3.918869733810424805e+00,3.814538240432739258e+00,3.715617656707763672e+00
3.097210884094238281e+00,3.175742626190185547e+00,3.258360624313354492e+00,3.345391988754272461e+00,3.437200069427490234e+00,3.534189224243164062e+00,3.636811256408691406e+00,3.745570898056030273e+00,3.861036777496337891e+00,3.983847141265869141e+00,4.114727020263671875e+00,4.254498958587646484e+00,4.404099941253662109e+00,4.564605712890625000e+00,4.737252712249755859e+00,4.923473358154296875e+00,5.000000000000000000e+00,5.000000000000000000e+00,5.000000000000000000e+00,5.000000000000000000e+00,5.000000000000000000e+00,5.000000000000000000e+00,5.000000000000000000e+00,5.000000000000000000e+00,5.000000000000000000e+00,5.000000000000000000e+00,5.000000000000000000e+00,5.000000000000000000e+00,5.000000000000000000e+00,5.000000000000000000e+00,5.000000000000000000e+00,5.000000000000000000e+00,5.000000000000000000e+00,5.000000000000000000e+00,5.000000000000000000e+00,5.000000000000000000e+00,5.000000000000000000e+00,5.000000000000000000e+00,5.000000000000000000e+00,5.000000000000000000e+00,5.000000000000000000e+00,5.000000000000000000e+00,5.000000000000000000e+00,5.000000000000000000e+00,5.000000000000000000e+00,5.000000000000000000e+00,5.000000000000000000e+00,5.000000000000000000e+00,5.000000000000000000e+00,5.000000000000000000e+00,5.000000000000000000e+00,5.000000000000000000e+00,5.000000000000000000e+00,5.000000000000000000e+00,2.805757761001586914e+00,2.814723253250122070e+00,2.455622196197509766e+00,2.409241676330566406e+00,2.408785581588745117e+00,5.000000000000000000e+00,5.000000000000000000e+00,5.000000000000000000e+00,5.000000000000000000e+00,5.000000000000000000e+00,5.000000000000000000e+00,5.000000000000000000e+00,5.000000000000000000e+00,5.000000000000000000e+00,5.000000000000000000e+00,5.000000000000000000e+00,4.846971511840820312e+00,4.688370704650878906e+00,4.539820671081542969e+00,4.400394439697265625e+00,4.269278049468994141e+00,4.145748138427734375e+00,4.029166698455810547e+00,3.918962001800537109e+00,3.814625740051269531e+00,3.715700864791870117e+00
3.097144842147827148e+00,3.175673246383666992e+00,3.258287429809570312e+00,3.345314741134643555e+00,3.437118530273437500e+00,3.534103393554687500e+00,3.636720180511474609e+00,3.745474338531494141e+00,3.860933542251586914e+00,3.983737468719482422e+00,4.114610195159912109e+00,4.254374027252197266e+00,4.403965950012207031e+00,4.564462184906005859e+00,4.737097740173339844e+00,4.923305988311767578e+00,5.000000000000000000e+00,5.000000000000000000e+00,5.000000000000000000e+00,5.000000000000000000e+00,5.000000000000000000e+00,5.000000000000000000e+00,5.000000000000000000e+00,5.000000000000000000e+00,5.000000000000000000e+00,5.000000000000000000e+00,5.000000000000000000e+00,5.000000000000000000e+00,5.000000000000000000e+00,5.000000000000000000e+00,5.000000000000000000e+00,5.000000000000000000e+00,5.000000000000000000e+00,5.000000000000000000e+00,5.000000000000000000e+00,5.000000000000000000e+00,5.000000000000000000e+00,5.000000000000000000e+00,5.000000000000000000e+00,5.000000000000000000e+00,5.000000000000000000e+00,5.000000000000000000e+00,5.000000000000000000e+00,5.000000000000000000e+00,5.000000000000000000e+00,5.000000000000000000e+00,5.000000000000000000e+00,5.000000000000000000e+00,5.000000000000000000e+00,5.000000000000000000e+00,5.000000000000000000e+00,5.000000000000000000e+00,5.000000000000000000e+00,5.000000000000000000e+00,2.888535976409912109e+00,2.870326757431030273e+00,2.456784486770629883e+00,2.409055233001708984e+00,2.419397592544555664e+00,5.000000000000000000e+00,5.000000000000000000e+00,5.000000000000000000e+00,5.000000000000000000e+00,5.000000000000000000e+00,5.000000000000000000e+00,5.000000000000000000e+00,5.000000000000000000e+00,5.000000000000000000e+00,5.000000000000000000e+00,5.000000000000000000e+00,4.847113132476806641e+00,4.688503265380859375e+00,4.539944648742675781e+00,4.400511264801025391e+00,4.269387722015380859e+00,4.145851612091064453e+00,4.029264450073242188e+00,3.919054985046386719e+00,3.814713954925537109e+00,3.715784311294555664e+00
3.097078561782836914e+00,3.175603389739990234e+00,3.258214235305786133e+00,3.345237493515014648e+00,3.437037229537963867e+00,3.534017086029052734e+00,3.636628866195678711e+00,3.745377302169799805e+00,3.860831022262573242e+00,3.983628273010253906e+00,4.114493370056152344e+00,4.254249095916748047e+00,4.403832435607910156e+00,4.564318180084228516e+00,4.736943244934082031e+00,4.923139095306396484e+00,5.000000000000000000e+00,5.000000000000000000e+00,5.000000000000000000e+00,5.000000000000000000e+00,5.000000000000000000e+00,5.000000000000000000e+00,5.000000000000000000e+00,5.000000000000000000e+00,5.000000000000000000e+00,5.000000000000000000e+00,5.000000000000000000e+00,5.000000000000000000e+00,5.000000000000000000e+00,5.000000000000000000e+00,5.000000000000000000e+00,5.000000000000000000e+00,5.000000000000000000e+00,5.000000000000000000e+00,5.000000000000000000e+00,5.000000000000000000e+00,5.000000000000000000e+00,5.000000000000000000e+00,5.000000000000000000e+00,5.000000000000000000e+00,5.000000000000000000e+00,5.000000000000000000e+00,5.000000000000000000e+00,5.000000000000000000e+00,5.000000000000000000e+00,5.000000000000000000e+00,5.000000000000000000e+00,5.000000000000000000e+00,5.000000000000000000e+00,5.000000000000000000e+00,5.000000000000000000e+00,5.000000000000000000e+00,5.000000000000000000e+00,5.000000000000000000e+00,5.000000000000000000e+00,2.931674242019653320e+00,2.464261770248413086e+00,2.410068273544311523e+00,2.432386636734008789e+00,5.000000000000000000e+00,5.000000000000000000e+00,5.000000000000000000e+00,5.000000000000000000e+00,5.000000000000000000e+00,5.000000000000000000e+00,5.000000000000000000e+00,5.000000000000000000e+00,5.000000000000000000e+00,5.000000000000000000e+00,5.000000000000000000e+00,4.847254753112792969e+00,4.688635826110839844e+00,4.540069103240966797e+00,4.400628089904785156e+00,4.269497394561767578e+00,4.145955562591552734e+00,4.029362201690673828e+00,3.919147491455078125e+00,3.814801454544067383e+00,3.715867519378662109e+00
3.097012519836425781e+00,3.175534009933471680e+00,3.258140802383422852e+00,3.345160245895385742e+00,3.436955451965332031e+00,3.533931016921997070e+00,3.636537790298461914e+00,3.745280742645263672e+00,3.860728025436401367e+00,3.983518600463867188e+00,4.114377021789550781e+00,4.254124164581298828e+00,4.403698444366455078e+00,4.564174652099609375e+00,4.736788272857666016e+00,4.922971248626708984e+00,5.000000000000000000e+00,5.000000000000000000e+00,5.000000000000000000e+00,5.000000000000000000e+00,5.000000000000000000e+00,5.000000000000000000e+00,5.000000000000000000e+00,5.000000000000000000e+00,5.000000000000000000e+00,5.000000000000000000e+00,5.000000000000000000e+00,5.000000000000000000e+00,5.000000000000000000e+00,5.000000000000000000e+00,5.000000000000000000e+00,5.000000000000000000e+00,5.000000000000000000e+00,5.000000000000000000e+00,5.000000000000000000e+00,5.000000000000000000e+00,5.000000000000000000e+00,5.000000000000000000e+00,5.000000000000000000e+00,5.000000000000000000e+00,5.000000000000000000e+00,5.000000000000000000e+00,5.000000000000000000e+00,5.000000000000000000e+00,5.000000000000000000e+00,5.000000000000000000e+00,5.000000000000000000e+00,5.000000000000000000e+00,5.000000000000000000e+00,5.000000000000000000e+00,5.000000000000000000e+00,5.000000000000000000e+00,5.000000000000000000e+00,5.000000000000000000e+00,5.000000000000000000e+00,2.970813989639282227e+00,2.471778869628906250e+00,2.414940595626831055e+00,2.445559501647949219e+00,5.000000000000000000e+00,5.000000000000000000e+00,5.000000000000000000e+00,5.000000000000000000e+00,5.000000000000000000e+00,5.000000000000000000e+00,5.000000000000000000e+00,5.000000000000000000e+00,5.000000000000000000e+00,5.000000000000000000e+00,5.000000000000000000e+00,4.847396850585937500e+00,4.688768386840820312e+00,4.540193557739257812e+00,4.400744915008544922e+00,4.269607543945312500e+00,4.146059513092041016e+00,4.029459953308105469e+00,3.919239997863769531e+00,3.814889192581176758e+00,3.715950965881347656e+00
3.096946001052856445e+00,3.175464153289794922e+00,3.258067846298217773e+00,3.345083236694335938e+00,3.436874151229858398e+00,3.533844709396362305e+00,3.636446237564086914e+00,3.745183706283569336e+00,3.860625267028808594e+00,3.983409404754638672e+00,4.114260196685791016e+00,4.253999233245849609e+00,4.403564453125000000e+00,4.564030647277832031e+00,4.736633300781250000e+00,4.855170249938964844e+00,4.853967666625976562e+00,4.852766036987304688e+00,4.851564884185791016e+00,4.850364208221435547e+00,4.849164009094238281e+00,4.847964763641357422e+00,4.846765995025634766e+00,4.845567703247070312e+00,4.844369888305664062e+00,4.843172550201416016e+00,4.841976165771484375e+00,4.840780258178710938e+00,4.839584827423095703e+00,4.838390350341796875e+00,4.837196350097656250e+00,4.836002826690673828e+00,4.834809780120849609e+00,4.833617210388183594e+00,4.832425594329833984e+00,4.831234455108642578e+00,4.830043792724609375e+00,4.828853607177734375e+00,4.827664375305175781e+00,4.826475620269775391e+00,4.825287342071533203e+00,4.824099540710449219e+00,4.822912693023681641e+00,4.821725845336914062e+00,4.820539951324462891e+00,4.819355010986328125e+00,4.818170070648193359e+00,4.816986083984375000e+00,4.815802097320556641e+00,4.814619064331054688e+00,4.813436985015869141e+00,4.812254905700683594e+00,4.811073780059814453e+00,4.809893131256103516e+00,3.019001007080078125e+00,2.977517127990722656e+00,2.479011774063110352e+00,2.422087430953979492e+00,2.458899974822998047e+00,4.802821159362792969e+00,4.801644325256347656e+00,4.800468444824218750e+00,4.799293041229248047e+00,4.798118114471435547e+00,4.796943187713623047e+00,4.795769691467285156e+00,4.794596195220947266e+00,4.793423652648925781e+00,4.792251586914062500e+00,4.791080474853515625e+00,4.789909362792968750e+00,4.688900947570800781e+00,4.540317535400390625e+00,4.400861740112304688e+00,4.269717216491699219e+00,4.146162986755371094e+00,4.029558181762695312e+00,3.919332981109619141e+00,3.814977169036865234e+00,3.716034173965454102e+00
3.096879959106445312e+00,3.175394773483276367e+00,3.257994413375854492e+00,3.345005750656127930e+00,3.436792373657226562e+00,3.533758640289306641e+00,3.636355161666870117e+00,3.745087385177612305e+00,3.771281719207763672e+00,3.770556211471557617e+00,3.769830942153930664e+00,3.769105911254882812e+00,3.768381118774414062e+00,3.767656803131103516e+00,3.766932725906372070e+00,3.766208887100219727e+00,3.765485286712646484e+00,3.764762163162231445e+00,3.764039039611816406e+00,3.763316154479980469e+00,3.762593746185302734e+00,3.761871576309204102e+00,3.761149644851684570e+00,3.760428190231323242e+00,3.759706735610961914e+00,3.758985757827758789e+00,3.758265018463134766e+00,3.757544517517089844e+00,3.756824254989624023e+00,3.756104230880737305e+00,3.755384445190429688e+00,3.754665136337280273e+00,3.753945827484130859e+00,3.753226995468139648e+00,3.752508401870727539e+00,3.751790046691894531e+00,3.751072168350219727e+00,3.750354290008544922e+00,3.749636888504028320e+00,3.748919725418090820e+00,3.748202800750732422e+00,3.747486114501953125e+00,3.746769666671752930e+00,3.746053457260131836e+00,3.745337724685668945e+00,3.744621992111206055e+00,3.743906736373901367e+00,3.743191719055175781e+00,3.742476940155029297e+00,3.741762638092041016e+00,3.741047859191894531e+00,3.740334033966064453e+00,3.739620447158813477e+00,3.738907098770141602e+00,3.738193988800048828e+00,2.971606254577636719e+00,3.736768484115600586e+00,2.434144020080566406e+00,3.735344171524047852e+00,3.734632492065429688e+00,3.733920812606811523e+00,3.733209609985351562e+00,3.732498645782470703e+00,3.731788158416748047e+00,3.731077671051025391e+00,3.730367660522460938e+00,3.729657649993896484e+00,3.728948116302490234e+00,3.728238821029663086e+00,3.727529764175415039e+00,3.726820945739746094e+00,3.726112365722656250e+00,3.725404024124145508e+00,3.724696159362792969e+00,3.723988533020019531e+00,3.723280906677246094e+00,3.722573757171630859e+00,3.721866846084594727e+00,3.721160173416137695e+00,3.716117143630981445e+00
3.083501338958740234e+00,3.083016157150268555e+00,3.082531452178955078e+00,3.082046508789062500e+00,3.081562042236328125e+00,3.081077575683593750e+00,3.080593347549438477e+00,3.080109119415283203e+00,3.079625129699707031e+00,3.079141378402709961e+00,3.078657865524291992e+00,3.078174352645874023e+00,3.077690839767456055e+00,3.077207565307617188e+00,3.076724529266357422e+00,3.076241731643676758e+00,3.075758934020996094e+00,3.075276374816894531e+00,3.074793815612792969e+00,3.074311494827270508e+00,3.073829412460327148e+00,3.073347330093383789e+00,3.072865486145019531e+00,3.072383880615234375e+00,3.071902275085449219e+00,3.071420907974243164e+00,3.070939779281616211e+00,3.070458650588989258e+00,3.069977521896362305e+00,3.069496870040893555e+00,3.069016218185424805e+00,3.068535804748535156e+00,3.068055391311645508e+00,3.067575216293334961e+00,3.067095041275024414e+00,3.066615343093872070e+00,3.066135168075561523e+00,3.065655708312988281e+00,3.065176248550415039e+00,3.064697027206420898e+00,3.064217805862426758e+00,3.063738822937011719e+00,3.063260078430175781e+00,3.062781333923339844e+00,3.062302827835083008e+00,3.061824321746826172e+00,3.061346292495727539e+00,3.060868024826049805e+00,3.060390233993530273e+00,3.059912443161010742e+00,3.059434652328491211e+00,3.058957099914550781e+00,3.058479785919189453e+00,3.058002710342407227e+00,3.057525634765625000e+00,3.057048797607421875e+00,2.388625144958496094e+00,2.394334554672241211e+00,3.055618762969970703e+00,3.055142641067504883e+00,3.054666519165039062e+00,3.054190397262573242e+00,3.053714513778686523e+00,3.053238868713378906e+00,3.052763223648071289e+00,3.052287817001342773e+00,3.051812648773193359e+00,3.051337480545043945e+00,3.050862550735473633e+00,3.050387620925903320e+00,3.049912929534912109e+00,3.049438476562500000e+00,3.048964023590087891e+00,3.048489809036254883e+00,3.048015832901000977e+00,3.047541856765747070e+00,3.047068119049072266e+00,3.046594381332397461e+00,3.046120882034301758e+00,3.045647621154785156e+00
2.605118989944458008e+00,2.604772806167602539e+00,2.604426383972167969e+00,2.604080438613891602e+00,2.603734493255615234e+00,2.603388547897338867e+00,2.603042840957641602e+00,2.602697134017944336e+00,2.602351665496826172e+00,2.602005958557128906e+00,2.601660728454589844e+00,2.601315259933471680e+00,2.600970268249511719e+00,2.600625038146972656e+00,2.600280046463012695e+00,2.599935054779052734e+00,2.599590301513671875e+00,2.599245548248291016e+00,2.598900794982910156e+00,2.598556280136108398e+00,2.598211765289306641e+00,2.597867250442504883e+00,2.597522974014282227e+00,2.597178697586059570e+00,2.596834659576416016e+00,2.596490621566772461e+00,2.596146583557128906e+00,2.595802783966064453e+00,2.595458984375000000e+00,2.595115423202514648e+00,2.594771862030029297e+00,2.594428300857543945e+00,2.594084978103637695e+00,2.593741655349731445e+00,2.593398332595825195e+00,2.593055248260498047e+00,2.592712402343750000e+00,2.592369318008422852e+00,2.592026472091674805e+00,2.591683864593505859e+00,2.591341018676757812e+00,2.590998649597167969e+00,2.590656042098999023e+00,2.590313673019409180e+00,2.589971303939819336e+00,2.589629173278808594e+00,2.589287042617797852e+00,2.588945150375366211e+00,2.588603019714355469e+00,2.588261365890502930e+00,2.587919473648071289e+00,2.587577819824218750e+00,2.587236404418945312e+00,2.586894750595092773e+00,2.586553335189819336e+00,2.586212158203125000e+00,2.321338415145874023e+00,2.327254533767700195e+00,2.585188865661621094e+00,2.584847927093505859e+00,2.584506988525390625e+00,2.584166288375854492e+00,2.583825588226318359e+00,2.583485126495361328e+00,2.583144426345825195e+00,2.582804203033447266e+00,2.582463741302490234e+00,2.582123517990112305e+00,2.581783533096313477e+00,2.581443309783935547e+00,2.581103324890136719e+00,2.580763578414916992e+00,2.580423831939697266e+00,2.580084085464477539e+00,2.579744577407836914e+00,2.579405069351196289e+00,2.579065561294555664e+00,2.578726291656494141e+00,2.578387022018432617e+00,2.578047752380371094e+00
2.255235671997070312e+00,2.254976272583007812e+00,2.254716873168945312e+00,2.254457473754882812e+00,2.254198312759399414e+00,2.253938913345336914e+00,2.253679752349853516e+00,2.253420591354370117e+00,2.253161430358886719e+00,2.252902507781982422e+00,2.252643585205078125e+00,2.252384662628173828e+00,2.252125740051269531e+00,2.251867055892944336e+00,2.251608371734619141e+00,2.251349687576293945e+00,2.251091003417968750e+00,2.250832557678222656e+00,2.250574111938476562e+00,2.250315666198730469e+00,2.250057458877563477e+00,2.249799013137817383e+00,2.249540805816650391e+00,2.249282836914062500e+00,2.249024629592895508e+00,2.248766660690307617e+00,2.248508691787719727e+00,2.248250722885131836e+00,2.247992753982543945e+00,2.247735023498535156e+00,2.247477293014526367e+00,2.247219562530517578e+00,2.246961832046508789e+00,2.246704339981079102e+00,2.246446847915649414e+00,2.246189355850219727e+00,2.245932102203369141e+00,2.245674610137939453e+00,2.245417356491088867e+00,2.245160102844238281e+00,2.244903087615966797e+00,2.244645833969116211e+00,2.244388818740844727e+00,2.244131803512573242e+00,2.243875026702880859e+00,2.243618011474609375e+00,2.243361234664916992e+00,2.243104457855224609e+00,2.242847919464111328e+00,2.242591142654418945e+00,2.242334604263305664e+00,2.242078065872192383e+00,2.241821765899658203e+00,2.241565227508544922e+00,2.241308927536010742e+00,2.241052627563476562e+00,2.240796566009521484e+00,2.240540266036987305e+00,2.240284204483032227e+00,2.240028142929077148e+00,2.239772081375122070e+00,2.239516258239746094e+00,2.239260435104370117e+00,2.239004611968994141e+00,2.238748788833618164e+00,2.238493204116821289e+00,2.238237619400024414e+00,2.237982034683227539e+00,2.237726449966430664e+00,2.237470865249633789e+00,2.237215518951416016e+00,2.236960172653198242e+00,2.236705064773559570e+00,2.236449718475341797e+00,2.236194610595703125e+00,2.235939502716064453e+00,2.235684394836425781e+00,2.235429286956787109e+00,2.235174417495727539e+00,2.234919548034667969e+00
1.988207340240478516e+00,1.988005757331848145e+00,1.987804055213928223e+00,1.987602472305297852e+00,1.987401008605957031e+00,1.987199425697326660e+00,1.986997961997985840e+00,1.986796617507934570e+00,1.986595273017883301e+00,1.986393928527832031e+00,1.986192584037780762e+00,1.985991358757019043e+00,1.985790133476257324e+00,1.985588908195495605e+00,1.985387802124023438e+00,1.985186696052551270e+00,1.984985470771789551e+00,1.984784483909606934e+00,1.984583497047424316e+00,1.984382510185241699e+00,1.984181642532348633e+00,1.983980774879455566e+00,1.983780026435852051e+00,1.983579158782958984e+00,1.983378529548645020e+00,1.983177781105041504e+00,1.982977151870727539e+00,1.982776522636413574e+00,1.982576012611389160e+00,1.982375502586364746e+00,1.982174992561340332e+00,1.981974601745605469e+00,1.981774091720581055e+00,1.981573820114135742e+00,1.981373429298400879e+00,1.981173157691955566e+00,1.980972886085510254e+00,1.980772733688354492e+00,1.980572581291198730e+00,1.980372428894042969e+00,1.980172395706176758e+00,1.979972362518310547e+00,1.979772329330444336e+00,1.979572415351867676e+00,1.979372382164001465e+00,1.979172587394714355e+00,1.978972673416137695e+00,1.978772878646850586e+00,1.978573203086853027e+00,1.978373408317565918e+00,1.978173732757568359e+00,1.977974176406860352e+00,1.977774500846862793e+00,1.977574944496154785e+00,1.977375388145446777e+00,1.977175951004028320e+00,1.976976513862609863e+00,1.976777195930480957e+00,1.976577758789062500e+00,1.976378440856933594e+00,1.976179242134094238e+00,1.975979924201965332e+00,1.975780725479125977e+00,1.975581645965576172e+00,1.975382447242736816e+00,1.975183367729187012e+00,1.974984407424926758e+00,1.974785327911376953e+00,1.974586367607116699e+00,1.974387526512145996e+00,1.974188685417175293e+00,1.973989844322204590e+00,1.973791003227233887e+00,1.973592281341552734e+00,1.973393559455871582e+00,1.973194837570190430e+00,1.972996234893798828e+00,1.972797632217407227e+00,1.972599029541015625e+00,1.972400546073913574e+00
1.777719020843505859e+00,1.777557730674743652e+00,1.777396559715270996e+00,1.777235388755798340e+00,1.777074217796325684e+00,1.776913166046142578e+00,1.776752114295959473e+00,1.776591062545776367e+00,1.776430010795593262e+00,1.776269078254699707e+00,1.776108026504516602e+00,1.775947093963623047e+00,1.775786161422729492e+00,1.775625348091125488e+00,1.775464296340942383e+00,1.775303483009338379e+00,1.775142669677734375e+00,1.774981975555419922e+00,1.774821162223815918e+00,1.774660468101501465e+00,1.774499773979187012e+00,1.774339199066162109e+00,1.774178624153137207e+00,1.774017930030822754e+00,1.773857474327087402e+00,1.773696899414062500e+00,1.773536443710327148e+00,1.773375868797302246e+00,1.773215532302856445e+00,1.773055076599121094e+00,1.772894620895385742e+00,1.772734284400939941e+00,1.772573947906494141e+00,1.772413730621337891e+00,1.772253394126892090e+00,1.772093176841735840e+00,1.771932959556579590e+00,1.771772742271423340e+00,1.771612644195556641e+00,1.771452546119689941e+00,1.771292448043823242e+00,1.771132349967956543e+00,1.770972371101379395e+00,1.770812273025512695e+00,1.770652294158935547e+00,1.770492315292358398e+00,1.770332455635070801e+00,1.770172595977783203e+00,1.770012736320495605e+00,1.769852876663208008e+00,1.769693017005920410e+00,1.769533276557922363e+00,1.769373536109924316e+00,1.769213795661926270e+00,1.769054055213928223e+00,1.768894433975219727e+00,1.768734812736511230e+00,1.768575191497802734e+00,1.768415689468383789e+00,1.768256068229675293e+00,1.768096566200256348e+00,1.767937064170837402e+00,1.767777681350708008e+00,1.767618179321289062e+00,1.767458796501159668e+00,1.767299413681030273e+00,1.767140030860900879e+00,1.766980767250061035e+00,1.766821503639221191e+00,1.766662240028381348e+00,1.766502976417541504e+00,1.766343832015991211e+00,1.766184568405151367e+00,1.766025543212890625e+00,1.765866398811340332e+00,1.765707254409790039e+00,1.765548229217529297e+00,1.765389204025268555e+00,1.765230298042297363e+00,1.765071272850036621e+00
1.607531905174255371e+00,1.607400059700012207e+00,1.607268333435058594e+00,1.607136487960815430e+00,1.607004761695861816e+00,1.606873035430908203e+00,1.606741309165954590e+00,1.606609582901000977e+00,1.606477856636047363e+00,1.606346249580383301e+00,1.606214523315429688e+00,1.606082916259765625e+00,1.605951309204101562e+00,1.605819702148437500e+00,1.605688214302062988e+00,1.605556726455688477e+00,1.605425119400024414e+00,1.605293631553649902e+00,1.605162143707275391e+00,1.605030775070190430e+00,1.604899287223815918e+00,1.604767918586730957e+00,1.604636549949645996e+00,1.604505062103271484e+00,1.604373693466186523e+00,1.604242324829101562e+00,1.604111075401306152e+00,1.603979825973510742e+00,1.603848576545715332e+00,1.603717327117919922e+00,1.603586077690124512e+00,1.603454828262329102e+00,1.603323698043823242e+00,1.603192567825317383e+00,1.603061437606811523e+00,1.602930307388305664e+00,1.602799296379089355e+00,1.602668166160583496e+00,1.602537155151367188e+00,1.602406144142150879e+00,1.602275133132934570e+00,1.602144122123718262e+00,1.602013230323791504e+00,1.601882219314575195e+00,1.601751327514648438e+00,1.601620435714721680e+00,1.601489543914794922e+00,1.601358771324157715e+00,1.601227879524230957e+00,1.601097106933593750e+00,1.600966334342956543e+00,1.600835561752319336e+00,1.600704789161682129e+00,1.600574135780334473e+00,1.600443482398986816e+00,1.600312709808349609e+00,1.600182056427001953e+00,1.600051522254943848e+00,1.599920868873596191e+00,1.599790215492248535e+00,1.599659681320190430e+00,1.599529147148132324e+00,1.599398612976074219e+00,1.599268078804016113e+00,1.599137544631958008e+00,1.599007129669189453e+00,1.598876714706420898e+00,1.598746299743652344e+00,1.598615884780883789e+00,1.598485469818115234e+00,1.598355174064636230e+00,1.598224759101867676e+00,1.598094463348388672e+00,1.597964167594909668e+00,1.597833871841430664e+00,1.597703695297241211e+00,1.597573399543762207e+00,1.597443222999572754e+00,1.597313046455383301e+00,1.597182869911193848e+00
1.467083215713500977e+00,1.466973423957824707e+00,1.466863632202148438e+00,1.466753840446472168e+00,1.466644167900085449e+00,1.466534376144409180e+00,1.466424703598022461e+00,1.466314911842346191e+00,1.466205239295959473e+00,1.466095566749572754e+00,1.465985894203186035e+00,1.465876221656799316e+00,1.465766668319702148e+00,1.465656995773315430e+00,1.465547442436218262e+00,1.465437889099121094e+00,1.465328335762023926e+00,1.465218782424926758e+00,1.465109229087829590e+00,1.464999675750732422e+00,1.464890241622924805e+00,1.464780688285827637e+00,1.464671134948730469e+00,1.464561700820922852e+00,1.464452266693115234e+00,1.464342832565307617e+00,1.464233398437500000e+00,1.464124083518981934e+00,1.464014649391174316e+00,1.463905334472656250e+00,1.463796019554138184e+00,1.463686704635620117e+00,1.463577389717102051e+00,1.463468074798583984e+00,1.463358879089355469e+00,1.463249564170837402e+00,1.463140368461608887e+00,1.463031172752380371e+00,1.462921977043151855e+00,1.462812781333923340e+00,1.462703585624694824e+00,1.462594389915466309e+00,1.462485313415527344e+00,1.462376236915588379e+00,1.462267041206359863e+00,1.462157964706420898e+00,1.462048888206481934e+00,1.461939811706542969e+00,1.461830854415893555e+00,1.461721777915954590e+00,1.461612820625305176e+00,1.461503863334655762e+00,1.461394906044006348e+00,1.461285948753356934e+00,1.461176991462707520e+00,1.461068034172058105e+00,1.460959076881408691e+00,1.460850238800048828e+00,1.460741400718688965e+00,1.460632443428039551e+00,1.460523605346679688e+00,1.460414767265319824e+00,1.460306048393249512e+00,1.460197210311889648e+00,1.460088372230529785e+00,1.459979534149169922e+00,1.459870815277099609e+00,1.459762096405029297e+00,1.459653377532958984e+00,1.459544658660888672e+00,1.459435939788818359e+00,1.459327340126037598e+00,1.459218621253967285e+00,1.459110021591186523e+00,1.459001421928405762e+00,1.458892822265625000e+00,1.458784222602844238e+00,1.458675622940063477e+00,1.458567142486572266e+00,1.458458542823791504e+00
1.349204301834106445e+00,1.349111437797546387e+00,1.349018573760986328e+00,1.348925709724426270e+00,1.348832845687866211e+00,1.348739981651306152e+00,1.348647236824035645e+00,1.348554372787475586e+00,1.348461627960205078e+00,1.348368883132934570e+00,1.348276138305664062e+00,1.348183393478393555e+00,1.348090648651123047e+00,1.347997903823852539e+00,1.347905278205871582e+00,1.347812533378601074e+00,1.347719907760620117e+00,1.347627162933349609e+00,1.347534537315368652e+00,1.347441911697387695e+00,1.347349286079406738e+00,1.347256660461425781e+00,1.347164034843444824e+00,1.347071528434753418e+00,1.346978902816772461e+00,1.346886396408081055e+00,1.346793770790100098e+00,1.346701264381408691e+00,1.346608757972717285e+00,1.346516251564025879e+00,1.346423745155334473e+00,1.346331119537353516e+00,1.346238613128662109e+00,1.346146225929260254e+00,1.346053719520568848e+00,1.345961332321166992e+00,1.345868825912475586e+00,1.345776438713073730e+00,1.345684051513671875e+00,1.345591664314270020e+00,1.345499277114868164e+00,1.345406889915466309e+00,1.345314621925354004e+00,1.345222234725952148e+00,1.345129966735839844e+00,1.345037579536437988e+00,1.344945311546325684e+00,1.344853043556213379e+00,1.344760775566101074e+00,1.344668507575988770e+00,1.344576239585876465e+00,1.344483971595764160e+00,1.344391822814941406e+00,1.344299554824829102e+00,1.344207406044006348e+00,1.344115257263183594e+00,1.344022989273071289e+00,1.343930840492248535e+00,1.343838691711425781e+00,1.343746542930603027e+00,1.343654513359069824e+00,1.343562364578247070e+00,1.343470215797424316e+00,1.343378186225891113e+00,1.343286156654357910e+00,1.343194007873535156e+00,1.343101978302001953e+00,1.343009948730468750e+00,1.342917919158935547e+00,1.342825889587402344e+00,1.342733979225158691e+00,1.342641949653625488e+00,1.342550039291381836e+00,1.342458009719848633e+00,1.342366099357604980e+00,1.342274188995361328e+00,1.342182278633117676e+00,1.342090368270874023e+00,1.341998457908630371e+00,1.341906547546386719e+00
1.248859524726867676e+00,1.248779892921447754e+00,1.248700380325317383e+00,1.248620867729187012e+00,1.248541235923767090e+00,1.248461723327636719e+00,1.248382210731506348e+00,1.248302698135375977e+00,1.248223185539245605e+00,1.248143792152404785e+00,1.248064279556274414e+00,1.247984766960144043e+00,1.247905373573303223e+00,1.247825860977172852e+00,1.247746467590332031e+00,1.247666954994201660e+00,1.247587561607360840e+00,1.247508168220520020e+00,1.247428774833679199e+00,1.247349381446838379e+00,1.247269988059997559e+00,1.247190594673156738e+00,1.247111320495605469e+00,1.247031927108764648e+00,1.246952652931213379e+00,1.246873259544372559e+00,1.246793985366821289e+00,1.246714591979980469e+00,1.246635317802429199e+00,1.246556043624877930e+00,1.246476650238037109e+00,1.246397376060485840e+00,1.246318101882934570e+00,1.246238946914672852e+00,1.246159672737121582e+00,1.246080398559570312e+00,1.246001124382019043e+00,1.245921969413757324e+00,1.245842695236206055e+00,1.245763540267944336e+00,1.245684385299682617e+00,1.245605230331420898e+00,1.245526075363159180e+00,1.245446920394897461e+00,1.245367765426635742e+00,1.245288610458374023e+00,1.245209574699401855e+00,1.245130419731140137e+00,1.245051264762878418e+00,1.244972229003906250e+00,1.244893193244934082e+00,1.244814038276672363e+00,1.244735002517700195e+00,1.244655966758728027e+00,1.244576930999755859e+00,1.244497895240783691e+00,1.244418859481811523e+00,1.244339942932128906e+00,1.244260907173156738e+00,1.244181871414184570e+00,1.244102954864501953e+00,1.244024038314819336e+00,1.243945002555847168e+00,1.243866086006164551e+00,1.243787169456481934e+00,1.243708252906799316e+00,1.243629336357116699e+00,1.243550419807434082e+00,1.243471503257751465e+00,1.243392586708068848e+00,1.243313789367675781e+00,1.243234872817993164e+00,1.243156075477600098e+00,1.243077158927917480e+00,1.242998361587524414e+00,1.242919564247131348e+00,1.242840766906738281e+00,1.242761969566345215e+00,1.242683172225952148e+00,1.242604374885559082e+00
1.162407517433166504e+00,1.162338495254516602e+00,1.162269473075866699e+00,1.162200570106506348e+00,1.162131667137145996e+00,1.162062764167785645e+00,1.161993861198425293e+00,1.161924958229064941e+00,1.161856174468994141e+00,1.161787271499633789e+00,1.161718368530273438e+00,1.161649584770202637e+00,1.161580681800842285e+00,1.161511898040771484e+00,1.161442995071411133e+00,1.161374211311340332e+00,1.161305427551269531e+00,1.161236524581909180e+00,1.161167740821838379e+00,1.161098957061767578e+00,1.161030173301696777e+00,1.160961389541625977e+00,1.160892724990844727e+00,1.160823941230773926e+00,1.160755157470703125e+00,1.160686373710632324e+00,1.160617709159851074e+00,1.160548925399780273e+00,1.160480260848999023e+00,1.160411596298217773e+00,1.160342812538146973e+00,1.160274147987365723e+00,1.160205483436584473e+00,1.160136818885803223e+00,1.160068154335021973e+00,1.159999489784240723e+00,1.159930825233459473e+00,1.159862160682678223e+00,1.159793496131896973e+00,1.159724831581115723e+00,1.159656167030334473e+00,1.159587621688842773e+00,1.159518957138061523e+00,1.159450411796569824e+00,1.159381866455078125e+00,1.159313201904296875e+00,1.159244656562805176e+00,1.159176111221313477e+00,1.159107565879821777e+00,1.159039020538330078e+00,1.158970475196838379e+00,1.158901929855346680e+00,1.158833384513854980e+00,1.158764839172363281e+00,1.158696413040161133e+00,1.158627867698669434e+00,1.158559441566467285e+00,1.158490896224975586e+00,1.158422470092773438e+00,1.158354043960571289e+00,1.158285498619079590e+00,1.158217072486877441e+00,1.158148646354675293e+00,1.158080220222473145e+00,1.158011794090270996e+00,1.157943367958068848e+00,1.157874941825866699e+00,1.157806634902954102e+00,1.157738208770751953e+00,1.157669782638549805e+00,1.157601475715637207e+00,1.157533049583435059e+00,1.157464742660522461e+00,1.157396316528320312e+00,1.157328009605407715e+00,1.157259702682495117e+00,1.157191395759582520e+00,1.157123088836669922e+00,1.157054781913757324e+00,1.156986474990844727e+00
1.087149620056152344e+00,1.087089300155639648e+00,1.087029099464416504e+00,1.086968779563903809e+00,1.086908459663391113e+00,1.086848258972167969e+00,1.086787939071655273e+00,1.086727738380432129e+00,1.086667418479919434e+00,1.086607217788696289e+00,1.086546897888183594e+00,1.086486697196960449e+00,1.086426496505737305e+00,1.086366295814514160e+00,1.086306095123291016e+00,1.086245894432067871e+00,1.086185693740844727e+00,1.086125493049621582e+00,1.086065292358398438e+00,1.086005091667175293e+00,1.085944890975952148e+00,1.085884809494018555e+00,1.085824608802795410e+00,1.085764408111572266e+00,1.085704326629638672e+00,1.085644125938415527e+00,1.085584044456481934e+00,1.085523962974548340e+00,1.085463762283325195e+00,1.085403680801391602e+00,1.085343599319458008e+00,1.085283517837524414e+00,1.085223436355590820e+00,1.085163354873657227e+00,1.085103273391723633e+00,1.085043191909790039e+00,1.084983110427856445e+00,1.084923028945922852e+00,1.084862947463989258e+00,1.084802865982055664e+00,1.084742784500122070e+00,1.084682822227478027e+00,1.084622740745544434e+00,1.084562659263610840e+00,1.084502696990966797e+00,1.084442615509033203e+00,1.084382653236389160e+00,1.084322690963745117e+00,1.084262728691101074e+00,1.084202766418457031e+00,1.084142804145812988e+00,1.084082841873168945e+00,1.084022879600524902e+00,1.083962917327880859e+00,1.083902955055236816e+00,1.083842992782592773e+00,1.083783030509948730e+00,1.083723187446594238e+00,1.083663225173950195e+00,1.083603262901306152e+00,1.083543419837951660e+00,1.083483457565307617e+00,1.083423614501953125e+00,1.083363771438598633e+00,1.083303809165954590e+00,1.083243966102600098e+00,1.083184123039245605e+00,1.083124279975891113e+00,1.083064436912536621e+00,1.083004593849182129e+00,1.082944750785827637e+00,1.082884907722473145e+00,1.082825064659118652e+00,1.082765221595764160e+00,1.082705378532409668e+00,1.082645535469055176e+00,1.082585811614990234e+00,1.082525968551635742e+00,1.082466244697570801e+00,1.082406401634216309e+00
1.021044135093688965e+00,1.020990967750549316e+00,1.020937800407409668e+00,1.020884633064270020e+00,1.020831465721130371e+00,1.020778298377990723e+00,1.020725131034851074e+00,1.020671963691711426e+00,1.020618796348571777e+00,1.020565629005432129e+00,1.020512461662292480e+00,1.020459294319152832e+00,1.020406246185302734e+00,1.020353078842163086e+00,1.020300030708312988e+00,1.020246863365173340e+00,1.020193815231323242e+00,1.020140647888183594e+00,1.020087599754333496e+00,1.020034432411193848e+00,1.019981384277343750e+00,1.019928336143493652e+00,1.019875288009643555e+00,1.019822239875793457e+00,1.019769072532653809e+00,1.019716024398803711e+00,1.019662976264953613e+00,1.019609928131103516e+00,1.019556879997253418e+00,1.019503951072692871e+00,1.019450902938842773e+00,1.019397854804992676e+00,1.019344806671142578e+00,1.019291877746582031e+00,1.019238829612731934e+00,1.019185781478881836e+00,1.019132852554321289e+00,1.019079804420471191e+00,1.019026875495910645e+00,1.018973827362060547e+00,1.018920898437500000e+00,1.018867969512939453e+00,1.018814921379089355e+00,1.018761992454528809e+00,1.018709063529968262e+00,1.018656134605407715e+00,1.018603086471557617e+00,1.018550157546997070e+00,1.018497228622436523e+00,1.018444299697875977e+00,1.018391370773315430e+00,1.018338441848754883e+00,1.018285632133483887e+00,1.018232703208923340e+00,1.018179774284362793e+00,1.018126845359802246e+00,1.018074035644531250e+00,1.018021106719970703e+00,1.017968297004699707e+00,1.017915368080139160e+00,1.017862558364868164e+00,1.017809629440307617e+00,1.017756819725036621e+00,1.017704010009765625e+00,1.017651081085205078e+00,1.017598271369934082e+00,1.017545461654663086e+00,1.017492651939392090e+00,1.017439842224121094e+00,1.017387032508850098e+00,1.017334222793579102e+00,1.017281413078308105e+00,1.017228603363037109e+00,1.017175793647766113e+00,1.017122983932495117e+00,1.017070293426513672e+00,1.017017483711242676e+00,1.016964673995971680e+00,1.016911983489990234e+00,1.016859173774719238e+00
9.625171422958374023e-01,9.624698758125305176e-01,9.624226093292236328e-01,9.623753428459167480e-01,9.623280763626098633e-01,9.622808098793029785e-01,9.622336030006408691e-01,9.621863365173339844e-01,9.621391296386718750e-01,9.620918631553649902e-01,9.620446562767028809e-01,9.619974493980407715e-01,9.619502425193786621e-01,9.619030356407165527e-01,9.618558287620544434e-01,9.618086218833923340e-01,9.617614150047302246e-01,9.617142081260681152e-01,9.616670608520507812e-01,9.616198539733886719e-01,9.615727066993713379e-01,9.615254998207092285e-01,9.614783525466918945e-01,9.614312052726745605e-01,9.613839983940124512e-01,9.613368511199951172e-01,9.612897038459777832e-01,9.612425565719604492e-01,9.611954092979431152e-01,9.611483216285705566e-01,9.611011743545532227e-01,9.610540270805358887e-01,9.610069394111633301e-01,9.609597921371459961e-01,9.609127044677734375e-01,9.608655571937561035e-01,9.608184695243835449e-01,9.607713818550109863e-01,9.607242941856384277e-01,9.606772065162658691e-01,9.606301188468933105e-01,9.605830311775207520e-01,9.605359435081481934e-01,9.604888558387756348e-01,9.604418277740478516e-01,9.603947401046752930e-01,9.603477120399475098e-01,9.603006243705749512e-01,9.602535963058471680e-01,9.602064490318298340e-01,9.601593613624572754e-01,9.601123332977294922e-01,9.600653052330017090e-01,9.600182771682739258e-01,9.599712491035461426e-01,9.599242806434631348e-01,9.598772525787353516e-01,9.598302245140075684e-01,9.597832560539245605e-01,9.597362279891967773e-01,9.596892595291137695e-01,9.596422314643859863e-01,9.595952630043029785e-01,9.595482945442199707e-01,9.595013260841369629e-01,9.594543576240539551e-01,9.594073891639709473e-01,9.593604207038879395e-01,9.593134522438049316e-01,9.592664837837219238e-01,9.592195749282836914e-01,9.591726064682006836e-01,9.591256976127624512e-01,9.590787291526794434e-01,9.590318202972412109e-01,9.589849114418029785e-01,9.589379429817199707e-01,9.588910341262817383e-01,9.588441252708435059e-01,9.587972164154052734e-01
9.103360176086425781e-01,9.102937579154968262e-01,9.102514386177062988e-01,9.102091789245605469e-01,9.101669192314147949e-01,9.101246595382690430e-01,9.100823998451232910e-01,9.100401401519775391e-01,9.099978804588317871e-01,9.099556207656860352e-01,9.099133610725402832e-01,9.098711609840393066e-01,9.098289012908935547e-01,9.097867012023925781e-01,9.097444415092468262e-01,9.097022414207458496e-01,9.096599817276000977e-01,9.096177816390991211e-01,9.095754623413085938e-01,9.095332622528076172e-01,9.094910621643066406e-01,9.094488620758056641e-01,9.094066619873046875e-01,9.093644618988037109e-01,9.093222618103027344e-01,9.092800617218017578e-01,9.092379212379455566e-01,9.091957211494445801e-01,9.091535806655883789e-01,9.091113805770874023e-01,9.090692400932312012e-01,9.090270400047302246e-01,9.089848995208740234e-01,9.089427590370178223e-01,9.089005589485168457e-01,9.088584184646606445e-01,9.088162779808044434e-01,9.087741374969482422e-01,9.087319970130920410e-01,9.086899161338806152e-01,9.086477756500244141e-01,9.086056351661682129e-01,9.085634946823120117e-01,9.085214138031005859e-01,9.084792733192443848e-01,9.084371924400329590e-01,9.083951115608215332e-01,9.083529710769653320e-01,9.083108901977539062e-01,9.082688093185424805e-01,9.082267284393310547e-01,9.081846475601196289e-01,9.081425666809082031e-01,9.081004858016967773e-01,9.080584049224853516e-01,9.080163240432739258e-01,9.079742431640625000e-01,9.079322218894958496e-01,9.078901410102844238e-01,9.078481197357177734e-01,9.078060388565063477e-01,9.077640175819396973e-01,9.077219367027282715e-01,9.076799154281616211e-01,9.076378941535949707e-01,9.075958728790283203e-01,9.075538516044616699e-01,9.075118303298950195e-01,9.074698090553283691e-01,9.074277877807617188e-01,9.073857665061950684e-01,9.073437452316284180e-01,9.073017835617065430e-01,9.072597622871398926e-01,9.072177410125732422e-01,9.071757793426513672e-01,9.071338176727294922e-01,9.070917963981628418e-01,9.070497155189514160e-01,9.070077538490295410e-01
8.635216951370239258e-01,8.634836673736572266e-01,8.634455800056457520e-01,8.634075522422790527e-01,8.633695244789123535e-01,8.633314967155456543e-01,8.632934689521789551e-01,8.632554411888122559e-01,8.632174134254455566e-01,8.631793856620788574e-01,8.631414175033569336e-01,8.631033897399902344e-01,8.630653619766235352e-01,8.630273938179016113e-01,8.629893660545349121e-01,8.629513978958129883e-01,8.629133701324462891e-01,8.628754019737243652e-01,8.628374338150024414e-01,8.627994060516357422e-01,8.627614378929138184e-01,8.627234697341918945e-01,8.626855015754699707e-01,8.626475334167480469e-01,8.626095652580261230e-01,8.625715970993041992e-01,8.625336289405822754e-01,8.624956607818603516e-01,8.624577522277832031e-01,8.624197840690612793e-01,8.623818159103393555e-01,8.623439073562622070e-01,8.623059391975402832e-01,8.622680306434631348e-01,8.622300624847412109e-01,8.621921539306640625e-01,8.621542453765869141e-01,8.621162772178649902e-01,8.620783686637878418e-01,8.620404601097106934e-01,8.620025515556335449e-01,8.619646430015563965e-01,8.619267344474792480e-01,8.618888258934020996e-01,8.618509173393249512e-01,8.618130087852478027e-01,8.617751598358154297e-01,8.617372512817382812e-01,8.616993427276611328e-01,8.616614937782287598e-01,8.616235852241516113e-01,8.615857362747192383e-01,8.615478277206420898e-01,8.615099787712097168e-01,8.614720106124877930e-01,8.614341616630554199e-01,8.613963127136230469e-01,8.613584637641906738e-01,8.613206148147583008e-01,8.612827658653259277e-01,8.612449169158935547e-01,8.612070679664611816e-01,8.611692190170288086e-01,8.611313700675964355e-01,8.610935211181640625e-01,8.610557317733764648e-01,8.610178828239440918e-01,8.609800338745117188e-01,8.609422445297241211e-01,8.609043955802917480e-01,8.608666062355041504e-01,8.608288168907165527e-01,8.607909679412841797e-01,8.607531785964965820e-01,8.607153892517089844e-01,8.606775999069213867e-01,8.606398105621337891e-01,8.606020212173461914e-01,8.605642318725585938e-01,8.605264425277709961e-01
8.212867379188537598e-01,8.212523460388183594e-01,8.212178945541381836e-01,8.211835026741027832e-01,8.211491107940673828e-01,8.211147189140319824e-01,8.210803270339965820e-01,8.210459351539611816e-01,8.210114836692810059e-01,8.209771513938903809e-01,8.209427595138549805e-01,8.209083676338195801e-01,8.208739757537841797e-01,8.208395838737487793e-01,8.208051919937133789e-01,8.207708597183227539e-01,8.207364678382873535e-01,8.207021355628967285e-01,8.206677436828613281e-01,8.206334114074707031e-01,8.205990195274353027e-01,8.205646872520446777e-01,8.205303549766540527e-01,8.204959630966186523e-01,8.204616308212280273e-01,8.204272985458374023e-01,8.203929662704467773e-01,8.203586339950561523e-01,8.203243017196655273e-01,8.202899694442749023e-01,8.202556371688842773e-01,8.202213048934936523e-01,8.201869726181030273e-01,8.201526403427124023e-01,8.201183080673217773e-01,8.200840353965759277e-01,8.200497031211853027e-01,8.200153708457946777e-01,8.199810981750488281e-01,8.199467658996582031e-01,8.199124932289123535e-01,8.198781609535217285e-01,8.198438882827758789e-01,8.198096156120300293e-01,8.197752833366394043e-01,8.197410106658935547e-01,8.197067379951477051e-01,8.196724653244018555e-01,8.196381926536560059e-01,8.196039199829101562e-01,8.195696473121643066e-01,8.195353746414184570e-01,8.195011019706726074e-01,8.194668292999267578e-01,8.194325566291809082e-01,8.193982839584350586e-01,8.193640708923339844e-01,8.193297982215881348e-01,8.192955255508422852e-01,8.192613124847412109e-01,8.192269802093505859e-01,8.191927075386047363e-01,8.191584944725036621e-01,8.191242814064025879e-01,8.190900087356567383e-01,8.190557956695556641e-01,8.190215826034545898e-01,8.189873695373535156e-01,8.189531564712524414e-01,8.189188838005065918e-01,8.188846707344055176e-01,8.188504576683044434e-01,8.188162446022033691e-01,8.187820911407470703e-01,8.187478780746459961e-01,8.187136650085449219e-01,8.186794519424438477e-01,8.186452388763427734e-01,8.186110854148864746e-01,8.185768723487854004e-01
7.829905748367309570e-01,7.829593420028686523e-01,7.829280495643615723e-01,7.828967571258544922e-01,7.828655242919921875e-01,7.828342318534851074e-01,7.828029394149780273e-01,7.827717065811157227e-01,7.827404141426086426e-01,7.827091813087463379e-01,7.826779484748840332e-01,7.826466560363769531e-01,7.826154232025146484e-01,7.825841903686523438e-01,7.825528979301452637e-01,7.825216650962829590e-01,7.824904322624206543e-01,7.824591994285583496e-01,7.824279665946960449e-01,7.823967337608337402e-01,7.823655009269714355e-01,7.823342680931091309e-01,7.823030352592468262e-01,7.822718024253845215e-01,7.822405695915222168e-01,7.822093963623046875e-01,7.821781635284423828e-01,7.821469306945800781e-01,7.821156978607177734e-01,7.820845246315002441e-01,7.820532917976379395e-01,7.820221185684204102e-01,7.819908857345581055e-01,7.819597125053405762e-01,7.819284796714782715e-01,7.818973064422607422e-01,7.818661332130432129e-01,7.818349599838256836e-01,7.818037271499633789e-01,7.817725539207458496e-01,7.817413806915283203e-01,7.817102074623107910e-01,7.816790342330932617e-01,7.816478610038757324e-01,7.816166877746582031e-01,7.815855145454406738e-01,7.815543413162231445e-01,7.815231680870056152e-01,7.814919948577880859e-01,7.814608812332153320e-01,7.814297080039978027e-01,7.813985347747802734e-01,7.813673615455627441e-01,7.813362479209899902e-01,7.813050746917724609e-01,7.812739610671997070e-01,7.812427878379821777e-01,7.812116742134094238e-01,7.811805009841918945e-01,7.811493873596191406e-01,7.811182737350463867e-01,7.810871601104736328e-01,7.810559868812561035e-01,7.810248732566833496e-01,7.809937000274658203e-01,7.809625864028930664e-01,7.809314727783203125e-01,7.809003591537475586e-01,7.808692455291748047e-01,7.808381319046020508e-01,7.808070182800292969e-01,7.807759046554565430e-01,7.807447910308837891e-01,7.807136774063110352e-01,7.806826233863830566e-01,7.806515097618103027e-01,7.806203961372375488e-01,7.805893421173095703e-01,7.805582284927368164e-01,7.805271744728088379e-01
7.481068372726440430e-01,7.480782866477966309e-01,7.480497360229492188e-01,7.480211853981018066e-01,7.479926347732543945e-01,7.479640841484069824e-01,7.479355335235595703e-01,7.479070425033569336e-01,7.478784918785095215e-01,7.478499412536621094e-01,7.478213906288146973e-01,7.477928996086120605e-01,7.477643489837646484e-01,7.477357983589172363e-01,7.477073073387145996e-01,7.476787567138671875e-01,7.476502656936645508e-01,7.476217150688171387e-01,7.475932240486145020e-01,7.475646734237670898e-01,7.475361824035644531e-01,7.475076913833618164e-01,7.474791407585144043e-01,7.474506497383117676e-01,7.474221587181091309e-01,7.473936676979064941e-01,7.473651766777038574e-01,7.473366856575012207e-01,7.473081350326538086e-01,7.472796440124511719e-01,7.472511529922485352e-01,7.472226619720458984e-01,7.471942305564880371e-01,7.471657395362854004e-01,7.471371889114379883e-01,7.471086978912353516e-01,7.470802068710327148e-01,7.470517158508300781e-01,7.470232844352722168e-01,7.469947934150695801e-01,7.469663023948669434e-01,7.469378709793090820e-01,7.469093799591064453e-01,7.468809485435485840e-01,7.468524575233459473e-01,7.468240261077880859e-01,7.467955350875854492e-01,7.467671036720275879e-01,7.467386722564697266e-01,7.467101812362670898e-01,7.466817498207092285e-01,7.466533184051513672e-01,7.466248869895935059e-01,7.465963959693908691e-01,7.465679645538330078e-01,7.465395331382751465e-01,7.465111017227172852e-01,7.464826703071594238e-01,7.464542388916015625e-01,7.464258074760437012e-01,7.463973760604858398e-01,7.463689446449279785e-01,7.463405728340148926e-01,7.463121414184570312e-01,7.462837100028991699e-01,7.462552785873413086e-01,7.462269067764282227e-01,7.461984753608703613e-01,7.461699843406677246e-01,7.461416125297546387e-01,7.461131811141967773e-01,7.460847496986389160e-01,7.460563778877258301e-01,7.460280060768127441e-01,7.459995746612548828e-01,7.459712028503417969e-01,7.459428310394287109e-01,7.459143996238708496e-01,7.458860278129577637e-01,7.458576560020446777e-01
