1.934507608413696289e+00,1.961248993873596191e+00,1.988740205764770508e+00,2.017013072967529297e+00,2.046101331710815430e+00,2.076040983200073242e+00,2.106869935989379883e+00,2.138628005981445312e+00,2.171358585357666016e+00,2.205106258392333984e+00,2.239919424057006836e+00,2.275849580764770508e+00,2.312951326370239258e+00,2.351282596588134766e+00,2.390905857086181641e+00,2.431887388229370117e+00,2.474298715591430664e+00,2.518215179443359375e+00,2.563718795776367188e+00,2.610897302627563477e+00,2.659844636917114258e+00,2.710662364959716797e+00,2.763459682464599609e+00,2.818354368209838867e+00,2.875478744506835938e+00,2.934975385665893555e+00,2.996985673904418945e+00,3.061673402786254883e+00,3.129214763641357422e+00,3.199803590774536133e+00,3.273650407791137695e+00,3.350986242294311523e+00,3.432064771652221680e+00,3.517163753509521484e+00,3.606590032577514648e+00,3.700682401657104492e+00,3.799816131591796875e+00,3.904407262802124023e+00,4.014918804168701172e+00,4.131868839263916016e+00,4.255836486816406250e+00,5.000000000000000000e+00,5.000000000000000000e+00,5.000000000000000000e+00,5.000000000000000000e+00,5.000000000000000000e+00,5.000000000000000000e+00,5.000000000000000000e+00,5.000000000000000000e+00,5.000000000000000000e+00,5.000000000000000000e+00,5.000000000000000000e+00,5.000000000000000000e+00,5.000000000000000000e+00,5.000000000000000000e+00,5.000000000000000000e+00,5.000000000000000000e+00,5.000000000000000000e+00,5.000000000000000000e+00,5.000000000000000000e+00,5.000000000000000000e+00,5.000000000000000000e+00,5.000000000000000000e+00,5.000000000000000000e+00,5.000000000000000000e+00,5.000000000000000000e+00,5.000000000000000000e+00,5.000000000000000000e+00,5.000000000000000000e+00,5.000000000000000000e+00,5.000000000000000000e+00,5.000000000000000000e+00,5.000000000000000000e+00,5.000000000000000000e+00,5.000000000000000000e+00,5.000000000000000000e+00,5.000000000000000000e+00,5.000000000000000000e+00,5.000000000000000000e+00,5.000000000000000000e+00
1.934479236602783203e+00,1.961220026016235352e+00,1.988710284233093262e+00,2.016982316970825195e+00,2.046069860458374023e+00,2.076008558273315430e+00,2.106836318969726562e+00,2.138593673706054688e+00,2.171322822570800781e+00,2.205069541931152344e+00,2.239881515502929688e+00,2.275810480117797852e+00,2.312910795211791992e+00,2.351240873336791992e+00,2.390862703323364258e+00,2.431843042373657227e+00,2.474252462387084961e+00,2.518167257308959961e+00,2.563669204711914062e+00,2.610845804214477539e+00,2.659791231155395508e+00,2.710606813430786133e+00,2.763401985168457031e+00,2.818294763565063477e+00,2.875412225723266602e+00,2.934895992279052734e+00,2.996902942657470703e+00,3.061586856842041016e+00,3.129124641418457031e+00,3.199709177017211914e+00,3.273551464080810547e+00,3.350882530212402344e+00,3.431956052780151367e+00,3.517049551010131836e+00,3.606470108032226562e+00,3.700556278228759766e+00,3.799683094024658203e+00,3.904266834259033203e+00,4.014770030975341797e+00,4.131711006164550781e+00,4.255669116973876953e+00,4.387295246124267578e+00,5.000000000000000000e+00,5.000000000000000000e+00,5.000000000000000000e+00,5.000000000000000000e+00,5.000000000000000000e+00,5.000000000000000000e+00,5.000000000000000000e+00,5.000000000000000000e+00,5.000000000000000000e+00,5.000000000000000000e+00,5.000000000000000000e+00,5.000000000000000000e+00,5.000000000000000000e+00,5.000000000000000000e+00,5.000000000000000000e+00,5.000000000000000000e+00,5.000000000000000000e+00,5.000000000000000000e+00,5.000000000000000000e+00,5.000000000000000000e+00,5.000000000000000000e+00,5.000000000000000000e+00,5.000000000000000000e+00,5.000000000000000000e+00,5.000000000000000000e+00,5.000000000000000000e+00,5.000000000000000000e+00,5.000000000000000000e+00,5.000000000000000000e+00,5.000000000000000000e+00,5.000000000000000000e+00,5.000000000000000000e+00,5.000000000000000000e+00,5.000000000000000000e+00,5.000000000000000000e+00,5.000000000000000000e+00,5.000000000000000000e+00,5.000000000000000000e+00
1.934451103210449219e+00,1.961190938949584961e+00,1.988680601119995117e+00,2.016951560974121094e+00,2.046038389205932617e+00,2.075975894927978516e+00,2.106802940368652344e+00,2.138559341430664062e+00,2.171287298202514648e+00,2.205032825469970703e+00,2.239843845367431641e+00,2.275771379470825195e+00,2.312870502471923828e+00,2.351199150085449219e+00,2.390819787979125977e+00,2.431798458099365234e+00,2.474206447601318359e+00,2.518119573593139648e+00,2.563619852066040039e+00,2.610794544219970703e+00,2.659737825393676758e+00,2.710551500320434570e+00,2.763344526290893555e+00,2.818234920501708984e+00,2.875349998474121094e+00,2.934828042984008789e+00,2.996819972991943359e+00,3.061500310897827148e+00,3.129034042358398438e+00,3.199614524841308594e+00,3.273452758789062500e+00,3.350779294967651367e+00,3.431847572326660156e+00,3.516935586929321289e+00,3.606349945068359375e+00,3.700429916381835938e+00,3.799549818038940430e+00,3.904125928878784180e+00,4.014621257781982422e+00,4.131553649902343750e+00,4.255502223968505859e+00,4.387117385864257812e+00,4.527133941650390625e+00,5.000000000000000000e+00,5.000000000000000000e+00,5.000000000000000000e+00,5.000000000000000000e+00,5.000000000000000000e+00,5.000000000000000000e+00,5.000000000000000000e+00,5.000000000000000000e+00,5.000000000000000000e+00,5.000000000000000000e+00,5.000000000000000000e+00,5.000000000000000000e+00,5.000000000000000000e+00,5.000000000000000000e+00,5.000000000000000000e+00,5.000000000000000000e+00,5.000000000000000000e+00,5.000000000000000000e+00,5.000000000000000000e+00,5.000000000000000000e+00,5.000000000000000000e+00,5.000000000000000000e+00,5.000000000000000000e+00,5.000000000000000000e+00,5.000000000000000000e+00,5.000000000000000000e+00,5.000000000000000000e+00,5.000000000000000000e+00,5.000000000000000000e+00,5.000000000000000000e+00,5.000000000000000000e+00,5.000000000000000000e+00,5.000000000000000000e+00,5.000000000000000000e+00,5.000000000000000000e+00,5.000000000000000000e+00,5.000000000000000000e+00
1.934424638748168945e+00,1.961162090301513672e+00,1.988650679588317871e+00,2.016921043395996094e+00,2.046006679534912109e+00,2.075943470001220703e+00,2.106769561767578125e+00,2.138524770736694336e+00,2.171251773834228516e+00,2.204996109008789062e+00,2.239805936813354492e+00,2.275732278823852539e+00,2.312830209732055664e+00,2.351157665252685547e+00,2.390776634216308594e+00,2.431753873825073242e+00,2.474160194396972656e+00,2.518071651458740234e+00,2.563570261001586914e+00,2.610743045806884766e+00,2.659684658050537109e+00,2.710496187210083008e+00,2.763287067413330078e+00,2.818175077438354492e+00,2.875287532806396484e+00,2.934763193130493164e+00,2.996750831604003906e+00,3.061414003372192383e+00,3.128943920135498047e+00,3.199520349502563477e+00,3.273353815078735352e+00,3.350675582885742188e+00,3.431738615036010742e+00,3.516821384429931641e+00,3.606230258941650391e+00,3.700303792953491211e+00,3.799416780471801758e+00,3.903985500335693359e+00,4.014472484588623047e+00,4.131396293640136719e+00,4.255335330963134766e+00,4.386940002441406250e+00,4.526945114135742188e+00,4.676180362701416016e+00,5.000000000000000000e+00,5.000000000000000000e+00,5.000000000000000000e+00,5.000000000000000000e+00,5.000000000000000000e+00,5.000000000000000000e+00,5.000000000000000000e+00,5.000000000000000000e+00,5.000000000000000000e+00,5.000000000000000000e+00,5.000000000000000000e+00,5.000000000000000000e+00,5.000000000000000000e+00,5.000000000000000000e+00,5.000000000000000000e+00,5.000000000000000000e+00,5.000000000000000000e+00,5.000000000000000000e+00,5.000000000000000000e+00,5.000000000000000000e+00,5.000000000000000000e+00,5.000000000000000000e+00,5.000000000000000000e+00,5.000000000000000000e+00,5.000000000000000000e+00,5.000000000000000000e+00,5.000000000000000000e+00,5.000000000000000000e+00,5.000000000000000000e+00,5.000000000000000000e+00,5.000000000000000000e+00,5.000000000000000000e+00,5.000000000000000000e+00,5.000000000000000000e+00,5.000000000000000000e+00,5.000000000000000000e+00
1.934424757957458496e+00,1.961150646209716797e+00,1.988625168800354004e+00,2.016890287399291992e+00,2.045975208282470703e+00,2.075911045074462891e+00,2.106736183166503906e+00,2.138490200042724609e+00,2.171216249465942383e+00,2.204959392547607422e+00,2.239768266677856445e+00,2.275693416595458984e+00,2.312789916992187500e+00,2.351115942001342773e+00,2.390733718872070312e+00,2.431709289550781250e+00,2.474113941192626953e+00,2.518023967742919922e+00,2.563520669937133789e+00,2.610691785812377930e+00,2.659631252288818359e+00,2.710440635681152344e+00,2.763229608535766602e+00,2.818115234375000000e+00,2.875225305557250977e+00,2.934698104858398438e+00,2.996683120727539062e+00,3.061343431472778320e+00,3.128855228424072266e+00,3.199425697326660156e+00,3.273255109786987305e+00,3.350572109222412109e+00,3.431630134582519531e+00,3.516707420349121094e+00,3.606110095977783203e+00,3.700177192687988281e+00,3.799283504486083984e+00,3.903844833374023438e+00,4.014323711395263672e+00,4.131238937377929688e+00,4.255167961120605469e+00,4.386762619018554688e+00,4.526755809783935547e+00,4.675978660583496094e+00,4.835375785827636719e+00,5.000000000000000000e+00,5.000000000000000000e+00,5.000000000000000000e+00,5.000000000000000000e+00,5.000000000000000000e+00,5.000000000000000000e+00,5.000000000000000000e+00,5.000000000000000000e+00,5.000000000000000000e+00,5.000000000000000000e+00,5.000000000000000000e+00,5.000000000000000000e+00,5.000000000000000000e+00,5.000000000000000000e+00,5.000000000000000000e+00,5.000000000000000000e+00,5.000000000000000000e+00,5.000000000000000000e+00,5.000000000000000000e+00,5.000000000000000000e+00,5.000000000000000000e+00,5.000000000000000000e+00,5.000000000000000000e+00,5.000000000000000000e+00,5.000000000000000000e+00,5.000000000000000000e+00,5.000000000000000000e+00,5.000000000000000000e+00,5.000000000000000000e+00,5.000000000000000000e+00,5.000000000000000000e+00,5.000000000000000000e+00,5.000000000000000000e+00,5.000000000000000000e+00,5.000000000000000000e+00
1.934424996376037598e+00,1.961150646209716797e+00,1.988625168800354004e+00,2.016880512237548828e+00,2.045950412750244141e+00,2.075878620147705078e+00,2.106702566146850586e+00,2.138455867767333984e+00,2.171180725097656250e+00,2.204922914505004883e+00,2.239730358123779297e+00,2.275654315948486328e+00,2.312749624252319336e+00,2.351074218750000000e+00,2.390690565109252930e+00,2.431664705276489258e+00,2.474067926406860352e+00,2.517976045608520508e+00,2.563471078872680664e+00,2.610640287399291992e+00,2.659577846527099609e+00,2.710385322570800781e+00,2.763171911239624023e+00,2.818055391311645508e+00,2.875163078308105469e+00,2.934633255004882812e+00,2.996615409851074219e+00,3.061272621154785156e+00,3.128781557083129883e+00,3.199334859848022461e+00,3.273156166076660156e+00,3.350468397140502930e+00,3.431521415710449219e+00,3.516593217849731445e+00,3.605990409851074219e+00,3.700051307678222656e+00,3.799150466918945312e+00,3.903704404830932617e+00,4.014175415039062500e+00,4.131081581115722656e+00,4.255001068115234375e+00,4.386584758758544922e+00,4.526566982269287109e+00,4.675777435302734375e+00,4.835160255432128906e+00,5.000000000000000000e+00,5.000000000000000000e+00,5.000000000000000000e+00,5.000000000000000000e+00,5.000000000000000000e+00,5.000000000000000000e+00,5.000000000000000000e+00,5.000000000000000000e+00,5.000000000000000000e+00,5.000000000000000000e+00,5.000000000000000000e+00,5.000000000000000000e+00,5.000000000000000000e+00,5.000000000000000000e+00,5.000000000000000000e+00,5.000000000000000000e+00,5.000000000000000000e+00,5.000000000000000000e+00,5.000000000000000000e+00,5.000000000000000000e+00,5.000000000000000000e+00,5.000000000000000000e+00,5.000000000000000000e+00,5.000000000000000000e+00,5.000000000000000000e+00,5.000000000000000000e+00,5.000000000000000000e+00,5.000000000000000000e+00,5.000000000000000000e+00,5.000000000000000000e+00,5.000000000000000000e+00,5.000000000000000000e+00,5.000000000000000000e+00,5.000000000000000000e+00,5.000000000000000000e+00
1.934418320655822754e+00,1.961150884628295898e+00,1.988625407218933105e+00,2.016880750656127930e+00,2.045950651168823242e+00,2.075870752334594727e+00,2.106678962707519531e+00,2.138421297073364258e+00,2.171145200729370117e+00,2.204886198043823242e+00,2.239692449569702148e+00,2.275615215301513672e+00,2.312709331512451172e+00,2.351032733917236328e+00,2.390647411346435547e+00,2.431620121002197266e+00,2.474021673202514648e+00,2.517928361892700195e+00,2.563421487808227539e+00,2.610589027404785156e+00,2.659524440765380859e+00,2.710330247879028320e+00,2.763114452362060547e+00,2.817995309829711914e+00,2.875100612640380859e+00,2.934568405151367188e+00,2.996547937393188477e+00,3.061202049255371094e+00,3.128707647323608398e+00,3.199258089065551758e+00,3.273063182830810547e+00,3.350364923477172852e+00,3.431412935256958008e+00,3.516479253768920898e+00,3.605870246887207031e+00,3.699924707412719727e+00,3.799017190933227539e+00,3.903563737869262695e+00,4.014026641845703125e+00,4.130924224853515625e+00,4.254834175109863281e+00,4.386407375335693359e+00,4.526377677917480469e+00,4.675575733184814453e+00,4.834944248199462891e+00,5.000000000000000000e+00,5.000000000000000000e+00,5.000000000000000000e+00,5.000000000000000000e+00,5.000000000000000000e+00,5.000000000000000000e+00,5.000000000000000000e+00,5.000000000000000000e+00,5.000000000000000000e+00,5.000000000000000000e+00,5.000000000000000000e+00,5.000000000000000000e+00,5.000000000000000000e+00,5.000000000000000000e+00,5.000000000000000000e+00,5.000000000000000000e+00,5.000000000000000000e+00,5.000000000000000000e+00,5.000000000000000000e+00,5.000000000000000000e+00,5.000000000000000000e+00,5.000000000000000000e+00,5.000000000000000000e+00,5.000000000000000000e+00,5.000000000000000000e+00,5.000000000000000000e+00,5.000000000000000000e+00,5.000000000000000000e+00,5.000000000000000000e+00,5.000000000000000000e+00,5.000000000000000000e+00,5.000000000000000000e+00,5.000000000000000000e+00,5.000000000000000000e+00,5.000000000000000000e+00
1.934390068054199219e+00,1.961128354072570801e+00,1.988616228103637695e+00,2.016880750656127930e+00,2.045950889587402344e+00,2.075870752334594727e+00,2.106679201126098633e+00,2.138415575027465820e+00,2.171122789382934570e+00,2.204849481582641602e+00,2.239654779434204102e+00,2.275576114654541016e+00,2.312668800354003906e+00,2.350991010665893555e+00,2.390604257583618164e+00,2.431575536727905273e+00,2.473975658416748047e+00,2.517880439758300781e+00,2.563371896743774414e+00,2.610537528991699219e+00,2.659471273422241211e+00,2.710274696350097656e+00,2.763056755065917969e+00,2.817935466766357422e+00,2.875038385391235352e+00,2.934503316879272461e+00,2.996479988098144531e+00,3.061131477355957031e+00,3.128633737564086914e+00,3.199180841445922852e+00,3.272982358932495117e+00,3.350269317626953125e+00,3.431304216384887695e+00,3.516365051269531250e+00,3.605750560760498047e+00,3.699798583984375000e+00,3.798884153366088867e+00,3.903423309326171875e+00,4.013877868652343750e+00,4.130766868591308594e+00,4.254667282104492188e+00,4.386229991912841797e+00,4.526188850402832031e+00,4.675374031066894531e+00,4.834728717803955078e+00,5.000000000000000000e+00,5.000000000000000000e+00,5.000000000000000000e+00,5.000000000000000000e+00,5.000000000000000000e+00,5.000000000000000000e+00,5.000000000000000000e+00,5.000000000000000000e+00,5.000000000000000000e+00,5.000000000000000000e+00,5.000000000000000000e+00,5.000000000000000000e+00,5.000000000000000000e+00,5.000000000000000000e+00,5.000000000000000000e+00,5.000000000000000000e+00,5.000000000000000000e+00,5.000000000000000000e+00,5.000000000000000000e+00,5.000000000000000000e+00,5.000000000000000000e+00,5.000000000000000000e+00,5.000000000000000000e+00,5.000000000000000000e+00,5.000000000000000000e+00,5.000000000000000000e+00,5.000000000000000000e+00,5.000000000000000000e+00,5.000000000000000000e+00,5.000000000000000000e+00,5.000000000000000000e+00,5.000000000000000000e+00,5.000000000000000000e+00,5.000000000000000000e+00,5.000000000000000000e+00
1.934361934661865234e+00,1.961099505424499512e+00,1.988586544990539551e+00,2.016855001449584961e+00,2.045938730239868164e+00,2.075870990753173828e+00,2.106679201126098633e+00,2.138415813446044922e+00,2.171122789382934570e+00,2.204846143722534180e+00,2.239633798599243164e+00,2.275537252426147461e+00,2.312628746032714844e+00,2.350949287414550781e+00,2.390561342239379883e+00,2.431530952453613281e+00,2.473929405212402344e+00,2.517832756042480469e+00,2.563322544097900391e+00,2.610486268997192383e+00,2.659418106079101562e+00,2.710219383239746094e+00,2.762999296188354492e+00,2.817875623703002930e+00,2.874975919723510742e+00,2.934438467025756836e+00,2.996412515640258789e+00,3.061060667037963867e+00,3.128560304641723633e+00,3.199103593826293945e+00,3.272901535034179688e+00,3.350184679031372070e+00,3.431205987930297852e+00,3.516251325607299805e+00,3.605630397796630859e+00,3.699672222137451172e+00,3.798750877380371094e+00,3.903282642364501953e+00,4.013729572296142578e+00,4.130609512329101562e+00,4.254500389099121094e+00,4.386052608489990234e+00,4.526000022888183594e+00,4.675172328948974609e+00,4.834513187408447266e+00,5.000000000000000000e+00,5.000000000000000000e+00,5.000000000000000000e+00,5.000000000000000000e+00,5.000000000000000000e+00,5.000000000000000000e+00,5.000000000000000000e+00,5.000000000000000000e+00,5.000000000000000000e+00,5.000000000000000000e+00,5.000000000000000000e+00,5.000000000000000000e+00,5.000000000000000000e+00,5.000000000000000000e+00,5.000000000000000000e+00,5.000000000000000000e+00,5.000000000000000000e+00,5.000000000000000000e+00,5.000000000000000000e+00,5.000000000000000000e+00,5.000000000000000000e+00,5.000000000000000000e+00,5.000000000000000000e+00,5.000000000000000000e+00,5.000000000000000000e+00,5.000000000000000000e+00,5.000000000000000000e+00,5.000000000000000000e+00,5.000000000000000000e+00,5.000000000000000000e+00,5.000000000000000000e+00,5.000000000000000000e+00,5.000000000000000000e+00,5.000000000000000000e+00,5.000000000000000000e+00
1.934333801269531250e+00,1.961070656776428223e+00,1.988556861877441406e+00,2.016824245452880859e+00,2.045907258987426758e+00,2.075841188430786133e+00,2.106664180755615234e+00,2.138415813446044922e+00,2.171123027801513672e+00,2.204846382141113281e+00,2.239633798599243164e+00,2.275536537170410156e+00,2.312609195709228516e+00,2.350909948348999023e+00,2.390518188476562500e+00,2.431486368179321289e+00,2.473883390426635742e+00,2.517784833908081055e+00,2.563272953033447266e+00,2.610434770584106445e+00,2.659364700317382812e+00,2.710164070129394531e+00,2.762941837310791016e+00,2.817815780639648438e+00,2.874913692474365234e+00,2.934373617172241211e+00,2.996344804763793945e+00,3.060990095138549805e+00,3.128486633300781250e+00,3.199026584625244141e+00,3.272820949554443359e+00,3.350100040435791016e+00,3.431117296218872070e+00,3.516149997711181641e+00,3.605510711669921875e+00,3.699546098709106445e+00,3.798618078231811523e+00,3.903142213821411133e+00,4.013580799102783203e+00,4.130452156066894531e+00,4.254333019256591797e+00,4.385875225067138672e+00,4.525811195373535156e+00,4.674970626831054688e+00,4.834297657012939453e+00,5.000000000000000000e+00,5.000000000000000000e+00,5.000000000000000000e+00,5.000000000000000000e+00,5.000000000000000000e+00,5.000000000000000000e+00,5.000000000000000000e+00,5.000000000000000000e+00,5.000000000000000000e+00,5.000000000000000000e+00,5.000000000000000000e+00,5.000000000000000000e+00,5.000000000000000000e+00,5.000000000000000000e+00,5.000000000000000000e+00,5.000000000000000000e+00,5.000000000000000000e+00,5.000000000000000000e+00,5.000000000000000000e+00,5.000000000000000000e+00,5.000000000000000000e+00,5.000000000000000000e+00,5.000000000000000000e+00,5.000000000000000000e+00,5.000000000000000000e+00,5.000000000000000000e+00,5.000000000000000000e+00,5.000000000000000000e+00,5.000000000000000000e+00,5.000000000000000000e+00,5.000000000000000000e+00,5.000000000000000000e+00,5.000000000000000000e+00,5.000000000000000000e+00,5.000000000000000000e+00
1.934305667877197266e+00,1.961041688919067383e+00,1.988527178764343262e+00,2.016793727874755859e+00,2.045875787734985352e+00,2.075809001922607422e+00,2.106630802154541016e+00,2.138381719589233398e+00,2.171104431152343750e+00,2.204844236373901367e+00,2.239634037017822266e+00,2.275536775588989258e+00,2.312609434127807617e+00,2.350910186767578125e+00,2.390500545501708984e+00,2.431447505950927734e+00,2.473837137222290039e+00,2.517737150192260742e+00,2.563223361968994141e+00,2.610383510589599609e+00,2.659311532974243164e+00,2.710108518600463867e+00,2.762884140014648438e+00,2.817755937576293945e+00,2.874851465225219727e+00,2.934308767318725586e+00,2.996277093887329102e+00,3.060919761657714844e+00,3.128412723541259766e+00,3.198949337005615234e+00,3.272740125656127930e+00,3.350015401840209961e+00,3.431028366088867188e+00,3.516056776046752930e+00,3.605406284332275391e+00,3.699419736862182617e+00,3.798484802246093750e+00,3.903001546859741211e+00,4.013432502746582031e+00,4.130294799804687500e+00,4.254166126251220703e+00,4.385697841644287109e+00,4.525622367858886719e+00,4.674769401550292969e+00,4.834082126617431641e+00,5.000000000000000000e+00,5.000000000000000000e+00,5.000000000000000000e+00,5.000000000000000000e+00,5.000000000000000000e+00,5.000000000000000000e+00,5.000000000000000000e+00,5.000000000000000000e+00,5.000000000000000000e+00,5.000000000000000000e+00,5.000000000000000000e+00,5.000000000000000000e+00,5.000000000000000000e+00,5.000000000000000000e+00,5.000000000000000000e+00,5.000000000000000000e+00,5.000000000000000000e+00,5.000000000000000000e+00,5.000000000000000000e+00,5.000000000000000000e+00,5.000000000000000000e+00,5.000000000000000000e+00,5.000000000000000000e+00,5.000000000000000000e+00,5.000000000000000000e+00,5.000000000000000000e+00,5.000000000000000000e+00,5.000000000000000000e+00,5.000000000000000000e+00,5.000000000000000000e+00,5.000000000000000000e+00,5.000000000000000000e+00,5.000000000000000000e+00,5.000000000000000000e+00,5.000000000000000000e+00
1.934277653694152832e+00,1.961012840270996094e+00,1.988497495651245117e+00,2.016763210296630859e+00,2.045844316482543945e+00,2.075776576995849609e+00,2.106597423553466797e+00,2.138347387313842773e+00,2.171069145202636719e+00,2.204807758331298828e+00,2.239611625671386719e+00,2.275531768798828125e+00,2.312609672546386719e+00,2.350910186767578125e+00,2.390501022338867188e+00,2.431447744369506836e+00,2.473821878433227539e+00,2.517699241638183594e+00,2.563173770904541016e+00,2.610332250595092773e+00,2.659258127212524414e+00,2.710053205490112305e+00,2.762826681137084961e+00,2.817696094512939453e+00,2.874788999557495117e+00,2.934243679046630859e+00,2.996209383010864258e+00,3.060849189758300781e+00,3.128339052200317383e+00,3.198872089385986328e+00,3.272659301757812500e+00,3.349930763244628906e+00,3.430939674377441406e+00,3.515963554382324219e+00,3.605308294296264648e+00,3.699312925338745117e+00,3.798351764678955078e+00,3.902861356735229492e+00,4.013283729553222656e+00,4.130137443542480469e+00,4.253999233245849609e+00,4.385520458221435547e+00,4.525433063507080078e+00,4.674567699432373047e+00,4.833866596221923828e+00,5.000000000000000000e+00,5.000000000000000000e+00,5.000000000000000000e+00,5.000000000000000000e+00,5.000000000000000000e+00,5.000000000000000000e+00,5.000000000000000000e+00,5.000000000000000000e+00,5.000000000000000000e+00,5.000000000000000000e+00,5.000000000000000000e+00,4.219992637634277344e+00,5.000000000000000000e+00,5.000000000000000000e+00,5.000000000000000000e+00,5.000000000000000000e+00,5.000000000000000000e+00,5.000000000000000000e+00,5.000000000000000000e+00,5.000000000000000000e+00,5.000000000000000000e+00,5.000000000000000000e+00,5.000000000000000000e+00,5.000000000000000000e+00,5.000000000000000000e+00,5.000000000000000000e+00,5.000000000000000000e+00,5.000000000000000000e+00,5.000000000000000000e+00,5.000000000000000000e+00,5.000000000000000000e+00,5.000000000000000000e+00,5.000000000000000000e+00,5.000000000000000000e+00,5.000000000000000000e+00
1.934249520301818848e+00,1.960983991622924805e+00,1.988467812538146973e+00,2.016732692718505859e+00,2.045813083648681641e+00,2.075744152069091797e+00,2.106564283370971680e+00,2.138313055038452148e+00,2.171033620834350586e+00,2.204771280288696289e+00,2.239573955535888672e+00,2.275492906570434570e+00,2.312582731246948242e+00,2.350902080535888672e+00,2.390501260757446289e+00,2.431447982788085938e+00,2.473822116851806641e+00,2.517699480056762695e+00,2.563161373138427734e+00,2.610295295715332031e+00,2.659204721450805664e+00,2.709997892379760742e+00,2.762768983840942383e+00,2.817636251449584961e+00,2.874726772308349609e+00,2.934178829193115234e+00,2.996141672134399414e+00,3.060778379440307617e+00,3.128265142440795898e+00,3.198795080184936523e+00,3.272578477859497070e+00,3.349846124649047852e+00,3.430850982666015625e+00,3.515870332717895508e+00,3.605210304260253906e+00,3.699209690093994141e+00,3.798241376876831055e+00,3.902721405029296875e+00,4.013134956359863281e+00,4.129980087280273438e+00,4.253832340240478516e+00,4.385343074798583984e+00,4.525244235992431641e+00,4.674365997314453125e+00,4.833651065826416016e+00,5.000000000000000000e+00,5.000000000000000000e+00,5.000000000000000000e+00,5.000000000000000000e+00,5.000000000000000000e+00,5.000000000000000000e+00,5.000000000000000000e+00,5.000000000000000000e+00,5.000000000000000000e+00,5.000000000000000000e+00,4.195643901824951172e+00,4.171871662139892578e+00,5.000000000000000000e+00,5.000000000000000000e+00,5.000000000000000000e+00,5.000000000000000000e+00,5.000000000000000000e+00,5.000000000000000000e+00,5.000000000000000000e+00,5.000000000000000000e+00,5.000000000000000000e+00,5.000000000000000000e+00,5.000000000000000000e+00,5.000000000000000000e+00,5.000000000000000000e+00,5.000000000000000000e+00,5.000000000000000000e+00,5.000000000000000000e+00,5.000000000000000000e+00,5.000000000000000000e+00,5.000000000000000000e+00,5.000000000000000000e+00,5.000000000000000000e+00,5.000000000000000000e+00,5.000000000000000000e+00
1.934221386909484863e+00,1.960955142974853516e+00,1.988437891006469727e+00,2.016702175140380859e+00,2.045781612396240234e+00,2.075711727142333984e+00,2.106530904769897461e+00,2.138278722763061523e+00,2.170998334884643555e+00,2.204734563827514648e+00,2.239536285400390625e+00,2.275454044342041016e+00,2.312542676925659180e+00,2.350860595703125000e+00,2.390469551086425781e+00,2.431436061859130859e+00,2.473822355270385742e+00,2.517699718475341797e+00,2.563161611557006836e+00,2.610295534133911133e+00,2.659195423126220703e+00,2.709962129592895508e+00,2.762711524963378906e+00,2.817576408386230469e+00,2.874664545059204102e+00,2.934113979339599609e+00,2.996074199676513672e+00,3.060707807540893555e+00,3.128191471099853516e+00,3.198717832565307617e+00,3.272497892379760742e+00,3.349761724472045898e+00,3.430762290954589844e+00,3.515777111053466797e+00,3.605112791061401367e+00,3.699106454849243164e+00,3.798132658004760742e+00,3.902606725692749023e+00,4.012990474700927734e+00,4.129822731018066406e+00,4.253665447235107422e+00,4.385165691375732422e+00,4.525055408477783203e+00,4.674164772033691406e+00,4.833435535430908203e+00,5.000000000000000000e+00,5.000000000000000000e+00,5.000000000000000000e+00,5.000000000000000000e+00,5.000000000000000000e+00,5.000000000000000000e+00,5.000000000000000000e+00,5.000000000000000000e+00,5.000000000000000000e+00,5.000000000000000000e+00,4.214037418365478516e+00,4.185771465301513672e+00,5.000000000000000000e+00,5.000000000000000000e+00,5.000000000000000000e+00,5.000000000000000000e+00,5.000000000000000000e+00,5.000000000000000000e+00,5.000000000000000000e+00,5.000000000000000000e+00,5.000000000000000000e+00,5.000000000000000000e+00,5.000000000000000000e+00,5.000000000000000000e+00,5.000000000000000000e+00,5.000000000000000000e+00,5.000000000000000000e+00,5.000000000000000000e+00,5.000000000000000000e+00,5.000000000000000000e+00,5.000000000000000000e+00,5.000000000000000000e+00,5.000000000000000000e+00,5.000000000000000000e+00,5.000000000000000000e+00
1.934193372726440430e+00,1.960926175117492676e+00,1.988408207893371582e+00,2.016671657562255859e+00,2.045750141143798828e+00,2.075679302215576172e+00,2.106497526168823242e+00,2.138244390487670898e+00,2.170962810516357422e+00,2.204698085784912109e+00,2.239498615264892578e+00,2.275415182113647461e+00,2.312502622604370117e+00,2.350818872451782227e+00,2.390426635742187500e+00,2.431391716003417969e+00,2.473785161972045898e+00,2.517683506011962891e+00,2.563161849975585938e+00,2.610295772552490234e+00,2.659195661544799805e+00,2.709962368011474609e+00,2.762705564498901367e+00,2.817542552947998047e+00,2.874602079391479492e+00,2.934048891067504883e+00,2.996006488800048828e+00,3.060637235641479492e+00,3.128117561340332031e+00,3.198640823364257812e+00,3.272417068481445312e+00,3.349677085876464844e+00,3.430673360824584961e+00,3.515683889389038086e+00,3.605014801025390625e+00,3.699003219604492188e+00,3.798023939132690430e+00,3.902491807937622070e+00,4.012868881225585938e+00,4.129672050476074219e+00,4.253498554229736328e+00,4.384988307952880859e+00,4.524866580963134766e+00,4.673963069915771484e+00,4.833220005035400391e+00,5.000000000000000000e+00,5.000000000000000000e+00,5.000000000000000000e+00,5.000000000000000000e+00,5.000000000000000000e+00,5.000000000000000000e+00,5.000000000000000000e+00,5.000000000000000000e+00,5.000000000000000000e+00,5.000000000000000000e+00,5.000000000000000000e+00,4.245685100555419922e+00,4.214155197143554688e+00,5.000000000000000000e+00,5.000000000000000000e+00,5.000000000000000000e+00,5.000000000000000000e+00,5.000000000000000000e+00,5.000000000000000000e+00,5.000000000000000000e+00,5.000000000000000000e+00,5.000000000000000000e+00,5.000000000000000000e+00,5.000000000000000000e+00,5.000000000000000000e+00,5.000000000000000000e+00,5.000000000000000000e+00,5.000000000000000000e+00,5.000000000000000000e+00,5.000000000000000000e+00,5.000000000000000000e+00,5.000000000000000000e+00,5.000000000000000000e+00,5.000000000000000000e+00,5.000000000000000000e+00
1.934165239334106445e+00,1.960897326469421387e+00,1.988378405570983887e+00,2.016641139984130859e+00,2.045718669891357422e+00,2.075646877288818359e+00,2.106464147567749023e+00,2.138210058212280273e+00,2.170927524566650391e+00,2.204661607742309570e+00,2.239460945129394531e+00,2.275376319885253906e+00,2.312462329864501953e+00,2.350777387619018555e+00,2.390383720397949219e+00,2.431347131729125977e+00,2.473739147186279297e+00,2.517635822296142578e+00,2.563118457794189453e+00,2.610274553298950195e+00,2.659195661544799805e+00,2.709962844848632812e+00,2.762705802917480469e+00,2.817542791366577148e+00,2.874600410461425781e+00,2.934017181396484375e+00,2.995941877365112305e+00,3.060566663742065430e+00,3.128043889999389648e+00,3.198563575744628906e+00,3.272336244583129883e+00,3.349592447280883789e+00,3.430584669113159180e+00,3.515591144561767578e+00,3.604916810989379883e+00,3.698900222778320312e+00,3.797914981842041016e+00,3.902376890182495117e+00,4.012747764587402344e+00,4.129543781280517578e+00,4.253342151641845703e+00,4.384810924530029297e+00,4.524677753448486328e+00,4.673761367797851562e+00,4.833004474639892578e+00,5.000000000000000000e+00,5.000000000000000000e+00,5.000000000000000000e+00,5.000000000000000000e+00,5.000000000000000000e+00,5.000000000000000000e+00,5.000000000000000000e+00,5.000000000000000000e+00,5.000000000000000000e+00,4.302773952484130859e+00,4.242215156555175781e+00,4.187257766723632812e+00,4.148451328277587891e+00,4.137873649597167969e+00,4.116158962249755859e+00,5.000000000000000000e+00,5.000000000000000000e+00,5.000000000000000000e+00,5.000000000000000000e+00,5.000000000000000000e+00,5.000000000000000000e+00,5.000000000000000000e+00,5.000000000000000000e+00,5.000000000000000000e+00,5.000000000000000000e+00,5.000000000000000000e+00,5.000000000000000000e+00,5.000000000000000000e+00,5.000000000000000000e+00,5.000000000000000000e+00,5.000000000000000000e+00,5.000000000000000000e+00,5.000000000000000000e+00,5.000000000000000000e+00,5.000000000000000000e+00
1.934137105941772461e+00,1.960868477821350098e+00,1.988348722457885742e+00,2.016610383987426758e+00,2.045687198638916016e+00,2.075614690780639648e+00,2.106430768966674805e+00,2.138175725936889648e+00,2.170892000198364258e+00,2.204625129699707031e+00,2.239423036575317383e+00,2.275337457656860352e+00,2.312422275543212891e+00,2.350735902786254883e+00,2.390340805053710938e+00,2.431302785873413086e+00,2.473693132400512695e+00,2.517588138580322266e+00,2.563069105148315430e+00,2.610223531723022461e+00,2.659145116806030273e+00,2.709936141967773438e+00,2.762704849243164062e+00,2.817543029785156250e+00,2.874600887298583984e+00,2.934017419815063477e+00,2.995942115783691406e+00,3.060536861419677734e+00,3.127978801727294922e+00,3.198486566543579102e+00,3.272255659103393555e+00,3.349507808685302734e+00,3.430495977401733398e+00,3.515497922897338867e+00,3.604818820953369141e+00,3.698796987533569336e+00,3.797806262969970703e+00,3.902262210845947266e+00,4.012626171112060547e+00,4.129415035247802734e+00,4.253205776214599609e+00,4.384647846221923828e+00,4.524488925933837891e+00,4.673560142517089844e+00,4.832788944244384766e+00,5.000000000000000000e+00,5.000000000000000000e+00,5.000000000000000000e+00,5.000000000000000000e+00,5.000000000000000000e+00,5.000000000000000000e+00,5.000000000000000000e+00,5.000000000000000000e+00,4.347249984741210938e+00,4.248298168182373047e+00,4.187499046325683594e+00,4.140705108642578125e+00,4.128924846649169922e+00,4.153384208679199219e+00,4.131313800811767578e+00,5.000000000000000000e+00,5.000000000000000000e+00,5.000000000000000000e+00,5.000000000000000000e+00,5.000000000000000000e+00,5.000000000000000000e+00,5.000000000000000000e+00,5.000000000000000000e+00,5.000000000000000000e+00,5.000000000000000000e+00,5.000000000000000000e+00,5.000000000000000000e+00,5.000000000000000000e+00,5.000000000000000000e+00,5.000000000000000000e+00,5.000000000000000000e+00,5.000000000000000000e+00,5.000000000000000000e+00,5.000000000000000000e+00,5.000000000000000000e+00
1.934109091758728027e+00,1.960839629173278809e+00,1.988319039344787598e+00,2.016579866409301758e+00,2.045655727386474609e+00,2.075582265853881836e+00,2.106397390365600586e+00,2.138141393661499023e+00,2.170856714248657227e+00,2.204588651657104492e+00,2.239385366439819336e+00,2.275298595428466797e+00,2.312381982803344727e+00,2.350694417953491211e+00,2.390297651290893555e+00,2.431258440017700195e+00,2.473647356033325195e+00,2.517540454864501953e+00,2.563019752502441406e+00,2.610172271728515625e+00,2.659092187881469727e+00,2.709880828857421875e+00,2.762647628784179688e+00,2.817509889602661133e+00,2.874595165252685547e+00,2.934017658233642578e+00,2.995942354202270508e+00,3.060537576675415039e+00,3.127979040145874023e+00,3.198460340499877930e+00,3.272190570831298828e+00,3.349423170089721680e+00,3.430407524108886719e+00,3.515404701232910156e+00,3.604720830917358398e+00,3.698693752288818359e+00,3.797697544097900391e+00,3.902147293090820312e+00,4.012504577636718750e+00,4.129286289215087891e+00,4.253069400787353516e+00,4.384502887725830078e+00,4.524319171905517578e+00,4.673358440399169922e+00,4.832573890686035156e+00,5.000000000000000000e+00,5.000000000000000000e+00,5.000000000000000000e+00,5.000000000000000000e+00,5.000000000000000000e+00,5.000000000000000000e+00,5.000000000000000000e+00,5.000000000000000000e+00,4.366264343261718750e+00,4.245031833648681641e+00,4.182835578918457031e+00,4.144641399383544922e+00,4.140952110290527344e+00,4.178314208984375000e+00,4.136513233184814453e+00,5.000000000000000000e+00,5.000000000000000000e+00,5.000000000000000000e+00,5.000000000000000000e+00,5.000000000000000000e+00,5.000000000000000000e+00,5.000000000000000000e+00,5.000000000000000000e+00,5.000000000000000000e+00,5.000000000000000000e+00,5.000000000000000000e+00,5.000000000000000000e+00,5.000000000000000000e+00,5.000000000000000000e+00,5.000000000000000000e+00,5.000000000000000000e+00,5.000000000000000000e+00,5.000000000000000000e+00,5.000000000000000000e+00,5.000000000000000000e+00
1.934080958366394043e+00,1.960810661315917969e+00,1.988289356231689453e+00,2.016549348831176758e+00,2.045624494552612305e+00,2.075549840927124023e+00,2.106364011764526367e+00,2.138107061386108398e+00,2.170821189880371094e+00,2.204552173614501953e+00,2.239347934722900391e+00,2.275259733200073242e+00,2.312341928482055664e+00,2.350652933120727539e+00,2.390254735946655273e+00,2.431214094161987305e+00,2.473601341247558594e+00,2.517492771148681641e+00,2.562970399856567383e+00,2.610121011734008789e+00,2.659039020538330078e+00,2.709825515747070312e+00,2.762590169906616211e+00,2.817450284957885742e+00,2.874533176422119141e+00,2.933977127075195312e+00,2.995931625366210938e+00,3.060537815093994141e+00,3.127979278564453125e+00,3.198460578918457031e+00,3.272191047668457031e+00,3.349400758743286133e+00,3.430342674255371094e+00,3.515311479568481445e+00,3.604622840881347656e+00,3.698590755462646484e+00,3.797588825225830078e+00,3.902032613754272461e+00,4.012383460998535156e+00,4.129158020019531250e+00,4.252933025360107422e+00,4.384357929229736328e+00,4.524164676666259766e+00,4.673181056976318359e+00,4.832358360290527344e+00,5.000000000000000000e+00,5.000000000000000000e+00,5.000000000000000000e+00,5.000000000000000000e+00,5.000000000000000000e+00,5.000000000000000000e+00,5.000000000000000000e+00,5.000000000000000000e+00,4.371729373931884766e+00,4.261858940124511719e+00,4.178623199462890625e+00,4.143755912780761719e+00,4.143280029296875000e+00,4.194159984588623047e+00,4.143947601318359375e+00,5.000000000000000000e+00,5.000000000000000000e+00,5.000000000000000000e+00,5.000000000000000000e+00,5.000000000000000000e+00,5.000000000000000000e+00,5.000000000000000000e+00,5.000000000000000000e+00,5.000000000000000000e+00,5.000000000000000000e+00,5.000000000000000000e+00,5.000000000000000000e+00,5.000000000000000000e+00,5.000000000000000000e+00,5.000000000000000000e+00,5.000000000000000000e+00,5.000000000000000000e+00,5.000000000000000000e+00,5.000000000000000000e+00,5.000000000000000000e+00
1.934052824974060059e+00,1.960781812667846680e+00,1.988259673118591309e+00,2.016518831253051758e+00,2.045592784881591797e+00,2.075517654418945312e+00,2.106330871582031250e+00,2.138072729110717773e+00,2.170785903930664062e+00,2.204515695571899414e+00,2.239310264587402344e+00,2.275220632553100586e+00,2.312301635742187500e+00,2.350611448287963867e+00,2.390211820602416992e+00,2.431169748306274414e+00,2.473555326461791992e+00,2.517445325851440430e+00,2.562920808792114258e+00,2.610069990158081055e+00,2.658985853195190430e+00,2.709770441055297852e+00,2.762532949447631836e+00,2.817390680313110352e+00,2.874471187591552734e+00,2.933912515640258789e+00,2.995864152908325195e+00,3.060488700866699219e+00,3.127962350845336914e+00,3.198460817337036133e+00,3.272191524505615234e+00,3.349401235580444336e+00,3.430343151092529297e+00,3.515293836593627930e+00,3.604558706283569336e+00,3.698487520217895508e+00,3.797480106353759766e+00,3.901917695999145508e+00,4.012261867523193359e+00,4.129029273986816406e+00,4.252796649932861328e+00,4.384212970733642578e+00,4.524010181427001953e+00,4.673016071319580078e+00,4.832172393798828125e+00,5.000000000000000000e+00,5.000000000000000000e+00,5.000000000000000000e+00,5.000000000000000000e+00,5.000000000000000000e+00,5.000000000000000000e+00,5.000000000000000000e+00,5.000000000000000000e+00,4.377740383148193359e+00,4.253857135772705078e+00,4.183750629425048828e+00,4.139647960662841797e+00,4.138695716857910156e+00,5.000000000000000000e+00,4.153609275817871094e+00,5.000000000000000000e+00,5.000000000000000000e+00,5.000000000000000000e+00,5.000000000000000000e+00,5.000000000000000000e+00,5.000000000000000000e+00,5.000000000000000000e+00,5.000000000000000000e+00,5.000000000000000000e+00,5.000000000000000000e+00,5.000000000000000000e+00,5.000000000000000000e+00,5.000000000000000000e+00,5.000000000000000000e+00,5.000000000000000000e+00,5.000000000000000000e+00,5.000000000000000000e+00,5.000000000000000000e+00,5.000000000000000000e+00,5.000000000000000000e+00
1.934024810791015625e+00,1.960752964019775391e+00,1.988229990005493164e+00,2.016488313674926758e+00,2.045561552047729492e+00,2.075485229492187500e+00,2.106297492980957031e+00,2.138038396835327148e+00,2.170750617980957031e+00,2.204479217529296875e+00,2.239272594451904297e+00,2.275181770324707031e+00,2.312261581420898438e+00,2.350569963455200195e+00,2.390168905258178711e+00,2.431125164031982422e+00,2.473509311676025391e+00,2.517397642135620117e+00,2.562871456146240234e+00,2.610018730163574219e+00,2.658932685852050781e+00,2.709715366363525391e+00,2.762475490570068359e+00,2.817331075668334961e+00,2.874409198760986328e+00,2.933847904205322266e+00,2.995796918869018555e+00,3.060418367385864258e+00,3.127888917922973633e+00,3.198401689529418945e+00,3.272167205810546875e+00,3.349401950836181641e+00,3.430343389511108398e+00,3.515294075012207031e+00,3.604558944702148438e+00,3.698475599288940430e+00,3.797417402267456055e+00,3.901803016662597656e+00,4.012140750885009766e+00,4.128901004791259766e+00,4.252660274505615234e+00,4.384068012237548828e+00,4.523856163024902344e+00,4.672852039337158203e+00,4.831996440887451172e+00,5.000000000000000000e+00,5.000000000000000000e+00,5.000000000000000000e+00,5.000000000000000000e+00,5.000000000000000000e+00,5.000000000000000000e+00,5.000000000000000000e+00,5.000000000000000000e+00,4.388576507568359375e+00,4.261848926544189453e+00,4.179061412811279297e+00,4.147333621978759766e+00,4.144472122192382812e+00,5.000000000000000000e+00,4.128965377807617188e+00,5.000000000000000000e+00,5.000000000000000000e+00,5.000000000000000000e+00,5.000000000000000000e+00,5.000000000000000000e+00,5.000000000000000000e+00,5.000000000000000000e+00,5.000000000000000000e+00,5.000000000000000000e+00,5.000000000000000000e+00,5.000000000000000000e+00,5.000000000000000000e+00,5.000000000000000000e+00,5.000000000000000000e+00,5.000000000000000000e+00,5.000000000000000000e+00,5.000000000000000000e+00,5.000000000000000000e+00,5.000000000000000000e+00,5.000000000000000000e+00
1.933996677398681641e+00,1.960723876953125000e+00,1.988200306892395020e+00,2.016457796096801758e+00,2.045530080795288086e+00,2.075452804565429688e+00,2.106264114379882812e+00,2.138004064559936523e+00,2.170715093612670898e+00,2.204442739486694336e+00,2.239234924316406250e+00,2.275142908096313477e+00,2.312221288681030273e+00,2.350528478622436523e+00,2.390125989913940430e+00,2.431080579757690430e+00,2.473463535308837891e+00,2.517350196838378906e+00,2.562822341918945312e+00,2.609967708587646484e+00,2.658879756927490234e+00,2.709660053253173828e+00,2.762418031692504883e+00,2.817271471023559570e+00,2.874346971511840820e+00,2.933783292770385742e+00,2.995729446411132812e+00,3.060348033905029297e+00,3.127815485000610352e+00,3.198324918746948242e+00,3.272086858749389648e+00,3.349330902099609375e+00,3.430310487747192383e+00,3.515294551849365234e+00,3.604559659957885742e+00,3.698476076126098633e+00,3.797417879104614258e+00,3.901798486709594727e+00,4.012079715728759766e+00,4.128776550292968750e+00,4.252523899078369141e+00,4.383923053741455078e+00,4.523701667785644531e+00,4.672687530517578125e+00,4.831820487976074219e+00,5.000000000000000000e+00,5.000000000000000000e+00,5.000000000000000000e+00,5.000000000000000000e+00,5.000000000000000000e+00,5.000000000000000000e+00,5.000000000000000000e+00,5.000000000000000000e+00,4.341155052185058594e+00,4.252178192138671875e+00,4.201452255249023438e+00,4.169782161712646484e+00,4.123821258544921875e+00,5.000000000000000000e+00,4.108829498291015625e+00,5.000000000000000000e+00,5.000000000000000000e+00,5.000000000000000000e+00,5.000000000000000000e+00,5.000000000000000000e+00,5.000000000000000000e+00,5.000000000000000000e+00,5.000000000000000000e+00,5.000000000000000000e+00,5.000000000000000000e+00,5.000000000000000000e+00,5.000000000000000000e+00,5.000000000000000000e+00,5.000000000000000000e+00,5.000000000000000000e+00,5.000000000000000000e+00,5.000000000000000000e+00,5.000000000000000000e+00,5.000000000000000000e+00,5.000000000000000000e+00
1.933968544006347656e+00,1.960695028305053711e+00,1.988170623779296875e+00,2.016427278518676758e+00,2.045498609542846680e+00,2.075420618057250977e+00,2.106230735778808594e+00,2.137969732284545898e+00,2.170679569244384766e+00,2.204406261444091797e+00,2.239197254180908203e+00,2.275104045867919922e+00,2.312180995941162109e+00,2.350486993789672852e+00,2.390083074569702148e+00,2.431036233901977539e+00,2.473417520523071289e+00,2.517302513122558594e+00,2.562772989273071289e+00,2.609916210174560547e+00,2.658826589584350586e+00,2.709604978561401367e+00,2.762360811233520508e+00,2.817211866378784180e+00,2.874284982681274414e+00,2.933718681335449219e+00,2.995661735534667969e+00,3.060277700424194336e+00,3.127742052078247070e+00,3.198248147964477539e+00,3.272006511688232422e+00,3.349246740341186523e+00,3.430222034454345703e+00,3.515209913253784180e+00,3.604516506195068359e+00,3.698476552963256836e+00,3.797418117523193359e+00,3.901799201965332031e+00,4.012080192565917969e+00,4.128777027130126953e+00,4.252465724945068359e+00,4.383793830871582031e+00,4.523547649383544922e+00,4.672522544860839844e+00,4.831644535064697266e+00,5.000000000000000000e+00,5.000000000000000000e+00,5.000000000000000000e+00,5.000000000000000000e+00,5.000000000000000000e+00,5.000000000000000000e+00,5.000000000000000000e+00,5.000000000000000000e+00,4.310185909271240234e+00,4.237551689147949219e+00,4.218032836914062500e+00,4.076929092407226562e+00,4.070378303527832031e+00,5.000000000000000000e+00,4.101315498352050781e+00,5.000000000000000000e+00,5.000000000000000000e+00,5.000000000000000000e+00,5.000000000000000000e+00,5.000000000000000000e+00,5.000000000000000000e+00,5.000000000000000000e+00,5.000000000000000000e+00,5.000000000000000000e+00,5.000000000000000000e+00,5.000000000000000000e+00,5.000000000000000000e+00,5.000000000000000000e+00,5.000000000000000000e+00,5.000000000000000000e+00,5.000000000000000000e+00,5.000000000000000000e+00,5.000000000000000000e+00,5.000000000000000000e+00,5.000000000000000000e+00
1.933940529823303223e+00,1.960666060447692871e+00,1.988140940666198730e+00,2.016396760940551758e+00,2.045467138290405273e+00,2.075387954711914062e+00,2.106197595596313477e+00,2.137935400009155273e+00,2.170644283294677734e+00,2.204369544982910156e+00,2.239159584045410156e+00,2.275065183639526367e+00,2.312140941619873047e+00,2.350445508956909180e+00,2.390040159225463867e+00,2.430991888046264648e+00,2.473371505737304688e+00,2.517254829406738281e+00,2.562723636627197266e+00,2.609865188598632812e+00,2.658773422241210938e+00,2.709549903869628906e+00,2.762303590774536133e+00,2.817152023315429688e+00,2.874222993850708008e+00,2.933653831481933594e+00,2.995594501495361328e+00,3.060207366943359375e+00,3.127668619155883789e+00,3.198171138763427734e+00,3.271925687789916992e+00,3.349162578582763672e+00,3.430133819580078125e+00,3.515116930007934570e+00,3.604418754577636719e+00,3.698375940322875977e+00,3.797362327575683594e+00,3.901793479919433594e+00,4.012080669403076172e+00,4.128777503967285156e+00,4.252466201782226562e+00,4.383794784545898438e+00,4.523493289947509766e+00,4.672388076782226562e+00,4.831468582153320312e+00,5.000000000000000000e+00,5.000000000000000000e+00,5.000000000000000000e+00,5.000000000000000000e+00,5.000000000000000000e+00,5.000000000000000000e+00,5.000000000000000000e+00,5.000000000000000000e+00,5.000000000000000000e+00,4.229908466339111328e+00,4.204938411712646484e+00,4.044981956481933594e+00,4.043511867523193359e+00,5.000000000000000000e+00,4.072611331939697266e+00,5.000000000000000000e+00,5.000000000000000000e+00,5.000000000000000000e+00,5.000000000000000000e+00,5.000000000000000000e+00,5.000000000000000000e+00,5.000000000000000000e+00,5.000000000000000000e+00,5.000000000000000000e+00,5.000000000000000000e+00,5.000000000000000000e+00,5.000000000000000000e+00,5.000000000000000000e+00,5.000000000000000000e+00,5.000000000000000000e+00,5.000000000000000000e+00,5.000000000000000000e+00,5.000000000000000000e+00,5.000000000000000000e+00,5.000000000000000000e+00
1.933912396430969238e+00,1.960637211799621582e+00,1.988111257553100586e+00,2.016366004943847656e+00,2.045435667037963867e+00,2.075355768203735352e+00,2.106164216995239258e+00,2.137901067733764648e+00,2.170608758926391602e+00,2.204333066940307617e+00,2.239121913909912109e+00,2.275026321411132812e+00,2.312100887298583984e+00,2.350404024124145508e+00,2.389997243881225586e+00,2.430947542190551758e+00,2.473325490951538086e+00,2.517207384109497070e+00,2.562674283981323242e+00,2.609813928604125977e+00,2.658720493316650391e+00,2.709494829177856445e+00,2.762246131896972656e+00,2.817092418670654297e+00,2.874161005020141602e+00,2.933589220046997070e+00,2.995527029037475586e+00,3.060137033462524414e+00,3.127595186233520508e+00,3.198094367980957031e+00,3.271845340728759766e+00,3.349078178405761719e+00,3.430045366287231445e+00,3.515024185180664062e+00,3.604320764541625977e+00,3.698273181915283203e+00,3.797254085540771484e+00,3.901679039001464844e+00,4.012010097503662109e+00,4.128762245178222656e+00,4.252466678619384766e+00,4.383795261383056641e+00,4.523494243621826172e+00,4.672389030456542969e+00,4.831419467926025391e+00,5.000000000000000000e+00,5.000000000000000000e+00,5.000000000000000000e+00,5.000000000000000000e+00,5.000000000000000000e+00,5.000000000000000000e+00,5.000000000000000000e+00,4.305188179016113281e+00,5.000000000000000000e+00,4.238736629486083984e+00,4.205876827239990234e+00,4.013421058654785156e+00,4.030619621276855469e+00,5.000000000000000000e+00,4.054835319519042969e+00,5.000000000000000000e+00,5.000000000000000000e+00,5.000000000000000000e+00,5.000000000000000000e+00,5.000000000000000000e+00,5.000000000000000000e+00,5.000000000000000000e+00,5.000000000000000000e+00,5.000000000000000000e+00,5.000000000000000000e+00,5.000000000000000000e+00,5.000000000000000000e+00,5.000000000000000000e+00,5.000000000000000000e+00,5.000000000000000000e+00,5.000000000000000000e+00,5.000000000000000000e+00,5.000000000000000000e+00,5.000000000000000000e+00,5.000000000000000000e+00
1.933884263038635254e+00,1.960608363151550293e+00,1.988081574440002441e+00,2.016335487365722656e+00,2.045404434204101562e+00,2.075323343276977539e+00,2.106130838394165039e+00,2.137866735458374023e+00,2.170573472976684570e+00,2.204296588897705078e+00,2.239084243774414062e+00,2.274987459182739258e+00,2.312060594558715820e+00,2.350362300872802734e+00,2.389954328536987305e+00,2.430903196334838867e+00,2.473279476165771484e+00,2.517159700393676758e+00,2.562624931335449219e+00,2.609762668609619141e+00,2.658667087554931641e+00,2.709439516067504883e+00,2.762188911437988281e+00,2.817032814025878906e+00,2.874098777770996094e+00,2.933524608612060547e+00,2.995459556579589844e+00,3.060066461563110352e+00,3.127521514892578125e+00,3.198017597198486328e+00,3.271764755249023438e+00,3.348994016647338867e+00,3.429956912994384766e+00,3.514931440353393555e+00,3.604223251342773438e+00,3.698170423507690430e+00,3.797145843505859375e+00,3.901564836502075195e+00,4.011888980865478516e+00,4.128634452819824219e+00,4.252377510070800781e+00,4.383767604827880859e+00,4.523494720458984375e+00,4.672389507293701172e+00,4.831420421600341797e+00,5.000000000000000000e+00,5.000000000000000000e+00,5.000000000000000000e+00,5.000000000000000000e+00,5.000000000000000000e+00,5.000000000000000000e+00,5.000000000000000000e+00,4.305115222930908203e+00,5.000000000000000000e+00,4.247511863708496094e+00,4.206109523773193359e+00,3.982494831085205078e+00,4.046395778656005859e+00,5.000000000000000000e+00,5.000000000000000000e+00,5.000000000000000000e+00,5.000000000000000000e+00,5.000000000000000000e+00,5.000000000000000000e+00,5.000000000000000000e+00,5.000000000000000000e+00,5.000000000000000000e+00,5.000000000000000000e+00,5.000000000000000000e+00,5.000000000000000000e+00,5.000000000000000000e+00,5.000000000000000000e+00,5.000000000000000000e+00,5.000000000000000000e+00,5.000000000000000000e+00,5.000000000000000000e+00,5.000000000000000000e+00,5.000000000000000000e+00,5.000000000000000000e+00,5.000000000000000000e+00
1.933856248855590820e+00,1.960579514503479004e+00,1.988051891326904297e+00,2.016304969787597656e+00,2.045372962951660156e+00,2.075290918350219727e+00,2.106097459793090820e+00,2.137832403182983398e+00,2.170538187026977539e+00,2.204260110855102539e+00,2.239046573638916016e+00,2.274948596954345703e+00,2.312020540237426758e+00,2.350320816040039062e+00,2.389911413192749023e+00,2.430858850479125977e+00,2.473233699798583984e+00,2.517112255096435547e+00,2.562575578689575195e+00,2.609711647033691406e+00,2.658613920211791992e+00,2.709384441375732422e+00,2.762131690979003906e+00,2.816973209381103516e+00,2.874036550521850586e+00,2.933459997177124023e+00,2.995392322540283203e+00,3.059996128082275391e+00,3.127448081970214844e+00,3.197940826416015625e+00,3.271684408187866211e+00,3.348909378051757812e+00,3.429868698120117188e+00,3.514838695526123047e+00,3.604125738143920898e+00,3.698067665100097656e+00,3.797037601470947266e+00,3.901450395584106445e+00,4.011767864227294922e+00,4.128506183624267578e+00,4.252241611480712891e+00,4.383623600006103516e+00,4.523382663726806641e+00,4.672346591949462891e+00,4.831421375274658203e+00,5.000000000000000000e+00,5.000000000000000000e+00,5.000000000000000000e+00,5.000000000000000000e+00,5.000000000000000000e+00,5.000000000000000000e+00,5.000000000000000000e+00,5.000000000000000000e+00,5.000000000000000000e+00,4.261853694915771484e+00,4.202654838562011719e+00,3.968363285064697266e+00,5.000000000000000000e+00,5.000000000000000000e+00,5.000000000000000000e+00,5.000000000000000000e+00,5.000000000000000000e+00,5.000000000000000000e+00,5.000000000000000000e+00,5.000000000000000000e+00,5.000000000000000000e+00,5.000000000000000000e+00,5.000000000000000000e+00,5.000000000000000000e+00,5.000000000000000000e+00,5.000000000000000000e+00,5.000000000000000000e+00,5.000000000000000000e+00,5.000000000000000000e+00,5.000000000000000000e+00,5.000000000000000000e+00,5.000000000000000000e+00,5.000000000000000000e+00,5.000000000000000000e+00,5.000000000000000000e+00
1.933828115463256836e+00,1.960550665855407715e+00,1.988022208213806152e+00,2.016274452209472656e+00,2.045341491699218750e+00,2.075258731842041016e+00,2.106064081192016602e+00,2.137798070907592773e+00,2.170502662658691406e+00,2.204223632812500000e+00,2.239008665084838867e+00,2.274909734725952148e+00,2.311980247497558594e+00,2.350279331207275391e+00,2.389868736267089844e+00,2.430814504623413086e+00,2.473187685012817383e+00,2.517064332962036133e+00,2.562526226043701172e+00,2.609660387039184570e+00,2.658560991287231445e+00,2.709329366683959961e+00,2.762074232101440430e+00,2.816913604736328125e+00,2.873974561691284180e+00,2.933395385742187500e+00,2.995324850082397461e+00,3.059925794601440430e+00,3.127374649047851562e+00,3.197864055633544922e+00,3.271604061126708984e+00,3.348825216293334961e+00,3.429780244827270508e+00,3.514745950698852539e+00,3.604028224945068359e+00,3.697964668273925781e+00,3.796929121017456055e+00,3.901336193084716797e+00,4.011647224426269531e+00,4.128378391265869141e+00,4.252105712890625000e+00,4.383479118347167969e+00,4.523228645324707031e+00,4.672182559967041016e+00,4.831281185150146484e+00,5.000000000000000000e+00,5.000000000000000000e+00,5.000000000000000000e+00,5.000000000000000000e+00,5.000000000000000000e+00,5.000000000000000000e+00,5.000000000000000000e+00,5.000000000000000000e+00,5.000000000000000000e+00,5.000000000000000000e+00,4.210640430450439453e+00,4.006738662719726562e+00,4.035775184631347656e+00,5.000000000000000000e+00,5.000000000000000000e+00,5.000000000000000000e+00,5.000000000000000000e+00,5.000000000000000000e+00,5.000000000000000000e+00,5.000000000000000000e+00,5.000000000000000000e+00,5.000000000000000000e+00,5.000000000000000000e+00,5.000000000000000000e+00,5.000000000000000000e+00,5.000000000000000000e+00,5.000000000000000000e+00,5.000000000000000000e+00,5.000000000000000000e+00,5.000000000000000000e+00,5.000000000000000000e+00,5.000000000000000000e+00,5.000000000000000000e+00,5.000000000000000000e+00,5.000000000000000000e+00
1.933800101280212402e+00,1.960521817207336426e+00,1.987992525100708008e+00,2.016243934631347656e+00,2.045310020446777344e+00,2.075226306915283203e+00,2.106030941009521484e+00,2.137763738632202148e+00,2.170467376708984375e+00,2.204187154769897461e+00,2.238971233367919922e+00,2.274870872497558594e+00,2.311940193176269531e+00,2.350237846374511719e+00,2.389825582504272461e+00,2.430769920349121094e+00,2.473141670227050781e+00,2.517016887664794922e+00,2.562476873397827148e+00,2.609609365463256836e+00,2.658507823944091797e+00,2.709274053573608398e+00,2.762017011642456055e+00,2.816854000091552734e+00,2.873912572860717773e+00,2.933330774307250977e+00,2.995257377624511719e+00,3.059855461120605469e+00,3.127300977706909180e+00,3.197787284851074219e+00,3.271523714065551758e+00,3.348741054534912109e+00,3.429692029953002930e+00,3.514653205871582031e+00,3.603930711746215820e+00,3.697861909866333008e+00,3.796820878982543945e+00,3.901221752166748047e+00,4.011526107788085938e+00,4.128250122070312500e+00,4.251969814300537109e+00,4.383334636688232422e+00,4.523075103759765625e+00,4.672019004821777344e+00,4.831105709075927734e+00,5.000000000000000000e+00,5.000000000000000000e+00,5.000000000000000000e+00,5.000000000000000000e+00,5.000000000000000000e+00,5.000000000000000000e+00,5.000000000000000000e+00,5.000000000000000000e+00,5.000000000000000000e+00,5.000000000000000000e+00,4.254331111907958984e+00,4.075786113739013672e+00,4.058289051055908203e+00,5.000000000000000000e+00,5.000000000000000000e+00,5.000000000000000000e+00,5.000000000000000000e+00,5.000000000000000000e+00,5.000000000000000000e+00,5.000000000000000000e+00,5.000000000000000000e+00,5.000000000000000000e+00,5.000000000000000000e+00,5.000000000000000000e+00,5.000000000000000000e+00,5.000000000000000000e+00,5.000000000000000000e+00,5.000000000000000000e+00,5.000000000000000000e+00,5.000000000000000000e+00,5.000000000000000000e+00,5.000000000000000000e+00,5.000000000000000000e+00,5.000000000000000000e+00,5.000000000000000000e+00
1.933771729469299316e+00,1.960492849349975586e+00,1.987962841987609863e+00,2.016213417053222656e+00,2.045278549194335938e+00,2.075193881988525391e+00,2.105997562408447266e+00,2.137729167938232422e+00,2.170431852340698242e+00,2.204150676727294922e+00,2.238933563232421875e+00,2.274832010269165039e+00,2.311900138854980469e+00,2.350196361541748047e+00,2.389782667160034180e+00,2.430725574493408203e+00,2.473095893859863281e+00,2.516969203948974609e+00,2.562427759170532227e+00,2.609558105468750000e+00,2.658454895019531250e+00,2.709218978881835938e+00,2.761959791183471680e+00,2.816794395446777344e+00,2.873850584030151367e+00,2.933265924453735352e+00,2.995190143585205078e+00,3.059785127639770508e+00,3.127227544784545898e+00,3.197710514068603516e+00,3.271443367004394531e+00,3.348656654357910156e+00,3.429603338241577148e+00,3.514560222625732422e+00,3.603833198547363281e+00,3.697759151458740234e+00,3.796712636947631836e+00,3.901107549667358398e+00,4.011405467987060547e+00,4.128121852874755859e+00,4.251834392547607422e+00,4.383190155029296875e+00,4.522921562194824219e+00,4.671854972839355469e+00,4.830930233001708984e+00,5.000000000000000000e+00,5.000000000000000000e+00,5.000000000000000000e+00,5.000000000000000000e+00,5.000000000000000000e+00,5.000000000000000000e+00,5.000000000000000000e+00,5.000000000000000000e+00,5.000000000000000000e+00,5.000000000000000000e+00,4.297433376312255859e+00,4.114793777465820312e+00,4.082280158996582031e+00,5.000000000000000000e+00,5.000000000000000000e+00,5.000000000000000000e+00,5.000000000000000000e+00,5.000000000000000000e+00,5.000000000000000000e+00,5.000000000000000000e+00,5.000000000000000000e+00,5.000000000000000000e+00,5.000000000000000000e+00,5.000000000000000000e+00,5.000000000000000000e+00,5.000000000000000000e+00,5.000000000000000000e+00,5.000000000000000000e+00,5.000000000000000000e+00,5.000000000000000000e+00,5.000000000000000000e+00,5.000000000000000000e+00,5.000000000000000000e+00,5.000000000000000000e+00,5.000000000000000000e+00
1.933743715286254883e+00,1.960464000701904297e+00,1.987933158874511719e+00,2.016182899475097656e+00,2.045247077941894531e+00,2.075161695480346680e+00,2.105964183807373047e+00,2.137694835662841797e+00,2.170396566390991211e+00,2.204114198684692383e+00,2.238895893096923828e+00,2.274792909622192383e+00,2.311859846115112305e+00,2.350154876708984375e+00,2.389739751815795898e+00,2.430681228637695312e+00,2.473049879074096680e+00,2.516921758651733398e+00,2.562378168106079102e+00,2.609507083892822266e+00,2.658401727676391602e+00,2.709163665771484375e+00,2.761902332305908203e+00,2.816734790802001953e+00,2.873788356781005859e+00,2.933201313018798828e+00,2.995122671127319336e+00,3.059714794158935547e+00,3.127154111862182617e+00,3.197633743286132812e+00,3.271363019943237305e+00,3.348572492599487305e+00,3.429514884948730469e+00,3.514467477798461914e+00,3.603735685348510742e+00,3.697656393051147461e+00,3.796603918075561523e+00,3.900993108749389648e+00,4.011284351348876953e+00,4.127994060516357422e+00,4.251698493957519531e+00,4.383045673370361328e+00,4.522768020629882812e+00,4.671690464019775391e+00,4.830755233764648438e+00,5.000000000000000000e+00,5.000000000000000000e+00,5.000000000000000000e+00,5.000000000000000000e+00,5.000000000000000000e+00,5.000000000000000000e+00,5.000000000000000000e+00,5.000000000000000000e+00,5.000000000000000000e+00,5.000000000000000000e+00,5.000000000000000000e+00,4.295375823974609375e+00,4.108483314514160156e+00,5.000000000000000000e+00,5.000000000000000000e+00,5.000000000000000000e+00,5.000000000000000000e+00,5.000000000000000000e+00,5.000000000000000000e+00,5.000000000000000000e+00,5.000000000000000000e+00,5.000000000000000000e+00,5.000000000000000000e+00,5.000000000000000000e+00,5.000000000000000000e+00,5.000000000000000000e+00,5.000000000000000000e+00,5.000000000000000000e+00,5.000000000000000000e+00,5.000000000000000000e+00,5.000000000000000000e+00,5.000000000000000000e+00,5.000000000000000000e+00,5.000000000000000000e+00,5.000000000000000000e+00
1.933715581893920898e+00,1.960435152053833008e+00,1.987903475761413574e+00,2.016152381896972656e+00,2.045215606689453125e+00,2.075129270553588867e+00,2.105930805206298828e+00,2.137660503387451172e+00,2.170361280441284180e+00,2.204077482223510742e+00,2.238858222961425781e+00,2.274754047393798828e+00,2.311819791793823242e+00,2.350113391876220703e+00,2.389696836471557617e+00,2.430636644363403320e+00,2.473003864288330078e+00,2.516874074935913086e+00,2.562328815460205078e+00,2.609455823898315430e+00,2.658348560333251953e+00,2.709108591079711914e+00,2.761844873428344727e+00,2.816675186157226562e+00,2.873726367950439453e+00,2.933136701583862305e+00,2.995055437088012695e+00,3.059644460678100586e+00,3.127080678939819336e+00,3.197556495666503906e+00,3.271282672882080078e+00,3.348488330841064453e+00,3.429426670074462891e+00,3.514374732971191406e+00,3.603637933731079102e+00,3.697553873062133789e+00,3.796495676040649414e+00,3.900878906250000000e+00,4.011163234710693359e+00,4.127865791320800781e+00,4.251562595367431641e+00,4.382901668548583984e+00,4.522614479064941406e+00,4.671526908874511719e+00,4.830579757690429688e+00,5.000000000000000000e+00,5.000000000000000000e+00,5.000000000000000000e+00,5.000000000000000000e+00,5.000000000000000000e+00,5.000000000000000000e+00,5.000000000000000000e+00,5.000000000000000000e+00,5.000000000000000000e+00,5.000000000000000000e+00,5.000000000000000000e+00,4.312367439270019531e+00,4.139128208160400391e+00,5.000000000000000000e+00,5.000000000000000000e+00,5.000000000000000000e+00,5.000000000000000000e+00,5.000000000000000000e+00,5.000000000000000000e+00,5.000000000000000000e+00,5.000000000000000000e+00,5.000000000000000000e+00,5.000000000000000000e+00,5.000000000000000000e+00,5.000000000000000000e+00,5.000000000000000000e+00,5.000000000000000000e+00,5.000000000000000000e+00,5.000000000000000000e+00,5.000000000000000000e+00,5.000000000000000000e+00,5.000000000000000000e+00,5.000000000000000000e+00,5.000000000000000000e+00,5.000000000000000000e+00
1.933687448501586914e+00,1.960406303405761719e+00,1.987873792648315430e+00,2.016121625900268555e+00,2.045184373855590820e+00,2.075096845626831055e+00,2.105897665023803711e+00,2.137626171112060547e+00,2.170325756072998047e+00,2.204041004180908203e+00,2.238820552825927734e+00,2.274715185165405273e+00,2.311779737472534180e+00,2.350071907043457031e+00,2.389653921127319336e+00,2.430592298507690430e+00,2.472958087921142578e+00,2.516826391220092773e+00,2.562279462814331055e+00,2.609404802322387695e+00,2.658295631408691406e+00,2.709053516387939453e+00,2.761787652969360352e+00,2.816615581512451172e+00,2.873664379119873047e+00,2.933072090148925781e+00,2.994987964630126953e+00,3.059574127197265625e+00,3.127007246017456055e+00,3.197479724884033203e+00,3.271202325820922852e+00,3.348404169082641602e+00,3.429338216781616211e+00,3.514281749725341797e+00,3.603540420532226562e+00,3.697451114654541016e+00,3.796387434005737305e+00,3.900764703750610352e+00,4.011042594909667969e+00,4.127737998962402344e+00,4.251426696777343750e+00,4.382757186889648438e+00,4.522460460662841797e+00,4.671362876892089844e+00,4.830404758453369141e+00,5.000000000000000000e+00,5.000000000000000000e+00,5.000000000000000000e+00,5.000000000000000000e+00,5.000000000000000000e+00,5.000000000000000000e+00,5.000000000000000000e+00,5.000000000000000000e+00,5.000000000000000000e+00,5.000000000000000000e+00,5.000000000000000000e+00,4.348925590515136719e+00,4.146165370941162109e+00,5.000000000000000000e+00,5.000000000000000000e+00,5.000000000000000000e+00,5.000000000000000000e+00,5.000000000000000000e+00,5.000000000000000000e+00,5.000000000000000000e+00,5.000000000000000000e+00,5.000000000000000000e+00,5.000000000000000000e+00,5.000000000000000000e+00,5.000000000000000000e+00,5.000000000000000000e+00,5.000000000000000000e+00,5.000000000000000000e+00,5.000000000000000000e+00,5.000000000000000000e+00,5.000000000000000000e+00,5.000000000000000000e+00,5.000000000000000000e+00,5.000000000000000000e+00,5.000000000000000000e+00
1.933659434318542480e+00,1.960377454757690430e+00,1.987844109535217285e+00,2.016091108322143555e+00,2.045152902603149414e+00,2.075064659118652344e+00,2.105864286422729492e+00,2.137591838836669922e+00,2.170290231704711914e+00,2.204004526138305664e+00,2.238782882690429688e+00,2.274676322937011719e+00,2.311739444732666016e+00,2.350030422210693359e+00,2.389611244201660156e+00,2.430547952651977539e+00,2.472912073135375977e+00,2.516778945922851562e+00,2.562230348587036133e+00,2.609353542327880859e+00,2.658242464065551758e+00,2.708998441696166992e+00,2.761730432510375977e+00,2.816555976867675781e+00,2.873602390289306641e+00,2.933007478713989258e+00,2.994920253753662109e+00,3.059503793716430664e+00,3.126933813095092773e+00,3.197402954101562500e+00,3.271121740341186523e+00,3.348320007324218750e+00,3.429250001907348633e+00,3.514189004898071289e+00,3.603442907333374023e+00,3.697348356246948242e+00,3.796279191970825195e+00,3.900650501251220703e+00,4.010921955108642578e+00,4.127610206604003906e+00,4.251290798187255859e+00,4.382613182067871094e+00,4.522306919097900391e+00,4.671198844909667969e+00,4.821134567260742188e+00,4.819950103759765625e+00,4.818766117095947266e+00,4.817582607269287109e+00,4.816400051116943359e+00,4.815217971801757812e+00,4.814036369323730469e+00,4.812855720520019531e+00,4.811675071716308594e+00,4.810494899749755859e+00,4.809315681457519531e+00,4.808137416839599609e+00,4.267865180969238281e+00,4.075411319732666016e+00,4.804604530334472656e+00,4.803428173065185547e+00,4.802252292633056641e+00,4.801077365875244141e+00,4.799902439117431641e+00,4.798728466033935547e+00,4.797554969787597656e+00,4.796381950378417969e+00,4.795209884643554688e+00,4.794038295745849609e+00,4.792866706848144531e+00,4.791696071624755859e+00,4.790525913238525391e+00,4.789356708526611328e+00,4.788187980651855469e+00,4.787019252777099609e+00,4.785851955413818359e+00,4.784684181213378906e+00,4.783517837524414062e+00,4.782351970672607422e+00,4.781186103820800781e+00,4.780021190643310547e+00
1.933631300926208496e+00,1.960348606109619141e+00,1.987814426422119141e+00,2.016060590744018555e+00,2.045121431350708008e+00,2.075032234191894531e+00,2.105830907821655273e+00,2.137557744979858398e+00,2.170254945755004883e+00,2.203968048095703125e+00,2.238745212554931641e+00,2.274637460708618164e+00,2.311699151992797852e+00,2.349988937377929688e+00,2.389568328857421875e+00,2.430503606796264648e+00,2.472866058349609375e+00,2.516731262207031250e+00,2.562180995941162109e+00,2.609302282333374023e+00,2.658189535140991211e+00,2.708943367004394531e+00,2.761672973632812500e+00,2.816496133804321289e+00,2.873540401458740234e+00,2.932942867279052734e+00,2.994853019714355469e+00,3.059433698654174805e+00,3.126860380172729492e+00,3.197326183319091797e+00,3.271041154861450195e+00,3.348235845565795898e+00,3.429161548614501953e+00,3.514096260070800781e+00,3.603345394134521484e+00,3.697245836257934570e+00,3.751437425613403320e+00,3.750720262527465820e+00,3.750003576278686523e+00,3.749286890029907227e+00,3.748570680618286133e+00,3.747854709625244141e+00,3.747138977050781250e+00,3.746423721313476562e+00,3.745707988739013672e+00,3.744993209838867188e+00,3.744278192520141602e+00,3.743563890457153320e+00,3.742849826812744141e+00,3.742135524749755859e+00,3.741422176361083984e+00,3.740708827972412109e+00,3.739995479583740234e+00,3.739282846450805664e+00,3.738570451736450195e+00,3.737857818603515625e+00,3.737145900726318359e+00,3.736434221267700195e+00,3.735722541809082031e+00,3.735011577606201172e+00,3.734300613403320312e+00,3.733589887619018555e+00,3.732879638671875000e+00,3.732169628143310547e+00,3.731459379196166992e+00,3.730749845504760742e+00,3.730040311813354492e+00,3.729331493377685547e+00,3.728622913360595703e+00,3.727914094924926758e+00,3.727205991744995117e+00,3.726498126983642578e+00,3.725790023803710938e+00,3.725082874298095703e+00,3.724375724792480469e+00,3.723668575286865234e+00,3.722962141036987305e+00,3.722255945205688477e+00,3.721549510955810547e+00,3.720843791961669922e+00
1.933603286743164062e+00,1.960319757461547852e+00,1.987784504890441895e+00,2.016030073165893555e+00,2.045089960098266602e+00,2.074999809265136719e+00,2.105797767639160156e+00,2.137523412704467773e+00,2.170219659805297852e+00,2.203931570053100586e+00,2.238707542419433594e+00,2.274598598480224609e+00,2.311659097671508789e+00,2.349947452545166016e+00,2.389525413513183594e+00,2.430459260940551758e+00,2.472820043563842773e+00,2.516683816909790039e+00,2.562131643295288086e+00,2.609251260757446289e+00,2.658136367797851562e+00,2.708888292312622070e+00,2.761615753173828125e+00,2.816436529159545898e+00,2.873478412628173828e+00,2.932878255844116211e+00,2.994785547256469727e+00,3.059363365173339844e+00,3.070225477218627930e+00,3.069745063781738281e+00,3.069264888763427734e+00,3.068784952163696289e+00,3.068305015563964844e+00,3.067825317382812500e+00,3.067345857620239258e+00,3.066866397857666016e+00,3.066387176513671875e+00,3.065907955169677734e+00,3.065429210662841797e+00,3.064950466156005859e+00,3.064471721649169922e+00,3.063993215560913086e+00,3.063514947891235352e+00,3.063036680221557617e+00,3.062558650970458984e+00,3.062080621719360352e+00,3.061602830886840820e+00,3.061125278472900391e+00,3.060647487640380859e+00,3.060169935226440430e+00,3.059692859649658203e+00,3.059215784072875977e+00,3.058738470077514648e+00,3.058261871337890625e+00,3.057785272598266602e+00,3.057308673858642578e+00,3.056832313537597656e+00,3.056356191635131836e+00,3.055879831314086914e+00,3.055403947830200195e+00,3.054928302764892578e+00,3.054452657699584961e+00,3.053977251052856445e+00,3.053501844406127930e+00,3.053026676177978516e+00,3.052551507949829102e+00,3.052076816558837891e+00,3.051601886749267578e+00,3.051127433776855469e+00,3.050652980804443359e+00,3.050178527832031250e+00,3.049704551696777344e+00,3.049230575561523438e+00,3.048756599426269531e+00,3.048282861709594727e+00,3.047809600830078125e+00,3.047335863113403320e+00,3.046862840652465820e+00,3.046389341354370117e+00,3.045916557312011719e+00
1.933575153350830078e+00,1.960290908813476562e+00,1.987754821777343750e+00,2.015999555587768555e+00,2.045058727264404297e+00,2.074967384338378906e+00,2.105764389038085938e+00,2.137489080429077148e+00,2.170184135437011719e+00,2.203895092010498047e+00,2.238669872283935547e+00,2.274559736251831055e+00,2.311619043350219727e+00,2.349905729293823242e+00,2.389482498168945312e+00,2.430414915084838867e+00,2.472774028778076172e+00,2.516636133193969727e+00,2.562082290649414062e+00,2.598735332489013672e+00,2.598391294479370117e+00,2.598047256469726562e+00,2.597703218460083008e+00,2.597359418869018555e+00,2.597015619277954102e+00,2.596672058105468750e+00,2.596328496932983398e+00,2.595984935760498047e+00,2.595641613006591797e+00,2.595298290252685547e+00,2.594954967498779297e+00,2.594611883163452148e+00,2.594268798828125000e+00,2.593925952911376953e+00,2.593583106994628906e+00,2.593240261077880859e+00,2.592897653579711914e+00,2.592555046081542969e+00,2.592212677001953125e+00,2.591870069503784180e+00,2.591527938842773438e+00,2.591185569763183594e+00,2.590843439102172852e+00,2.590501546859741211e+00,2.590159654617309570e+00,2.589817762374877930e+00,2.589475870132446289e+00,2.589134216308593750e+00,2.588792562484741211e+00,2.588451147079467773e+00,2.588109731674194336e+00,2.587768554687500000e+00,2.587427139282226562e+00,2.587085962295532227e+00,2.586744785308837891e+00,2.586403846740722656e+00,2.586062908172607422e+00,2.585722208023071289e+00,2.585381269454956055e+00,2.585040569305419922e+00,2.584700107574462891e+00,2.584359407424926758e+00,2.584019184112548828e+00,2.583678960800170898e+00,2.583338737487792969e+00,2.582998514175415039e+00,2.582658529281616211e+00,2.582318544387817383e+00,2.581978797912597656e+00,2.581639051437377930e+00,2.581299304962158203e+00,2.580959796905517578e+00,2.580620288848876953e+00,2.580280780792236328e+00,2.579941511154174805e+00,2.579602241516113281e+00,2.579262971878051758e+00,2.578923940658569336e+00,2.578585147857666016e+00,2.578246116638183594e+00
1.933547139167785645e+00,1.960262060165405273e+00,1.987725257873535156e+00,2.015969038009643555e+00,2.045027256011962891e+00,2.074935197830200195e+00,2.105731010437011719e+00,2.137454748153686523e+00,2.170148849487304688e+00,2.203858613967895508e+00,2.238632440567016602e+00,2.252521038055419922e+00,2.252262353897094727e+00,2.252003908157348633e+00,2.251745462417602539e+00,2.251487016677856445e+00,2.251228809356689453e+00,2.250970602035522461e+00,2.250712394714355469e+00,2.250454187393188477e+00,2.250196218490600586e+00,2.249938249588012695e+00,2.249680280685424805e+00,2.249422311782836914e+00,2.249164581298828125e+00,2.248906850814819336e+00,2.248649120330810547e+00,2.248391389846801758e+00,2.248133659362792969e+00,2.247876167297363281e+00,2.247618675231933594e+00,2.247361421585083008e+00,2.247103929519653320e+00,2.246846675872802734e+00,2.246589422225952148e+00,2.246332168579101562e+00,2.246075153350830078e+00,2.245818138122558594e+00,2.245561122894287109e+00,2.245304107666015625e+00,2.245047092437744141e+00,2.244790315628051758e+00,2.244533538818359375e+00,2.244276762008666992e+00,2.244020223617553711e+00,2.243763685226440430e+00,2.243507146835327148e+00,2.243250608444213867e+00,2.242994070053100586e+00,2.242737770080566406e+00,2.242481470108032227e+00,2.242225170135498047e+00,2.241969108581542969e+00,2.241713047027587891e+00,2.241456985473632812e+00,2.241200923919677734e+00,2.240944862365722656e+00,2.240688800811767578e+00,2.240432977676391602e+00,2.240177154541015625e+00,2.239921331405639648e+00,2.239665746688842773e+00,2.239409923553466797e+00,2.239154338836669922e+00,2.238898992538452148e+00,2.238643407821655273e+00,2.238388061523437500e+00,2.238132715225219727e+00,2.237877368927001953e+00,2.237622022628784180e+00,2.237366914749145508e+00,2.237111806869506836e+00,2.236856698989868164e+00,2.236601591110229492e+00,2.236346721649169922e+00,2.236091852188110352e+00,2.235836982727050781e+00,2.235582113265991211e+00,2.235327482223510742e+00,2.235072851181030273e+00
1.933519005775451660e+00,1.960233092308044434e+00,1.987695574760437012e+00,1.987709879875183105e+00,1.987508535385131836e+00,1.987307310104370117e+00,1.987106084823608398e+00,1.986904859542846680e+00,1.986703634262084961e+00,1.986502528190612793e+00,1.986301422119140625e+00,1.986100435256958008e+00,1.985899448394775391e+00,1.985698461532592773e+00,1.985497593879699707e+00,1.985296726226806641e+00,1.985095858573913574e+00,1.984894990921020508e+00,1.984694361686706543e+00,1.984493494033813477e+00,1.984292864799499512e+00,1.984092235565185547e+00,1.983891606330871582e+00,1.983691096305847168e+00,1.983490586280822754e+00,1.983290076255798340e+00,1.983089685440063477e+00,1.982889294624328613e+00,1.982688903808593750e+00,1.982488632202148438e+00,1.982288360595703125e+00,1.982088088989257812e+00,1.981887936592102051e+00,1.981687784194946289e+00,1.981487631797790527e+00,1.981287598609924316e+00,1.981087565422058105e+00,1.980887532234191895e+00,1.980687618255615234e+00,1.980487704277038574e+00,1.980287790298461914e+00,1.980087995529174805e+00,1.979888200759887695e+00,1.979688405990600586e+00,1.979488730430603027e+00,1.979289054870605469e+00,1.979089498519897461e+00,1.978889822959899902e+00,1.978690266609191895e+00,1.978490829467773438e+00,1.978291273117065430e+00,1.978091835975646973e+00,1.977892518043518066e+00,1.977693200111389160e+00,1.977493882179260254e+00,1.977294564247131348e+00,1.977095365524291992e+00,1.976896166801452637e+00,1.976696968078613281e+00,1.976497888565063477e+00,1.976298570632934570e+00,1.976099610328674316e+00,1.975900530815124512e+00,1.975701689720153809e+00,1.975502729415893555e+00,1.975303649902343750e+00,1.975104808807373047e+00,1.974905967712402344e+00,1.974707245826721191e+00,1.974508523941040039e+00,1.974309921264648438e+00,1.974111080169677734e+00,1.973912477493286133e+00,1.973713874816894531e+00,1.973515391349792480e+00,1.973316907882690430e+00,1.973118543624877930e+00,1.972919940948486328e+00,1.972721576690673828e+00,1.972523212432861328e+00
1.777806758880615234e+00,1.777645707130432129e+00,1.777484655380249023e+00,1.777323722839355469e+00,1.777162790298461914e+00,1.777001857757568359e+00,1.776840925216674805e+00,1.776679992675781250e+00,1.776519179344177246e+00,1.776358366012573242e+00,1.776197552680969238e+00,1.776036858558654785e+00,1.775876045227050781e+00,1.775715351104736328e+00,1.775554656982421875e+00,1.775394082069396973e+00,1.775233387947082520e+00,1.775072813034057617e+00,1.774912238121032715e+00,1.774751782417297363e+00,1.774591207504272461e+00,1.774430751800537109e+00,1.774270296096801758e+00,1.774109840393066406e+00,1.773949503898620605e+00,1.773789167404174805e+00,1.773628830909729004e+00,1.773468494415283203e+00,1.773308277130126953e+00,1.773148059844970703e+00,1.772987842559814453e+00,1.772827625274658203e+00,1.772667407989501953e+00,1.772507309913635254e+00,1.772347211837768555e+00,1.772187113761901855e+00,1.772027134895324707e+00,1.771867156028747559e+00,1.771707177162170410e+00,1.771547198295593262e+00,1.771387219429016113e+00,1.771227359771728516e+00,1.771067500114440918e+00,1.770907640457153320e+00,1.770747780799865723e+00,1.770588040351867676e+00,1.770428299903869629e+00,1.770268559455871582e+00,1.770108819007873535e+00,1.769949197769165039e+00,1.769789576530456543e+00,1.769629955291748047e+00,1.769470334053039551e+00,1.769310832023620605e+00,1.769151329994201660e+00,1.768991827964782715e+00,1.768832325935363770e+00,1.768672943115234375e+00,1.768513560295104980e+00,1.768354177474975586e+00,1.768194794654846191e+00,1.768035411834716797e+00,1.767876148223876953e+00,1.767716884613037109e+00,1.767557501792907715e+00,1.767398238182067871e+00,1.767239093780517578e+00,1.767079949378967285e+00,1.766920685768127441e+00,1.766761541366577148e+00,1.766602516174316406e+00,1.766443490982055664e+00,1.766284465789794922e+00,1.766125440597534180e+00,1.765966415405273438e+00,1.765807509422302246e+00,1.765648603439331055e+00,1.765489697456359863e+00,1.765330910682678223e+00,1.765172123908996582e+00
1.607605934143066406e+00,1.607474207878112793e+00,1.607342481613159180e+00,1.607210874557495117e+00,1.607079267501831055e+00,1.606947660446166992e+00,1.606816053390502930e+00,1.606684446334838867e+00,1.606552958488464355e+00,1.606421470642089844e+00,1.606289863586425781e+00,1.606158375740051270e+00,1.606027007102966309e+00,1.605895519256591797e+00,1.605764150619506836e+00,1.605632781982421875e+00,1.605501413345336914e+00,1.605370044708251953e+00,1.605238676071166992e+00,1.605107307434082031e+00,1.604976058006286621e+00,1.604844808578491211e+00,1.604713559150695801e+00,1.604582309722900391e+00,1.604451179504394531e+00,1.604319930076599121e+00,1.604188799858093262e+00,1.604057669639587402e+00,1.603926539421081543e+00,1.603795528411865234e+00,1.603664398193359375e+00,1.603533387184143066e+00,1.603402376174926758e+00,1.603271365165710449e+00,1.603140354156494141e+00,1.603009343147277832e+00,1.602878451347351074e+00,1.602747440338134766e+00,1.602616548538208008e+00,1.602485775947570801e+00,1.602354884147644043e+00,1.602223992347717285e+00,1.602093219757080078e+00,1.601962447166442871e+00,1.601831674575805664e+00,1.601700901985168457e+00,1.601570129394531250e+00,1.601439476013183594e+00,1.601308822631835938e+00,1.601178169250488281e+00,1.601047515869140625e+00,1.600916862487792969e+00,1.600786209106445312e+00,1.600655674934387207e+00,1.600525140762329102e+00,1.600394606590270996e+00,1.600264072418212891e+00,1.600133538246154785e+00,1.600003123283386230e+00,1.599872589111328125e+00,1.599742174148559570e+00,1.599611759185791016e+00,1.599481344223022461e+00,1.599351048469543457e+00,1.599220633506774902e+00,1.599090337753295898e+00,1.598960041999816895e+00,1.598829746246337891e+00,1.598699450492858887e+00,1.598569154739379883e+00,1.598438858985900879e+00,1.598308682441711426e+00,1.598178386688232422e+00,1.598048210144042969e+00,1.597918033599853516e+00,1.597787976264953613e+00,1.597657918930053711e+00,1.597527623176574707e+00,1.597397565841674805e+00,1.597267627716064453e+00
1.467146515846252441e+00,1.467036843299865723e+00,1.466927170753479004e+00,1.466817498207092285e+00,1.466707825660705566e+00,1.466598153114318848e+00,1.466488599777221680e+00,1.466379046440124512e+00,1.466269493103027344e+00,1.466159939765930176e+00,1.466050386428833008e+00,1.465940833091735840e+00,1.465831279754638672e+00,1.465721845626831055e+00,1.465612292289733887e+00,1.465502858161926270e+00,1.465393424034118652e+00,1.465283989906311035e+00,1.465174555778503418e+00,1.465065240859985352e+00,1.464955806732177734e+00,1.464846491813659668e+00,1.464737057685852051e+00,1.464627742767333984e+00,1.464518427848815918e+00,1.464409112930297852e+00,1.464299917221069336e+00,1.464190602302551270e+00,1.464081406593322754e+00,1.463972091674804688e+00,1.463862895965576172e+00,1.463753700256347656e+00,1.463644504547119141e+00,1.463535428047180176e+00,1.463426232337951660e+00,1.463317036628723145e+00,1.463207960128784180e+00,1.463098883628845215e+00,1.462989807128906250e+00,1.462880730628967285e+00,1.462771654129028320e+00,1.462662696838378906e+00,1.462553620338439941e+00,1.462444663047790527e+00,1.462335586547851562e+00,1.462226629257202148e+00,1.462117671966552734e+00,1.462008833885192871e+00,1.461899876594543457e+00,1.461790919303894043e+00,1.461682081222534180e+00,1.461573243141174316e+00,1.461464405059814453e+00,1.461355566978454590e+00,1.461246728897094727e+00,1.461137890815734863e+00,1.461029052734375000e+00,1.460920333862304688e+00,1.460811614990234375e+00,1.460702776908874512e+00,1.460594058036804199e+00,1.460485339164733887e+00,1.460376739501953125e+00,1.460268020629882812e+00,1.460159301757812500e+00,1.460050702095031738e+00,1.459942102432250977e+00,1.459833502769470215e+00,1.459724903106689453e+00,1.459616303443908691e+00,1.459507703781127930e+00,1.459399223327636719e+00,1.459290623664855957e+00,1.459182024002075195e+00,1.459073543548583984e+00,1.458964824676513672e+00,1.458856463432312012e+00,1.458747982978820801e+00,1.458639502525329590e+00,1.458531141281127930e+00
1.349259257316589355e+00,1.349166512489318848e+00,1.349073767662048340e+00,1.348981022834777832e+00,1.348888278007507324e+00,1.348795533180236816e+00,1.348702788352966309e+00,1.348610162734985352e+00,1.348517417907714844e+00,1.348424792289733887e+00,1.348332166671752930e+00,1.348239541053771973e+00,1.348146915435791016e+00,1.348054289817810059e+00,1.347961664199829102e+00,1.347869038581848145e+00,1.347776532173156738e+00,1.347683906555175781e+00,1.347591400146484375e+00,1.347498774528503418e+00,1.347406268119812012e+00,1.347313761711120605e+00,1.347221255302429199e+00,1.347128868103027344e+00,1.347036361694335938e+00,1.346943855285644531e+00,1.346851468086242676e+00,1.346758961677551270e+00,1.346666574478149414e+00,1.346574187278747559e+00,1.346481800079345703e+00,1.346389412879943848e+00,1.346297025680541992e+00,1.346204638481140137e+00,1.346112251281738281e+00,1.346019983291625977e+00,1.345927596092224121e+00,1.345835328102111816e+00,1.345743060111999512e+00,1.345650672912597656e+00,1.345558404922485352e+00,1.345466136932373047e+00,1.345373988151550293e+00,1.345281720161437988e+00,1.345189452171325684e+00,1.345097303390502930e+00,1.345005035400390625e+00,1.344912886619567871e+00,1.344820737838745117e+00,1.344728589057922363e+00,1.344636440277099609e+00,1.344544291496276855e+00,1.344452142715454102e+00,1.344359993934631348e+00,1.344267964363098145e+00,1.344175815582275391e+00,1.344083786010742188e+00,1.343991756439208984e+00,1.343899607658386230e+00,1.343807578086853027e+00,1.343715548515319824e+00,1.343623638153076172e+00,1.343531608581542969e+00,1.343439579010009766e+00,1.343347668647766113e+00,1.343255639076232910e+00,1.343163728713989258e+00,1.343071818351745605e+00,1.342979907989501953e+00,1.342887997627258301e+00,1.342796087265014648e+00,1.342704176902770996e+00,1.342612266540527344e+00,1.342520475387573242e+00,1.342428565025329590e+00,1.342336773872375488e+00,1.342244982719421387e+00,1.342153072357177734e+00,1.342061161994934082e+00,1.341969370841979980e+00
1.248907685279846191e+00,1.248828291893005371e+00,1.248748779296875000e+00,1.248669385910034180e+00,1.248589873313903809e+00,1.248510479927062988e+00,1.248430967330932617e+00,1.248351693153381348e+00,1.248272180557250977e+00,1.248192906379699707e+00,1.248113393783569336e+00,1.248034119606018066e+00,1.247954726219177246e+00,1.247875332832336426e+00,1.247795939445495605e+00,1.247716665267944336e+00,1.247637271881103516e+00,1.247557997703552246e+00,1.247478723526000977e+00,1.247399330139160156e+00,1.247320055961608887e+00,1.247240781784057617e+00,1.247161507606506348e+00,1.247082233428955078e+00,1.247003078460693359e+00,1.246923804283142090e+00,1.246844530105590820e+00,1.246765375137329102e+00,1.246686100959777832e+00,1.246606945991516113e+00,1.246527671813964844e+00,1.246448516845703125e+00,1.246369361877441406e+00,1.246290206909179688e+00,1.246211051940917969e+00,1.246131896972656250e+00,1.246052742004394531e+00,1.245973706245422363e+00,1.245894551277160645e+00,1.245815396308898926e+00,1.245736360549926758e+00,1.245657324790954590e+00,1.245578169822692871e+00,1.245499134063720703e+00,1.245420098304748535e+00,1.245341062545776367e+00,1.245262026786804199e+00,1.245182991027832031e+00,1.245103955268859863e+00,1.245025038719177246e+00,1.244946002960205078e+00,1.244866967201232910e+00,1.244788050651550293e+00,1.244709134101867676e+00,1.244630098342895508e+00,1.244551181793212891e+00,1.244472265243530273e+00,1.244393348693847656e+00,1.244314432144165039e+00,1.244235515594482422e+00,1.244156599044799805e+00,1.244077801704406738e+00,1.243998885154724121e+00,1.243920087814331055e+00,1.243841171264648438e+00,1.243762373924255371e+00,1.243683457374572754e+00,1.243604660034179688e+00,1.243525862693786621e+00,1.243447065353393555e+00,1.243368268013000488e+00,1.243289470672607422e+00,1.243210792541503906e+00,1.243131995201110840e+00,1.243053197860717773e+00,1.242974519729614258e+00,1.242895722389221191e+00,1.242817044258117676e+00,1.242738366127014160e+00,1.242659687995910645e+00
1.162450313568115234e+00,1.162381410598754883e+00,1.162312626838684082e+00,1.162243723869323730e+00,1.162174940109252930e+00,1.162106037139892578e+00,1.162037253379821777e+00,1.161968469619750977e+00,1.161899685859680176e+00,1.161830902099609375e+00,1.161762118339538574e+00,1.161693334579467773e+00,1.161624550819396973e+00,1.161555767059326172e+00,1.161486983299255371e+00,1.161418318748474121e+00,1.161349534988403320e+00,1.161280751228332520e+00,1.161212086677551270e+00,1.161143302917480469e+00,1.161074638366699219e+00,1.161005973815917969e+00,1.160937309265136719e+00,1.160868525505065918e+00,1.160799860954284668e+00,1.160731196403503418e+00,1.160662531852722168e+00,1.160593986511230469e+00,1.160525321960449219e+00,1.160456657409667969e+00,1.160387992858886719e+00,1.160319447517395020e+00,1.160250782966613770e+00,1.160182237625122070e+00,1.160113573074340820e+00,1.160045027732849121e+00,1.159976482391357422e+00,1.159907817840576172e+00,1.159839272499084473e+00,1.159770727157592773e+00,1.159702181816101074e+00,1.159633636474609375e+00,1.159565210342407227e+00,1.159496665000915527e+00,1.159428119659423828e+00,1.159359574317932129e+00,1.159291148185729980e+00,1.159222602844238281e+00,1.159154176712036133e+00,1.159085631370544434e+00,1.159017205238342285e+00,1.158948779106140137e+00,1.158880352973937988e+00,1.158811926841735840e+00,1.158743381500244141e+00,1.158675074577331543e+00,1.158606648445129395e+00,1.158538222312927246e+00,1.158469796180725098e+00,1.158401489257812500e+00,1.158333063125610352e+00,1.158264756202697754e+00,1.158196330070495605e+00,1.158128023147583008e+00,1.158059716224670410e+00,1.157991290092468262e+00,1.157922983169555664e+00,1.157854676246643066e+00,1.157786369323730469e+00,1.157718062400817871e+00,1.157649755477905273e+00,1.157581448554992676e+00,1.157513141632080078e+00,1.157444953918457031e+00,1.157376646995544434e+00,1.157308340072631836e+00,1.157240152359008789e+00,1.157171845436096191e+00,1.157103657722473145e+00,1.157035470008850098e+00
1.087188124656677246e+00,1.087127923965454102e+00,1.087067604064941406e+00,1.087007403373718262e+00,1.086947202682495117e+00,1.086887001991271973e+00,1.086826801300048828e+00,1.086766600608825684e+00,1.086706399917602539e+00,1.086646199226379395e+00,1.086586117744445801e+00,1.086525917053222656e+00,1.086465716361999512e+00,1.086405634880065918e+00,1.086345434188842773e+00,1.086285352706909180e+00,1.086225152015686035e+00,1.086165070533752441e+00,1.086104989051818848e+00,1.086044788360595703e+00,1.085984706878662109e+00,1.085924625396728516e+00,1.085864543914794922e+00,1.085804462432861328e+00,1.085744380950927734e+00,1.085684299468994141e+00,1.085624217987060547e+00,1.085564136505126953e+00,1.085504174232482910e+00,1.085444092750549316e+00,1.085384011268615723e+00,1.085324048995971680e+00,1.085263967514038086e+00,1.085204005241394043e+00,1.085143923759460449e+00,1.085083961486816406e+00,1.085023999214172363e+00,1.084963917732238770e+00,1.084903955459594727e+00,1.084843993186950684e+00,1.084784030914306641e+00,1.084724068641662598e+00,1.084664106369018555e+00,1.084604144096374512e+00,1.084544181823730469e+00,1.084484219551086426e+00,1.084424257278442383e+00,1.084364414215087891e+00,1.084304451942443848e+00,1.084244489669799805e+00,1.084184646606445312e+00,1.084124803543090820e+00,1.084064841270446777e+00,1.084004998207092285e+00,1.083945035934448242e+00,1.083885192871093750e+00,1.083825349807739258e+00,1.083765506744384766e+00,1.083705663681030273e+00,1.083645820617675781e+00,1.083585977554321289e+00,1.083526134490966797e+00,1.083466291427612305e+00,1.083406448364257812e+00,1.083346605300903320e+00,1.083286881446838379e+00,1.083227038383483887e+00,1.083167195320129395e+00,1.083107471466064453e+00,1.083047628402709961e+00,1.082987904548645020e+00,1.082928180694580078e+00,1.082868337631225586e+00,1.082808613777160645e+00,1.082748889923095703e+00,1.082689166069030762e+00,1.082629442214965820e+00,1.082569599151611328e+00,1.082509875297546387e+00,1.082450270652770996e+00
1.021078944206237793e+00,1.021025776863098145e+00,1.020972609519958496e+00,1.020919561386108398e+00,1.020866394042968750e+00,1.020813345909118652e+00,1.020760178565979004e+00,1.020707130432128906e+00,1.020654082298278809e+00,1.020600914955139160e+00,1.020547866821289062e+00,1.020494818687438965e+00,1.020441770553588867e+00,1.020388603210449219e+00,1.020335555076599121e+00,1.020282506942749023e+00,1.020229458808898926e+00,1.020176410675048828e+00,1.020123481750488281e+00,1.020070433616638184e+00,1.020017385482788086e+00,1.019964337348937988e+00,1.019911289215087891e+00,1.019858360290527344e+00,1.019805312156677246e+00,1.019752383232116699e+00,1.019699335098266602e+00,1.019646406173706055e+00,1.019593358039855957e+00,1.019540429115295410e+00,1.019487380981445312e+00,1.019434452056884766e+00,1.019381523132324219e+00,1.019328594207763672e+00,1.019275546073913574e+00,1.019222617149353027e+00,1.019169688224792480e+00,1.019116759300231934e+00,1.019063830375671387e+00,1.019010901451110840e+00,1.018957972526550293e+00,1.018905162811279297e+00,1.018852233886718750e+00,1.018799304962158203e+00,1.018746376037597656e+00,1.018693566322326660e+00,1.018640637397766113e+00,1.018587827682495117e+00,1.018534898757934570e+00,1.018482089042663574e+00,1.018429160118103027e+00,1.018376350402832031e+00,1.018323421478271484e+00,1.018270611763000488e+00,1.018217802047729492e+00,1.018164992332458496e+00,1.018112182617187500e+00,1.018059253692626953e+00,1.018006443977355957e+00,1.017953634262084961e+00,1.017900824546813965e+00,1.017848134040832520e+00,1.017795324325561523e+00,1.017742514610290527e+00,1.017689704895019531e+00,1.017636895179748535e+00,1.017584204673767090e+00,1.017531394958496094e+00,1.017478585243225098e+00,1.017425894737243652e+00,1.017373085021972656e+00,1.017320394515991211e+00,1.017267584800720215e+00,1.017214894294738770e+00,1.017162203788757324e+00,1.017109513282775879e+00,1.017056703567504883e+00,1.017004013061523438e+00,1.016951322555541992e+00,1.016898632049560547e+00
