3.098366260528564453e+00,3.176682472229003906e+00,3.259060382843017578e+00,3.345824718475341797e+00,3.437335252761840820e+00,3.533992052078247070e+00,3.636242151260375977e+00,3.744585275650024414e+00,3.859583139419555664e+00,3.981867790222167969e+00,4.112154960632324219e+00,4.251256465911865234e+00,5.000000000000000000e+00,5.000000000000000000e+00,5.000000000000000000e+00,5.000000000000000000e+00,5.000000000000000000e+00,5.000000000000000000e+00,5.000000000000000000e+00,5.000000000000000000e+00,5.000000000000000000e+00,5.000000000000000000e+00,5.000000000000000000e+00,5.000000000000000000e+00,5.000000000000000000e+00,5.000000000000000000e+00,5.000000000000000000e+00,5.000000000000000000e+00,5.000000000000000000e+00,5.000000000000000000e+00,5.000000000000000000e+00,5.000000000000000000e+00,5.000000000000000000e+00,5.000000000000000000e+00,5.000000000000000000e+00,5.000000000000000000e+00,5.000000000000000000e+00,5.000000000000000000e+00,5.000000000000000000e+00,5.000000000000000000e+00,5.000000000000000000e+00,5.000000000000000000e+00,5.000000000000000000e+00,5.000000000000000000e+00,5.000000000000000000e+00,5.000000000000000000e+00,5.000000000000000000e+00,5.000000000000000000e+00,5.000000000000000000e+00,5.000000000000000000e+00,5.000000000000000000e+00,5.000000000000000000e+00,5.000000000000000000e+00,5.000000000000000000e+00,5.000000000000000000e+00,5.000000000000000000e+00,5.000000000000000000e+00,5.000000000000000000e+00,5.000000000000000000e+00,5.000000000000000000e+00,5.000000000000000000e+00,5.000000000000000000e+00,5.000000000000000000e+00,5.000000000000000000e+00,5.000000000000000000e+00,5.000000000000000000e+00,5.000000000000000000e+00,5.000000000000000000e+00,5.000000000000000000e+00,5.000000000000000000e+00,5.000000000000000000e+00,5.000000000000000000e+00,5.000000000000000000e+00,5.000000000000000000e+00,4.272346973419189453e+00,4.148350238800048828e+00,4.031347751617431641e+00,3.920764446258544922e+00,3.816056489944458008e+00,3.716784477233886719e+00
3.098306417465209961e+00,3.176619529724121094e+00,3.258994579315185547e+00,3.345755338668823242e+00,3.437261819839477539e+00,3.533914327621459961e+00,3.636159896850585938e+00,3.744498014450073242e+00,3.859490394592285156e+00,3.981769084930419922e+00,4.112049579620361328e+00,4.251143932342529297e+00,4.399977684020996094e+00,5.000000000000000000e+00,5.000000000000000000e+00,5.000000000000000000e+00,5.000000000000000000e+00,5.000000000000000000e+00,5.000000000000000000e+00,5.000000000000000000e+00,5.000000000000000000e+00,5.000000000000000000e+00,5.000000000000000000e+00,5.000000000000000000e+00,5.000000000000000000e+00,5.000000000000000000e+00,5.000000000000000000e+00,5.000000000000000000e+00,5.000000000000000000e+00,5.000000000000000000e+00,5.000000000000000000e+00,5.000000000000000000e+00,5.000000000000000000e+00,5.000000000000000000e+00,5.000000000000000000e+00,5.000000000000000000e+00,5.000000000000000000e+00,5.000000000000000000e+00,5.000000000000000000e+00,5.000000000000000000e+00,5.000000000000000000e+00,5.000000000000000000e+00,5.000000000000000000e+00,5.000000000000000000e+00,5.000000000000000000e+00,5.000000000000000000e+00,5.000000000000000000e+00,5.000000000000000000e+00,5.000000000000000000e+00,5.000000000000000000e+00,5.000000000000000000e+00,5.000000000000000000e+00,5.000000000000000000e+00,5.000000000000000000e+00,5.000000000000000000e+00,5.000000000000000000e+00,5.000000000000000000e+00,5.000000000000000000e+00,5.000000000000000000e+00,5.000000000000000000e+00,5.000000000000000000e+00,5.000000000000000000e+00,5.000000000000000000e+00,5.000000000000000000e+00,5.000000000000000000e+00,5.000000000000000000e+00,5.000000000000000000e+00,5.000000000000000000e+00,5.000000000000000000e+00,5.000000000000000000e+00,5.000000000000000000e+00,5.000000000000000000e+00,5.000000000000000000e+00,4.404165267944335938e+00,4.272516727447509766e+00,4.148509979248046875e+00,4.031498908996582031e+00,3.920870780944824219e+00,3.816145181655883789e+00,3.716868400573730469e+00
3.098246812820434570e+00,3.176557064056396484e+00,3.258928537368774414e+00,3.345685482025146484e+00,3.437188148498535156e+00,3.533836364746093750e+00,3.636077404022216797e+00,3.744410753250122070e+00,3.859397411346435547e+00,3.981670379638671875e+00,4.111944675445556641e+00,4.251031875610351562e+00,4.399857521057128906e+00,4.559481620788574219e+00,5.000000000000000000e+00,5.000000000000000000e+00,5.000000000000000000e+00,5.000000000000000000e+00,5.000000000000000000e+00,5.000000000000000000e+00,5.000000000000000000e+00,5.000000000000000000e+00,5.000000000000000000e+00,5.000000000000000000e+00,5.000000000000000000e+00,5.000000000000000000e+00,5.000000000000000000e+00,5.000000000000000000e+00,5.000000000000000000e+00,5.000000000000000000e+00,5.000000000000000000e+00,5.000000000000000000e+00,5.000000000000000000e+00,5.000000000000000000e+00,5.000000000000000000e+00,5.000000000000000000e+00,5.000000000000000000e+00,5.000000000000000000e+00,5.000000000000000000e+00,5.000000000000000000e+00,5.000000000000000000e+00,5.000000000000000000e+00,5.000000000000000000e+00,5.000000000000000000e+00,5.000000000000000000e+00,5.000000000000000000e+00,5.000000000000000000e+00,5.000000000000000000e+00,5.000000000000000000e+00,5.000000000000000000e+00,5.000000000000000000e+00,5.000000000000000000e+00,5.000000000000000000e+00,5.000000000000000000e+00,5.000000000000000000e+00,5.000000000000000000e+00,5.000000000000000000e+00,5.000000000000000000e+00,5.000000000000000000e+00,5.000000000000000000e+00,5.000000000000000000e+00,5.000000000000000000e+00,5.000000000000000000e+00,5.000000000000000000e+00,5.000000000000000000e+00,5.000000000000000000e+00,5.000000000000000000e+00,5.000000000000000000e+00,5.000000000000000000e+00,5.000000000000000000e+00,5.000000000000000000e+00,5.000000000000000000e+00,4.544376373291015625e+00,4.404345512390136719e+00,4.272686004638671875e+00,4.148669719696044922e+00,4.031604766845703125e+00,3.920964241027832031e+00,3.816234111785888672e+00,3.716952562332153320e+00
3.098187208175659180e+00,3.176494121551513672e+00,3.258862257003784180e+00,3.345615863800048828e+00,3.437114715576171875e+00,3.533758640289306641e+00,3.635995149612426758e+00,3.744323253631591797e+00,3.859304666519165039e+00,3.981571912765502930e+00,4.111839294433593750e+00,4.250918865203857422e+00,4.399736881256103516e+00,4.559352397918701172e+00,4.730985164642333984e+00,5.000000000000000000e+00,5.000000000000000000e+00,5.000000000000000000e+00,5.000000000000000000e+00,5.000000000000000000e+00,5.000000000000000000e+00,5.000000000000000000e+00,5.000000000000000000e+00,5.000000000000000000e+00,5.000000000000000000e+00,5.000000000000000000e+00,5.000000000000000000e+00,5.000000000000000000e+00,5.000000000000000000e+00,5.000000000000000000e+00,5.000000000000000000e+00,5.000000000000000000e+00,5.000000000000000000e+00,5.000000000000000000e+00,5.000000000000000000e+00,5.000000000000000000e+00,5.000000000000000000e+00,5.000000000000000000e+00,5.000000000000000000e+00,5.000000000000000000e+00,5.000000000000000000e+00,5.000000000000000000e+00,5.000000000000000000e+00,5.000000000000000000e+00,5.000000000000000000e+00,5.000000000000000000e+00,5.000000000000000000e+00,5.000000000000000000e+00,5.000000000000000000e+00,5.000000000000000000e+00,5.000000000000000000e+00,5.000000000000000000e+00,5.000000000000000000e+00,5.000000000000000000e+00,5.000000000000000000e+00,5.000000000000000000e+00,5.000000000000000000e+00,5.000000000000000000e+00,5.000000000000000000e+00,5.000000000000000000e+00,5.000000000000000000e+00,5.000000000000000000e+00,5.000000000000000000e+00,5.000000000000000000e+00,5.000000000000000000e+00,5.000000000000000000e+00,5.000000000000000000e+00,5.000000000000000000e+00,5.000000000000000000e+00,5.000000000000000000e+00,5.000000000000000000e+00,4.693809032440185547e+00,4.544568538665771484e+00,4.404525756835937500e+00,4.272850513458251953e+00,4.148775577545166016e+00,4.031703948974609375e+00,3.921057701110839844e+00,3.816322565078735352e+00,3.717036724090576172e+00
3.098123550415039062e+00,3.176431417465209961e+00,3.258796215057373047e+00,3.345546245574951172e+00,3.437041044235229492e+00,3.533680915832519531e+00,3.635912895202636719e+00,3.744236469268798828e+00,3.859212398529052734e+00,3.981473207473754883e+00,4.111733913421630859e+00,4.250806331634521484e+00,4.399616718292236328e+00,4.559223175048828125e+00,4.730845928192138672e+00,4.915894508361816406e+00,5.000000000000000000e+00,5.000000000000000000e+00,5.000000000000000000e+00,5.000000000000000000e+00,5.000000000000000000e+00,5.000000000000000000e+00,5.000000000000000000e+00,5.000000000000000000e+00,5.000000000000000000e+00,5.000000000000000000e+00,5.000000000000000000e+00,5.000000000000000000e+00,5.000000000000000000e+00,5.000000000000000000e+00,5.000000000000000000e+00,5.000000000000000000e+00,5.000000000000000000e+00,5.000000000000000000e+00,5.000000000000000000e+00,5.000000000000000000e+00,5.000000000000000000e+00,5.000000000000000000e+00,5.000000000000000000e+00,5.000000000000000000e+00,5.000000000000000000e+00,5.000000000000000000e+00,5.000000000000000000e+00,5.000000000000000000e+00,5.000000000000000000e+00,5.000000000000000000e+00,5.000000000000000000e+00,5.000000000000000000e+00,5.000000000000000000e+00,5.000000000000000000e+00,5.000000000000000000e+00,5.000000000000000000e+00,5.000000000000000000e+00,5.000000000000000000e+00,5.000000000000000000e+00,5.000000000000000000e+00,5.000000000000000000e+00,5.000000000000000000e+00,5.000000000000000000e+00,5.000000000000000000e+00,5.000000000000000000e+00,5.000000000000000000e+00,5.000000000000000000e+00,5.000000000000000000e+00,5.000000000000000000e+00,5.000000000000000000e+00,5.000000000000000000e+00,5.000000000000000000e+00,5.000000000000000000e+00,5.000000000000000000e+00,4.853402614593505859e+00,4.694013595581054688e+00,4.544760227203369141e+00,4.404692649841308594e+00,4.272961616516113281e+00,4.148880481719970703e+00,4.031802654266357422e+00,3.921151161193847656e+00,3.816411256790161133e+00,3.717120885848999023e+00
3.098057270050048828e+00,3.176364660263061523e+00,3.258729934692382812e+00,3.345476388931274414e+00,3.436967372894287109e+00,3.533603429794311523e+00,3.635830879211425781e+00,3.744149208068847656e+00,3.859119653701782227e+00,3.981374502182006836e+00,4.111629009246826172e+00,4.250694274902343750e+00,4.399496078491210938e+00,4.559093475341796875e+00,4.730706214904785156e+00,4.915744304656982422e+00,5.000000000000000000e+00,5.000000000000000000e+00,5.000000000000000000e+00,5.000000000000000000e+00,5.000000000000000000e+00,5.000000000000000000e+00,5.000000000000000000e+00,5.000000000000000000e+00,5.000000000000000000e+00,5.000000000000000000e+00,5.000000000000000000e+00,5.000000000000000000e+00,5.000000000000000000e+00,5.000000000000000000e+00,5.000000000000000000e+00,5.000000000000000000e+00,5.000000000000000000e+00,5.000000000000000000e+00,5.000000000000000000e+00,5.000000000000000000e+00,5.000000000000000000e+00,5.000000000000000000e+00,5.000000000000000000e+00,5.000000000000000000e+00,5.000000000000000000e+00,5.000000000000000000e+00,5.000000000000000000e+00,5.000000000000000000e+00,5.000000000000000000e+00,5.000000000000000000e+00,5.000000000000000000e+00,5.000000000000000000e+00,5.000000000000000000e+00,5.000000000000000000e+00,5.000000000000000000e+00,5.000000000000000000e+00,5.000000000000000000e+00,5.000000000000000000e+00,5.000000000000000000e+00,5.000000000000000000e+00,5.000000000000000000e+00,5.000000000000000000e+00,5.000000000000000000e+00,5.000000000000000000e+00,5.000000000000000000e+00,5.000000000000000000e+00,5.000000000000000000e+00,5.000000000000000000e+00,5.000000000000000000e+00,5.000000000000000000e+00,5.000000000000000000e+00,5.000000000000000000e+00,5.000000000000000000e+00,5.000000000000000000e+00,4.853621959686279297e+00,4.694218158721923828e+00,4.544930934906005859e+00,4.404810905456542969e+00,4.273072719573974609e+00,4.148985385894775391e+00,4.031901836395263672e+00,3.921244621276855469e+00,3.816499710083007812e+00,3.717204809188842773e+00
3.097990989685058594e+00,3.176294803619384766e+00,3.258660078048706055e+00,3.345407009124755859e+00,3.436894178390502930e+00,3.533525705337524414e+00,3.635748386383056641e+00,3.744061708450317383e+00,3.859026908874511719e+00,3.981275796890258789e+00,4.111523628234863281e+00,4.250581741333007812e+00,4.399375438690185547e+00,4.558964252471923828e+00,4.730567455291748047e+00,4.915594100952148438e+00,5.000000000000000000e+00,5.000000000000000000e+00,5.000000000000000000e+00,5.000000000000000000e+00,5.000000000000000000e+00,5.000000000000000000e+00,5.000000000000000000e+00,5.000000000000000000e+00,5.000000000000000000e+00,5.000000000000000000e+00,5.000000000000000000e+00,5.000000000000000000e+00,5.000000000000000000e+00,5.000000000000000000e+00,5.000000000000000000e+00,5.000000000000000000e+00,5.000000000000000000e+00,5.000000000000000000e+00,5.000000000000000000e+00,5.000000000000000000e+00,5.000000000000000000e+00,5.000000000000000000e+00,5.000000000000000000e+00,5.000000000000000000e+00,5.000000000000000000e+00,5.000000000000000000e+00,5.000000000000000000e+00,5.000000000000000000e+00,5.000000000000000000e+00,5.000000000000000000e+00,5.000000000000000000e+00,5.000000000000000000e+00,5.000000000000000000e+00,5.000000000000000000e+00,5.000000000000000000e+00,5.000000000000000000e+00,5.000000000000000000e+00,5.000000000000000000e+00,5.000000000000000000e+00,5.000000000000000000e+00,5.000000000000000000e+00,5.000000000000000000e+00,5.000000000000000000e+00,5.000000000000000000e+00,5.000000000000000000e+00,5.000000000000000000e+00,5.000000000000000000e+00,5.000000000000000000e+00,5.000000000000000000e+00,5.000000000000000000e+00,5.000000000000000000e+00,5.000000000000000000e+00,5.000000000000000000e+00,5.000000000000000000e+00,4.853840351104736328e+00,4.694392204284667969e+00,4.545056819915771484e+00,4.404929161071777344e+00,4.273183822631835938e+00,4.149089813232421875e+00,4.032000541687011719e+00,3.921338558197021484e+00,3.816588401794433594e+00,3.717288970947265625e+00
3.097924470901489258e+00,3.176224946975708008e+00,3.258586645126342773e+00,3.345333099365234375e+00,3.436820745468139648e+00,3.533447980880737305e+00,3.635666131973266602e+00,3.743974447250366211e+00,3.858934164047241211e+00,3.981177091598510742e+00,4.111418247222900391e+00,4.250469207763671875e+00,4.399255275726318359e+00,4.558835029602050781e+00,4.730427742004394531e+00,4.915443420410156250e+00,5.000000000000000000e+00,5.000000000000000000e+00,5.000000000000000000e+00,5.000000000000000000e+00,5.000000000000000000e+00,5.000000000000000000e+00,5.000000000000000000e+00,5.000000000000000000e+00,5.000000000000000000e+00,5.000000000000000000e+00,5.000000000000000000e+00,5.000000000000000000e+00,5.000000000000000000e+00,5.000000000000000000e+00,5.000000000000000000e+00,5.000000000000000000e+00,5.000000000000000000e+00,5.000000000000000000e+00,5.000000000000000000e+00,5.000000000000000000e+00,5.000000000000000000e+00,5.000000000000000000e+00,5.000000000000000000e+00,5.000000000000000000e+00,5.000000000000000000e+00,5.000000000000000000e+00,5.000000000000000000e+00,5.000000000000000000e+00,5.000000000000000000e+00,5.000000000000000000e+00,5.000000000000000000e+00,5.000000000000000000e+00,5.000000000000000000e+00,5.000000000000000000e+00,5.000000000000000000e+00,5.000000000000000000e+00,5.000000000000000000e+00,5.000000000000000000e+00,5.000000000000000000e+00,5.000000000000000000e+00,5.000000000000000000e+00,5.000000000000000000e+00,5.000000000000000000e+00,5.000000000000000000e+00,5.000000000000000000e+00,5.000000000000000000e+00,5.000000000000000000e+00,5.000000000000000000e+00,5.000000000000000000e+00,5.000000000000000000e+00,5.000000000000000000e+00,5.000000000000000000e+00,5.000000000000000000e+00,5.000000000000000000e+00,4.854017734527587891e+00,4.694526195526123047e+00,4.545182228088378906e+00,4.405047416687011719e+00,4.273294925689697266e+00,4.149194717407226562e+00,4.032099246978759766e+00,3.921432018280029297e+00,3.816677331924438477e+00,3.717372894287109375e+00
3.097858190536499023e+00,3.176155567169189453e+00,3.258513212203979492e+00,3.345255851745605469e+00,3.436742782592773438e+00,3.533370256423950195e+00,3.635583877563476562e+00,3.743887186050415039e+00,3.858841419219970703e+00,3.981078386306762695e+00,4.111313343048095703e+00,4.250357151031494141e+00,4.399134635925292969e+00,4.558705329895019531e+00,4.730288505554199219e+00,4.915293216705322266e+00,5.000000000000000000e+00,5.000000000000000000e+00,5.000000000000000000e+00,5.000000000000000000e+00,5.000000000000000000e+00,5.000000000000000000e+00,5.000000000000000000e+00,5.000000000000000000e+00,5.000000000000000000e+00,5.000000000000000000e+00,5.000000000000000000e+00,5.000000000000000000e+00,5.000000000000000000e+00,5.000000000000000000e+00,5.000000000000000000e+00,5.000000000000000000e+00,5.000000000000000000e+00,5.000000000000000000e+00,5.000000000000000000e+00,5.000000000000000000e+00,5.000000000000000000e+00,5.000000000000000000e+00,5.000000000000000000e+00,5.000000000000000000e+00,5.000000000000000000e+00,5.000000000000000000e+00,5.000000000000000000e+00,5.000000000000000000e+00,5.000000000000000000e+00,5.000000000000000000e+00,5.000000000000000000e+00,5.000000000000000000e+00,5.000000000000000000e+00,5.000000000000000000e+00,5.000000000000000000e+00,5.000000000000000000e+00,5.000000000000000000e+00,5.000000000000000000e+00,5.000000000000000000e+00,5.000000000000000000e+00,5.000000000000000000e+00,5.000000000000000000e+00,5.000000000000000000e+00,5.000000000000000000e+00,5.000000000000000000e+00,5.000000000000000000e+00,5.000000000000000000e+00,5.000000000000000000e+00,5.000000000000000000e+00,5.000000000000000000e+00,5.000000000000000000e+00,5.000000000000000000e+00,5.000000000000000000e+00,5.000000000000000000e+00,4.854161262512207031e+00,4.694660186767578125e+00,4.545308113098144531e+00,4.405165195465087891e+00,4.273406028747558594e+00,4.149299621582031250e+00,4.032198429107666016e+00,3.921525716781616211e+00,3.816765785217285156e+00,3.717457294464111328e+00
3.097791910171508789e+00,3.176085948944091797e+00,3.258439779281616211e+00,3.345178604125976562e+00,3.436661243438720703e+00,3.533288478851318359e+00,3.635501623153686523e+00,3.743799924850463867e+00,3.858749151229858398e+00,3.980980157852172852e+00,4.111207962036132812e+00,4.250244617462158203e+00,4.399013996124267578e+00,4.558576583862304688e+00,4.730149745941162109e+00,4.915143013000488281e+00,5.000000000000000000e+00,5.000000000000000000e+00,5.000000000000000000e+00,5.000000000000000000e+00,5.000000000000000000e+00,5.000000000000000000e+00,5.000000000000000000e+00,5.000000000000000000e+00,5.000000000000000000e+00,5.000000000000000000e+00,5.000000000000000000e+00,5.000000000000000000e+00,5.000000000000000000e+00,5.000000000000000000e+00,5.000000000000000000e+00,5.000000000000000000e+00,5.000000000000000000e+00,5.000000000000000000e+00,5.000000000000000000e+00,5.000000000000000000e+00,5.000000000000000000e+00,5.000000000000000000e+00,5.000000000000000000e+00,5.000000000000000000e+00,5.000000000000000000e+00,5.000000000000000000e+00,5.000000000000000000e+00,5.000000000000000000e+00,5.000000000000000000e+00,5.000000000000000000e+00,5.000000000000000000e+00,5.000000000000000000e+00,5.000000000000000000e+00,5.000000000000000000e+00,5.000000000000000000e+00,5.000000000000000000e+00,5.000000000000000000e+00,5.000000000000000000e+00,5.000000000000000000e+00,5.000000000000000000e+00,5.000000000000000000e+00,5.000000000000000000e+00,5.000000000000000000e+00,5.000000000000000000e+00,5.000000000000000000e+00,5.000000000000000000e+00,5.000000000000000000e+00,5.000000000000000000e+00,5.000000000000000000e+00,5.000000000000000000e+00,5.000000000000000000e+00,5.000000000000000000e+00,5.000000000000000000e+00,5.000000000000000000e+00,4.854304790496826172e+00,4.694794178009033203e+00,4.545433521270751953e+00,4.405283451080322266e+00,4.273517131805419922e+00,4.149404525756835938e+00,4.032297134399414062e+00,3.921619176864624023e+00,3.816854476928710938e+00,3.717541217803955078e+00
3.097725391387939453e+00,3.176016092300415039e+00,3.258366346359252930e+00,3.345101118087768555e+00,3.436579465866088867e+00,3.533201932907104492e+00,3.635414838790893555e+00,3.743712902069091797e+00,3.858656406402587891e+00,3.980881452560424805e+00,4.111103057861328125e+00,4.250132083892822266e+00,4.398893833160400391e+00,4.558446884155273438e+00,4.730010032653808594e+00,4.914992332458496094e+00,5.000000000000000000e+00,5.000000000000000000e+00,5.000000000000000000e+00,5.000000000000000000e+00,5.000000000000000000e+00,5.000000000000000000e+00,5.000000000000000000e+00,5.000000000000000000e+00,5.000000000000000000e+00,5.000000000000000000e+00,5.000000000000000000e+00,5.000000000000000000e+00,5.000000000000000000e+00,5.000000000000000000e+00,5.000000000000000000e+00,5.000000000000000000e+00,5.000000000000000000e+00,5.000000000000000000e+00,5.000000000000000000e+00,5.000000000000000000e+00,5.000000000000000000e+00,5.000000000000000000e+00,5.000000000000000000e+00,5.000000000000000000e+00,5.000000000000000000e+00,5.000000000000000000e+00,5.000000000000000000e+00,5.000000000000000000e+00,5.000000000000000000e+00,5.000000000000000000e+00,5.000000000000000000e+00,5.000000000000000000e+00,5.000000000000000000e+00,5.000000000000000000e+00,5.000000000000000000e+00,5.000000000000000000e+00,5.000000000000000000e+00,5.000000000000000000e+00,5.000000000000000000e+00,5.000000000000000000e+00,5.000000000000000000e+00,5.000000000000000000e+00,5.000000000000000000e+00,5.000000000000000000e+00,5.000000000000000000e+00,5.000000000000000000e+00,5.000000000000000000e+00,5.000000000000000000e+00,5.000000000000000000e+00,5.000000000000000000e+00,5.000000000000000000e+00,5.000000000000000000e+00,5.000000000000000000e+00,5.000000000000000000e+00,4.854447841644287109e+00,4.694928646087646484e+00,4.545559406280517578e+00,4.405401706695556641e+00,4.273628711700439453e+00,4.149509429931640625e+00,4.032396316528320312e+00,3.921712160110473633e+00,3.816939592361450195e+00,3.717619180679321289e+00
3.097659111022949219e+00,3.175946474075317383e+00,3.258292913436889648e+00,3.345023870468139648e+00,3.436497926712036133e+00,3.533115625381469727e+00,3.635323524475097656e+00,3.743621110916137695e+00,3.858563661575317383e+00,3.980782747268676758e+00,4.110997676849365234e+00,4.250019550323486328e+00,4.398773193359375000e+00,4.558317661285400391e+00,4.729870796203613281e+00,4.914842128753662109e+00,5.000000000000000000e+00,5.000000000000000000e+00,5.000000000000000000e+00,5.000000000000000000e+00,5.000000000000000000e+00,5.000000000000000000e+00,5.000000000000000000e+00,5.000000000000000000e+00,5.000000000000000000e+00,5.000000000000000000e+00,5.000000000000000000e+00,5.000000000000000000e+00,5.000000000000000000e+00,5.000000000000000000e+00,5.000000000000000000e+00,5.000000000000000000e+00,5.000000000000000000e+00,5.000000000000000000e+00,5.000000000000000000e+00,5.000000000000000000e+00,5.000000000000000000e+00,5.000000000000000000e+00,5.000000000000000000e+00,5.000000000000000000e+00,5.000000000000000000e+00,5.000000000000000000e+00,5.000000000000000000e+00,5.000000000000000000e+00,5.000000000000000000e+00,5.000000000000000000e+00,5.000000000000000000e+00,5.000000000000000000e+00,5.000000000000000000e+00,5.000000000000000000e+00,5.000000000000000000e+00,5.000000000000000000e+00,5.000000000000000000e+00,5.000000000000000000e+00,5.000000000000000000e+00,5.000000000000000000e+00,5.000000000000000000e+00,5.000000000000000000e+00,5.000000000000000000e+00,5.000000000000000000e+00,5.000000000000000000e+00,5.000000000000000000e+00,5.000000000000000000e+00,5.000000000000000000e+00,5.000000000000000000e+00,5.000000000000000000e+00,5.000000000000000000e+00,5.000000000000000000e+00,5.000000000000000000e+00,5.000000000000000000e+00,4.854591846466064453e+00,4.695062637329101562e+00,4.545685291290283203e+00,4.405519485473632812e+00,4.273739337921142578e+00,4.149610519409179688e+00,4.032488822937011719e+00,3.921797037124633789e+00,3.817019939422607422e+00,3.717694997787475586e+00
3.097593069076538086e+00,3.175876617431640625e+00,3.258219718933105469e+00,3.344946384429931641e+00,3.436416149139404297e+00,3.533029317855834961e+00,3.635232210159301758e+00,3.743524312973022461e+00,3.858465909957885742e+00,3.980684041976928711e+00,4.110892772674560547e+00,4.249907016754150391e+00,4.398652553558349609e+00,4.558188438415527344e+00,4.729732036590576172e+00,4.914691925048828125e+00,5.000000000000000000e+00,5.000000000000000000e+00,5.000000000000000000e+00,5.000000000000000000e+00,5.000000000000000000e+00,5.000000000000000000e+00,5.000000000000000000e+00,5.000000000000000000e+00,5.000000000000000000e+00,5.000000000000000000e+00,5.000000000000000000e+00,5.000000000000000000e+00,5.000000000000000000e+00,5.000000000000000000e+00,5.000000000000000000e+00,5.000000000000000000e+00,5.000000000000000000e+00,5.000000000000000000e+00,5.000000000000000000e+00,5.000000000000000000e+00,5.000000000000000000e+00,5.000000000000000000e+00,5.000000000000000000e+00,5.000000000000000000e+00,5.000000000000000000e+00,5.000000000000000000e+00,5.000000000000000000e+00,5.000000000000000000e+00,5.000000000000000000e+00,5.000000000000000000e+00,5.000000000000000000e+00,5.000000000000000000e+00,5.000000000000000000e+00,5.000000000000000000e+00,5.000000000000000000e+00,5.000000000000000000e+00,5.000000000000000000e+00,5.000000000000000000e+00,5.000000000000000000e+00,5.000000000000000000e+00,5.000000000000000000e+00,5.000000000000000000e+00,5.000000000000000000e+00,5.000000000000000000e+00,5.000000000000000000e+00,5.000000000000000000e+00,5.000000000000000000e+00,5.000000000000000000e+00,5.000000000000000000e+00,5.000000000000000000e+00,5.000000000000000000e+00,5.000000000000000000e+00,5.000000000000000000e+00,5.000000000000000000e+00,4.854734897613525391e+00,4.695197105407714844e+00,4.545808315277099609e+00,4.405630588531494141e+00,4.273840427398681641e+00,4.149705410003662109e+00,4.032577991485595703e+00,3.921881675720214844e+00,3.817099809646606445e+00,3.717771291732788086e+00
3.097526788711547852e+00,3.175806999206542969e+00,3.258146524429321289e+00,3.344869136810302734e+00,3.436334848403930664e+00,3.532943010330200195e+00,3.635140657424926758e+00,3.743427276611328125e+00,3.858363151550292969e+00,3.980580568313598633e+00,4.110787391662597656e+00,4.249794960021972656e+00,4.398532390594482422e+00,4.558059215545654297e+00,4.729592323303222656e+00,4.914541244506835938e+00,5.000000000000000000e+00,5.000000000000000000e+00,5.000000000000000000e+00,5.000000000000000000e+00,5.000000000000000000e+00,5.000000000000000000e+00,5.000000000000000000e+00,5.000000000000000000e+00,5.000000000000000000e+00,5.000000000000000000e+00,4.539150714874267578e+00,5.000000000000000000e+00,5.000000000000000000e+00,5.000000000000000000e+00,5.000000000000000000e+00,5.000000000000000000e+00,5.000000000000000000e+00,5.000000000000000000e+00,5.000000000000000000e+00,5.000000000000000000e+00,5.000000000000000000e+00,5.000000000000000000e+00,5.000000000000000000e+00,5.000000000000000000e+00,5.000000000000000000e+00,5.000000000000000000e+00,5.000000000000000000e+00,5.000000000000000000e+00,5.000000000000000000e+00,5.000000000000000000e+00,5.000000000000000000e+00,5.000000000000000000e+00,5.000000000000000000e+00,5.000000000000000000e+00,5.000000000000000000e+00,5.000000000000000000e+00,5.000000000000000000e+00,5.000000000000000000e+00,5.000000000000000000e+00,5.000000000000000000e+00,5.000000000000000000e+00,5.000000000000000000e+00,5.000000000000000000e+00,5.000000000000000000e+00,5.000000000000000000e+00,5.000000000000000000e+00,5.000000000000000000e+00,5.000000000000000000e+00,5.000000000000000000e+00,5.000000000000000000e+00,5.000000000000000000e+00,5.000000000000000000e+00,5.000000000000000000e+00,5.000000000000000000e+00,4.854871273040771484e+00,4.695319652557373047e+00,4.545921802520751953e+00,4.405737876892089844e+00,4.273941040039062500e+00,4.149800300598144531e+00,4.032667636871337891e+00,3.921966075897216797e+00,3.817180156707763672e+00,3.717847347259521484e+00
3.097460508346557617e+00,3.175737142562866211e+00,3.258073091506958008e+00,3.344791889190673828e+00,3.436253309249877930e+00,3.532856941223144531e+00,3.635049819946289062e+00,3.743330478668212891e+00,3.858260154724121094e+00,3.980471134185791016e+00,4.110677242279052734e+00,4.249682426452636719e+00,4.398412227630615234e+00,4.557929515838623047e+00,4.729453563690185547e+00,4.914391517639160156e+00,5.000000000000000000e+00,5.000000000000000000e+00,5.000000000000000000e+00,5.000000000000000000e+00,5.000000000000000000e+00,5.000000000000000000e+00,5.000000000000000000e+00,5.000000000000000000e+00,5.000000000000000000e+00,4.558619499206542969e+00,4.538443088531494141e+00,4.633014678955078125e+00,5.000000000000000000e+00,5.000000000000000000e+00,5.000000000000000000e+00,5.000000000000000000e+00,5.000000000000000000e+00,5.000000000000000000e+00,5.000000000000000000e+00,5.000000000000000000e+00,5.000000000000000000e+00,5.000000000000000000e+00,5.000000000000000000e+00,5.000000000000000000e+00,5.000000000000000000e+00,5.000000000000000000e+00,5.000000000000000000e+00,5.000000000000000000e+00,5.000000000000000000e+00,5.000000000000000000e+00,5.000000000000000000e+00,5.000000000000000000e+00,5.000000000000000000e+00,5.000000000000000000e+00,5.000000000000000000e+00,5.000000000000000000e+00,5.000000000000000000e+00,5.000000000000000000e+00,5.000000000000000000e+00,5.000000000000000000e+00,5.000000000000000000e+00,5.000000000000000000e+00,5.000000000000000000e+00,5.000000000000000000e+00,5.000000000000000000e+00,5.000000000000000000e+00,5.000000000000000000e+00,5.000000000000000000e+00,5.000000000000000000e+00,5.000000000000000000e+00,5.000000000000000000e+00,5.000000000000000000e+00,5.000000000000000000e+00,5.000000000000000000e+00,4.855000972747802734e+00,4.695441246032714844e+00,4.546035766601562500e+00,4.405844688415527344e+00,4.274041175842285156e+00,4.149895191192626953e+00,4.032757282257080078e+00,3.922050952911376953e+00,3.817260503768920898e+00,3.717923164367675781e+00
3.097393989562988281e+00,3.175667524337768555e+00,3.257999658584594727e+00,3.344714403152465820e+00,3.436171531677246094e+00,3.532770633697509766e+00,3.634958505630493164e+00,3.743233442306518555e+00,3.858157634735107422e+00,3.980361461639404297e+00,4.110560417175292969e+00,4.249564647674560547e+00,4.398291587829589844e+00,4.557800769805908203e+00,4.729314327239990234e+00,4.914240837097167969e+00,5.000000000000000000e+00,5.000000000000000000e+00,5.000000000000000000e+00,5.000000000000000000e+00,5.000000000000000000e+00,5.000000000000000000e+00,5.000000000000000000e+00,5.000000000000000000e+00,5.000000000000000000e+00,5.000000000000000000e+00,4.553380489349365234e+00,5.000000000000000000e+00,5.000000000000000000e+00,5.000000000000000000e+00,5.000000000000000000e+00,5.000000000000000000e+00,5.000000000000000000e+00,5.000000000000000000e+00,5.000000000000000000e+00,5.000000000000000000e+00,5.000000000000000000e+00,5.000000000000000000e+00,5.000000000000000000e+00,5.000000000000000000e+00,5.000000000000000000e+00,5.000000000000000000e+00,5.000000000000000000e+00,5.000000000000000000e+00,5.000000000000000000e+00,5.000000000000000000e+00,5.000000000000000000e+00,5.000000000000000000e+00,5.000000000000000000e+00,5.000000000000000000e+00,5.000000000000000000e+00,5.000000000000000000e+00,5.000000000000000000e+00,5.000000000000000000e+00,5.000000000000000000e+00,5.000000000000000000e+00,5.000000000000000000e+00,5.000000000000000000e+00,5.000000000000000000e+00,5.000000000000000000e+00,5.000000000000000000e+00,5.000000000000000000e+00,5.000000000000000000e+00,5.000000000000000000e+00,5.000000000000000000e+00,5.000000000000000000e+00,5.000000000000000000e+00,5.000000000000000000e+00,5.000000000000000000e+00,5.000000000000000000e+00,4.855130672454833984e+00,4.695562839508056641e+00,4.546149253845214844e+00,4.405951499938964844e+00,4.274142265319824219e+00,4.149990081787109375e+00,4.032846927642822266e+00,3.922135829925537109e+00,3.817340373992919922e+00,3.717999458312988281e+00
3.097327709197998047e+00,3.175597667694091797e+00,3.257926464080810547e+00,3.344637155532836914e+00,3.436089992523193359e+00,3.532684326171875000e+00,3.634866952896118164e+00,3.743136644363403320e+00,3.858054637908935547e+00,3.980252027511596680e+00,4.110443592071533203e+00,4.249440193176269531e+00,4.398165702819824219e+00,4.557671070098876953e+00,4.729174613952636719e+00,4.914090633392333984e+00,5.000000000000000000e+00,5.000000000000000000e+00,5.000000000000000000e+00,5.000000000000000000e+00,5.000000000000000000e+00,5.000000000000000000e+00,5.000000000000000000e+00,5.000000000000000000e+00,5.000000000000000000e+00,4.552174091339111328e+00,4.544664859771728516e+00,4.598057270050048828e+00,4.590636730194091797e+00,5.000000000000000000e+00,5.000000000000000000e+00,5.000000000000000000e+00,5.000000000000000000e+00,5.000000000000000000e+00,5.000000000000000000e+00,5.000000000000000000e+00,5.000000000000000000e+00,5.000000000000000000e+00,5.000000000000000000e+00,5.000000000000000000e+00,5.000000000000000000e+00,5.000000000000000000e+00,5.000000000000000000e+00,5.000000000000000000e+00,5.000000000000000000e+00,5.000000000000000000e+00,5.000000000000000000e+00,5.000000000000000000e+00,5.000000000000000000e+00,5.000000000000000000e+00,5.000000000000000000e+00,5.000000000000000000e+00,5.000000000000000000e+00,5.000000000000000000e+00,5.000000000000000000e+00,5.000000000000000000e+00,5.000000000000000000e+00,5.000000000000000000e+00,5.000000000000000000e+00,5.000000000000000000e+00,5.000000000000000000e+00,5.000000000000000000e+00,5.000000000000000000e+00,5.000000000000000000e+00,5.000000000000000000e+00,5.000000000000000000e+00,5.000000000000000000e+00,5.000000000000000000e+00,5.000000000000000000e+00,5.000000000000000000e+00,4.855260848999023438e+00,4.695683956146240234e+00,4.546263217926025391e+00,4.406058311462402344e+00,4.274242401123046875e+00,4.150084972381591797e+00,4.032936096191406250e+00,3.922219991683959961e+00,3.817420721054077148e+00,3.718075513839721680e+00
3.097261428833007812e+00,3.175528287887573242e+00,3.257853031158447266e+00,3.344559669494628906e+00,3.436008214950561523e+00,3.532598018646240234e+00,3.634775638580322266e+00,3.743039846420288086e+00,3.857951879501342773e+00,3.980142354965209961e+00,4.110326766967773438e+00,4.249315261840820312e+00,4.398032188415527344e+00,4.557536125183105469e+00,4.729035854339599609e+00,4.913940429687500000e+00,5.000000000000000000e+00,5.000000000000000000e+00,5.000000000000000000e+00,5.000000000000000000e+00,5.000000000000000000e+00,5.000000000000000000e+00,5.000000000000000000e+00,4.598277568817138672e+00,4.559611320495605469e+00,4.536305904388427734e+00,4.526347160339355469e+00,4.535977840423583984e+00,4.590183258056640625e+00,4.611985683441162109e+00,5.000000000000000000e+00,5.000000000000000000e+00,5.000000000000000000e+00,5.000000000000000000e+00,5.000000000000000000e+00,5.000000000000000000e+00,5.000000000000000000e+00,5.000000000000000000e+00,5.000000000000000000e+00,5.000000000000000000e+00,5.000000000000000000e+00,5.000000000000000000e+00,5.000000000000000000e+00,5.000000000000000000e+00,5.000000000000000000e+00,5.000000000000000000e+00,5.000000000000000000e+00,5.000000000000000000e+00,5.000000000000000000e+00,5.000000000000000000e+00,5.000000000000000000e+00,5.000000000000000000e+00,5.000000000000000000e+00,5.000000000000000000e+00,5.000000000000000000e+00,5.000000000000000000e+00,5.000000000000000000e+00,5.000000000000000000e+00,5.000000000000000000e+00,5.000000000000000000e+00,5.000000000000000000e+00,5.000000000000000000e+00,5.000000000000000000e+00,5.000000000000000000e+00,5.000000000000000000e+00,5.000000000000000000e+00,5.000000000000000000e+00,5.000000000000000000e+00,5.000000000000000000e+00,5.000000000000000000e+00,4.855390071868896484e+00,4.695805072784423828e+00,4.546377182006835938e+00,4.406165122985839844e+00,4.274343490600585938e+00,4.150179386138916016e+00,4.033025741577148438e+00,3.922304868698120117e+00,3.817501068115234375e+00,3.718151807785034180e+00
3.097168207168579102e+00,3.175445556640625000e+00,3.257779598236083984e+00,3.344482660293579102e+00,3.435926675796508789e+00,3.532511711120605469e+00,3.634684324264526367e+00,3.742942810058593750e+00,3.857848882675170898e+00,3.980032920837402344e+00,4.110209941864013672e+00,4.249190330505371094e+00,4.397898197174072266e+00,4.557392597198486328e+00,4.728890419006347656e+00,4.913790225982666016e+00,5.000000000000000000e+00,5.000000000000000000e+00,5.000000000000000000e+00,5.000000000000000000e+00,5.000000000000000000e+00,5.000000000000000000e+00,5.000000000000000000e+00,4.629157543182373047e+00,4.565373897552490234e+00,4.516211509704589844e+00,4.509321212768554688e+00,4.536084175109863281e+00,4.618985176086425781e+00,4.627728939056396484e+00,5.000000000000000000e+00,5.000000000000000000e+00,5.000000000000000000e+00,5.000000000000000000e+00,5.000000000000000000e+00,5.000000000000000000e+00,5.000000000000000000e+00,5.000000000000000000e+00,5.000000000000000000e+00,5.000000000000000000e+00,5.000000000000000000e+00,5.000000000000000000e+00,5.000000000000000000e+00,5.000000000000000000e+00,5.000000000000000000e+00,5.000000000000000000e+00,5.000000000000000000e+00,5.000000000000000000e+00,5.000000000000000000e+00,5.000000000000000000e+00,5.000000000000000000e+00,5.000000000000000000e+00,5.000000000000000000e+00,5.000000000000000000e+00,5.000000000000000000e+00,5.000000000000000000e+00,5.000000000000000000e+00,5.000000000000000000e+00,5.000000000000000000e+00,5.000000000000000000e+00,5.000000000000000000e+00,5.000000000000000000e+00,5.000000000000000000e+00,5.000000000000000000e+00,5.000000000000000000e+00,5.000000000000000000e+00,5.000000000000000000e+00,5.000000000000000000e+00,5.000000000000000000e+00,5.000000000000000000e+00,4.855520248413085938e+00,4.695926666259765625e+00,4.546490669250488281e+00,4.406271934509277344e+00,4.274443626403808594e+00,4.150274276733398438e+00,4.033115386962890625e+00,3.922389745712280273e+00,3.817581415176391602e+00,3.718227624893188477e+00
3.097069978713989258e+00,3.175342321395874023e+00,3.257673740386962891e+00,3.344388008117675781e+00,3.435845136642456055e+00,3.532425880432128906e+00,3.634593009948730469e+00,3.742846488952636719e+00,3.857746124267578125e+00,3.979923248291015625e+00,4.110093116760253906e+00,4.249065399169921875e+00,4.397764682769775391e+00,4.557249069213867188e+00,4.728735923767089844e+00,4.913633346557617188e+00,5.000000000000000000e+00,5.000000000000000000e+00,5.000000000000000000e+00,5.000000000000000000e+00,5.000000000000000000e+00,5.000000000000000000e+00,5.000000000000000000e+00,4.625105857849121094e+00,4.612877845764160156e+00,4.516505718231201172e+00,4.509575843811035156e+00,4.539787769317626953e+00,4.618023872375488281e+00,4.636434555053710938e+00,5.000000000000000000e+00,5.000000000000000000e+00,5.000000000000000000e+00,5.000000000000000000e+00,5.000000000000000000e+00,5.000000000000000000e+00,5.000000000000000000e+00,5.000000000000000000e+00,5.000000000000000000e+00,5.000000000000000000e+00,5.000000000000000000e+00,5.000000000000000000e+00,5.000000000000000000e+00,5.000000000000000000e+00,5.000000000000000000e+00,5.000000000000000000e+00,5.000000000000000000e+00,5.000000000000000000e+00,5.000000000000000000e+00,5.000000000000000000e+00,5.000000000000000000e+00,5.000000000000000000e+00,5.000000000000000000e+00,5.000000000000000000e+00,5.000000000000000000e+00,5.000000000000000000e+00,5.000000000000000000e+00,5.000000000000000000e+00,5.000000000000000000e+00,5.000000000000000000e+00,5.000000000000000000e+00,5.000000000000000000e+00,5.000000000000000000e+00,5.000000000000000000e+00,5.000000000000000000e+00,5.000000000000000000e+00,5.000000000000000000e+00,5.000000000000000000e+00,5.000000000000000000e+00,5.000000000000000000e+00,4.855649948120117188e+00,4.696047782897949219e+00,4.546604633331298828e+00,4.406378746032714844e+00,4.274544715881347656e+00,4.150369167327880859e+00,4.033205032348632812e+00,3.922474622726440430e+00,3.817661285400390625e+00,3.718303918838500977e+00
3.096971750259399414e+00,3.175239086151123047e+00,3.257565259933471680e+00,3.344273805618286133e+00,3.435724258422851562e+00,3.532317161560058594e+00,3.634498596191406250e+00,3.742749691009521484e+00,3.857643127441406250e+00,3.979814291000366211e+00,4.109976768493652344e+00,4.248940467834472656e+00,4.397631168365478516e+00,4.557105541229248047e+00,4.728581428527832031e+00,4.913466453552246094e+00,5.000000000000000000e+00,5.000000000000000000e+00,5.000000000000000000e+00,5.000000000000000000e+00,5.000000000000000000e+00,5.000000000000000000e+00,5.000000000000000000e+00,4.622571468353271484e+00,4.621657848358154297e+00,4.514947414398193359e+00,4.507725238800048828e+00,4.538166999816894531e+00,4.661606788635253906e+00,4.650597095489501953e+00,5.000000000000000000e+00,5.000000000000000000e+00,5.000000000000000000e+00,5.000000000000000000e+00,5.000000000000000000e+00,5.000000000000000000e+00,5.000000000000000000e+00,5.000000000000000000e+00,5.000000000000000000e+00,5.000000000000000000e+00,5.000000000000000000e+00,5.000000000000000000e+00,5.000000000000000000e+00,5.000000000000000000e+00,5.000000000000000000e+00,5.000000000000000000e+00,5.000000000000000000e+00,5.000000000000000000e+00,5.000000000000000000e+00,5.000000000000000000e+00,5.000000000000000000e+00,5.000000000000000000e+00,5.000000000000000000e+00,5.000000000000000000e+00,5.000000000000000000e+00,5.000000000000000000e+00,5.000000000000000000e+00,5.000000000000000000e+00,5.000000000000000000e+00,5.000000000000000000e+00,5.000000000000000000e+00,5.000000000000000000e+00,5.000000000000000000e+00,5.000000000000000000e+00,5.000000000000000000e+00,5.000000000000000000e+00,5.000000000000000000e+00,5.000000000000000000e+00,5.000000000000000000e+00,5.000000000000000000e+00,4.855779647827148438e+00,4.696169376373291016e+00,4.546718120574951172e+00,4.406486034393310547e+00,4.274644851684570312e+00,4.150464057922363281e+00,4.033294677734375000e+00,3.922559022903442383e+00,3.817741632461547852e+00,3.718380212783813477e+00
3.096902370452880859e+00,3.175150632858276367e+00,3.257456302642822266e+00,3.344159126281738281e+00,3.435603380203247070e+00,3.532189369201660156e+00,3.634363174438476562e+00,3.742624044418334961e+00,3.857532739639282227e+00,3.979704856872558594e+00,4.109859943389892578e+00,4.248816013336181641e+00,4.397497653961181641e+00,4.556962013244628906e+00,4.728426933288574219e+00,4.913299560546875000e+00,5.000000000000000000e+00,5.000000000000000000e+00,5.000000000000000000e+00,5.000000000000000000e+00,5.000000000000000000e+00,5.000000000000000000e+00,5.000000000000000000e+00,4.578765392303466797e+00,4.621122360229492188e+00,4.520301342010498047e+00,4.515156269073486328e+00,4.546577930450439453e+00,4.666501522064208984e+00,4.642905235290527344e+00,5.000000000000000000e+00,5.000000000000000000e+00,5.000000000000000000e+00,5.000000000000000000e+00,5.000000000000000000e+00,5.000000000000000000e+00,5.000000000000000000e+00,5.000000000000000000e+00,5.000000000000000000e+00,5.000000000000000000e+00,5.000000000000000000e+00,5.000000000000000000e+00,5.000000000000000000e+00,5.000000000000000000e+00,5.000000000000000000e+00,5.000000000000000000e+00,5.000000000000000000e+00,5.000000000000000000e+00,5.000000000000000000e+00,5.000000000000000000e+00,5.000000000000000000e+00,5.000000000000000000e+00,5.000000000000000000e+00,5.000000000000000000e+00,5.000000000000000000e+00,5.000000000000000000e+00,5.000000000000000000e+00,5.000000000000000000e+00,5.000000000000000000e+00,5.000000000000000000e+00,5.000000000000000000e+00,5.000000000000000000e+00,5.000000000000000000e+00,5.000000000000000000e+00,5.000000000000000000e+00,5.000000000000000000e+00,5.000000000000000000e+00,5.000000000000000000e+00,5.000000000000000000e+00,5.000000000000000000e+00,4.855909347534179688e+00,4.696290969848632812e+00,4.546832084655761719e+00,4.406592845916748047e+00,4.274745941162109375e+00,4.150558948516845703e+00,4.033383846282958984e+00,3.922643661499023438e+00,3.817821979522705078e+00,3.718456268310546875e+00
3.096836328506469727e+00,3.175081253051757812e+00,3.257382392883300781e+00,3.344063520431518555e+00,3.435484170913696289e+00,3.532061338424682617e+00,3.634227752685546875e+00,3.742480278015136719e+00,3.857380151748657227e+00,3.979558467864990234e+00,4.109729766845703125e+00,4.248691082000732422e+00,4.397363662719726562e+00,4.556818485260009766e+00,4.728272438049316406e+00,4.913133144378662109e+00,5.000000000000000000e+00,5.000000000000000000e+00,5.000000000000000000e+00,5.000000000000000000e+00,5.000000000000000000e+00,5.000000000000000000e+00,5.000000000000000000e+00,4.526590347290039062e+00,4.580031871795654297e+00,4.546061038970947266e+00,4.546951770782470703e+00,4.525017738342285156e+00,5.000000000000000000e+00,4.633440494537353516e+00,5.000000000000000000e+00,5.000000000000000000e+00,5.000000000000000000e+00,5.000000000000000000e+00,5.000000000000000000e+00,5.000000000000000000e+00,5.000000000000000000e+00,5.000000000000000000e+00,5.000000000000000000e+00,5.000000000000000000e+00,5.000000000000000000e+00,5.000000000000000000e+00,5.000000000000000000e+00,5.000000000000000000e+00,5.000000000000000000e+00,5.000000000000000000e+00,5.000000000000000000e+00,5.000000000000000000e+00,5.000000000000000000e+00,5.000000000000000000e+00,5.000000000000000000e+00,5.000000000000000000e+00,5.000000000000000000e+00,5.000000000000000000e+00,5.000000000000000000e+00,5.000000000000000000e+00,5.000000000000000000e+00,5.000000000000000000e+00,5.000000000000000000e+00,5.000000000000000000e+00,5.000000000000000000e+00,5.000000000000000000e+00,5.000000000000000000e+00,5.000000000000000000e+00,5.000000000000000000e+00,5.000000000000000000e+00,5.000000000000000000e+00,5.000000000000000000e+00,5.000000000000000000e+00,5.000000000000000000e+00,4.856039047241210938e+00,4.696412563323974609e+00,4.546946048736572266e+00,4.406699657440185547e+00,4.274846076965332031e+00,4.150653839111328125e+00,4.033473491668701172e+00,3.922728538513183594e+00,3.817902326583862305e+00,3.718532085418701172e+00
3.096770286560058594e+00,3.175011873245239258e+00,3.257308959960937500e+00,3.343986511230468750e+00,3.435402870178222656e+00,3.531958103179931641e+00,3.634097814559936523e+00,3.742337226867675781e+00,3.857228040695190430e+00,3.979396581649780273e+00,4.109557151794433594e+00,4.248519897460937500e+00,4.397210121154785156e+00,4.556674957275390625e+00,4.728117942810058594e+00,4.912966251373291016e+00,5.000000000000000000e+00,5.000000000000000000e+00,5.000000000000000000e+00,5.000000000000000000e+00,5.000000000000000000e+00,5.000000000000000000e+00,5.000000000000000000e+00,4.530070304870605469e+00,4.583198070526123047e+00,4.565184116363525391e+00,4.440249919891357422e+00,4.466888427734375000e+00,5.000000000000000000e+00,4.626192092895507812e+00,5.000000000000000000e+00,5.000000000000000000e+00,5.000000000000000000e+00,5.000000000000000000e+00,5.000000000000000000e+00,5.000000000000000000e+00,5.000000000000000000e+00,5.000000000000000000e+00,5.000000000000000000e+00,5.000000000000000000e+00,5.000000000000000000e+00,5.000000000000000000e+00,5.000000000000000000e+00,5.000000000000000000e+00,5.000000000000000000e+00,5.000000000000000000e+00,5.000000000000000000e+00,5.000000000000000000e+00,5.000000000000000000e+00,5.000000000000000000e+00,5.000000000000000000e+00,5.000000000000000000e+00,5.000000000000000000e+00,5.000000000000000000e+00,5.000000000000000000e+00,5.000000000000000000e+00,5.000000000000000000e+00,5.000000000000000000e+00,5.000000000000000000e+00,5.000000000000000000e+00,5.000000000000000000e+00,5.000000000000000000e+00,5.000000000000000000e+00,5.000000000000000000e+00,5.000000000000000000e+00,5.000000000000000000e+00,5.000000000000000000e+00,5.000000000000000000e+00,5.000000000000000000e+00,5.000000000000000000e+00,4.856169223785400391e+00,4.696533679962158203e+00,4.547060012817382812e+00,4.406806468963623047e+00,4.274946689605712891e+00,4.150748729705810547e+00,4.033563137054443359e+00,3.922813415527343750e+00,3.817982196807861328e+00,3.718608379364013672e+00
3.096704244613647461e+00,3.174942255020141602e+00,3.257236003875732422e+00,3.343909502029418945e+00,3.435321569442749023e+00,3.531872034072875977e+00,3.634006977081298828e+00,3.742224216461181641e+00,3.857084751129150391e+00,3.979234218597412109e+00,4.109384059906005859e+00,4.248335361480712891e+00,4.397012233734130859e+00,4.556472778320312500e+00,4.727934360504150391e+00,4.912799358367919922e+00,5.000000000000000000e+00,5.000000000000000000e+00,5.000000000000000000e+00,5.000000000000000000e+00,5.000000000000000000e+00,5.000000000000000000e+00,4.403573513031005859e+00,5.000000000000000000e+00,4.605397701263427734e+00,4.570234298706054688e+00,4.404061317443847656e+00,4.453471183776855469e+00,4.586168766021728516e+00,4.610064983367919922e+00,5.000000000000000000e+00,5.000000000000000000e+00,5.000000000000000000e+00,5.000000000000000000e+00,5.000000000000000000e+00,5.000000000000000000e+00,5.000000000000000000e+00,5.000000000000000000e+00,5.000000000000000000e+00,5.000000000000000000e+00,5.000000000000000000e+00,5.000000000000000000e+00,5.000000000000000000e+00,5.000000000000000000e+00,5.000000000000000000e+00,5.000000000000000000e+00,5.000000000000000000e+00,5.000000000000000000e+00,5.000000000000000000e+00,5.000000000000000000e+00,5.000000000000000000e+00,5.000000000000000000e+00,5.000000000000000000e+00,5.000000000000000000e+00,5.000000000000000000e+00,5.000000000000000000e+00,5.000000000000000000e+00,5.000000000000000000e+00,5.000000000000000000e+00,5.000000000000000000e+00,5.000000000000000000e+00,5.000000000000000000e+00,5.000000000000000000e+00,5.000000000000000000e+00,5.000000000000000000e+00,5.000000000000000000e+00,5.000000000000000000e+00,5.000000000000000000e+00,5.000000000000000000e+00,5.000000000000000000e+00,4.856298923492431641e+00,4.696655273437500000e+00,4.547173500061035156e+00,4.406913280487060547e+00,4.275047302246093750e+00,4.150843143463134766e+00,4.033652782440185547e+00,3.922897815704345703e+00,3.818062543869018555e+00,3.718685150146484375e+00
3.096638202667236328e+00,3.174872875213623047e+00,3.257163047790527344e+00,3.343832492828369141e+00,3.435240507125854492e+00,3.531786203384399414e+00,3.633915662765502930e+00,3.742127656936645508e+00,3.856982469558715820e+00,3.979110717773437500e+00,4.109225749969482422e+00,4.248150348663330078e+00,4.396814346313476562e+00,4.556260108947753906e+00,4.727705478668212891e+00,4.912558078765869141e+00,5.000000000000000000e+00,5.000000000000000000e+00,5.000000000000000000e+00,5.000000000000000000e+00,5.000000000000000000e+00,5.000000000000000000e+00,5.000000000000000000e+00,5.000000000000000000e+00,5.000000000000000000e+00,4.591258049011230469e+00,4.363183975219726562e+00,4.457337379455566406e+00,5.000000000000000000e+00,4.608971595764160156e+00,5.000000000000000000e+00,5.000000000000000000e+00,5.000000000000000000e+00,5.000000000000000000e+00,5.000000000000000000e+00,5.000000000000000000e+00,5.000000000000000000e+00,5.000000000000000000e+00,5.000000000000000000e+00,5.000000000000000000e+00,5.000000000000000000e+00,5.000000000000000000e+00,5.000000000000000000e+00,5.000000000000000000e+00,5.000000000000000000e+00,5.000000000000000000e+00,5.000000000000000000e+00,5.000000000000000000e+00,5.000000000000000000e+00,5.000000000000000000e+00,5.000000000000000000e+00,5.000000000000000000e+00,5.000000000000000000e+00,5.000000000000000000e+00,5.000000000000000000e+00,5.000000000000000000e+00,5.000000000000000000e+00,5.000000000000000000e+00,5.000000000000000000e+00,5.000000000000000000e+00,5.000000000000000000e+00,5.000000000000000000e+00,5.000000000000000000e+00,5.000000000000000000e+00,5.000000000000000000e+00,5.000000000000000000e+00,5.000000000000000000e+00,5.000000000000000000e+00,5.000000000000000000e+00,5.000000000000000000e+00,4.856429100036621094e+00,4.696776390075683594e+00,4.547287464141845703e+00,4.407020568847656250e+00,4.275147914886474609e+00,4.150938510894775391e+00,4.033742427825927734e+00,3.922985553741455078e+00,3.818148612976074219e+00,3.718769073486328125e+00
3.096572160720825195e+00,3.174803495407104492e+00,3.257089853286743164e+00,3.343755483627319336e+00,3.435159206390380859e+00,3.531700372695922852e+00,3.633824586868286133e+00,3.742031335830688477e+00,3.856879949569702148e+00,3.979001522064208984e+00,4.109109878540039062e+00,4.248013973236083984e+00,4.396637916564941406e+00,4.556047439575195312e+00,4.727476596832275391e+00,4.912311077117919922e+00,5.000000000000000000e+00,5.000000000000000000e+00,5.000000000000000000e+00,5.000000000000000000e+00,5.000000000000000000e+00,5.000000000000000000e+00,5.000000000000000000e+00,5.000000000000000000e+00,5.000000000000000000e+00,4.612022399902343750e+00,4.336084365844726562e+00,5.000000000000000000e+00,5.000000000000000000e+00,5.000000000000000000e+00,5.000000000000000000e+00,5.000000000000000000e+00,5.000000000000000000e+00,5.000000000000000000e+00,5.000000000000000000e+00,5.000000000000000000e+00,5.000000000000000000e+00,5.000000000000000000e+00,5.000000000000000000e+00,5.000000000000000000e+00,5.000000000000000000e+00,5.000000000000000000e+00,5.000000000000000000e+00,5.000000000000000000e+00,5.000000000000000000e+00,5.000000000000000000e+00,5.000000000000000000e+00,5.000000000000000000e+00,5.000000000000000000e+00,5.000000000000000000e+00,5.000000000000000000e+00,5.000000000000000000e+00,5.000000000000000000e+00,5.000000000000000000e+00,5.000000000000000000e+00,5.000000000000000000e+00,5.000000000000000000e+00,5.000000000000000000e+00,5.000000000000000000e+00,5.000000000000000000e+00,5.000000000000000000e+00,5.000000000000000000e+00,5.000000000000000000e+00,5.000000000000000000e+00,5.000000000000000000e+00,5.000000000000000000e+00,5.000000000000000000e+00,5.000000000000000000e+00,5.000000000000000000e+00,5.000000000000000000e+00,4.856558799743652344e+00,4.696897983551025391e+00,4.547401428222656250e+00,4.407127380371093750e+00,4.275250911712646484e+00,4.151038646697998047e+00,4.033840656280517578e+00,3.923079013824462891e+00,3.818236827850341797e+00,3.718852758407592773e+00
3.096506357192993164e+00,3.174733877182006836e+00,3.257016897201538086e+00,3.343678474426269531e+00,3.435077905654907227e+00,3.531614542007446289e+00,3.633733749389648438e+00,3.741934776306152344e+00,3.856777667999267578e+00,3.978892564773559570e+00,4.108993053436279297e+00,4.247889518737792969e+00,4.396504878997802734e+00,4.555895328521728516e+00,4.727278232574462891e+00,4.912063598632812500e+00,5.000000000000000000e+00,5.000000000000000000e+00,5.000000000000000000e+00,5.000000000000000000e+00,5.000000000000000000e+00,5.000000000000000000e+00,5.000000000000000000e+00,5.000000000000000000e+00,5.000000000000000000e+00,4.643670558929443359e+00,4.342440605163574219e+00,5.000000000000000000e+00,5.000000000000000000e+00,5.000000000000000000e+00,5.000000000000000000e+00,5.000000000000000000e+00,5.000000000000000000e+00,5.000000000000000000e+00,5.000000000000000000e+00,5.000000000000000000e+00,5.000000000000000000e+00,5.000000000000000000e+00,5.000000000000000000e+00,5.000000000000000000e+00,5.000000000000000000e+00,5.000000000000000000e+00,5.000000000000000000e+00,5.000000000000000000e+00,5.000000000000000000e+00,5.000000000000000000e+00,5.000000000000000000e+00,5.000000000000000000e+00,5.000000000000000000e+00,5.000000000000000000e+00,5.000000000000000000e+00,5.000000000000000000e+00,5.000000000000000000e+00,5.000000000000000000e+00,5.000000000000000000e+00,5.000000000000000000e+00,5.000000000000000000e+00,5.000000000000000000e+00,5.000000000000000000e+00,5.000000000000000000e+00,5.000000000000000000e+00,5.000000000000000000e+00,5.000000000000000000e+00,5.000000000000000000e+00,5.000000000000000000e+00,5.000000000000000000e+00,5.000000000000000000e+00,5.000000000000000000e+00,5.000000000000000000e+00,5.000000000000000000e+00,4.856688499450683594e+00,4.697020530700683594e+00,4.547520637512207031e+00,4.407243251800537109e+00,4.275361537933349609e+00,4.151143074035644531e+00,4.033939361572265625e+00,3.923172235488891602e+00,3.818325519561767578e+00,3.718936443328857422e+00
3.096440315246582031e+00,3.174664497375488281e+00,3.256943941116333008e+00,3.343601465225219727e+00,3.434996604919433594e+00,3.531528711318969727e+00,3.633642911911010742e+00,3.741838455200195312e+00,3.856675148010253906e+00,3.978783607482910156e+00,4.108877182006835938e+00,4.247765541076660156e+00,4.396371364593505859e+00,4.555752754211425781e+00,4.727124691009521484e+00,4.911892890930175781e+00,5.000000000000000000e+00,5.000000000000000000e+00,5.000000000000000000e+00,5.000000000000000000e+00,5.000000000000000000e+00,5.000000000000000000e+00,5.000000000000000000e+00,5.000000000000000000e+00,5.000000000000000000e+00,5.000000000000000000e+00,4.346652030944824219e+00,5.000000000000000000e+00,5.000000000000000000e+00,5.000000000000000000e+00,5.000000000000000000e+00,5.000000000000000000e+00,5.000000000000000000e+00,5.000000000000000000e+00,5.000000000000000000e+00,5.000000000000000000e+00,5.000000000000000000e+00,5.000000000000000000e+00,5.000000000000000000e+00,5.000000000000000000e+00,5.000000000000000000e+00,5.000000000000000000e+00,5.000000000000000000e+00,5.000000000000000000e+00,5.000000000000000000e+00,5.000000000000000000e+00,5.000000000000000000e+00,5.000000000000000000e+00,5.000000000000000000e+00,5.000000000000000000e+00,5.000000000000000000e+00,5.000000000000000000e+00,5.000000000000000000e+00,5.000000000000000000e+00,5.000000000000000000e+00,5.000000000000000000e+00,5.000000000000000000e+00,5.000000000000000000e+00,5.000000000000000000e+00,5.000000000000000000e+00,5.000000000000000000e+00,5.000000000000000000e+00,5.000000000000000000e+00,5.000000000000000000e+00,5.000000000000000000e+00,5.000000000000000000e+00,5.000000000000000000e+00,5.000000000000000000e+00,5.000000000000000000e+00,5.000000000000000000e+00,4.856827735900878906e+00,4.697154045104980469e+00,4.547645568847656250e+00,4.407361030578613281e+00,4.275472164154052734e+00,4.151247501373291016e+00,4.034038066864013672e+00,3.923265218734741211e+00,3.818413734436035156e+00,3.719020605087280273e+00
3.096374273300170898e+00,3.174595117568969727e+00,3.256870746612548828e+00,3.343524694442749023e+00,3.434915542602539062e+00,3.531442403793334961e+00,3.633552074432373047e+00,3.741742134094238281e+00,3.856572866439819336e+00,3.978674650192260742e+00,4.108760833740234375e+00,4.247641086578369141e+00,4.396238327026367188e+00,4.555609703063964844e+00,4.726970195770263672e+00,4.911726951599121094e+00,5.000000000000000000e+00,5.000000000000000000e+00,5.000000000000000000e+00,5.000000000000000000e+00,5.000000000000000000e+00,5.000000000000000000e+00,5.000000000000000000e+00,5.000000000000000000e+00,5.000000000000000000e+00,5.000000000000000000e+00,4.331749916076660156e+00,5.000000000000000000e+00,5.000000000000000000e+00,5.000000000000000000e+00,5.000000000000000000e+00,5.000000000000000000e+00,5.000000000000000000e+00,5.000000000000000000e+00,5.000000000000000000e+00,5.000000000000000000e+00,5.000000000000000000e+00,5.000000000000000000e+00,5.000000000000000000e+00,5.000000000000000000e+00,5.000000000000000000e+00,5.000000000000000000e+00,5.000000000000000000e+00,5.000000000000000000e+00,5.000000000000000000e+00,5.000000000000000000e+00,5.000000000000000000e+00,5.000000000000000000e+00,5.000000000000000000e+00,5.000000000000000000e+00,5.000000000000000000e+00,5.000000000000000000e+00,5.000000000000000000e+00,5.000000000000000000e+00,5.000000000000000000e+00,5.000000000000000000e+00,5.000000000000000000e+00,5.000000000000000000e+00,5.000000000000000000e+00,5.000000000000000000e+00,5.000000000000000000e+00,5.000000000000000000e+00,5.000000000000000000e+00,5.000000000000000000e+00,5.000000000000000000e+00,5.000000000000000000e+00,5.000000000000000000e+00,5.000000000000000000e+00,5.000000000000000000e+00,5.000000000000000000e+00,4.856970787048339844e+00,4.697288036346435547e+00,4.547770977020263672e+00,4.407478809356689453e+00,4.275583267211914062e+00,4.151351928710937500e+00,4.034136295318603516e+00,3.923358917236328125e+00,3.818501949310302734e+00,3.719104290008544922e+00
3.096307992935180664e+00,3.174525737762451172e+00,3.256797790527343750e+00,3.343447685241699219e+00,3.434834241867065430e+00,3.531356573104858398e+00,3.633461236953735352e+00,3.741645812988281250e+00,3.856470346450805664e+00,3.978565692901611328e+00,4.108644485473632812e+00,4.247517108917236328e+00,4.396105289459228516e+00,4.555466651916503906e+00,4.726816654205322266e+00,4.911560535430908203e+00,5.000000000000000000e+00,5.000000000000000000e+00,5.000000000000000000e+00,5.000000000000000000e+00,5.000000000000000000e+00,5.000000000000000000e+00,5.000000000000000000e+00,5.000000000000000000e+00,5.000000000000000000e+00,5.000000000000000000e+00,4.326751232147216797e+00,4.847380161285400391e+00,5.000000000000000000e+00,5.000000000000000000e+00,5.000000000000000000e+00,5.000000000000000000e+00,5.000000000000000000e+00,5.000000000000000000e+00,5.000000000000000000e+00,5.000000000000000000e+00,5.000000000000000000e+00,5.000000000000000000e+00,5.000000000000000000e+00,5.000000000000000000e+00,5.000000000000000000e+00,5.000000000000000000e+00,5.000000000000000000e+00,5.000000000000000000e+00,5.000000000000000000e+00,5.000000000000000000e+00,5.000000000000000000e+00,5.000000000000000000e+00,5.000000000000000000e+00,5.000000000000000000e+00,5.000000000000000000e+00,5.000000000000000000e+00,5.000000000000000000e+00,5.000000000000000000e+00,5.000000000000000000e+00,5.000000000000000000e+00,5.000000000000000000e+00,5.000000000000000000e+00,5.000000000000000000e+00,5.000000000000000000e+00,5.000000000000000000e+00,5.000000000000000000e+00,5.000000000000000000e+00,5.000000000000000000e+00,5.000000000000000000e+00,5.000000000000000000e+00,5.000000000000000000e+00,5.000000000000000000e+00,5.000000000000000000e+00,5.000000000000000000e+00,4.857113838195800781e+00,4.697421550750732422e+00,4.547896385192871094e+00,4.407596588134765625e+00,4.275693893432617188e+00,4.151456356048583984e+00,4.034235000610351562e+00,3.923451900482177734e+00,3.818590641021728516e+00,3.719187974929809570e+00
3.096241950988769531e+00,3.174456357955932617e+00,3.256724834442138672e+00,3.343370676040649414e+00,3.434752941131591797e+00,3.531270742416381836e+00,3.633370161056518555e+00,3.741549253463745117e+00,3.856368064880371094e+00,3.978456258773803711e+00,4.108528137207031250e+00,4.247392654418945312e+00,4.395972251892089844e+00,4.555324077606201172e+00,4.726662635803222656e+00,4.911394596099853516e+00,5.000000000000000000e+00,5.000000000000000000e+00,5.000000000000000000e+00,5.000000000000000000e+00,5.000000000000000000e+00,5.000000000000000000e+00,5.000000000000000000e+00,5.000000000000000000e+00,5.000000000000000000e+00,5.000000000000000000e+00,4.319921016693115234e+00,4.861771106719970703e+00,5.000000000000000000e+00,5.000000000000000000e+00,5.000000000000000000e+00,5.000000000000000000e+00,5.000000000000000000e+00,5.000000000000000000e+00,5.000000000000000000e+00,5.000000000000000000e+00,5.000000000000000000e+00,5.000000000000000000e+00,5.000000000000000000e+00,5.000000000000000000e+00,5.000000000000000000e+00,5.000000000000000000e+00,5.000000000000000000e+00,5.000000000000000000e+00,5.000000000000000000e+00,5.000000000000000000e+00,5.000000000000000000e+00,5.000000000000000000e+00,5.000000000000000000e+00,5.000000000000000000e+00,5.000000000000000000e+00,5.000000000000000000e+00,5.000000000000000000e+00,5.000000000000000000e+00,5.000000000000000000e+00,5.000000000000000000e+00,5.000000000000000000e+00,5.000000000000000000e+00,5.000000000000000000e+00,5.000000000000000000e+00,5.000000000000000000e+00,5.000000000000000000e+00,5.000000000000000000e+00,5.000000000000000000e+00,5.000000000000000000e+00,5.000000000000000000e+00,5.000000000000000000e+00,5.000000000000000000e+00,5.000000000000000000e+00,5.000000000000000000e+00,4.857256889343261719e+00,4.697555541992187500e+00,4.548021793365478516e+00,4.407714366912841797e+00,4.275804519653320312e+00,4.151561260223388672e+00,4.034333705902099609e+00,3.923545122146606445e+00,3.818678855895996094e+00,3.719271898269653320e+00
3.096175909042358398e+00,3.174386978149414062e+00,3.256651639938354492e+00,3.343293666839599609e+00,3.434671401977539062e+00,3.531184911727905273e+00,3.633279323577880859e+00,3.741452932357788086e+00,3.856265544891357422e+00,3.978347301483154297e+00,4.108412265777587891e+00,4.247268199920654297e+00,4.395839214324951172e+00,4.555181026458740234e+00,4.726509094238281250e+00,4.911228656768798828e+00,5.000000000000000000e+00,5.000000000000000000e+00,5.000000000000000000e+00,5.000000000000000000e+00,5.000000000000000000e+00,5.000000000000000000e+00,5.000000000000000000e+00,5.000000000000000000e+00,5.000000000000000000e+00,5.000000000000000000e+00,4.321982383728027344e+00,4.866994857788085938e+00,5.000000000000000000e+00,5.000000000000000000e+00,5.000000000000000000e+00,5.000000000000000000e+00,5.000000000000000000e+00,5.000000000000000000e+00,5.000000000000000000e+00,5.000000000000000000e+00,5.000000000000000000e+00,5.000000000000000000e+00,5.000000000000000000e+00,5.000000000000000000e+00,5.000000000000000000e+00,5.000000000000000000e+00,5.000000000000000000e+00,5.000000000000000000e+00,5.000000000000000000e+00,5.000000000000000000e+00,5.000000000000000000e+00,5.000000000000000000e+00,5.000000000000000000e+00,5.000000000000000000e+00,5.000000000000000000e+00,5.000000000000000000e+00,5.000000000000000000e+00,5.000000000000000000e+00,5.000000000000000000e+00,5.000000000000000000e+00,5.000000000000000000e+00,5.000000000000000000e+00,5.000000000000000000e+00,5.000000000000000000e+00,5.000000000000000000e+00,5.000000000000000000e+00,5.000000000000000000e+00,5.000000000000000000e+00,5.000000000000000000e+00,5.000000000000000000e+00,5.000000000000000000e+00,5.000000000000000000e+00,5.000000000000000000e+00,5.000000000000000000e+00,4.857399463653564453e+00,4.697689056396484375e+00,4.548147201538085938e+00,4.407832145690917969e+00,4.275915622711181641e+00,4.151665210723876953e+00,4.034432411193847656e+00,3.923638582229614258e+00,3.818767070770263672e+00,3.719355583190917969e+00
3.096109867095947266e+00,3.174317598342895508e+00,3.256578683853149414e+00,3.343216896057128906e+00,3.434590339660644531e+00,3.531099081039428711e+00,3.633188486099243164e+00,3.741356611251831055e+00,3.856163263320922852e+00,3.978238344192504883e+00,4.108295917510986328e+00,4.247144222259521484e+00,4.395706176757812500e+00,4.555037975311279297e+00,4.726355075836181641e+00,4.854131698608398438e+00,4.852925300598144531e+00,4.851719856262207031e+00,4.850514411926269531e+00,4.849309921264648438e+00,4.848105907440185547e+00,4.846902847290039062e+00,4.845700263977050781e+00,4.844497680664062500e+00,4.843296051025390625e+00,4.842095375061035156e+00,4.321011543273925781e+00,4.839695453643798828e+00,4.838496208190917969e+00,4.837297439575195312e+00,4.836099624633789062e+00,4.834901809692382812e+00,4.833705425262451172e+00,4.832509040832519531e+00,4.831313133239746094e+00,4.830118656158447266e+00,4.828923702239990234e+00,4.827730178833007812e+00,4.826537132263183594e+00,4.825344085693359375e+00,4.824152469635009766e+00,4.822960853576660156e+00,4.821770191192626953e+00,4.820579528808593750e+00,4.819389820098876953e+00,4.818201065063476562e+00,4.817012310028076172e+00,4.815824508666992188e+00,4.814636707305908203e+00,4.813449859619140625e+00,4.812263965606689453e+00,4.811078071594238281e+00,4.809893131256103516e+00,4.808708667755126953e+00,4.807524681091308594e+00,4.806341648101806641e+00,4.805159091949462891e+00,4.803976535797119141e+00,4.802795410156250000e+00,4.801614284515380859e+00,4.800434112548828125e+00,4.799253940582275391e+00,4.798074722290039062e+00,4.796896457672119141e+00,4.795718193054199219e+00,4.794540882110595703e+00,4.793364048004150391e+00,4.792187690734863281e+00,4.791011810302734375e+00,4.789836883544921875e+00,4.788662433624267578e+00,4.697823047637939453e+00,4.548272609710693359e+00,4.407949447631835938e+00,4.276026248931884766e+00,4.151770114898681641e+00,4.034531116485595703e+00,3.923731803894042969e+00,3.818855762481689453e+00,3.719439268112182617e+00
3.096044063568115234e+00,3.174248218536376953e+00,3.256505727767944336e+00,3.343139886856079102e+00,3.434509038925170898e+00,3.531013250350952148e+00,3.633097648620605469e+00,3.741260290145874023e+00,3.770677804946899414e+00,3.769949913024902344e+00,3.769222021102905273e+00,3.768494606018066406e+00,3.767767667770385742e+00,3.767040967941284180e+00,3.766314268112182617e+00,3.765588045120239258e+00,3.764862060546875000e+00,3.764136075973510742e+00,3.763410806655883789e+00,3.762685775756835938e+00,3.761960744857788086e+00,3.761236190795898438e+00,3.760511875152587891e+00,3.759788036346435547e+00,3.759063959121704102e+00,3.758340597152709961e+00,3.757617712020874023e+00,3.756894350051879883e+00,3.756171941757202148e+00,3.755449533462524414e+00,3.754727363586425781e+00,3.754005670547485352e+00,3.753284215927124023e+00,3.752562999725341797e+00,3.751841783523559570e+00,3.751121282577514648e+00,3.750400781631469727e+00,3.749680519104003906e+00,3.748960733413696289e+00,3.748241186141967773e+00,3.747521638870239258e+00,3.746802568435668945e+00,3.746083974838256836e+00,3.745365142822265625e+00,3.744647264480590820e+00,3.743929386138916016e+00,3.743211746215820312e+00,3.742494106292724609e+00,3.741777181625366211e+00,3.741060495376586914e+00,3.740343570709228516e+00,3.739627361297607422e+00,3.738911628723144531e+00,3.738195657730102539e+00,3.737480163574218750e+00,3.736765146255493164e+00,3.736050367355346680e+00,3.735335350036621094e+00,3.734621286392211914e+00,3.733907222747802734e+00,3.733193159103393555e+00,3.732479572296142578e+00,3.731766462326049805e+00,3.731053113937377930e+00,3.730340480804443359e+00,3.729628324508666992e+00,3.728916168212890625e+00,3.728204011917114258e+00,3.727492332458496094e+00,3.726781129837036133e+00,3.726069688796997070e+00,3.725358963012695312e+00,3.724648475646972656e+00,3.723937988281250000e+00,3.723228216171264648e+00,3.722518444061279297e+00,3.721808671951293945e+00,3.721099615097045898e+00,3.720390796661376953e+00,3.719682216644287109e+00
3.083115339279174805e+00,3.082628726959228516e+00,3.082142114639282227e+00,3.081655740737915039e+00,3.081169366836547852e+00,3.080683231353759766e+00,3.080197095870971680e+00,3.079711198806762695e+00,3.079225540161132812e+00,3.078739881515502930e+00,3.078254699707031250e+00,3.077769279479980469e+00,3.077284336090087891e+00,3.076799392700195312e+00,3.076314687728881836e+00,3.075830221176147461e+00,3.075345754623413086e+00,3.074861526489257812e+00,3.074377536773681641e+00,3.073893308639526367e+00,3.073409557342529297e+00,3.072926044464111328e+00,3.072442770004272461e+00,3.071959018707275391e+00,3.071475982666015625e+00,3.070993185043334961e+00,3.070509910583496094e+00,3.070027351379394531e+00,3.069544792175292969e+00,3.069062232971191406e+00,3.068580150604248047e+00,3.068098068237304688e+00,3.067616224288940430e+00,3.067134141921997070e+00,3.066652536392211914e+00,3.066171169281005859e+00,3.065689563751220703e+00,3.065208435058593750e+00,3.064727544784545898e+00,3.064246416091918945e+00,3.063765764236450195e+00,3.063285112380981445e+00,3.062804937362670898e+00,3.062324285507202148e+00,3.061844348907470703e+00,3.061364412307739258e+00,3.060884237289428711e+00,3.060404777526855469e+00,3.059925079345703125e+00,3.059445619583129883e+00,3.058966398239135742e+00,3.058487415313720703e+00,3.058008193969726562e+00,3.057529449462890625e+00,3.057050943374633789e+00,3.056572437286376953e+00,3.056093931198120117e+00,3.055615901947021484e+00,3.055137872695922852e+00,3.054659605026245117e+00,3.054182052612304688e+00,3.053704500198364258e+00,3.053226947784423828e+00,3.052749633789062500e+00,3.052272558212280273e+00,3.051795721054077148e+00,3.051318645477294922e+00,3.050842046737670898e+00,3.050365447998046875e+00,3.049888849258422852e+00,3.049412727355957031e+00,3.048936605453491211e+00,3.048460483551025391e+00,3.047984838485717773e+00,3.047509193420410156e+00,3.047033786773681641e+00,3.046558141708374023e+00,3.046082973480224609e+00,3.045608043670654297e+00,3.045132875442504883e+00
2.604845523834228516e+00,2.604497909545898438e+00,2.604150772094726562e+00,2.603803396224975586e+00,2.603456258773803711e+00,2.603109121322631836e+00,2.602762222290039062e+00,2.602415084838867188e+00,2.602068424224853516e+00,2.601721525192260742e+00,2.601375102996826172e+00,2.601028442382812500e+00,2.600682020187377930e+00,2.600335597991943359e+00,2.599989414215087891e+00,2.599643230438232422e+00,2.599297285079956055e+00,2.598951101303100586e+00,2.598605394363403320e+00,2.598259449005126953e+00,2.597913742065429688e+00,2.597568273544311523e+00,2.597222805023193359e+00,2.596877336502075195e+00,2.596532106399536133e+00,2.596186876296997070e+00,2.595841646194458008e+00,2.595496654510498047e+00,2.595151662826538086e+00,2.594806909561157227e+00,2.594462156295776367e+00,2.594117641448974609e+00,2.593772888183593750e+00,2.593428611755371094e+00,2.593084096908569336e+00,2.592739820480346680e+00,2.592395544052124023e+00,2.592051506042480469e+00,2.591707468032836914e+00,2.591363668441772461e+00,2.591019868850708008e+00,2.590676069259643555e+00,2.590332269668579102e+00,2.589988708496093750e+00,2.589645385742187500e+00,2.589301824569702148e+00,2.588958740234375000e+00,2.588615417480468750e+00,2.588272333145141602e+00,2.587929248809814453e+00,2.587586402893066406e+00,2.587243795394897461e+00,2.586900711059570312e+00,2.586558341979980469e+00,2.586215734481811523e+00,2.585873126983642578e+00,2.585530757904052734e+00,2.585188627243041992e+00,2.584846258163452148e+00,2.584504127502441406e+00,2.584162235260009766e+00,2.583820343017578125e+00,2.583478450775146484e+00,2.583136796951293945e+00,2.582795143127441406e+00,2.582453489303588867e+00,2.582112073898315430e+00,2.581770658493041992e+00,2.581429243087768555e+00,2.581088066101074219e+00,2.580747127532958984e+00,2.580406188964843750e+00,2.580065011978149414e+00,2.579724311828613281e+00,2.579383611679077148e+00,2.579042673110961914e+00,2.578702211380004883e+00,2.578361749649047852e+00,2.578021287918090820e+00,2.577681064605712891e+00
2.255032539367675781e+00,2.254771947860717773e+00,2.254511594772338867e+00,2.254251241683959961e+00,2.253991127014160156e+00,2.253731012344360352e+00,2.253470897674560547e+00,2.253210783004760742e+00,2.252950906753540039e+00,2.252690792083740234e+00,2.252431154251098633e+00,2.252171277999877930e+00,2.251911640167236328e+00,2.251651763916015625e+00,2.251392364501953125e+00,2.251132726669311523e+00,2.250873088836669922e+00,2.250613689422607422e+00,2.250354290008544922e+00,2.250094890594482422e+00,2.249835729598999023e+00,2.249576568603515625e+00,2.249317407608032227e+00,2.249058246612548828e+00,2.248799324035644531e+00,2.248540163040161133e+00,2.248281478881835938e+00,2.248022556304931641e+00,2.247763872146606445e+00,2.247505187988281250e+00,2.247246503829956055e+00,2.246987819671630859e+00,2.246729373931884766e+00,2.246470928192138672e+00,2.246212482452392578e+00,2.245954036712646484e+00,2.245695829391479492e+00,2.245437622070312500e+00,2.245179414749145508e+00,2.244921207427978516e+00,2.244663238525390625e+00,2.244405269622802734e+00,2.244147300720214844e+00,2.243889570236206055e+00,2.243631601333618164e+00,2.243373870849609375e+00,2.243116140365600586e+00,2.242858648300170898e+00,2.242600917816162109e+00,2.242343425750732422e+00,2.242086172103881836e+00,2.241828680038452148e+00,2.241571187973022461e+00,2.241313934326171875e+00,2.241056680679321289e+00,2.240799665451049805e+00,2.240542650222778320e+00,2.240285396575927734e+00,2.240028381347656250e+00,2.239771604537963867e+00,2.239514827728271484e+00,2.239257812500000000e+00,2.239001035690307617e+00,2.238744497299194336e+00,2.238487720489501953e+00,2.238231182098388672e+00,2.237974882125854492e+00,2.237718105316162109e+00,2.237461805343627930e+00,2.237205505371093750e+00,2.236949443817138672e+00,2.236692905426025391e+00,2.236436843872070312e+00,2.236180782318115234e+00,2.235924720764160156e+00,2.235668659210205078e+00,2.235412836074829102e+00,2.235156774520874023e+00,2.234901189804077148e+00,2.234645366668701172e+00
1.988050699234008789e+00,1.987848401069641113e+00,1.987646102905273438e+00,1.987443566322326660e+00,1.987241387367248535e+00,1.987039208412170410e+00,1.986837029457092285e+00,1.986634731292724609e+00,1.986432671546936035e+00,1.986230731010437012e+00,1.986028671264648438e+00,1.985826611518859863e+00,1.985624670982360840e+00,1.985422849655151367e+00,1.985221028327941895e+00,1.985019087791442871e+00,1.984817385673522949e+00,1.984615683555603027e+00,1.984413743019104004e+00,1.984212160110473633e+00,1.984010577201843262e+00,1.983809113502502441e+00,1.983607411384582520e+00,1.983405947685241699e+00,1.983204483985900879e+00,1.983003139495849609e+00,1.982801675796508789e+00,1.982600331306457520e+00,1.982399106025695801e+00,1.982197880744934082e+00,1.981996536254882812e+00,1.981795430183410645e+00,1.981594324111938477e+00,1.981393337249755859e+00,1.981192350387573242e+00,1.980991363525390625e+00,1.980790495872497559e+00,1.980589389801025391e+00,1.980388522148132324e+00,1.980187773704528809e+00,1.979987025260925293e+00,1.979786396026611328e+00,1.979585647583007812e+00,1.979384779930114746e+00,1.979184269905090332e+00,1.978983640670776367e+00,1.978783130645751953e+00,1.978582739830017090e+00,1.978382349014282227e+00,1.978181958198547363e+00,1.977981328964233398e+00,1.977781057357788086e+00,1.977580785751342773e+00,1.977380514144897461e+00,1.977180361747741699e+00,1.976980209350585938e+00,1.976780176162719727e+00,1.976579904556274414e+00,1.976379871368408203e+00,1.976179838180541992e+00,1.975979924201965332e+00,1.975780010223388672e+00,1.975580215454101562e+00,1.975380182266235352e+00,1.975180387496948242e+00,1.974980592727661133e+00,1.974780917167663574e+00,1.974581360816955566e+00,1.974381685256958008e+00,1.974182128906250000e+00,1.973982334136962891e+00,1.973782896995544434e+00,1.973583459854125977e+00,1.973384022712707520e+00,1.973184704780578613e+00,1.972985267639160156e+00,1.972785830497741699e+00,1.972586512565612793e+00,1.972387313842773438e+00,1.972188234329223633e+00
1.777594685554504395e+00,1.777432918548583984e+00,1.777271151542663574e+00,1.777109265327453613e+00,1.776947617530822754e+00,1.776785969734191895e+00,1.776624083518981934e+00,1.776462554931640625e+00,1.776301026344299316e+00,1.776139497756958008e+00,1.775977730751037598e+00,1.775816321372985840e+00,1.775654792785644531e+00,1.775493383407592773e+00,1.775331854820251465e+00,1.775170445442199707e+00,1.775009155273437500e+00,1.774847865104675293e+00,1.774686455726623535e+00,1.774525165557861328e+00,1.774363994598388672e+00,1.774202823638916016e+00,1.774041414260864258e+00,1.773880243301391602e+00,1.773719191551208496e+00,1.773558139801025391e+00,1.773396968841552734e+00,1.773235917091369629e+00,1.773074865341186523e+00,1.772913932800292969e+00,1.772752881050109863e+00,1.772591948509216309e+00,1.772431135177612305e+00,1.772270321846008301e+00,1.772109270095825195e+00,1.771948456764221191e+00,1.771787762641906738e+00,1.771627068519592285e+00,1.771466374397277832e+00,1.771305561065673828e+00,1.771144866943359375e+00,1.770984292030334473e+00,1.770823717117309570e+00,1.770663142204284668e+00,1.770502686500549316e+00,1.770342111587524414e+00,1.770181536674499512e+00,1.770021080970764160e+00,1.769860744476318359e+00,1.769700288772583008e+00,1.769539952278137207e+00,1.769379734992980957e+00,1.769219160079956055e+00,1.769058942794799805e+00,1.768898725509643555e+00,1.768738508224487305e+00,1.768578410148620605e+00,1.768418192863464355e+00,1.768258094787597656e+00,1.768097877502441406e+00,1.767937779426574707e+00,1.767777800559997559e+00,1.767617821693420410e+00,1.767457842826843262e+00,1.767297983169555664e+00,1.767138004302978516e+00,1.766978025436401367e+00,1.766818165779113770e+00,1.766658306121826172e+00,1.766498565673828125e+00,1.766338825225830078e+00,1.766179084777832031e+00,1.766019105911254883e+00,1.765859484672546387e+00,1.765699863433837891e+00,1.765540242195129395e+00,1.765380740165710449e+00,1.765221118927001953e+00,1.765061616897583008e+00,1.764901995658874512e+00
1.607431173324584961e+00,1.607298970222473145e+00,1.607166528701782227e+00,1.607034325599670410e+00,1.606902122497558594e+00,1.606769919395446777e+00,1.606637597084045410e+00,1.606505393981933594e+00,1.606373310089111328e+00,1.606241226196289062e+00,1.606108903884887695e+00,1.605976819992065430e+00,1.605844855308532715e+00,1.605712771415710449e+00,1.605580687522888184e+00,1.605448603630065918e+00,1.605316758155822754e+00,1.605184793472290039e+00,1.605052709579467773e+00,1.604920864105224609e+00,1.604788899421691895e+00,1.604657053947448730e+00,1.604525089263916016e+00,1.604393362998962402e+00,1.604261517524719238e+00,1.604129791259765625e+00,1.603997826576232910e+00,1.603866100311279297e+00,1.603734493255615234e+00,1.603602766990661621e+00,1.603470921516418457e+00,1.603339314460754395e+00,1.603207707405090332e+00,1.603076100349426270e+00,1.602944374084472656e+00,1.602812886238098145e+00,1.602681398391723633e+00,1.602549672126770020e+00,1.602418184280395508e+00,1.602286815643310547e+00,1.602155327796936035e+00,1.602023959159851074e+00,1.601892352104187012e+00,1.601760983467102051e+00,1.601629614830017090e+00,1.601498365402221680e+00,1.601366996765136719e+00,1.601235747337341309e+00,1.601104259490966797e+00,1.600973129272460938e+00,1.600841879844665527e+00,1.600710630416870117e+00,1.600579500198364258e+00,1.600448369979858398e+00,1.600317239761352539e+00,1.600185871124267578e+00,1.600054860115051270e+00,1.599923729896545410e+00,1.599792718887329102e+00,1.599661588668823242e+00,1.599530577659606934e+00,1.599399685859680176e+00,1.599268555641174316e+00,1.599137544631958008e+00,1.599006652832031250e+00,1.598875761032104492e+00,1.598744869232177734e+00,1.598614096641540527e+00,1.598483085632324219e+00,1.598352193832397461e+00,1.598221421241760254e+00,1.598090648651123047e+00,1.597959995269775391e+00,1.597829222679138184e+00,1.597698450088500977e+00,1.597567677497863770e+00,1.597437024116516113e+00,1.597306370735168457e+00,1.597175717353820801e+00,1.597045183181762695e+00
1.467000007629394531e+00,1.466889858245849609e+00,1.466779470443725586e+00,1.466669321060180664e+00,1.466559290885925293e+00,1.466449141502380371e+00,1.466338872909545898e+00,1.466228842735290527e+00,1.466118812561035156e+00,1.466008663177490234e+00,1.465898513793945312e+00,1.465788483619689941e+00,1.465678572654724121e+00,1.465568542480468750e+00,1.465458512306213379e+00,1.465348482131958008e+00,1.465238571166992188e+00,1.465128660202026367e+00,1.465018630027770996e+00,1.464908719062805176e+00,1.464798927307128906e+00,1.464689016342163086e+00,1.464579105377197266e+00,1.464469194412231445e+00,1.464359402656555176e+00,1.464249610900878906e+00,1.464139819145202637e+00,1.464030027389526367e+00,1.463920235633850098e+00,1.463810443878173828e+00,1.463700771331787109e+00,1.463591098785400391e+00,1.463481426239013672e+00,1.463371634483337402e+00,1.463261961936950684e+00,1.463152289390563965e+00,1.463042736053466797e+00,1.462933063507080078e+00,1.462823510169982910e+00,1.462713956832885742e+00,1.462604403495788574e+00,1.462494730949401855e+00,1.462385177612304688e+00,1.462275743484497070e+00,1.462166309356689453e+00,1.462056756019592285e+00,1.461947202682495117e+00,1.461837887763977051e+00,1.461728453636169434e+00,1.461619019508361816e+00,1.461509704589843750e+00,1.461400151252746582e+00,1.461290836334228516e+00,1.461181521415710449e+00,1.461072206497192383e+00,1.460962891578674316e+00,1.460853695869445801e+00,1.460744261741638184e+00,1.460635066032409668e+00,1.460525870323181152e+00,1.460416555404663086e+00,1.460307359695434570e+00,1.460198283195495605e+00,1.460089087486267090e+00,1.459979772567749023e+00,1.459870696067810059e+00,1.459761619567871094e+00,1.459652423858642578e+00,1.459543347358703613e+00,1.459434270858764648e+00,1.459325313568115234e+00,1.459216117858886719e+00,1.459107160568237305e+00,1.458998084068298340e+00,1.458889126777648926e+00,1.458780169486999512e+00,1.458671212196350098e+00,1.458562135696411133e+00,1.458453297615051270e+00,1.458344340324401855e+00
1.349134445190429688e+00,1.349041342735290527e+00,1.348948001861572266e+00,1.348854899406433105e+00,1.348761677742004395e+00,1.348668575286865234e+00,1.348575353622436523e+00,1.348482251167297363e+00,1.348389148712158203e+00,1.348296046257019043e+00,1.348202824592590332e+00,1.348109841346740723e+00,1.348016738891601562e+00,1.347923755645751953e+00,1.347830653190612793e+00,1.347737669944763184e+00,1.347644567489624023e+00,1.347551584243774414e+00,1.347458600997924805e+00,1.347365617752075195e+00,1.347272753715515137e+00,1.347179651260375977e+00,1.347086787223815918e+00,1.346993803977966309e+00,1.346900939941406250e+00,1.346807956695556641e+00,1.346715092658996582e+00,1.346622228622436523e+00,1.346529364585876465e+00,1.346436500549316406e+00,1.346343636512756348e+00,1.346250891685485840e+00,1.346158027648925781e+00,1.346065163612365723e+00,1.345972418785095215e+00,1.345879673957824707e+00,1.345786929130554199e+00,1.345694065093994141e+00,1.345601439476013184e+00,1.345508694648742676e+00,1.345416069030761719e+00,1.345323204994201660e+00,1.345230579376220703e+00,1.345137953758239746e+00,1.345045328140258789e+00,1.344952583312988281e+00,1.344859957695007324e+00,1.344767332077026367e+00,1.344674706459045410e+00,1.344582080841064453e+00,1.344489574432373047e+00,1.344396948814392090e+00,1.344304442405700684e+00,1.344211816787719727e+00,1.344119310379028320e+00,1.344026803970336914e+00,1.343934297561645508e+00,1.343841791152954102e+00,1.343749403953552246e+00,1.343656897544860840e+00,1.343564391136169434e+00,1.343472003936767578e+00,1.343379616737365723e+00,1.343287229537963867e+00,1.343194842338562012e+00,1.343102455139160156e+00,1.343010067939758301e+00,1.342917561531066895e+00,1.342825293540954590e+00,1.342733025550842285e+00,1.342640638351440430e+00,1.342548370361328125e+00,1.342456102371215820e+00,1.342363715171813965e+00,1.342271447181701660e+00,1.342179179191589355e+00,1.342087030410766602e+00,1.341994762420654297e+00,1.341902613639831543e+00,1.341810345649719238e+00
1.248800158500671387e+00,1.248720407485961914e+00,1.248640418052673340e+00,1.248560667037963867e+00,1.248480796813964844e+00,1.248401045799255371e+00,1.248321175575256348e+00,1.248241305351257324e+00,1.248161554336547852e+00,1.248081684112548828e+00,1.248001933097839355e+00,1.247922182083129883e+00,1.247842431068420410e+00,1.247762680053710938e+00,1.247682929039001465e+00,1.247603297233581543e+00,1.247523546218872070e+00,1.247443795204162598e+00,1.247364163398742676e+00,1.247284531593322754e+00,1.247204780578613281e+00,1.247125148773193359e+00,1.247045516967773438e+00,1.246965885162353516e+00,1.246886253356933594e+00,1.246806502342224121e+00,1.246726989746093750e+00,1.246647357940673828e+00,1.246567845344543457e+00,1.246488213539123535e+00,1.246408581733703613e+00,1.246329069137573242e+00,1.246249556541442871e+00,1.246169924736022949e+00,1.246090412139892578e+00,1.246010899543762207e+00,1.245931506156921387e+00,1.245851874351501465e+00,1.245772480964660645e+00,1.245692968368530273e+00,1.245613574981689453e+00,1.245533943176269531e+00,1.245454549789428711e+00,1.245375156402587891e+00,1.245295763015747070e+00,1.245216250419616699e+00,1.245136857032775879e+00,1.245057463645935059e+00,1.244978070259094238e+00,1.244898676872253418e+00,1.244819402694702148e+00,1.244740009307861328e+00,1.244660615921020508e+00,1.244581341743469238e+00,1.244501948356628418e+00,1.244422674179077148e+00,1.244343280792236328e+00,1.244264006614685059e+00,1.244184732437133789e+00,1.244105577468872070e+00,1.244026303291320801e+00,1.243947029113769531e+00,1.243867754936218262e+00,1.243788480758666992e+00,1.243709325790405273e+00,1.243630170822143555e+00,1.243551015853881836e+00,1.243471741676330566e+00,1.243392586708068848e+00,1.243313431739807129e+00,1.243234276771545410e+00,1.243155121803283691e+00,1.243075966835021973e+00,1.242996931076049805e+00,1.242917776107788086e+00,1.242838740348815918e+00,1.242759466171264648e+00,1.242680430412292480e+00,1.242601394653320312e+00,1.242522358894348145e+00
1.162356495857238770e+00,1.162287235260009766e+00,1.162218093872070312e+00,1.162148952484130859e+00,1.162079811096191406e+00,1.162010550498962402e+00,1.161941409111022949e+00,1.161872267723083496e+00,1.161803126335144043e+00,1.161733984947204590e+00,1.161664843559265137e+00,1.161595821380615234e+00,1.161526679992675781e+00,1.161457538604736328e+00,1.161388516426086426e+00,1.161319494247436523e+00,1.161250352859497070e+00,1.161181330680847168e+00,1.161112308502197266e+00,1.161043286323547363e+00,1.160974264144897461e+00,1.160905122756958008e+00,1.160836100578308105e+00,1.160767078399658203e+00,1.160698175430297852e+00,1.160629153251647949e+00,1.160560131072998047e+00,1.160491228103637695e+00,1.160422205924987793e+00,1.160353183746337891e+00,1.160284280776977539e+00,1.160215377807617188e+00,1.160146474838256836e+00,1.160077452659606934e+00,1.160008549690246582e+00,1.159939646720886230e+00,1.159870624542236328e+00,1.159801840782165527e+00,1.159732937812805176e+00,1.159664034843444824e+00,1.159595131874084473e+00,1.159526228904724121e+00,1.159457445144653320e+00,1.159388661384582520e+00,1.159319758415222168e+00,1.159250855445861816e+00,1.159182071685791016e+00,1.159113287925720215e+00,1.159044384956359863e+00,1.158975601196289062e+00,1.158906936645507812e+00,1.158838152885437012e+00,1.158769249916076660e+00,1.158700585365295410e+00,1.158631801605224609e+00,1.158563017845153809e+00,1.158494234085083008e+00,1.158425569534301758e+00,1.158356904983520508e+00,1.158288240432739258e+00,1.158219456672668457e+00,1.158150792121887207e+00,1.158082127571105957e+00,1.158013463020324707e+00,1.157944798469543457e+00,1.157876014709472656e+00,1.157807350158691406e+00,1.157738804817199707e+00,1.157670140266418457e+00,1.157601475715637207e+00,1.157532930374145508e+00,1.157464265823364258e+00,1.157395601272583008e+00,1.157327055931091309e+00,1.157258510589599609e+00,1.157189965248107910e+00,1.157121419906616211e+00,1.157052874565124512e+00,1.156984210014343262e+00,1.156915664672851562e+00
1.087105512619018555e+00,1.087044835090637207e+00,1.086984395980834961e+00,1.086923956871032715e+00,1.086863398551940918e+00,1.086802840232849121e+00,1.086742401123046875e+00,1.086681962013244629e+00,1.086621522903442383e+00,1.086560964584350586e+00,1.086500525474548340e+00,1.086440086364746094e+00,1.086379647254943848e+00,1.086319088935852051e+00,1.086258769035339355e+00,1.086198329925537109e+00,1.086137890815734863e+00,1.086077451705932617e+00,1.086017012596130371e+00,1.085956692695617676e+00,1.085896253585815430e+00,1.085835814476013184e+00,1.085775494575500488e+00,1.085715174674987793e+00,1.085654735565185547e+00,1.085594415664672852e+00,1.085534095764160156e+00,1.085473656654357910e+00,1.085413336753845215e+00,1.085353016853332520e+00,1.085292696952819824e+00,1.085232377052307129e+00,1.085172057151794434e+00,1.085111737251281738e+00,1.085051417350769043e+00,1.084991216659545898e+00,1.084930896759033203e+00,1.084870576858520508e+00,1.084810376167297363e+00,1.084750056266784668e+00,1.084689736366271973e+00,1.084629535675048828e+00,1.084569215774536133e+00,1.084509015083312988e+00,1.084448814392089844e+00,1.084388613700866699e+00,1.084328413009643555e+00,1.084268212318420410e+00,1.084207892417907715e+00,1.084147691726684570e+00,1.084087491035461426e+00,1.084027409553527832e+00,1.083967089653015137e+00,1.083907008171081543e+00,1.083846807479858398e+00,1.083786725997924805e+00,1.083726525306701660e+00,1.083666324615478516e+00,1.083606243133544922e+00,1.083546161651611328e+00,1.083485960960388184e+00,1.083425879478454590e+00,1.083365797996520996e+00,1.083305716514587402e+00,1.083245515823364258e+00,1.083185434341430664e+00,1.083125352859497070e+00,1.083065271377563477e+00,1.083005189895629883e+00,1.082945108413696289e+00,1.082885026931762695e+00,1.082825064659118652e+00,1.082764983177185059e+00,1.082705020904541016e+00,1.082644939422607422e+00,1.082584857940673828e+00,1.082524895668029785e+00,1.082464933395385742e+00,1.082404851913452148e+00,1.082344889640808105e+00
1.021005511283874512e+00,1.020952105522155762e+00,1.020898699760437012e+00,1.020845413208007812e+00,1.020792007446289062e+00,1.020738601684570312e+00,1.020685315132141113e+00,1.020631909370422363e+00,1.020578622817993164e+00,1.020525217056274414e+00,1.020471930503845215e+00,1.020418524742126465e+00,1.020365238189697266e+00,1.020311951637268066e+00,1.020258545875549316e+00,1.020205259323120117e+00,1.020151972770690918e+00,1.020098686218261719e+00,1.020045399665832520e+00,1.019992113113403320e+00,1.019938826560974121e+00,1.019885540008544922e+00,1.019832253456115723e+00,1.019779086112976074e+00,1.019725680351257324e+00,1.019672513008117676e+00,1.019619226455688477e+00,1.019566059112548828e+00,1.019512772560119629e+00,1.019459605216979980e+00,1.019406318664550781e+00,1.019353151321411133e+00,1.019299864768981934e+00,1.019246697425842285e+00,1.019193530082702637e+00,1.019140362739562988e+00,1.019087076187133789e+00,1.019033908843994141e+00,1.018980741500854492e+00,1.018927574157714844e+00,1.018874406814575195e+00,1.018821239471435547e+00,1.018768072128295898e+00,1.018714904785156250e+00,1.018661737442016602e+00,1.018608570098876953e+00,1.018555521965026855e+00,1.018502354621887207e+00,1.018449187278747559e+00,1.018396139144897461e+00,1.018342971801757812e+00,1.018289923667907715e+00,1.018236756324768066e+00,1.018183708190917969e+00,1.018130660057067871e+00,1.018077492713928223e+00,1.018024444580078125e+00,1.017971396446228027e+00,1.017918348312377930e+00,1.017865180969238281e+00,1.017812132835388184e+00,1.017759084701538086e+00,1.017706036567687988e+00,1.017652988433837891e+00,1.017599940299987793e+00,1.017546892166137695e+00,1.017493963241577148e+00,1.017440915107727051e+00,1.017387866973876953e+00,1.017334818840026855e+00,1.017281889915466309e+00,1.017228841781616211e+00,1.017175912857055664e+00,1.017122864723205566e+00,1.017069935798645020e+00,1.017017006874084473e+00,1.016963958740234375e+00,1.016911029815673828e+00,1.016858100891113281e+00,1.016805171966552734e+00
