3.786345243453979492e+00,3.745784044265747070e+00,3.706082820892333984e+00,3.667213916778564453e+00,3.629152059555053711e+00,3.591872453689575195e+00,3.555350542068481445e+00,3.519563913345336914e+00,3.484490871429443359e+00,3.450109481811523438e+00,3.416400194168090820e+00,3.383343458175659180e+00,3.350919961929321289e+00,3.319112062454223633e+00,3.287902116775512695e+00,3.257274389266967773e+00,3.227211475372314453e+00,3.197698354721069336e+00,3.168720483779907227e+00,3.140262842178344727e+00,3.112311601638793945e+00,3.084853887557983398e+00,3.057876586914062500e+00,3.031366586685180664e+00,3.005312442779541016e+00,2.979702472686767578e+00,2.954525232315063477e+00,2.929769754409790039e+00,2.905425786972045898e+00,2.881483078002929688e+00,2.857931613922119141e+00,2.834762096405029297e+00,2.811965465545654297e+00,2.789532184600830078e+00,2.767454147338867188e+00,2.745722770690917969e+00,2.724330186843872070e+00,2.703268289566040039e+00,2.682529449462890625e+00,2.662106752395629883e+00,2.641992330551147461e+00,2.622179746627807617e+00,2.602661848068237305e+00,2.583432912826538086e+00,2.564485549926757812e+00,2.545814037322998047e+00,2.527412891387939453e+00,2.509275436401367188e+00,2.491396665573120117e+00,2.473770618438720703e+00,2.456392526626586914e+00,2.439256668090820312e+00,2.422358512878417969e+00,2.405692577362060547e+00,2.389254570007324219e+00,2.373039484024047852e+00,2.357043266296386719e+00,2.341261148452758789e+00,2.325688838958740234e+00,2.310322523117065430e+00,2.295157909393310547e+00,2.280190944671630859e+00,2.265418052673339844e+00,2.250835180282592773e+00,2.236438989639282227e+00,2.222225666046142578e+00,5.847290158271789551e-01,5.655828714370727539e-01,5.482888817787170410e-01,5.418202877044677734e-01,5.366403460502624512e-01,5.315067172050476074e-01,5.262128114700317383e-01,5.210232138633728027e-01,5.159350633621215820e-01,5.109453201293945312e-01,5.060511231422424316e-01,5.040279030799865723e-01,5.059036016464233398e-01,5.077933073043823242e-01
3.786345720291137695e+00,3.745784521102905273e+00,3.706083059310913086e+00,3.667214155197143555e+00,3.629152774810791016e+00,3.591872692108154297e+00,3.555350780487060547e+00,3.519564390182495117e+00,3.484491109848022461e+00,3.450109958648681641e+00,3.416400432586669922e+00,3.383343935012817383e+00,3.350920200347900391e+00,3.319112539291381836e+00,3.287902593612670898e+00,3.257274627685546875e+00,3.227211713790893555e+00,3.197698593139648438e+00,3.168720722198486328e+00,3.140263080596923828e+00,3.112312078475952148e+00,3.084854125976562500e+00,3.057876825332641602e+00,3.031366825103759766e+00,3.005312681198120117e+00,2.979702711105346680e+00,2.954525470733642578e+00,2.929769992828369141e+00,2.905426025390625000e+00,2.881483316421508789e+00,2.857931852340698242e+00,2.834762334823608398e+00,2.811965703964233398e+00,2.789532423019409180e+00,2.767454385757446289e+00,2.745723009109497070e+00,2.724330425262451172e+00,2.703268527984619141e+00,2.682529687881469727e+00,2.662106990814208984e+00,2.641992568969726562e+00,2.622179985046386719e+00,2.602662086486816406e+00,2.583432912826538086e+00,2.564485788345336914e+00,2.545814275741577148e+00,2.527413129806518555e+00,2.509275674819946289e+00,2.491396665573120117e+00,2.473771095275878906e+00,2.456392765045166016e+00,2.439256906509399414e+00,2.422358512878417969e+00,2.405692815780639648e+00,2.389254808425903320e+00,2.373039722442626953e+00,2.357043504714965820e+00,2.341261386871337891e+00,2.325689077377319336e+00,2.310322523117065430e+00,2.295157909393310547e+00,2.280190944671630859e+00,2.265418052673339844e+00,2.250835418701171875e+00,2.236439228057861328e+00,2.222225904464721680e+00,5.882219672203063965e-01,5.689085721969604492e-01,5.509074926376342773e-01,5.426787137985229492e-01,5.370712280273437500e-01,5.316275358200073242e-01,5.263311862945556641e-01,5.211393237113952637e-01,5.160488486289978027e-01,5.110569596290588379e-01,5.061606168746948242e-01,5.048544406890869141e-01,5.067362785339355469e-01,5.086322426795959473e-01
3.786345958709716797e+00,3.745784997940063477e+00,3.706083536148071289e+00,3.667214632034301758e+00,3.629153251647949219e+00,3.591873168945312500e+00,3.555351257324218750e+00,3.519564628601074219e+00,3.484491586685180664e+00,3.450110197067260742e+00,3.416400909423828125e+00,3.383344173431396484e+00,3.350920677185058594e+00,3.319112777709960938e+00,3.287902832031250000e+00,3.257275104522705078e+00,3.227211952209472656e+00,3.197699069976806641e+00,3.168720960617065430e+00,3.140263319015502930e+00,3.112312316894531250e+00,3.084854364395141602e+00,3.057877063751220703e+00,3.031367063522338867e+00,3.005312919616699219e+00,2.979702949523925781e+00,2.954525709152221680e+00,2.929770231246948242e+00,2.905426263809204102e+00,2.881483554840087891e+00,2.857932090759277344e+00,2.834762573242187500e+00,2.811965942382812500e+00,2.789532661437988281e+00,2.767454624176025391e+00,2.745723247528076172e+00,2.724330663681030273e+00,2.703268766403198242e+00,2.682529926300048828e+00,2.662107229232788086e+00,2.641992807388305664e+00,2.622180223464965820e+00,2.602662563323974609e+00,2.583433151245117188e+00,2.564485788345336914e+00,2.545814514160156250e+00,2.527413129806518555e+00,2.509275913238525391e+00,2.491396903991699219e+00,2.473771095275878906e+00,2.456393003463745117e+00,2.439257144927978516e+00,2.422358751296997070e+00,2.405693054199218750e+00,2.389254808425903320e+00,2.373039960861206055e+00,2.357043743133544922e+00,2.341261386871337891e+00,2.325689315795898438e+00,2.310322761535644531e+00,2.295158147811889648e+00,2.280191421508789062e+00,2.265418291091918945e+00,2.250835657119750977e+00,2.236439466476440430e+00,2.222226142883300781e+00,5.932489633560180664e-01,5.734671950340270996e-01,5.481936931610107422e-01,5.429066419601440430e-01,5.372913479804992676e-01,5.317910909652709961e-01,5.264022946357727051e-01,5.211216211318969727e-01,5.159458518028259277e-01,5.108718276023864746e-01,5.058966875076293945e-01,5.059244632720947266e-01,5.079039335250854492e-01,5.098989009857177734e-01
3.786346435546875000e+00,3.745785474777221680e+00,3.706084012985229492e+00,3.667215108871459961e+00,3.629153490066528320e+00,3.591873645782470703e+00,3.555351734161376953e+00,3.519565105438232422e+00,3.484491825103759766e+00,3.450110673904418945e+00,3.416401147842407227e+00,3.383344411849975586e+00,3.350920915603637695e+00,3.319113016128540039e+00,3.287903308868408203e+00,3.257275342941284180e+00,3.227212429046630859e+00,3.197699308395385742e+00,3.168721437454223633e+00,3.140263795852661133e+00,3.112312555313110352e+00,3.084854602813720703e+00,3.057877302169799805e+00,3.031367301940917969e+00,3.005313158035278320e+00,2.979703187942504883e+00,2.954525947570800781e+00,2.929770469665527344e+00,2.905426740646362305e+00,2.881483793258666992e+00,2.857932329177856445e+00,2.834762811660766602e+00,2.811966180801391602e+00,2.789532899856567383e+00,2.767454862594604492e+00,2.745723724365234375e+00,2.724330902099609375e+00,2.703269004821777344e+00,2.682530403137207031e+00,2.662107467651367188e+00,2.641993284225463867e+00,2.622180700302124023e+00,2.602663040161132812e+00,2.583433866500854492e+00,2.564486503601074219e+00,2.545815229415893555e+00,2.527413845062255859e+00,2.509276628494262695e+00,2.491397619247436523e+00,2.473771810531616211e+00,2.456393718719482422e+00,2.439257860183715820e+00,2.422359704971313477e+00,2.405693769454956055e+00,2.389255762100219727e+00,2.373040914535522461e+00,2.357044458389282227e+00,2.341262340545654297e+00,2.325690269470214844e+00,2.310323953628540039e+00,2.295159101486206055e+00,2.280192375183105469e+00,2.265419244766235352e+00,2.250836610794067383e+00,2.236440420150756836e+00,2.222227096557617188e+00,5.540267229080200195e-01,5.492713451385498047e-01,5.443229079246520996e-01,5.394390821456909180e-01,5.344194173812866211e-01,5.294836163520812988e-01,5.241412520408630371e-01,5.189056396484375000e-01,5.137735605239868164e-01,5.087419748306274414e-01,5.083655714988708496e-01,5.088678598403930664e-01,5.097710490226745605e-01,5.117807984352111816e-01
3.786346912384033203e+00,3.745785713195800781e+00,3.706084251403808594e+00,3.667215585708618164e+00,3.629153966903686523e+00,3.591873884201049805e+00,3.555351972579956055e+00,3.519565343856811523e+00,3.484492301940917969e+00,3.450110912322998047e+00,3.416401624679565430e+00,3.383344888687133789e+00,3.350921392440795898e+00,3.319113492965698242e+00,3.287903547286987305e+00,3.257275581359863281e+00,3.227212905883789062e+00,3.197699785232543945e+00,3.168721914291381836e+00,3.140264272689819336e+00,3.112313508987426758e+00,3.084855556488037109e+00,3.057878255844116211e+00,3.031368255615234375e+00,3.005314350128173828e+00,2.979704141616821289e+00,2.954526901245117188e+00,2.929771423339843750e+00,2.905427694320678711e+00,2.881484746932983398e+00,2.857933521270751953e+00,2.834764003753662109e+00,2.811967134475708008e+00,2.789534091949462891e+00,2.767456293106079102e+00,2.745724916458129883e+00,2.724332332611083984e+00,2.703270196914672852e+00,2.682531595230102539e+00,2.662108659744262695e+00,2.641994476318359375e+00,2.622181653976440430e+00,2.602664232254028320e+00,2.583434820175170898e+00,2.564487695693969727e+00,2.545816183090209961e+00,2.527415037155151367e+00,2.509277582168579102e+00,2.491398811340332031e+00,2.473772764205932617e+00,2.456394672393798828e+00,2.439258813858032227e+00,2.422360658645629883e+00,2.405694723129272461e+00,2.389256715774536133e+00,2.373041629791259766e+00,2.357045650482177734e+00,2.341263294219970703e+00,2.325691223144531250e+00,2.310324668884277344e+00,2.295160055160522461e+00,2.280193090438842773e+00,2.265420198440551758e+00,5.906865000724792480e-01,5.582543015480041504e-01,5.542156696319580078e-01,5.496064424514770508e-01,5.446519851684570312e-01,5.397861003875732422e-01,5.350063443183898926e-01,5.303104519844055176e-01,5.256963372230529785e-01,5.211617946624755859e-01,5.166307091712951660e-01,5.116195082664489746e-01,5.114391446113586426e-01,5.119475722312927246e-01,5.124570131301879883e-01,5.129674673080444336e-01,5.136765837669372559e-01
3.786348581314086914e+00,3.745787143707275391e+00,3.706085920333862305e+00,3.667217016220092773e+00,3.629155635833740234e+00,3.591875553131103516e+00,3.555353879928588867e+00,3.519567251205444336e+00,3.484493970870971680e+00,3.450112819671630859e+00,3.416403770446777344e+00,3.383346557617187500e+00,3.350923299789428711e+00,3.319115400314331055e+00,3.287905693054199219e+00,3.257277488708496094e+00,3.227214813232421875e+00,3.197701692581176758e+00,3.168723821640014648e+00,3.140265941619873047e+00,3.112315177917480469e+00,3.084857225418090820e+00,3.057879924774169922e+00,3.031369924545288086e+00,3.005315780639648438e+00,2.979705572128295898e+00,2.954528570175170898e+00,2.929773092269897461e+00,2.905429124832153320e+00,2.881486177444458008e+00,2.857935190200805664e+00,2.834765434265136719e+00,2.811968564987182617e+00,2.789535522460937500e+00,2.767457485198974609e+00,2.745726108551025391e+00,2.724333524703979492e+00,2.703271627426147461e+00,2.682533025741577148e+00,2.662109851837158203e+00,2.641995668411254883e+00,2.622183084487915039e+00,2.602665424346923828e+00,2.583436012268066406e+00,2.564488887786865234e+00,2.545817375183105469e+00,2.527415990829467773e+00,2.509278774261474609e+00,2.491400003433227539e+00,2.473773956298828125e+00,2.456395864486694336e+00,2.439260005950927734e+00,2.422361850738525391e+00,2.405695676803588867e+00,2.389257669448852539e+00,2.373042821884155273e+00,2.357046604156494141e+00,2.341264247894287109e+00,2.325692176818847656e+00,2.310325622558593750e+00,2.295161008834838867e+00,5.755829215049743652e-01,5.625469088554382324e-01,5.584461688995361328e-01,5.544047951698303223e-01,5.499419569969177246e-01,5.449814796447753906e-01,5.401096940040588379e-01,5.353242754936218262e-01,5.306228399276733398e-01,5.260033011436462402e-01,5.214634537696838379e-01,5.170013308525085449e-01,5.157919526100158691e-01,5.147446990013122559e-01,5.146700739860534668e-01,5.153968334197998047e-01,5.160971283912658691e-01,5.166148543357849121e-01,5.171336531639099121e-01
3.786351203918457031e+00,3.745789527893066406e+00,3.706088542938232422e+00,3.667219400405883789e+00,3.629157781600952148e+00,3.591877698898315430e+00,3.555356264114379883e+00,3.519569396972656250e+00,3.484496116638183594e+00,3.450114965438842773e+00,3.416405677795410156e+00,3.383348703384399414e+00,3.350925207138061523e+00,3.319117307662963867e+00,3.287907600402832031e+00,3.257279396057128906e+00,3.227216720581054688e+00,3.197703599929809570e+00,3.168725490570068359e+00,3.140267848968505859e+00,3.112316846847534180e+00,3.084858894348144531e+00,3.057881593704223633e+00,3.031371355056762695e+00,3.005317449569702148e+00,2.979707241058349609e+00,2.954530000686645508e+00,2.929774522781372070e+00,2.905430793762207031e+00,2.881487846374511719e+00,2.857936620712280273e+00,2.834766864776611328e+00,2.811969995498657227e+00,2.789536714553833008e+00,2.767458915710449219e+00,2.745727539062500000e+00,2.724334955215454102e+00,2.703272819519042969e+00,2.682534217834472656e+00,2.662111043930053711e+00,2.641996860504150391e+00,2.622184276580810547e+00,2.602666616439819336e+00,2.583437204360961914e+00,2.564490079879760742e+00,2.545818567276000977e+00,2.527417182922363281e+00,2.509279727935791016e+00,2.491400957107543945e+00,2.473774909973144531e+00,2.456396818161010742e+00,2.439260959625244141e+00,2.422362804412841797e+00,2.405696868896484375e+00,2.389258861541748047e+00,2.373043775558471680e+00,2.357047557830810547e+00,2.341265201568603516e+00,2.325693130493164062e+00,5.711323618888854980e-01,5.669060349464416504e-01,5.627416968345642090e-01,5.586381554603576660e-01,5.545939803123474121e-01,5.502778887748718262e-01,5.453113913536071777e-01,5.404337048530578613e-01,5.356425642967224121e-01,5.309355854988098145e-01,5.263105630874633789e-01,5.234122872352600098e-01,5.223338603973388672e-01,5.212598443031311035e-01,5.201903581619262695e-01,5.191251635551452637e-01,5.180643200874328613e-01,5.181418657302856445e-01,5.188784599304199219e-01,5.196171402931213379e-01,5.203579068183898926e-01
3.786353349685668945e+00,3.745792150497436523e+00,3.706090450286865234e+00,3.667221784591674805e+00,3.629159927368164062e+00,3.591880083084106445e+00,3.555357933044433594e+00,3.519571781158447266e+00,3.484498023986816406e+00,3.450117111206054688e+00,3.416407585144042969e+00,3.383350610733032227e+00,3.350926876068115234e+00,3.319119215011596680e+00,3.287909269332885742e+00,3.257281303405761719e+00,3.227218151092529297e+00,3.197705268859863281e+00,3.168726921081542969e+00,3.140269517898559570e+00,3.112318277359008789e+00,3.084860563278198242e+00,3.057882785797119141e+00,3.031373023986816406e+00,3.005318880081176758e+00,2.979708909988403320e+00,2.954531431198120117e+00,2.929776191711425781e+00,2.905431985855102539e+00,2.881489276885986328e+00,2.857937812805175781e+00,2.834768295288085938e+00,2.811971187591552734e+00,2.789538145065307617e+00,2.767460107803344727e+00,2.745728969573974609e+00,2.724336147308349609e+00,2.703274250030517578e+00,2.682535409927368164e+00,2.662112474441528320e+00,2.641998052597045898e+00,2.622185468673706055e+00,2.602667570114135742e+00,2.583438396453857422e+00,2.564491033554077148e+00,2.545819759368896484e+00,2.527418136596679688e+00,2.509280920028686523e+00,2.491401910781860352e+00,2.473776102066040039e+00,2.456397771835327148e+00,2.439262151718139648e+00,2.422363758087158203e+00,2.405697822570800781e+00,2.389259576797485352e+00,2.373044729232788086e+00,2.357048273086547852e+00,5.796929001808166504e-01,5.713332295417785645e-01,5.671038627624511719e-01,5.629366636276245117e-01,5.588302612304687500e-01,5.547832846641540527e-01,5.506142377853393555e-01,5.456417202949523926e-01,5.407581329345703125e-01,5.359612703323364258e-01,5.312610864639282227e-01,5.301501154899597168e-01,5.290437936782836914e-01,5.279421210289001465e-01,5.268449783325195312e-01,5.257523655891418457e-01,5.246643424034118652e-01,5.235807895660400391e-01,5.225016474723815918e-01,5.214270353317260742e-01,5.216608643531799316e-01,5.224074721336364746e-01,5.231562256813049316e-01
3.786355733871459961e+00,3.745794534683227539e+00,3.706092834472656250e+00,3.667224168777465820e+00,3.629162311553955078e+00,3.591882467269897461e+00,3.555360317230224609e+00,3.519573926925659180e+00,3.484500169754028320e+00,3.450119256973266602e+00,3.416409492492675781e+00,3.383352756500244141e+00,3.350929021835327148e+00,3.319121360778808594e+00,3.287911176681518555e+00,3.257283210754394531e+00,3.227220058441162109e+00,3.197707176208496094e+00,3.168728828430175781e+00,3.140271425247192383e+00,3.112319946289062500e+00,3.084862232208251953e+00,3.057884454727172852e+00,3.031374692916870117e+00,3.005320549011230469e+00,2.979710340499877930e+00,2.954532861709594727e+00,2.929777622222900391e+00,2.905433416366577148e+00,2.881490707397460938e+00,2.857939243316650391e+00,2.834769725799560547e+00,2.811972618103027344e+00,2.789539575576782227e+00,2.767461538314819336e+00,2.745730161666870117e+00,2.724337339401245117e+00,2.703275442123413086e+00,2.682536602020263672e+00,2.662113666534423828e+00,2.641999244689941406e+00,2.622186660766601562e+00,2.602668762207031250e+00,2.583439588546752930e+00,2.564492225646972656e+00,2.545820951461791992e+00,2.527419328689575195e+00,2.509282112121582031e+00,2.491403102874755859e+00,2.473777294158935547e+00,2.456398963928222656e+00,2.439263105392456055e+00,2.422364711761474609e+00,2.405698776245117188e+00,2.389260768890380859e+00,2.373045682907104492e+00,5.853158831596374512e-01,5.739845037460327148e-01,5.684331655502319336e-01,5.631317496299743652e-01,5.590224862098693848e-01,5.549728274345397949e-01,5.509510636329650879e-01,5.459724068641662598e-01,5.410829782485961914e-01,5.382038950920104980e-01,5.370637178421020508e-01,5.359284281730651855e-01,5.347978472709655762e-01,5.336720347404479980e-01,5.325510501861572266e-01,5.314346551895141602e-01,5.303230285644531250e-01,5.292159914970397949e-01,5.281135439872741699e-01,5.270156860351562500e-01,5.259224176406860352e-01,5.248336791992187500e-01,5.252279043197631836e-01,5.259848237037658691e-01
3.786358356475830078e+00,3.745796680450439453e+00,3.706095457077026367e+00,3.667226314544677734e+00,3.629164457321166992e+00,3.591884374618530273e+00,3.555362462997436523e+00,3.519575834274291992e+00,3.484502315521240234e+00,3.450120925903320312e+00,3.416411638259887695e+00,3.383354425430297852e+00,3.350930929183959961e+00,3.319123029708862305e+00,3.287913084030151367e+00,3.257284879684448242e+00,3.227221965789794922e+00,3.197708606719970703e+00,3.168730497360229492e+00,3.140272855758666992e+00,3.112321853637695312e+00,3.084863662719726562e+00,3.057886123657226562e+00,3.031376123428344727e+00,3.005321979522705078e+00,2.979711771011352539e+00,2.954534530639648438e+00,2.929778814315795898e+00,2.905435085296630859e+00,2.881491899490356445e+00,2.857940673828125000e+00,2.834770917892456055e+00,2.811974048614501953e+00,2.789540767669677734e+00,2.767462968826293945e+00,2.745731353759765625e+00,2.724338769912719727e+00,2.703276634216308594e+00,2.682537794113159180e+00,2.662114858627319336e+00,2.642000436782836914e+00,2.622187614440917969e+00,2.602669954299926758e+00,2.583440542221069336e+00,2.564493417739868164e+00,2.545821905136108398e+00,2.527420520782470703e+00,2.509283065795898438e+00,2.491404056549072266e+00,2.473778009414672852e+00,2.456399917602539062e+00,2.439264059066772461e+00,2.422365665435791016e+00,2.405699729919433594e+00,2.389261722564697266e+00,5.910490751266479492e-01,5.770823955535888672e-01,5.714620351791381836e-01,5.659591555595397949e-01,5.605612397193908691e-01,5.552653074264526367e-01,5.511682033538818359e-01,5.465061068534851074e-01,5.453305244445800781e-01,5.441600084304809570e-01,5.429944992065429688e-01,5.418339967727661133e-01,5.406784415245056152e-01,5.395278334617614746e-01,5.383820533752441406e-01,5.372411608695983887e-01,5.361050963401794434e-01,5.349738001823425293e-01,5.338472723960876465e-01,5.327254533767700195e-01,5.316084027290344238e-01,5.304725170135498047e-01,5.292886495590209961e-01,5.294219851493835449e-01,5.690764784812927246e-01
3.786360979080200195e+00,3.745799303054809570e+00,3.706097841262817383e+00,3.667228698730468750e+00,3.629166841506958008e+00,3.591886520385742188e+00,3.555364847183227539e+00,3.519577980041503906e+00,3.484504461288452148e+00,3.450123071670532227e+00,3.416413784027099609e+00,3.383356571197509766e+00,3.350933074951171875e+00,3.319124937057495117e+00,3.287915229797363281e+00,3.257286787033081055e+00,3.227223873138427734e+00,3.197710514068603516e+00,3.168732404708862305e+00,3.140274524688720703e+00,3.112323522567749023e+00,3.084865331649780273e+00,3.057887792587280273e+00,3.031377792358398438e+00,3.005323648452758789e+00,2.979713201522827148e+00,2.954535961151123047e+00,2.929780483245849609e+00,2.905436515808105469e+00,2.881493568420410156e+00,2.857942104339599609e+00,2.834772348403930664e+00,2.811975479125976562e+00,2.789542198181152344e+00,2.767464160919189453e+00,2.745732784271240234e+00,2.724339962005615234e+00,2.703277826309204102e+00,2.682539224624633789e+00,2.662116050720214844e+00,2.642001628875732422e+00,2.622189044952392578e+00,2.602671146392822266e+00,2.583441734313964844e+00,2.564494609832763672e+00,2.545823097229003906e+00,2.527421474456787109e+00,2.509284257888793945e+00,2.491405248641967773e+00,2.473779201507568359e+00,2.456401109695434570e+00,2.439265012741088867e+00,2.422366857528686523e+00,2.405700683593750000e+00,5.968956351280212402e-01,5.802224278450012207e-01,5.745233297348022461e-01,5.689616203308105469e-01,5.635066032409667969e-01,5.581551194190979004e-01,5.529043674468994141e-01,5.512277483940124512e-01,5.500984191894531250e-01,5.488254427909851074e-01,5.475582480430603027e-01,5.462970137596130371e-01,5.450414419174194336e-01,5.437917113304138184e-01,5.425476431846618652e-01,5.413092970848083496e-01,5.400765538215637207e-01,5.388494729995727539e-01,5.376278758049011230e-01,5.364118814468383789e-01,5.352013111114501953e-01,5.353413224220275879e-01,5.366473793983459473e-01,5.446550846099853516e-01,5.663099288940429688e-01,2.040666103363037109e+00
3.786363601684570312e+00,3.745801687240600586e+00,3.706100225448608398e+00,3.667231082916259766e+00,3.629169225692749023e+00,3.591888904571533203e+00,3.555366992950439453e+00,3.519580125808715820e+00,3.484506607055664062e+00,3.450125217437744141e+00,3.416415929794311523e+00,3.383358478546142578e+00,3.350934982299804688e+00,3.319126844406127930e+00,3.287917137145996094e+00,3.257288694381713867e+00,3.227225780487060547e+00,3.197712421417236328e+00,3.168734073638916016e+00,3.140276432037353516e+00,3.112325191497802734e+00,3.084867238998413086e+00,3.057889461517333984e+00,3.031379461288452148e+00,3.005325317382812500e+00,2.979714870452880859e+00,2.954537630081176758e+00,2.929781913757324219e+00,2.905437946319580078e+00,2.881494998931884766e+00,2.857943534851074219e+00,2.834773778915405273e+00,2.811976909637451172e+00,2.789543628692626953e+00,2.767465591430664062e+00,2.745733976364135742e+00,2.724341392517089844e+00,2.703279256820678711e+00,2.682540416717529297e+00,2.662117242813110352e+00,2.642003059387207031e+00,2.622190237045288086e+00,2.602672338485717773e+00,2.583442926406860352e+00,2.564495563507080078e+00,2.545824050903320312e+00,2.527422666549682617e+00,2.509285211563110352e+00,2.491406440734863281e+00,2.473780393600463867e+00,2.456402063369750977e+00,2.439266204833984375e+00,6.327718496322631836e-01,6.028590798377990723e-01,5.833967328071594238e-01,5.776299238204956055e-01,5.719961524009704590e-01,5.664830207824707031e-01,5.610752105712890625e-01,5.557695627212524414e-01,5.537822842597961426e-01,5.530697703361511230e-01,5.523590445518493652e-01,5.513134598731994629e-01,5.500348210334777832e-01,5.487620830535888672e-01,5.474952459335327148e-01,5.462341904640197754e-01,5.449789762496948242e-01,5.437294840812683105e-01,5.424857735633850098e-01,5.412476658821105957e-01,5.422058701515197754e-01,5.435456633567810059e-01,5.448921322822570801e-01,5.499537587165832520e-01,5.607906579971313477e-01,5.720632672309875488e-01,2.052646160125732422e+00,2.040666818618774414e+00
3.786365747451782227e+00,3.745804309844970703e+00,3.706102371215820312e+00,3.667233467102050781e+00,3.629171133041381836e+00,3.591891288757324219e+00,3.555368900299072266e+00,3.519582509994506836e+00,3.484508514404296875e+00,3.450127363204956055e+00,3.416417598724365234e+00,3.383360624313354492e+00,3.350936651229858398e+00,3.319128751754760742e+00,3.287918567657470703e+00,3.257290601730346680e+00,3.227227210998535156e+00,3.197714090347290039e+00,3.168735742568969727e+00,3.140278100967407227e+00,3.112326622009277344e+00,3.084868907928466797e+00,3.057890892028808594e+00,3.031381130218505859e+00,3.005326747894287109e+00,2.979716539382934570e+00,2.954538822174072266e+00,2.929783582687377930e+00,2.905439376831054688e+00,2.881496429443359375e+00,2.857944726943969727e+00,2.834775209426879883e+00,2.811978101730346680e+00,2.789544820785522461e+00,2.767466783523559570e+00,2.745735406875610352e+00,2.724342346191406250e+00,2.703280448913574219e+00,2.682541608810424805e+00,2.662118434906005859e+00,2.642004013061523438e+00,2.622191429138183594e+00,2.602673530578613281e+00,2.583444118499755859e+00,2.564496755599975586e+00,2.545825242996215820e+00,2.527423620223999023e+00,2.509286403656005859e+00,2.491407394409179688e+00,2.473781347274780273e+00,2.456403017044067383e+00,6.330705881118774414e-01,6.089428067207336426e-01,5.866060256958007812e-01,5.807759165763854980e-01,5.750632286071777344e-01,5.694910883903503418e-01,5.640259385108947754e-01,5.586646795272827148e-01,5.563606023788452148e-01,5.556414127349853516e-01,5.549240708351135254e-01,5.542085766792297363e-01,5.534949302673339844e-01,5.525338649749755859e-01,5.512495040893554688e-01,5.499711632728576660e-01,5.486987233161926270e-01,5.478806495666503906e-01,5.492486953735351562e-01,5.506236553192138672e-01,5.520054101943969727e-01,5.533941984176635742e-01,5.553565621376037598e-01,5.664095878601074219e-01,5.779114961624145508e-01,2.077032566070556641e+00,2.064767837524414062e+00,2.052646875381469727e+00,2.040667533874511719e+00
3.786368131637573242e+00,3.745806694030761719e+00,3.706104755401611328e+00,3.667235851287841797e+00,3.629173517227172852e+00,3.591893434524536133e+00,3.555371284484863281e+00,3.519584655761718750e+00,3.484510660171508789e+00,3.450129508972167969e+00,3.416419744491577148e+00,3.383362531661987305e+00,3.350938796997070312e+00,3.319130897521972656e+00,3.287920713424682617e+00,3.257292509078979492e+00,3.227229118347167969e+00,3.197715997695922852e+00,3.168737411499023438e+00,3.140279769897460938e+00,3.112328529357910156e+00,3.084870576858520508e+00,3.057892560958862305e+00,3.031382560729980469e+00,3.005328178405761719e+00,2.979717969894409180e+00,2.954540491104125977e+00,2.929785013198852539e+00,2.905440807342529297e+00,2.881497859954833984e+00,2.857946395874023438e+00,2.834776639938354492e+00,2.811979532241821289e+00,2.789546251296997070e+00,2.767468214035034180e+00,2.745736837387084961e+00,2.724343776702880859e+00,2.703281879425048828e+00,2.682542800903320312e+00,2.662119865417480469e+00,2.642005205154418945e+00,2.622192621231079102e+00,2.602674722671508789e+00,2.583445310592651367e+00,2.564497709274291992e+00,2.545826435089111328e+00,2.527424812316894531e+00,2.509287595748901367e+00,2.491408348083496094e+00,2.473782539367675781e+00,6.333695650100708008e-01,6.131826639175415039e-01,5.898507833480834961e-01,5.839563608169555664e-01,5.781785249710083008e-01,5.725312829017639160e-01,5.670078992843627930e-01,5.615900754928588867e-01,5.589630603790283203e-01,5.582371354103088379e-01,5.575130581855773926e-01,5.567908883094787598e-01,5.560705661773681641e-01,5.553520917892456055e-01,5.546355247497558594e-01,5.550727844238281250e-01,5.564770102500915527e-01,5.578883886337280273e-01,5.593069195747375488e-01,5.607326626777648926e-01,5.621657371520996094e-01,5.636061429977416992e-01,5.721422433853149414e-01,5.838805437088012695e-01,2.102005243301391602e+00,2.089444637298583984e+00,2.077033281326293945e+00,2.064768552780151367e+00,2.052647590637207031e+00,2.040668249130249023e+00
3.786370754241943359e+00,3.745808839797973633e+00,3.706107378005981445e+00,3.667237997055053711e+00,3.629175901412963867e+00,3.591895341873168945e+00,3.555373430252075195e+00,3.519586563110351562e+00,3.484512805938720703e+00,3.450131177902221680e+00,3.416421651840209961e+00,3.383364200592041016e+00,3.350940704345703125e+00,3.319132566452026367e+00,3.287922620773315430e+00,3.257293939590454102e+00,3.227231025695800781e+00,3.197717666625976562e+00,3.168739318847656250e+00,3.140281200408935547e+00,3.112330198287963867e+00,3.084872007369995117e+00,3.057894229888916016e+00,3.031383991241455078e+00,3.005329847335815430e+00,2.979719400405883789e+00,2.954541921615600586e+00,2.929786205291748047e+00,2.905442237854003906e+00,2.881499052047729492e+00,2.857947826385498047e+00,2.834777832031250000e+00,2.811980962753295898e+00,2.789547443389892578e+00,2.767469406127929688e+00,2.745737791061401367e+00,2.724345207214355469e+00,2.703282833099365234e+00,2.682543992996215820e+00,2.662120819091796875e+00,2.642006635665893555e+00,2.622193574905395508e+00,2.602675914764404297e+00,2.583446264266967773e+00,2.564498901367187500e+00,2.545827388763427734e+00,2.527426004409790039e+00,2.509288549423217773e+00,2.491409540176391602e+00,6.336687803268432617e-01,6.134631633758544922e-01,5.931316614151000977e-01,5.871717333793640137e-01,5.813304781913757324e-01,5.756042599678039551e-01,5.700215697288513184e-01,5.645462870597839355e-01,5.615900158882141113e-01,5.608572363853454590e-01,5.601263642311096191e-01,5.593973994255065918e-01,5.586703419685363770e-01,5.579451322555541992e-01,5.573514699935913086e-01,5.607981681823730469e-01,5.668041110038757324e-01,5.682684183120727539e-01,5.697403550148010254e-01,5.712199211120605469e-01,5.727071166038513184e-01,5.779921412467956543e-01,5.899742841720581055e-01,2.127585887908935547e+00,2.114718675613403320e+00,2.102006196975708008e+00,2.089445352554321289e+00,2.077033996582031250e+00,2.064769268035888672e+00,2.052648305892944336e+00,2.040668964385986328e+00
3.786373376846313477e+00,3.745811223983764648e+00,3.706109762191772461e+00,3.667240381240844727e+00,3.629178285598754883e+00,3.591897726058959961e+00,3.555375814437866211e+00,3.519588708877563477e+00,3.484514951705932617e+00,3.450133323669433594e+00,3.416423797607421875e+00,3.383366346359252930e+00,3.350942611694335938e+00,3.319134473800659180e+00,3.287924528121948242e+00,3.257295846939086914e+00,3.227232694625854492e+00,3.197719335556030273e+00,3.168740987777709961e+00,3.140283107757568359e+00,3.112331867218017578e+00,3.084873676300048828e+00,3.057895898818969727e+00,3.031385660171508789e+00,3.005331516265869141e+00,2.979721069335937500e+00,2.954543590545654297e+00,2.929787874221801758e+00,2.905443906784057617e+00,2.881500720977783203e+00,2.857949256896972656e+00,2.834779262542724609e+00,2.811982393264770508e+00,2.789548873901367188e+00,2.767470836639404297e+00,2.745739221572875977e+00,2.724346399307250977e+00,2.703284263610839844e+00,2.682545423507690430e+00,2.662122011184692383e+00,2.642007827758789062e+00,2.622194766998291016e+00,2.602677106857299805e+00,2.583447456359863281e+00,2.564500093460083008e+00,2.545828580856323242e+00,2.527427196502685547e+00,2.509289503097534180e+00,6.339682936668395996e-01,6.137438416481018066e-01,5.964492559432983398e-01,5.904228091239929199e-01,5.845170021057128906e-01,5.787281394004821777e-01,5.730674266815185547e-01,5.675337314605712891e-01,5.642417073249816895e-01,5.635020136833190918e-01,5.627642273902893066e-01,5.620284080505371094e-01,5.612944960594177246e-01,5.607176423072814941e-01,5.602359175682067871e-01,5.647556781768798828e-01,5.716726779937744141e-01,5.785352587699890137e-01,5.805704593658447266e-01,5.821068286895751953e-01,5.839628577232360840e-01,2.167145729064941406e+00,2.153796911239624023e+00,2.140611648559570312e+00,2.127586841583251953e+00,2.114719390869140625e+00,2.102006912231445312e+00,2.089446067810058594e+00,2.077034711837768555e+00,2.064770221710205078e+00,2.052649259567260742e+00,2.040669918060302734e+00
3.786375999450683594e+00,3.745813846588134766e+00,3.706112146377563477e+00,3.667242765426635742e+00,3.629180669784545898e+00,3.591900110244750977e+00,3.555377960205078125e+00,3.519590854644775391e+00,3.484517097473144531e+00,3.450135469436645508e+00,3.416425943374633789e+00,3.383368492126464844e+00,3.350944757461547852e+00,3.319136381149291992e+00,3.287926435470581055e+00,3.257297754287719727e+00,3.227234601974487305e+00,3.197721242904663086e+00,3.168742895126342773e+00,3.140284776687622070e+00,3.112333536148071289e+00,3.084875345230102539e+00,3.057897567749023438e+00,3.031387329101562500e+00,3.005333185195922852e+00,2.979722499847412109e+00,2.954545259475708008e+00,2.929789304733276367e+00,2.905445337295532227e+00,2.881502151489257812e+00,2.857950687408447266e+00,2.834780693054199219e+00,2.811983823776245117e+00,2.789550304412841797e+00,2.767472267150878906e+00,2.745740652084350586e+00,2.724347829818725586e+00,2.703285455703735352e+00,2.682546615600585938e+00,2.662123441696166992e+00,2.642009019851684570e+00,2.622196197509765625e+00,2.602678298950195312e+00,2.583448648452758789e+00,2.564501285552978516e+00,2.545829772949218750e+00,2.527428150177001953e+00,6.344062685966491699e-01,6.140248775482177734e-01,5.998041033744812012e-01,5.937100648880004883e-01,5.877386331558227539e-01,5.818861126899719238e-01,5.761489868164062500e-01,5.705530047416687012e-01,5.669185519218444824e-01,5.661718845367431641e-01,5.654270648956298828e-01,5.646842718124389648e-01,5.641247034072875977e-01,5.636370778083801270e-01,5.631502866744995117e-01,5.685487389564514160e-01,5.760096907615661621e-01,5.829773545265197754e-01,5.901157259941101074e-01,5.934168696403503418e-01,2.194346666336059570e+00,2.180662155151367188e+00,2.167146682739257812e+00,2.153798103332519531e+00,2.140612602233886719e+00,2.127587795257568359e+00,2.114720582962036133e+00,2.102007865905761719e+00,2.089447259902954102e+00,2.077035903930664062e+00,2.064770936965942383e+00,2.052649974822998047e+00,2.040670633316040039e+00
3.786378145217895508e+00,3.745816230773925781e+00,3.706114292144775391e+00,3.667245149612426758e+00,3.629182577133178711e+00,3.591902256011962891e+00,3.555379867553710938e+00,3.519593000411987305e+00,3.484519004821777344e+00,3.450137615203857422e+00,3.416427612304687500e+00,3.383370399475097656e+00,3.350946426391601562e+00,3.319138288497924805e+00,3.287928104400634766e+00,3.257299661636352539e+00,3.227236270904541016e+00,3.197723150253295898e+00,3.168744325637817383e+00,3.140286684036254883e+00,3.112334966659545898e+00,3.084877014160156250e+00,3.057898998260498047e+00,3.031388998031616211e+00,3.005334377288818359e+00,2.979724168777465820e+00,2.954546451568603516e+00,2.929790973663330078e+00,2.905446529388427734e+00,2.881503582000732422e+00,2.857951879501342773e+00,2.834782123565673828e+00,2.811985015869140625e+00,2.789551734924316406e+00,2.767473459243774414e+00,2.745741844177246094e+00,2.724349021911621094e+00,2.703287124633789062e+00,2.682548046112060547e+00,2.662124872207641602e+00,2.642010211944580078e+00,2.622197628021240234e+00,2.602679491043090820e+00,2.583450078964233398e+00,2.564502477645874023e+00,2.545831203460693359e+00,6.367587447166442871e-01,6.154404878616333008e-01,6.032342314720153809e-01,5.970341563224792480e-01,5.909959673881530762e-01,5.850787758827209473e-01,5.792787671089172363e-01,5.736045241355895996e-01,5.696210265159606934e-01,5.688671469688415527e-01,5.681152939796447754e-01,5.675734877586364746e-01,5.670798420906066895e-01,5.665870904922485352e-01,5.660951733589172363e-01,5.723930597305297852e-01,5.804129242897033691e-01,5.874882340431213379e-01,5.947381258010864258e-01,2.222239255905151367e+00,2.208205223083496094e+00,2.194347620010375977e+00,2.180662870407104492e+00,2.167147636413574219e+00,2.153798818588256836e+00,2.140613555908203125e+00,2.127588510513305664e+00,2.114721298217773438e+00,2.102008581161499023e+00,2.089447975158691406e+00,2.077036380767822266e+00,2.064771652221679688e+00,2.052650690078735352e+00,2.040671348571777344e+00
3.786380529403686523e+00,3.745818853378295898e+00,3.706116676330566406e+00,3.667247533798217773e+00,3.629184961318969727e+00,3.591904640197753906e+00,3.555382013320922852e+00,3.519595384597778320e+00,3.484521150588989258e+00,3.450139760971069336e+00,3.416429758071899414e+00,3.383372545242309570e+00,3.350948333740234375e+00,3.319140434265136719e+00,3.287930011749267578e+00,3.257301568984985352e+00,3.227238416671752930e+00,3.197725057601928711e+00,3.168746471405029297e+00,3.140288591384887695e+00,3.112337112426757812e+00,3.084878921508789062e+00,3.057900905609130859e+00,3.031390905380249023e+00,3.005336284637451172e+00,2.979726076126098633e+00,2.954548358917236328e+00,2.929792642593383789e+00,2.905448436737060547e+00,2.881505250930786133e+00,2.857953548431396484e+00,2.834783792495727539e+00,2.811986446380615234e+00,2.789553165435791016e+00,2.767474889755249023e+00,2.745743513107299805e+00,2.724350452423095703e+00,2.703288316726684570e+00,2.682549238204956055e+00,2.662126064300537109e+00,2.642011642456054688e+00,2.622198820114135742e+00,2.602680683135986328e+00,2.583451271057128906e+00,2.564503669738769531e+00,6.391287446022033691e-01,6.176541447639465332e-01,6.069349050521850586e-01,6.005745530128479004e-01,5.943725109100341797e-01,5.883066058158874512e-01,5.824428200721740723e-01,5.766947269439697266e-01,5.723492503166198730e-01,5.715881586074829102e-01,5.710646510124206543e-01,5.705649256706237793e-01,5.700660943984985352e-01,5.695680975914001465e-01,5.690709948539733887e-01,5.762897133827209473e-01,5.848840475082397461e-01,5.920694470405578613e-01,5.994335412979125977e-01,2.236453533172607422e+00,2.222240209579467773e+00,2.208206176757812500e+00,2.194348573684692383e+00,2.180663585662841797e+00,2.167148351669311523e+00,2.153799533843994141e+00,2.140614271163940430e+00,2.127589225769042969e+00,2.114722013473510742e+00,2.102009296417236328e+00,2.089448690414428711e+00,2.077037334442138672e+00,2.064772367477416992e+00,2.052651405334472656e+00,2.040672063827514648e+00
3.786383390426635742e+00,3.745821237564086914e+00,3.706119298934936523e+00,3.667249679565429688e+00,3.629187583923339844e+00,3.591906785964965820e+00,3.555384635925292969e+00,3.519597291946411133e+00,3.484523534774780273e+00,3.450141668319702148e+00,3.416432142257690430e+00,3.383374452590942383e+00,3.350950717926025391e+00,3.319142103195190430e+00,3.287932157516479492e+00,3.257303476333618164e+00,3.227240085601806641e+00,3.197726726531982422e+00,3.168748140335083008e+00,3.140290021896362305e+00,3.112338781356811523e+00,3.084880352020263672e+00,3.057902574539184570e+00,3.031392335891723633e+00,3.005337953567504883e+00,2.979727268218994141e+00,2.954549789428710938e+00,2.929794073104858398e+00,2.905449867248535156e+00,2.881506443023681641e+00,2.857954978942871094e+00,2.834784984588623047e+00,2.811987876892089844e+00,2.789554357528686523e+00,2.767476320266723633e+00,2.745744705200195312e+00,2.724351644515991211e+00,2.703289508819580078e+00,2.682550668716430664e+00,2.662127256393432617e+00,2.642012834548950195e+00,2.622199773788452148e+00,2.602681875228881836e+00,2.583452463150024414e+00,6.415163874626159668e-01,6.198838353157043457e-01,6.111546754837036133e-01,6.042153835296630859e-01,5.979382991790771484e-01,5.917901992797851562e-01,5.857674479484558105e-01,5.798658728599548340e-01,5.751058459281921387e-01,5.745990276336669922e-01,5.740931630134582520e-01,5.735880732536315918e-01,5.730839371681213379e-01,5.725806355476379395e-01,5.720782876014709473e-01,5.802398324012756348e-01,5.892325043678283691e-01,5.967226028442382812e-01,6.042037010192871094e-01,2.250850677490234375e+00,2.236454486846923828e+00,2.222240924835205078e+00,2.208207130432128906e+00,2.194349288940429688e+00,2.180664539337158203e+00,2.167149066925048828e+00,2.153800487518310547e+00,2.140614986419677734e+00,2.127590179443359375e+00,2.114722728729248047e+00,2.102010250091552734e+00,2.089449405670166016e+00,2.077038049697875977e+00,2.064773082733154297e+00,2.052652120590209961e+00,2.040672779083251953e+00
3.786386013031005859e+00,3.745823621749877930e+00,3.706121921539306641e+00,3.667252063751220703e+00,3.629189968109130859e+00,3.591909170150756836e+00,3.555386781692504883e+00,3.519599676132202148e+00,3.484525680541992188e+00,3.450143814086914062e+00,3.416434049606323242e+00,3.383376359939575195e+00,3.350952625274658203e+00,3.319144248962402344e+00,3.287934064865112305e+00,3.257305383682250977e+00,3.227241992950439453e+00,3.197728395462036133e+00,3.168750047683715820e+00,3.140291929244995117e+00,3.112340450286865234e+00,3.084882020950317383e+00,3.057904243469238281e+00,3.031393766403198242e+00,3.005339622497558594e+00,2.979728937149047852e+00,2.954551458358764648e+00,2.929795503616333008e+00,2.905451297760009766e+00,2.881508111953735352e+00,2.857956409454345703e+00,2.834786415100097656e+00,2.811989307403564453e+00,2.789555788040161133e+00,2.767477750778198242e+00,2.745745897293090820e+00,2.724353075027465820e+00,2.703290700912475586e+00,2.682551860809326172e+00,2.662128448486328125e+00,2.642014026641845703e+00,2.622200965881347656e+00,2.602683067321777344e+00,6.439219713211059570e-01,6.233563423156738281e-01,6.154335737228393555e-01,6.079006195068359375e-01,6.015470623970031738e-01,5.953250527381896973e-01,5.892304182052612305e-01,5.832592248916625977e-01,5.788709521293640137e-01,5.778408646583557129e-01,5.771538615226745605e-01,5.766434073448181152e-01,5.761339068412780762e-01,5.756253004074096680e-01,5.754022598266601562e-01,5.842444300651550293e-01,5.933626294136047363e-01,6.014496088027954102e-01,6.090503931045532227e-01,2.265434741973876953e+00,2.250851631164550781e+00,2.236455202102661133e+00,2.222241878509521484e+00,2.208207845687866211e+00,2.194350004196166992e+00,2.180665254592895508e+00,2.167150020599365234e+00,2.153801202774047852e+00,2.140615940093994141e+00,2.127590894699096680e+00,2.114723443984985352e+00,2.102010965347290039e+00,2.089450120925903320e+00,2.077038764953613281e+00,2.064773797988891602e+00,2.052653074264526367e+00,2.040673494338989258e+00
3.786388635635375977e+00,3.745826244354248047e+00,3.706124305725097656e+00,3.667254686355590820e+00,3.629192352294921875e+00,3.591911554336547852e+00,3.555389165878295898e+00,3.519601821899414062e+00,3.484527826309204102e+00,3.450145959854125977e+00,3.416436195373535156e+00,3.383378505706787109e+00,3.350954532623291016e+00,3.319146156311035156e+00,3.287935972213745117e+00,3.257307291030883789e+00,3.227243900299072266e+00,3.197730302810668945e+00,3.168751716613769531e+00,3.140293598175048828e+00,3.112342119216918945e+00,3.084883928298950195e+00,3.057905912399291992e+00,3.031395435333251953e+00,3.005341053009033203e+00,2.979730367660522461e+00,2.954552888870239258e+00,2.929796934127807617e+00,2.905452966690063477e+00,2.881509542465209961e+00,2.857958078384399414e+00,2.834787845611572266e+00,2.811990737915039062e+00,2.789557218551635742e+00,2.767479181289672852e+00,2.745747327804565430e+00,2.724354505538940430e+00,2.703292131423950195e+00,2.682553052902221680e+00,2.662129640579223633e+00,2.642015218734741211e+00,2.622202396392822266e+00,6.463456749916076660e-01,6.278083920478820801e-01,6.197727918624877930e-01,6.119402647018432617e-01,6.051997542381286621e-01,5.989022850990295410e-01,5.927345752716064453e-01,5.866925120353698730e-01,5.829415321350097656e-01,5.818970203399658203e-01,5.808562040328979492e-01,5.798190236091613770e-01,5.792164802551269531e-01,5.787023901939392090e-01,5.793401598930358887e-01,5.883046984672546387e-01,5.975511074066162109e-01,6.062520146369934082e-01,6.139754652976989746e-01,2.280208587646484375e+00,2.265435695648193359e+00,2.250852584838867188e+00,2.236456155776977539e+00,2.222242593765258789e+00,2.208208799362182617e+00,2.194350957870483398e+00,2.180666208267211914e+00,2.167150735855102539e+00,2.153801918029785156e+00,2.140616655349731445e+00,2.127591848373413086e+00,2.114724397659301758e+00,2.102011680603027344e+00,2.089450836181640625e+00,2.077039480209350586e+00,2.064774513244628906e+00,2.052653789520263672e+00,2.040674209594726562e+00
3.786390781402587891e+00,3.745828628540039062e+00,3.706126451492309570e+00,3.667257070541381836e+00,3.629194259643554688e+00,3.591913700103759766e+00,3.555391073226928711e+00,3.519603967666625977e+00,3.484529733657836914e+00,3.450148105621337891e+00,3.416438102722167969e+00,3.383380651473999023e+00,3.350956439971923828e+00,3.319148063659667969e+00,3.287937641143798828e+00,3.257309198379516602e+00,3.227245569229125977e+00,3.197732210159301758e+00,3.168753385543823242e+00,3.140295267105102539e+00,3.112343788146972656e+00,3.084885597229003906e+00,3.057907342910766602e+00,3.031397104263305664e+00,3.005342483520507812e+00,2.979732036590576172e+00,2.954554319381713867e+00,2.929798603057861328e+00,2.905454158782958984e+00,2.881510972976684570e+00,2.857959270477294922e+00,2.834789276123046875e+00,2.811991930007934570e+00,2.789558649063110352e+00,2.767480134963989258e+00,2.745748758316040039e+00,2.724355459213256836e+00,2.703293323516845703e+00,2.682554244995117188e+00,2.662131071090698242e+00,2.642016410827636719e+00,6.487877368927001953e-01,6.323244571685791016e-01,6.241735816001892090e-01,6.162301301956176758e-01,6.088969707489013672e-01,6.025228500366210938e-01,5.962806344032287598e-01,5.901665091514587402e-01,5.870698094367980957e-01,5.860104560852050781e-01,5.849548578262329102e-01,5.839030146598815918e-01,5.828550457954406738e-01,5.818126797676086426e-01,5.833323001861572266e-01,5.924218297004699707e-01,6.017990708351135254e-01,6.111317276954650879e-01,6.189808249473571777e-01,2.295176744461059570e+00,2.280209541320800781e+00,2.265436410903930664e+00,2.250853300094604492e+00,2.236456871032714844e+00,2.222243309020996094e+00,2.208209276199340820e+00,2.194351434707641602e+00,2.180666685104370117e+00,2.167151451110839844e+00,2.153802394866943359e+00,2.140617132186889648e+00,2.127592086791992188e+00,2.114724636077880859e+00,2.102011919021606445e+00,2.089451313018798828e+00,2.077039718627929688e+00,2.064774751663208008e+00,2.052653789520263672e+00,2.040674448013305664e+00
3.786393165588378906e+00,3.745831251144409180e+00,3.706128835678100586e+00,3.667259454727172852e+00,3.629196643829345703e+00,3.591916084289550781e+00,3.555393218994140625e+00,3.519606351852416992e+00,3.484531879425048828e+00,3.450150251388549805e+00,3.416440010070800781e+00,3.383382558822631836e+00,3.350958347320556641e+00,3.319150209426879883e+00,3.287939548492431641e+00,3.257311105728149414e+00,3.227247238159179688e+00,3.197733879089355469e+00,3.168755054473876953e+00,3.140297174453735352e+00,3.112345457077026367e+00,3.084887266159057617e+00,3.057909011840820312e+00,3.031398773193359375e+00,3.005344152450561523e+00,2.979733705520629883e+00,2.954555749893188477e+00,2.929800033569335938e+00,2.905455589294433594e+00,2.881512403488159180e+00,2.857960700988769531e+00,2.834790706634521484e+00,2.811993360519409180e+00,2.789560079574584961e+00,2.767481565475463867e+00,2.745749950408935547e+00,2.724356889724731445e+00,2.703294754028320312e+00,2.682555437088012695e+00,2.662132263183593750e+00,2.642017602920532227e+00,6.369059681892395020e-01,6.286373138427734375e-01,6.205806136131286621e-01,6.127278208732604980e-01,6.061873435974121094e-01,5.998694300651550293e-01,5.936818122863769531e-01,5.912569761276245117e-01,5.901824235916137695e-01,5.891118049621582031e-01,5.880450010299682617e-01,5.869820713996887207e-01,5.859229564666748047e-01,5.877134799957275391e-01,5.965969562530517578e-01,6.061079502105712891e-01,6.159271001815795898e-01,2.325708389282226562e+00,2.310341835021972656e+00,2.295176982879638672e+00,2.280209779739379883e+00,2.265436649322509766e+00,2.250853538513183594e+00,2.236457109451293945e+00,2.222243547439575195e+00,2.208209514617919922e+00,2.194351911544799805e+00,2.180666923522949219e+00,2.167151451110839844e+00,2.153802633285522461e+00,2.140617370605468750e+00,2.127592325210571289e+00,2.114724874496459961e+00,2.102012395858764648e+00,2.089451551437377930e+00,2.077039957046508789e+00,2.064774990081787109e+00,2.052654027938842773e+00,2.040674448013305664e+00
3.786395788192749023e+00,3.745833635330200195e+00,3.706131219863891602e+00,3.667261838912963867e+00,3.629199028015136719e+00,3.591918468475341797e+00,3.555395603179931641e+00,3.519608497619628906e+00,3.484534025192260742e+00,3.450152397155761719e+00,3.416442155838012695e+00,3.383384704589843750e+00,3.350960254669189453e+00,3.319152116775512695e+00,3.287941455841064453e+00,3.257312774658203125e+00,3.227249145507812500e+00,3.197735786437988281e+00,3.168756961822509766e+00,3.140298843383789062e+00,3.112347126007080078e+00,3.084888696670532227e+00,3.057910680770874023e+00,3.031400203704833984e+00,3.005345344543457031e+00,2.979734659194946289e+00,2.954557180404663086e+00,2.929801225662231445e+00,2.905456542968750000e+00,2.881513595581054688e+00,2.857961654663085938e+00,2.834791421890258789e+00,2.811994075775146484e+00,2.789560794830322266e+00,2.767482280731201172e+00,2.745750427246093750e+00,2.724357366561889648e+00,2.703295230865478516e+00,2.682555913925170898e+00,2.662132501602172852e+00,6.415543556213378906e-01,6.331654191017150879e-01,6.249929070472717285e-01,6.170288324356079102e-01,6.098967790603637695e-01,6.035016775131225586e-01,5.972393155097961426e-01,5.955042839050292969e-01,5.944142341613769531e-01,5.933281779289245605e-01,5.922461152076721191e-01,5.911619663238525391e-01,5.900053977966308594e-01,5.926387310028076172e-01,6.014429926872253418e-01,6.105127334594726562e-01,6.204413175582885742e-01,2.341281175613403320e+00,2.325708627700805664e+00,2.310342073440551758e+00,2.295176982879638672e+00,2.280209779739379883e+00,2.265436887741088867e+00,2.250853776931762695e+00,2.236457347869873047e+00,2.222243785858154297e+00,2.208209753036499023e+00,2.194351911544799805e+00,2.180666923522949219e+00,2.167151689529418945e+00,2.153802871704101562e+00,2.140617370605468750e+00,2.127592563629150391e+00,2.114725112915039062e+00,2.102012395858764648e+00,2.089451551437377930e+00,2.077039957046508789e+00,2.064775228500366211e+00,2.052654266357421875e+00,2.040674686431884766e+00
3.786398410797119141e+00,3.745835781097412109e+00,3.706133365631103516e+00,3.667263746261596680e+00,3.629200935363769531e+00,3.591919898986816406e+00,3.555397510528564453e+00,3.519609928131103516e+00,3.484535455703735352e+00,3.450153350830078125e+00,3.416443586349487305e+00,3.383385658264160156e+00,3.350961446762084961e+00,3.319152832031250000e+00,3.287942409515380859e+00,3.257313489913940430e+00,3.227249860763549805e+00,3.197736263275146484e+00,3.168757438659667969e+00,3.140299081802368164e+00,3.112347364425659180e+00,3.084889173507690430e+00,3.057910919189453125e+00,3.031400442123413086e+00,3.005345821380615234e+00,2.979735136032104492e+00,2.954557418823242188e+00,2.929801464080810547e+00,2.905457019805908203e+00,2.881513833999633789e+00,2.857961893081665039e+00,2.834791660308837891e+00,2.811994552612304688e+00,2.789561033248901367e+00,2.767482519149780273e+00,2.745750665664672852e+00,2.724357604980468750e+00,2.703295469284057617e+00,2.682556152343750000e+00,6.462712287902832031e-01,6.377591490745544434e-01,6.294684410095214844e-01,6.213905811309814453e-01,6.136518120765686035e-01,6.071781516075134277e-01,6.009230017662048340e-01,5.998130440711975098e-01,5.987071990966796875e-01,5.976054072380065918e-01,5.964894890785217285e-01,5.953120589256286621e-01,5.941392779350280762e-01,5.976472496986389160e-01,6.066020727157592773e-01,6.158292889595031738e-01,6.253415346145629883e-01,2.357063770294189453e+00,2.341281175613403320e+00,2.325708866119384766e+00,2.310342311859130859e+00,2.295177221298217773e+00,2.280210256576538086e+00,2.265436887741088867e+00,2.250854015350341797e+00,2.236457347869873047e+00,2.222244024276733398e+00,2.208209991455078125e+00,2.194352149963378906e+00,2.180667161941528320e+00,2.167151927947998047e+00,2.153803110122680664e+00,2.140617609024047852e+00,2.127592802047729492e+00,2.114725351333618164e+00,2.102012634277343750e+00,2.089451789855957031e+00,2.077040433883666992e+00,2.064775466918945312e+00,2.052654266357421875e+00,2.040674924850463867e+00
3.786398887634277344e+00,3.745836257934570312e+00,3.706134080886840820e+00,3.667264223098754883e+00,3.629201173782348633e+00,3.591920614242553711e+00,3.555397748947143555e+00,3.519610404968261719e+00,3.484535932540893555e+00,3.450154066085815430e+00,3.416443824768066406e+00,3.383386135101318359e+00,3.350961685180664062e+00,3.319153308868408203e+00,3.287942647933959961e+00,3.257313728332519531e+00,3.227250337600708008e+00,3.197736740112304688e+00,3.168757677078247070e+00,3.140299558639526367e+00,3.112348079681396484e+00,3.084889411926269531e+00,3.057911157608032227e+00,3.031400680541992188e+00,3.005346298217773438e+00,2.979735374450683594e+00,2.954557657241821289e+00,2.929801940917968750e+00,2.905457496643066406e+00,2.881514072418212891e+00,2.857962131500244141e+00,2.834792137145996094e+00,2.811994791030883789e+00,2.789561033248901367e+00,2.767482757568359375e+00,2.745751142501831055e+00,2.724357843399047852e+00,2.703295469284057617e+00,2.682556629180908203e+00,6.587452888488769531e-01,6.340085268020629883e-01,6.258144974708557129e-01,6.178295016288757324e-01,6.108996868133544922e-01,6.053108572959899902e-01,6.041846275329589844e-01,6.030626296997070312e-01,6.019139289855957031e-01,6.007149815559387207e-01,5.995208621025085449e-01,5.983314514160156250e-01,6.027411222457885742e-01,6.118504405021667480e-01,6.212392449378967285e-01,6.309206485748291016e-01,2.373060703277587891e+00,2.357064008712768555e+00,2.341281652450561523e+00,2.325709104537963867e+00,2.310342311859130859e+00,2.295177459716796875e+00,2.280210256576538086e+00,2.265437126159667969e+00,2.250854015350341797e+00,2.236457586288452148e+00,2.222244262695312500e+00,2.208210229873657227e+00,2.194352149963378906e+00,2.180667400360107422e+00,2.167152166366577148e+00,2.153803110122680664e+00,2.140617847442626953e+00,2.127592802047729492e+00,2.114725351333618164e+00,2.102012634277343750e+00,2.089452028274536133e+00,2.077040433883666992e+00,2.064775466918945312e+00,2.052654504776000977e+00,2.040675163269042969e+00
3.786399364471435547e+00,3.745836973190307617e+00,3.706134557723999023e+00,3.667264699935913086e+00,3.629201650619506836e+00,3.591921091079711914e+00,3.555398225784301758e+00,3.519610643386840820e+00,3.484536647796630859e+00,3.450154542922973633e+00,3.416444301605224609e+00,3.383386373519897461e+00,3.350962400436401367e+00,3.319153785705566406e+00,3.287943124771118164e+00,3.257314205169677734e+00,3.227250814437866211e+00,3.197736978530883789e+00,3.168758153915405273e+00,3.140300035476684570e+00,3.112348318099975586e+00,3.084889888763427734e+00,3.057911634445190430e+00,3.031401157379150391e+00,3.005346536636352539e+00,2.979735851287841797e+00,2.954557895660400391e+00,2.929802179336547852e+00,2.905457735061645508e+00,2.881514310836791992e+00,2.857962608337402344e+00,2.834792375564575195e+00,2.811995029449462891e+00,2.789561271667480469e+00,2.767483234405517578e+00,2.745751380920410156e+00,2.724358081817626953e+00,6.802527308464050293e-01,6.655635833740234375e-01,6.533901095390319824e-01,6.303018927574157715e-01,6.222026944160461426e-01,6.146671772003173828e-01,6.097632050514221191e-01,6.086204051971435547e-01,6.074379086494445801e-01,6.062169075012207031e-01,6.050007939338684082e-01,6.037895679473876953e-01,6.029987335205078125e-01,6.079226136207580566e-01,6.171903610229492188e-01,6.267450451850891113e-01,2.405714511871337891e+00,2.389276027679443359e+00,2.373060703277587891e+00,2.357064247131347656e+00,2.341281890869140625e+00,2.325709342956542969e+00,2.310342788696289062e+00,2.295177698135375977e+00,2.280210494995117188e+00,2.265437364578247070e+00,2.250854492187500000e+00,2.236457824707031250e+00,2.222244262695312500e+00,2.208210229873657227e+00,2.194352626800537109e+00,2.180667638778686523e+00,2.167152166366577148e+00,2.153803348541259766e+00,2.140618085861206055e+00,2.127593040466308594e+00,2.114725589752197266e+00,2.102012872695922852e+00,2.089452028274536133e+00,2.077040672302246094e+00,2.064775705337524414e+00,2.052654743194580078e+00,2.040675163269042969e+00
3.786400079727172852e+00,3.745837450027465820e+00,3.706135034561157227e+00,3.667264938354492188e+00,3.629202365875244141e+00,3.591921329498291016e+00,3.555398464202880859e+00,3.519611358642578125e+00,3.484536886215209961e+00,3.450154781341552734e+00,3.416444540023803711e+00,3.383387088775634766e+00,3.350962638854980469e+00,3.319154024124145508e+00,3.287943363189697266e+00,3.257314682006835938e+00,3.227251052856445312e+00,3.197737216949462891e+00,3.168758630752563477e+00,3.140300273895263672e+00,3.112348556518554688e+00,3.084890127182006836e+00,3.057912111282348633e+00,3.031401634216308594e+00,3.005346775054931641e+00,2.979736089706420898e+00,2.954558372497558594e+00,2.929802417755126953e+00,2.905457973480224609e+00,2.881514787673950195e+00,2.857962846755981445e+00,2.834792613983154297e+00,2.811995267868041992e+00,2.789561748504638672e+00,6.817718148231506348e-01,6.720535755157470703e-01,6.675387024879455566e-01,6.615154147148132324e-01,6.536701321601867676e-01,6.452537178993225098e-01,6.376217603683471680e-01,6.186323165893554688e-01,6.142815351486206055e-01,6.130642294883728027e-01,6.118205189704895020e-01,6.105818152427673340e-01,6.093482375144958496e-01,6.081195473670959473e-01,6.083586812019348145e-01,6.131939291954040527e-01,6.226243376731872559e-01,6.323493719100952148e-01,2.422380924224853516e+00,2.405714511871337891e+00,2.389276266098022461e+00,2.373061180114746094e+00,2.357064485549926758e+00,2.341281890869140625e+00,2.325709342956542969e+00,2.310342788696289062e+00,2.295177936553955078e+00,2.280210733413696289e+00,2.265437602996826172e+00,2.250854492187500000e+00,2.236458063125610352e+00,2.222244501113891602e+00,2.208210468292236328e+00,2.194352626800537109e+00,2.180667638778686523e+00,2.167152404785156250e+00,2.153803586959838867e+00,2.140618085861206055e+00,2.127593040466308594e+00,2.114725828170776367e+00,2.102013111114501953e+00,2.089452266693115234e+00,2.077040672302246094e+00,2.064775943756103516e+00,2.052654981613159180e+00,2.040675401687622070e+00
3.776578426361083984e+00,3.745837926864624023e+00,3.706135272979736328e+00,3.667265892028808594e+00,3.629202842712402344e+00,3.591921806335449219e+00,3.555399417877197266e+00,3.519611835479736328e+00,3.484537363052368164e+00,3.450155258178710938e+00,3.416445255279541016e+00,3.383387327194213867e+00,3.350963115692138672e+00,3.319154262542724609e+00,3.287944078445434570e+00,3.257315158843994141e+00,3.227251291275024414e+00,3.197737932205200195e+00,3.168758869171142578e+00,3.140300750732421875e+00,3.112348794937133789e+00,3.084890604019165039e+00,3.057912349700927734e+00,3.031401872634887695e+00,3.005347013473510742e+00,2.979736566543579102e+00,2.954558610916137695e+00,2.929802656173706055e+00,2.905458450317382812e+00,2.881515026092529297e+00,2.857963085174560547e+00,2.834792852401733398e+00,2.811995744705200195e+00,2.789561986923217773e+00,6.697780489921569824e-01,6.643186807632446289e-01,6.600225567817687988e-01,6.564882993698120117e-01,6.462241411209106445e-01,6.380203366279602051e-01,6.331700682640075684e-01,6.187956929206848145e-01,6.175287365913391113e-01,6.162668466567993164e-01,6.150100827217102051e-01,6.137585639953613281e-01,6.125119924545288086e-01,6.138148307800292969e-01,6.185576319694519043e-01,6.281548738479614258e-01,2.456415891647338867e+00,2.439279556274414062e+00,2.422381162643432617e+00,2.405714750289916992e+00,2.389276504516601562e+00,2.373061180114746094e+00,2.357064723968505859e+00,2.341282129287719727e+00,2.325709819793701172e+00,2.310343027114868164e+00,2.295177936553955078e+00,2.280210971832275391e+00,2.265437841415405273e+00,2.250854730606079102e+00,2.236458063125610352e+00,2.222244739532470703e+00,2.208210706710815430e+00,2.194352865219116211e+00,2.180667877197265625e+00,2.167152643203735352e+00,2.153803586959838867e+00,2.140618324279785156e+00,2.127593278884887695e+00,2.114725828170776367e+00,2.102013111114501953e+00,2.089452266693115234e+00,2.077040910720825195e+00,2.064775943756103516e+00,2.052654981613159180e+00,2.040675401687622070e+00
3.083164453506469727e+00,3.082683086395263672e+00,3.082201957702636719e+00,3.081721067428588867e+00,3.081240177154541016e+00,3.080759763717651367e+00,3.080279111862182617e+00,3.079798698425292969e+00,3.079318523406982422e+00,3.078838586807250977e+00,3.078358650207519531e+00,3.077878952026367188e+00,3.077399253845214844e+00,3.076919794082641602e+00,3.076440572738647461e+00,3.075961351394653320e+00,3.075482368469238281e+00,3.075003862380981445e+00,3.074525117874145508e+00,3.074046611785888672e+00,3.073568105697631836e+00,3.073089838027954102e+00,3.057912588119506836e+00,3.031402111053466797e+00,3.005347728729248047e+00,2.979736804962158203e+00,2.954558849334716797e+00,2.929803133010864258e+00,2.905458688735961914e+00,2.881515264511108398e+00,2.857963323593139648e+00,2.834793329238891602e+00,2.811995983123779297e+00,6.724377274513244629e-01,6.656267642974853516e-01,6.597180962562561035e-01,6.550434231758117676e-01,6.501640677452087402e-01,6.434513926506042480e-01,6.346283555030822754e-01,6.300020217895507812e-01,6.300215125083923340e-01,6.305028200149536133e-01,6.195031404495239258e-01,6.182331442832946777e-01,6.169684529304504395e-01,6.193697452545166016e-01,6.241990923881530762e-01,6.337844729423522949e-01,2.473794698715209961e+00,2.456415891647338867e+00,2.439279794692993164e+00,2.422381162643432617e+00,2.405715227127075195e+00,2.389276742935180664e+00,2.373061418533325195e+00,2.357064723968505859e+00,2.341282367706298828e+00,2.325710058212280273e+00,2.310343265533447266e+00,2.295178413391113281e+00,2.280211210250854492e+00,2.265437841415405273e+00,2.250854730606079102e+00,2.236458539962768555e+00,2.222244977951049805e+00,2.208210945129394531e+00,2.194352865219116211e+00,2.180668115615844727e+00,2.167152643203735352e+00,2.153803825378417969e+00,2.140618562698364258e+00,2.127593517303466797e+00,2.114726066589355469e+00,2.102013349533081055e+00,2.089452743530273438e+00,2.077041149139404297e+00,2.064776182174682617e+00,2.052655220031738281e+00,2.040675640106201172e+00
2.604883909225463867e+00,2.604540348052978516e+00,2.604197025299072266e+00,2.603853702545166016e+00,2.603510379791259766e+00,2.603167295455932617e+00,2.602824211120605469e+00,2.602481126785278320e+00,2.602138280868530273e+00,2.601795434951782227e+00,2.601452827453613281e+00,2.601109981536865234e+00,2.600767612457275391e+00,2.600425004959106445e+00,2.600082874298095703e+00,2.599740505218505859e+00,2.599398374557495117e+00,2.599056482315063477e+00,2.598714351654052734e+00,2.598372459411621094e+00,2.598030805587768555e+00,2.597688913345336914e+00,2.597347259521484375e+00,2.597005844116210938e+00,2.596664428710937500e+00,2.596323013305664062e+00,2.595981597900390625e+00,2.595640420913696289e+00,2.595299482345581055e+00,2.594958543777465820e+00,2.594617605209350586e+00,2.594276666641235352e+00,2.593935966491699219e+00,2.593595266342163086e+00,6.614987254142761230e-01,6.554313302040100098e-01,6.494349241256713867e-01,6.443112492561340332e-01,6.379699707031250000e-01,6.312531828880310059e-01,6.308264136314392090e-01,6.309617757797241211e-01,6.341199278831481934e-01,6.388162374496459961e-01,6.214901804924011230e-01,6.250260472297668457e-01,6.299443840980529785e-01,2.509300231933593750e+00,2.491420745849609375e+00,2.473794698715209961e+00,2.456416130065917969e+00,2.439280033111572266e+00,2.422381639480590820e+00,2.405715227127075195e+00,2.389276981353759766e+00,2.373061656951904297e+00,2.357065200805664062e+00,2.341282606124877930e+00,2.325710058212280273e+00,2.310343503952026367e+00,2.295178413391113281e+00,2.280211210250854492e+00,2.265438079833984375e+00,2.250855207443237305e+00,2.236458539962768555e+00,2.222244977951049805e+00,2.208210945129394531e+00,2.194353342056274414e+00,2.180668354034423828e+00,2.167152881622314453e+00,2.153804063796997070e+00,2.140618801116943359e+00,2.127593755722045898e+00,2.114726305007934570e+00,2.102013587951660156e+00,2.089452743530273438e+00,2.077041149139404297e+00,2.064776182174682617e+00,2.052655458450317383e+00,2.040675878524780273e+00
2.255063772201538086e+00,2.254806280136108398e+00,2.254549026489257812e+00,2.254291534423828125e+00,2.254034280776977539e+00,2.253777027130126953e+00,2.253520011901855469e+00,2.253262758255004883e+00,2.253005743026733398e+00,2.252748727798461914e+00,2.252491950988769531e+00,2.252234935760498047e+00,2.251978158950805664e+00,2.251721382141113281e+00,2.251464843750000000e+00,2.251208066940307617e+00,2.250951528549194336e+00,2.250695228576660156e+00,2.250438690185546875e+00,2.250182390213012695e+00,2.249925851821899414e+00,2.249669790267944336e+00,2.249413490295410156e+00,2.249157190322875977e+00,2.248901128768920898e+00,2.248645067214965820e+00,2.248389005661010742e+00,2.248133182525634766e+00,2.247877359390258789e+00,2.247621536254882812e+00,2.247365713119506836e+00,2.247109889984130859e+00,2.246854305267333984e+00,2.246598720550537109e+00,6.585000157356262207e-01,6.528366208076477051e-01,6.467860937118530273e-01,6.403728723526000977e-01,6.336854100227355957e-01,6.308705806732177734e-01,6.314188838005065918e-01,6.334406733512878418e-01,6.361311078071594238e-01,6.413391232490539551e-01,2.243791341781616211e+00,6.357964873313903809e-01,2.243281602859497070e+00,2.243026733398437500e+00,2.242772102355957031e+00,2.242517232894897461e+00,2.242262840270996094e+00,2.242008447647094727e+00,2.241753816604614258e+00,2.241499423980712891e+00,2.241245031356811523e+00,2.240990638732910156e+00,2.240736484527587891e+00,2.240482330322265625e+00,2.240228176116943359e+00,2.239974021911621094e+00,2.239720106124877930e+00,2.239465951919555664e+00,2.239212036132812500e+00,2.238958358764648438e+00,2.236458778381347656e+00,2.222245216369628906e+00,2.208211183547973633e+00,2.194353342056274414e+00,2.180668354034423828e+00,2.167153120040893555e+00,2.153804302215576172e+00,2.140618801116943359e+00,2.127593755722045898e+00,2.114726543426513672e+00,2.102013826370239258e+00,2.089452981948852539e+00,2.077041387557983398e+00,2.064776420593261719e+00,2.052655458450317383e+00,2.040675878524780273e+00
1.988077163696289062e+00,1.987877130508422852e+00,1.987676978111267090e+00,1.987477064132690430e+00,1.987276911735534668e+00,1.987077116966247559e+00,1.986877083778381348e+00,1.986677289009094238e+00,1.986477375030517578e+00,1.986277699470520020e+00,1.986077904701232910e+00,1.985878229141235352e+00,1.985678553581237793e+00,1.985478997230529785e+00,1.985279321670532227e+00,1.985079884529113770e+00,1.984880208969116211e+00,1.984680891036987305e+00,1.984481573104858398e+00,1.984282016754150391e+00,1.984082818031311035e+00,1.983883380889892578e+00,1.983684301376342773e+00,1.983484983444213867e+00,1.983285903930664062e+00,1.983086585998535156e+00,1.982887625694274902e+00,1.982688426971435547e+00,1.982489585876464844e+00,1.982290387153625488e+00,1.982091665267944336e+00,1.981892585754394531e+00,1.981693863868713379e+00,1.981494903564453125e+00,6.606507301330566406e-01,6.516717076301574707e-01,6.447064876556396484e-01,6.367118358612060547e-01,6.305230259895324707e-01,6.311293840408325195e-01,6.324253082275390625e-01,6.337554454803466797e-01,6.381984353065490723e-01,1.979509115219116211e+00,1.979310512542724609e+00,1.979112267494201660e+00,1.978913903236389160e+00,1.978715777397155762e+00,1.978517413139343262e+00,1.978319287300109863e+00,1.978121042251586914e+00,1.977923035621643066e+00,1.977725148200988770e+00,1.977526903152465820e+00,1.977329015731811523e+00,1.977131009101867676e+00,1.976933240890502930e+00,1.976735234260559082e+00,1.976537466049194336e+00,1.976339578628540039e+00,1.976141929626464844e+00,1.975944161415100098e+00,1.975746512413024902e+00,1.975548744201660156e+00,1.975351333618164062e+00,1.975153684616088867e+00,1.974956274032592773e+00,1.974758863449096680e+00,1.974561333656311035e+00,1.974364042282104492e+00,1.974166512489318848e+00,1.973969340324401855e+00,1.973771929740905762e+00,1.973574876785278320e+00,1.973377466201782227e+00,1.973180532455444336e+00,1.972983241081237793e+00,1.972786307334899902e+00,1.972589135169982910e+00,1.972392201423645020e+00
1.777617454528808594e+00,1.777457356452941895e+00,1.777297496795654297e+00,1.777137517929077148e+00,1.776977777481079102e+00,1.776817798614501953e+00,1.776658058166503906e+00,1.776498079299926758e+00,1.776338458061218262e+00,1.776178598403930664e+00,1.776018977165222168e+00,1.775859117507934570e+00,1.775699615478515625e+00,1.775539875030517578e+00,1.775380373001098633e+00,1.775220632553100586e+00,1.775061130523681641e+00,1.774901747703552246e+00,1.774742126464843750e+00,1.774582743644714355e+00,1.774423241615295410e+00,1.774263978004455566e+00,1.774104475975036621e+00,1.773945212364196777e+00,1.773785829544067383e+00,1.773626565933227539e+00,1.773467183113098145e+00,1.773308038711547852e+00,1.773148775100708008e+00,1.772989630699157715e+00,1.772830367088317871e+00,1.772671341896057129e+00,1.772512197494506836e+00,1.772353172302246094e+00,1.772194266319274902e+00,6.513209342956542969e-01,6.431411504745483398e-01,6.333090662956237793e-01,6.310918927192687988e-01,6.319867968559265137e-01,6.325450539588928223e-01,6.331390142440795898e-01,6.421468853950500488e-01,1.770764112472534180e+00,1.770605444908142090e+00,1.770446658134460449e+00,1.770287990570068359e+00,1.770129203796386719e+00,1.769970655441284180e+00,1.769811987876892090e+00,1.769653439521789551e+00,1.769495010375976562e+00,1.769336342811584473e+00,1.769178032875061035e+00,1.769019365310668945e+00,1.768861055374145508e+00,1.768702507019042969e+00,1.768544316291809082e+00,1.768385767936706543e+00,1.768227577209472656e+00,1.768069148063659668e+00,1.767910957336425781e+00,1.767752647399902344e+00,1.767594575881958008e+00,1.767436265945434570e+00,1.767278194427490234e+00,1.767120003700256348e+00,1.766961932182312012e+00,1.766803979873657227e+00,1.766645908355712891e+00,1.766487956047058105e+00,1.766329884529113770e+00,1.766171932220458984e+00,1.766013979911804199e+00,1.765856146812438965e+00,1.765698194503784180e+00,1.765540480613708496e+00,1.765382528305053711e+00,1.765224814414978027e+00,1.765066981315612793e+00
1.607451081275939941e+00,1.607320308685302734e+00,1.607189416885375977e+00,1.607058763504028320e+00,1.606927990913391113e+00,1.606797218322753906e+00,1.606666445732116699e+00,1.606535911560058594e+00,1.606405138969421387e+00,1.606274485588073730e+00,1.606143832206726074e+00,1.606013298034667969e+00,1.605882644653320312e+00,1.605752110481262207e+00,1.605621457099914551e+00,1.605491042137145996e+00,1.605360507965087891e+00,1.605230093002319336e+00,1.605099678039550781e+00,1.604969143867492676e+00,1.604838848114013672e+00,1.604708313941955566e+00,1.604578018188476562e+00,1.604447603225708008e+00,1.604317307472229004e+00,1.604187011718750000e+00,1.604056715965270996e+00,1.603926420211791992e+00,1.603796243667602539e+00,1.603665947914123535e+00,1.603535771369934082e+00,1.603405594825744629e+00,1.603275418281555176e+00,1.603145241737365723e+00,1.603015184402465820e+00,6.514995694160461426e-01,6.415833234786987305e-01,6.320701241493225098e-01,6.282914876937866211e-01,6.278262734413146973e-01,6.284114718437194824e-01,6.364452838897705078e-01,1.601974964141845703e+00,1.601845145225524902e+00,1.601715087890625000e+00,1.601585268974304199e+00,1.601455330848693848e+00,1.601325631141662598e+00,1.601195693016052246e+00,1.601065993309020996e+00,1.600936055183410645e+00,1.600806355476379395e+00,1.600676774978637695e+00,1.600546956062316895e+00,1.600417375564575195e+00,1.600287556648254395e+00,1.600157976150512695e+00,1.600028276443481445e+00,1.599898695945739746e+00,1.599768996238708496e+00,1.599639534950256348e+00,1.599509954452514648e+00,1.599380493164062500e+00,1.599250912666320801e+00,1.599121451377868652e+00,1.598991870880126953e+00,1.598862528800964355e+00,1.598733186721801758e+00,1.598603725433349609e+00,1.598474383354187012e+00,1.598345041275024414e+00,1.598216533660888672e+00,1.598088145256042480e+00,1.597959756851196289e+00,1.597831368446350098e+00,1.597702860832214355e+00,1.597574472427368164e+00,1.597446084022521973e+00,1.597317814826965332e+00,1.597189426422119141e+00
1.467017650604248047e+00,1.466908693313598633e+00,1.466799736022949219e+00,1.466690778732299805e+00,1.466581940650939941e+00,1.466472983360290527e+00,1.466364145278930664e+00,1.466255187988281250e+00,1.466146469116210938e+00,1.466037511825561523e+00,1.465928792953491211e+00,1.465819954872131348e+00,1.465711236000061035e+00,1.465602397918701172e+00,1.465493679046630859e+00,1.465384840965270996e+00,1.465276241302490234e+00,1.465167522430419922e+00,1.465058803558349609e+00,1.464950203895568848e+00,1.464841485023498535e+00,1.464732885360717773e+00,1.464624166488647461e+00,1.464515686035156250e+00,1.464406967163085938e+00,1.464298486709594727e+00,1.464189887046813965e+00,1.464081406593322754e+00,1.463972806930541992e+00,1.463864326477050781e+00,1.463755726814270020e+00,1.463647365570068359e+00,1.463538885116577148e+00,1.463430404663085938e+00,1.463322043418884277e+00,1.463213562965393066e+00,6.400330662727355957e-01,6.306743025779724121e-01,6.268274784088134766e-01,6.246098875999450684e-01,6.287399530410766602e-01,6.357150077819824219e-01,1.462455153465270996e+00,1.462346911430358887e+00,1.462238669395446777e+00,1.462130308151245117e+00,1.462022185325622559e+00,1.461913824081420898e+00,1.461805701255798340e+00,1.461697459220886230e+00,1.461589336395263672e+00,1.461481332778930664e+00,1.461373090744018555e+00,1.461264967918395996e+00,1.461156845092773438e+00,1.461048841476440430e+00,1.460940718650817871e+00,1.460832715034484863e+00,1.460724592208862305e+00,1.460616588592529297e+00,1.460509300231933594e+00,1.460402011871337891e+00,1.460294723510742188e+00,1.460187435150146484e+00,1.460080146789550781e+00,1.459972977638244629e+00,1.459865689277648926e+00,1.459758639335632324e+00,1.459651470184326172e+00,1.459544301033020020e+00,1.459437131881713867e+00,1.459329962730407715e+00,1.459222793579101562e+00,1.459115743637084961e+00,1.459008693695068359e+00,1.458901643753051758e+00,1.458794593811035156e+00,1.458687543869018555e+00,1.458580493927001953e+00,1.458473563194274902e+00
1.349150300025939941e+00,1.349058270454406738e+00,1.348966002464294434e+00,1.348873972892761230e+00,1.348781824111938477e+00,1.348689675331115723e+00,1.348597526550292969e+00,1.348505496978759766e+00,1.348413467407226562e+00,1.348321437835693359e+00,1.348229289054870605e+00,1.348137378692626953e+00,1.348045229911804199e+00,1.347953319549560547e+00,1.347861289978027344e+00,1.347769379615783691e+00,1.347677350044250488e+00,1.347585439682006836e+00,1.347493529319763184e+00,1.347401499748229980e+00,1.347309708595275879e+00,1.347217798233032227e+00,1.347125887870788574e+00,1.347033977508544922e+00,1.346942186355590820e+00,1.346850275993347168e+00,1.346758484840393066e+00,1.346666574478149414e+00,1.346574783325195312e+00,1.346482992172241211e+00,1.346391201019287109e+00,1.346299409866333008e+00,1.346207618713378906e+00,1.346115827560424805e+00,1.346024155616760254e+00,1.345932483673095703e+00,6.384902596473693848e-01,6.289632320404052734e-01,6.224747896194458008e-01,6.219305992126464844e-01,6.263165473937988281e-01,6.417466402053833008e-01,1.345290660858154297e+00,1.345199108123779297e+00,1.345107436180114746e+00,1.345015883445739746e+00,1.344924211502075195e+00,1.344832658767700195e+00,1.344740986824035645e+00,1.344649910926818848e+00,1.344559073448181152e+00,1.344468116760253906e+00,1.344377160072326660e+00,1.344286322593688965e+00,1.344195485115051270e+00,1.344104528427124023e+00,1.344013690948486328e+00,1.343922853469848633e+00,1.343831896781921387e+00,1.343741059303283691e+00,1.343650221824645996e+00,1.343559503555297852e+00,1.343468785285949707e+00,1.343377947807312012e+00,1.343287229537963867e+00,1.343196392059326172e+00,1.343105673789978027e+00,1.343014955520629883e+00,1.342924237251281738e+00,1.342833518981933594e+00,1.342742800712585449e+00,1.342652201652526855e+00,1.342561483383178711e+00,1.342470765113830566e+00,1.342380166053771973e+00,1.342289447784423828e+00,1.342198848724365234e+00,1.342108368873596191e+00,1.342017769813537598e+00,1.341927170753479004e+00
1.248814582824707031e+00,1.248735547065734863e+00,1.248656749725341797e+00,1.248577713966369629e+00,1.248498797416687012e+00,1.248419880867004395e+00,1.248340964317321777e+00,1.248262047767639160e+00,1.248183250427246094e+00,1.248104214668273926e+00,1.248025417327880859e+00,1.247946500778198242e+00,1.247867703437805176e+00,1.247788906097412109e+00,1.247710108757019043e+00,1.247631192207336426e+00,1.247552394866943359e+00,1.247473716735839844e+00,1.247394800186157227e+00,1.247316122055053711e+00,1.247237324714660645e+00,1.247158527374267578e+00,1.247079730033874512e+00,1.247001051902770996e+00,1.246922254562377930e+00,1.246843576431274414e+00,1.246764898300170898e+00,1.246686220169067383e+00,1.246607422828674316e+00,1.246528863906860352e+00,1.246450066566467285e+00,1.246371507644653320e+00,1.246292829513549805e+00,1.246214151382446289e+00,1.246135592460632324e+00,1.246056914329528809e+00,1.245978355407714844e+00,6.244500279426574707e-01,6.190428137779235840e-01,6.197010278701782227e-01,6.245945096015930176e-01,1.245587229728698730e+00,1.245509266853332520e+00,1.245431184768676758e+00,1.245353102684020996e+00,1.245275139808654785e+00,1.245197176933288574e+00,1.245119214057922363e+00,1.245041251182556152e+00,1.244963288307189941e+00,1.244885325431823730e+00,1.244807362556457520e+00,1.244729399681091309e+00,1.244651436805725098e+00,1.244573593139648438e+00,1.244495749473571777e+00,1.244417786598205566e+00,1.244339942932128906e+00,1.244261980056762695e+00,1.244184136390686035e+00,1.244106292724609375e+00,1.244028449058532715e+00,1.243950605392456055e+00,1.243872761726379395e+00,1.243795037269592285e+00,1.243717193603515625e+00,1.243639349937438965e+00,1.243561506271362305e+00,1.243483781814575195e+00,1.243405938148498535e+00,1.243328213691711426e+00,1.243250489234924316e+00,1.243172764778137207e+00,1.243095040321350098e+00,1.243017315864562988e+00,1.242939591407775879e+00,1.242861866950988770e+00,1.242784142494201660e+00,1.242706537246704102e+00,1.242628931999206543e+00
1.162369608879089355e+00,1.162301301956176758e+00,1.162232756614685059e+00,1.162164449691772461e+00,1.162096023559570312e+00,1.162027716636657715e+00,1.161959290504455566e+00,1.161890983581542969e+00,1.161822557449340820e+00,1.161754250526428223e+00,1.161685943603515625e+00,1.161617636680603027e+00,1.161549210548400879e+00,1.161481022834777832e+00,1.161412596702575684e+00,1.161344408988952637e+00,1.161276102066040039e+00,1.161207795143127441e+00,1.161139607429504395e+00,1.161071300506591797e+00,1.161003112792968750e+00,1.160934805870056152e+00,1.160866618156433105e+00,1.160798311233520508e+00,1.160730123519897461e+00,1.160661816596984863e+00,1.160593628883361816e+00,1.160525560379028320e+00,1.160457849502563477e+00,1.160390138626098633e+00,1.160322427749633789e+00,1.160254597663879395e+00,1.160187005996704102e+00,1.160119295120239258e+00,1.160051584243774414e+00,1.159983873367309570e+00,1.159916162490844727e+00,6.190584897994995117e-01,6.160737872123718262e-01,6.170975565910339355e-01,6.242257952690124512e-01,1.159577965736389160e+00,1.159510374069213867e+00,1.159442663192749023e+00,1.159375071525573730e+00,1.159307479858398438e+00,1.159239888191223145e+00,1.159172296524047852e+00,1.159104704856872559e+00,1.159037113189697266e+00,1.158969521522521973e+00,1.158902049064636230e+00,1.158834457397460938e+00,1.158766865730285645e+00,1.158699393272399902e+00,1.158631801605224609e+00,1.158564329147338867e+00,1.158496856689453125e+00,1.158429265022277832e+00,1.158361792564392090e+00,1.158294320106506348e+00,1.158226847648620605e+00,1.158159375190734863e+00,1.158091902732849121e+00,1.158024430274963379e+00,1.157957077026367188e+00,1.157889604568481445e+00,1.157822132110595703e+00,1.157754778861999512e+00,1.157687306404113770e+00,1.157619833946228027e+00,1.157552480697631836e+00,1.157485127449035645e+00,1.157417774200439453e+00,1.157350420951843262e+00,1.157282948493957520e+00,1.157215595245361328e+00,1.157148241996765137e+00,1.157080888748168945e+00,1.157013535499572754e+00
1.087117552757263184e+00,1.087057709693908691e+00,1.086997866630554199e+00,1.086938023567199707e+00,1.086878299713134766e+00,1.086818456649780273e+00,1.086758613586425781e+00,1.086698770523071289e+00,1.086639046669006348e+00,1.086579203605651855e+00,1.086519479751586914e+00,1.086459755897521973e+00,1.086400032043457031e+00,1.086340188980102539e+00,1.086280465126037598e+00,1.086220622062683105e+00,1.086161017417907715e+00,1.086101651191711426e+00,1.086042404174804688e+00,1.085983037948608398e+00,1.085923671722412109e+00,1.085864424705505371e+00,1.085805058479309082e+00,1.085745811462402344e+00,1.085686445236206055e+00,1.085627198219299316e+00,1.085567951202392578e+00,1.085508704185485840e+00,1.085449457168579102e+00,1.085390090942382812e+00,1.085330843925476074e+00,1.085271596908569336e+00,1.085212349891662598e+00,1.085153102874755859e+00,1.085093975067138672e+00,1.085034728050231934e+00,6.287872195243835449e-01,6.136912703514099121e-01,6.121522784233093262e-01,6.139131188392639160e-01,6.221798062324523926e-01,1.084679484367370605e+00,1.084620356559753418e+00,1.084561228752136230e+00,1.084502100944519043e+00,1.084442853927612305e+00,1.084383726119995117e+00,1.084324598312377930e+00,1.084265470504760742e+00,1.084206342697143555e+00,1.084147214889526367e+00,1.084088087081909180e+00,1.084028959274291992e+00,1.083969831466674805e+00,1.083910822868347168e+00,1.083851695060729980e+00,1.083792567253112793e+00,1.083733439445495605e+00,1.083674430847167969e+00,1.083615422248840332e+00,1.083556294441223145e+00,1.083497285842895508e+00,1.083438277244567871e+00,1.083379149436950684e+00,1.083320140838623047e+00,1.083261132240295410e+00,1.083202123641967773e+00,1.083143115043640137e+00,1.083084106445312500e+00,1.083025097846984863e+00,1.082966089248657227e+00,1.082907080650329590e+00,1.082848072052001953e+00,1.082789063453674316e+00,1.082730174064636230e+00,1.082671284675598145e+00,1.082612276077270508e+00,1.082553267478942871e+00,1.082494378089904785e+00,1.082435369491577148e+00
1.021016716957092285e+00,1.020963907241821289e+00,1.020911216735839844e+00,1.020858407020568848e+00,1.020805597305297852e+00,1.020752906799316406e+00,1.020700454711914062e+00,1.020648002624511719e+00,1.020595550537109375e+00,1.020543217658996582e+00,1.020490765571594238e+00,1.020438432693481445e+00,1.020386099815368652e+00,1.020333766937255859e+00,1.020281314849853516e+00,1.020228981971740723e+00,1.020176649093627930e+00,1.020124316215515137e+00,1.020071983337402344e+00,1.020019650459289551e+00,1.019967317581176758e+00,1.019914984703063965e+00,1.019862651824951172e+00,1.019810318946838379e+00,1.019757986068725586e+00,1.019705772399902344e+00,1.019653439521789551e+00,1.019601106643676758e+00,1.019548892974853516e+00,1.019496560096740723e+00,1.019444346427917480e+00,1.019392013549804688e+00,1.019339799880981445e+00,1.019287467002868652e+00,1.019235253334045410e+00,1.019182920455932617e+00,6.166906356811523438e-01,6.088797450065612793e-01,6.083486080169677734e-01,6.107480525970458984e-01,6.193212270736694336e-01,1.018869638442993164e+00,1.018817424774169922e+00,1.018765211105346680e+00,1.018712997436523438e+00,1.018660783767700195e+00,1.018608570098876953e+00,1.018556475639343262e+00,1.018504261970520020e+00,1.018452048301696777e+00,1.018399834632873535e+00,1.018347740173339844e+00,1.018295526504516602e+00,1.018243432044982910e+00,1.018191337585449219e+00,1.018139123916625977e+00,1.018087029457092285e+00,1.018034815788269043e+00,1.017982721328735352e+00,1.017930626869201660e+00,1.017878413200378418e+00,1.017826437950134277e+00,1.017774343490600586e+00,1.017722129821777344e+00,1.017670035362243652e+00,1.017617940902709961e+00,1.017565846443176270e+00,1.017513751983642578e+00,1.017461776733398438e+00,1.017409682273864746e+00,1.017357587814331055e+00,1.017305612564086914e+00,1.017253518104553223e+00,1.017201423645019531e+00,1.017149448394775391e+00,1.017097353935241699e+00,1.017045378684997559e+00,1.016993403434753418e+00,1.016941308975219727e+00,1.016889333724975586e+00
9.624952673912048340e-01,9.624486565589904785e-01,9.624020457267761230e-01,9.623554348945617676e-01,9.623088836669921875e-01,9.622622728347778320e-01,9.622157812118530273e-01,9.621692299842834473e-01,9.621226787567138672e-01,9.620761275291442871e-01,9.620295166969299316e-01,9.619829654693603516e-01,9.619364142417907715e-01,9.618899226188659668e-01,9.618433713912963867e-01,9.617968201637268066e-01,9.617502689361572266e-01,9.617037773132324219e-01,9.616572260856628418e-01,9.616107344627380371e-01,9.615641832351684570e-01,9.615176916122436523e-01,9.614712595939636230e-01,9.614247679710388184e-01,9.613782763481140137e-01,9.613317847251892090e-01,9.612852931022644043e-01,9.612388014793395996e-01,9.611923694610595703e-01,9.611458778381347656e-01,9.610993862152099609e-01,9.610529541969299316e-01,9.610064625740051270e-01,9.609600305557250977e-01,9.609135389328002930e-01,9.608671069145202637e-01,6.095254421234130859e-01,6.052231192588806152e-01,6.048389673233032227e-01,6.073225140571594238e-01,6.204054951667785645e-01,9.605886340141296387e-01,9.605422019958496094e-01,9.604957699775695801e-01,9.604493975639343262e-01,9.604029655456542969e-01,9.603565931320190430e-01,9.603102207183837891e-01,9.602637887001037598e-01,9.602174162864685059e-01,9.601710438728332520e-01,9.601246714591979980e-01,9.600782990455627441e-01,9.600319266319274902e-01,9.599855542182922363e-01,9.599393010139465332e-01,9.598929286003112793e-01,9.598466157913208008e-01,9.598002433776855469e-01,9.597539305686950684e-01,9.597075581550598145e-01,9.596612453460693359e-01,9.596149325370788574e-01,9.595686197280883789e-01,9.595223069190979004e-01,9.594759345054626465e-01,9.594296813011169434e-01,9.593833684921264648e-01,9.593370556831359863e-01,9.592907428741455078e-01,9.592444896697998047e-01,9.591982960700988770e-01,9.591519832611083984e-01,9.591057300567626953e-01,9.590594172477722168e-01,9.590131640434265137e-01,9.589669108390808105e-01,9.589206576347351074e-01,9.588744044303894043e-01,9.588281512260437012e-01
9.103201031684875488e-01,9.102784395217895508e-01,9.102367162704467773e-01,9.101950526237487793e-01,9.101533889770507812e-01,9.101117253303527832e-01,9.100700616836547852e-01,9.100283980369567871e-01,9.099867343902587891e-01,9.099450707435607910e-01,9.099034070968627930e-01,9.098617434501647949e-01,9.098201394081115723e-01,9.097784757614135742e-01,9.097368717193603516e-01,9.096952080726623535e-01,9.096536636352539062e-01,9.096120595932006836e-01,9.095704555511474609e-01,9.095288515090942383e-01,9.094871878623962402e-01,9.094455838203430176e-01,9.094039797782897949e-01,9.093623757362365723e-01,9.093207716941833496e-01,9.092792272567749023e-01,9.092376232147216797e-01,9.091960191726684570e-01,9.091544151306152344e-01,9.091128706932067871e-01,9.090712666511535645e-01,9.090297222137451172e-01,9.089882373809814453e-01,9.089466929435729980e-01,9.089050889015197754e-01,9.088635444641113281e-01,6.066030859947204590e-01,6.027567386627197266e-01,6.023204922676086426e-01,6.047946214675903320e-01,6.265959739685058594e-01,9.086142778396606445e-01,9.085727930068969727e-01,9.085312485694885254e-01,9.084897041320800781e-01,9.084482192993164062e-01,9.084066748619079590e-01,9.083651900291442871e-01,9.083236455917358398e-01,9.082822799682617188e-01,9.082407951354980469e-01,9.081993103027343750e-01,9.081577658653259277e-01,9.081162810325622559e-01,9.080747961997985840e-01,9.080333113670349121e-01,9.079918861389160156e-01,9.079504013061523438e-01,9.079089164733886719e-01,9.078674316406250000e-01,9.078260064125061035e-01,9.077845215797424316e-01,9.077430963516235352e-01,9.077016115188598633e-01,9.076601862907409668e-01,9.076188206672668457e-01,9.075773954391479492e-01,9.075359702110290527e-01,9.074945449829101562e-01,9.074531197547912598e-01,9.074116945266723633e-01,9.073702692985534668e-01,9.073288440704345703e-01,9.072874188423156738e-01,9.072460532188415527e-01,9.072046279907226562e-01,9.071632027626037598e-01,9.071218371391296387e-01,9.070804119110107422e-01,9.070390462875366211e-01
8.635106682777404785e-01,8.634731769561767578e-01,8.634356260299682617e-01,8.633981347084045410e-01,8.633606433868408203e-01,8.633231520652770996e-01,8.632856607437133789e-01,8.632481694221496582e-01,8.632106781005859375e-01,8.631731867790222168e-01,8.631358146667480469e-01,8.630983233451843262e-01,8.630608320236206055e-01,8.630234003067016602e-01,8.629859089851379395e-01,8.629484772682189941e-01,8.629109859466552734e-01,8.628735542297363281e-01,8.628360629081726074e-01,8.627986311912536621e-01,8.627611994743347168e-01,8.627237677574157715e-01,8.626862764358520508e-01,8.626488447189331055e-01,8.626114130020141602e-01,8.625739812850952148e-01,8.625366687774658203e-01,8.624992370605468750e-01,8.624618053436279297e-01,8.624243736267089844e-01,8.623870015144348145e-01,8.623495697975158691e-01,8.623121380805969238e-01,8.622747659683227539e-01,8.622373342514038086e-01,8.621999621391296387e-01,6.066638231277465820e-01,6.013627648353576660e-01,6.000715494155883789e-01,6.019288301467895508e-01,6.239805817604064941e-01,8.619756102561950684e-01,8.619383573532104492e-01,8.619009852409362793e-01,8.618636131286621094e-01,8.618262410163879395e-01,8.617888689041137695e-01,8.617514967918395996e-01,8.617141246795654297e-01,8.616768121719360352e-01,8.616394400596618652e-01,8.616020679473876953e-01,8.615647554397583008e-01,8.615273833274841309e-01,8.614900708198547363e-01,8.614527583122253418e-01,8.614153861999511719e-01,8.613780736923217773e-01,8.613407611846923828e-01,8.613035082817077637e-01,8.612661957740783691e-01,8.612288832664489746e-01,8.611915707588195801e-01,8.611542582511901855e-01,8.611169457435607910e-01,8.610796332359313965e-01,8.610423803329467773e-01,8.610050678253173828e-01,8.609677553176879883e-01,8.609305024147033691e-01,8.608931899070739746e-01,8.608559370040893555e-01,8.608186244964599609e-01,8.607813715934753418e-01,8.607441186904907227e-01,8.607069253921508789e-01,8.606696724891662598e-01,8.606323599815368652e-01,8.605951070785522461e-01,8.605578541755676270e-01
8.212797641754150391e-01,8.212457895278930664e-01,8.212118744850158691e-01,8.211779594421386719e-01,8.211441040039062500e-01,8.211101889610290527e-01,8.210762739181518555e-01,8.210423588752746582e-01,8.210084438323974609e-01,8.209745287895202637e-01,8.209406733512878418e-01,8.209067583084106445e-01,8.208728432655334473e-01,8.208389282226562500e-01,8.208050727844238281e-01,8.207711577415466309e-01,8.207373023033142090e-01,8.207033872604370117e-01,8.206695318222045898e-01,8.206356167793273926e-01,8.206018209457397461e-01,8.205679655075073242e-01,8.205341100692749023e-01,8.205002546310424805e-01,8.204663395881652832e-01,8.204324841499328613e-01,8.203986287117004395e-01,8.203647732734680176e-01,8.203309178352355957e-01,8.202970623970031738e-01,8.202632069587707520e-01,8.202294111251831055e-01,8.201955556869506836e-01,8.201617002487182617e-01,8.201278448104858398e-01,8.200940489768981934e-01,8.200602531433105469e-01,6.012303829193115234e-01,5.974132418632507324e-01,5.978608131408691406e-01,6.065864562988281250e-01,6.375446915626525879e-01,8.198573589324951172e-01,8.198235034942626953e-01,8.197897076606750488e-01,8.197559118270874023e-01,8.197221159934997559e-01,8.196883201599121094e-01,8.196545243263244629e-01,8.196207284927368164e-01,8.195869326591491699e-01,8.195531368255615234e-01,8.195193409919738770e-01,8.194856643676757812e-01,8.194518685340881348e-01,8.194180727005004883e-01,8.193842768669128418e-01,8.193505406379699707e-01,8.193167448043823242e-01,8.192830085754394531e-01,8.192492127418518066e-01,8.192154765129089355e-01,8.191816806793212891e-01,8.191479444503784180e-01,8.191142082214355469e-01,8.190804123878479004e-01,8.190466761589050293e-01,8.190129399299621582e-01,8.189792037010192871e-01,8.189455270767211914e-01,8.189117908477783203e-01,8.188780546188354492e-01,8.188443183898925781e-01,8.188105821609497070e-01,8.187768459320068359e-01,8.187431693077087402e-01,8.187094330787658691e-01,8.186756968498229980e-01,8.186420202255249023e-01,8.186082839965820312e-01
7.829869985580444336e-01,7.829561829566955566e-01,7.829253673553466797e-01,7.828944921493530273e-01,7.828636765480041504e-01,7.828328609466552734e-01,7.828019857406616211e-01,7.827711701393127441e-01,7.827403545379638672e-01,7.827095389366149902e-01,7.826787233352661133e-01,7.826479077339172363e-01,7.826170921325683594e-01,7.825862765312194824e-01,7.825555205345153809e-01,7.825247645378112793e-01,7.824939489364624023e-01,7.824631333351135254e-01,7.824323177337646484e-01,7.824015617370605469e-01,7.823707461357116699e-01,7.823399305343627930e-01,7.823091745376586914e-01,7.822783589363098145e-01,7.822476029396057129e-01,7.822167873382568359e-01,7.821860313415527344e-01,7.821552753448486328e-01,7.821244597434997559e-01,7.820937037467956543e-01,7.820630073547363281e-01,7.820322513580322266e-01,7.820014953613281250e-01,7.819707393646240234e-01,7.819399237632751465e-01,7.819091677665710449e-01,7.818784117698669434e-01,7.818476557731628418e-01,5.940490365028381348e-01,5.936303734779357910e-01,5.986945629119873047e-01,6.346558928489685059e-01,7.816939353942871094e-01,7.816632390022277832e-01,7.816324830055236816e-01,7.816017270088195801e-01,7.815710306167602539e-01,7.815403342247009277e-01,7.815096378326416016e-01,7.814788818359375000e-01,7.814481854438781738e-01,7.814174890518188477e-01,7.813867330551147461e-01,7.813560366630554199e-01,7.813253402709960938e-01,7.812946438789367676e-01,7.812638878822326660e-01,7.812331914901733398e-01,7.812024950981140137e-01,7.811717987060546875e-01,7.811411023139953613e-01,7.811104059219360352e-01,7.810797095298767090e-01,7.810490727424621582e-01,7.810184359550476074e-01,7.809877395629882812e-01,7.809570431709289551e-01,7.809263467788696289e-01,7.808957099914550781e-01,7.808650135993957520e-01,7.808343172073364258e-01,7.808036804199218750e-01,7.807729840278625488e-01,7.807423472404479980e-01,7.807116508483886719e-01,7.806810140609741211e-01,7.806503176689147949e-01,7.806196808815002441e-01,7.805890440940856934e-01,7.805584669113159180e-01
