3.095871210098266602e+00,3.174082756042480469e+00,3.256348609924316406e+00,3.342992305755615234e+00,3.434372663497924805e+00,3.530889272689819336e+00,3.632987499237060547e+00,3.741166114807128906e+00,3.855984687805175781e+00,3.978074312210083008e+00,4.108147621154785156e+00,4.247014999389648438e+00,4.395598888397216797e+00,4.554956436157226562e+00,5.000000000000000000e+00,5.000000000000000000e+00,5.000000000000000000e+00,5.000000000000000000e+00,5.000000000000000000e+00,5.000000000000000000e+00,5.000000000000000000e+00,5.000000000000000000e+00,5.000000000000000000e+00,5.000000000000000000e+00,2.069525003433227539e+00,2.047854423522949219e+00,2.065664052963256836e+00,2.067255973815917969e+00,2.071859359741210938e+00,2.086962461471557617e+00,2.107514381408691406e+00,2.127650499343872070e+00,2.156279563903808594e+00,2.194967031478881836e+00,2.259110450744628906e+00,2.289876461029052734e+00,5.000000000000000000e+00,5.000000000000000000e+00,5.000000000000000000e+00,5.000000000000000000e+00,5.000000000000000000e+00,5.000000000000000000e+00,5.000000000000000000e+00,5.000000000000000000e+00,5.000000000000000000e+00,5.000000000000000000e+00,5.000000000000000000e+00,5.000000000000000000e+00,5.000000000000000000e+00,5.000000000000000000e+00,5.000000000000000000e+00,5.000000000000000000e+00,5.000000000000000000e+00,5.000000000000000000e+00,5.000000000000000000e+00,5.000000000000000000e+00,5.000000000000000000e+00,5.000000000000000000e+00,5.000000000000000000e+00,5.000000000000000000e+00,5.000000000000000000e+00,5.000000000000000000e+00,5.000000000000000000e+00,5.000000000000000000e+00,5.000000000000000000e+00,5.000000000000000000e+00,5.000000000000000000e+00,5.000000000000000000e+00,5.000000000000000000e+00,5.000000000000000000e+00,5.000000000000000000e+00,5.000000000000000000e+00,4.548933506011962891e+00,4.408470630645751953e+00,4.276422500610351562e+00,4.152054309844970703e+00,4.034799098968505859e+00,3.923988819122314453e+00,3.819102048873901367e+00,3.719676017761230469e+00
3.095790863037109375e+00,3.173998355865478516e+00,3.256259918212890625e+00,3.342898607254028320e+00,3.434273958206176758e+00,3.530784845352172852e+00,3.632876873016357422e+00,3.741048812866210938e+00,3.855859756469726562e+00,3.977941274642944336e+00,4.108006000518798828e+00,4.246863842010498047e+00,4.395437240600585938e+00,4.554782390594482422e+00,4.726116180419921875e+00,5.000000000000000000e+00,5.000000000000000000e+00,5.000000000000000000e+00,5.000000000000000000e+00,5.000000000000000000e+00,5.000000000000000000e+00,5.000000000000000000e+00,5.000000000000000000e+00,5.000000000000000000e+00,2.079093933105468750e+00,2.061804294586181641e+00,2.077724456787109375e+00,2.075498342514038086e+00,2.069463491439819336e+00,2.067213773727416992e+00,2.072999000549316406e+00,2.090246677398681641e+00,2.128763675689697266e+00,2.164824008941650391e+00,2.207693815231323242e+00,2.268658399581909180e+00,2.301055431365966797e+00,5.000000000000000000e+00,5.000000000000000000e+00,5.000000000000000000e+00,5.000000000000000000e+00,5.000000000000000000e+00,5.000000000000000000e+00,5.000000000000000000e+00,5.000000000000000000e+00,5.000000000000000000e+00,5.000000000000000000e+00,5.000000000000000000e+00,5.000000000000000000e+00,5.000000000000000000e+00,5.000000000000000000e+00,5.000000000000000000e+00,5.000000000000000000e+00,5.000000000000000000e+00,5.000000000000000000e+00,5.000000000000000000e+00,5.000000000000000000e+00,5.000000000000000000e+00,5.000000000000000000e+00,5.000000000000000000e+00,5.000000000000000000e+00,5.000000000000000000e+00,5.000000000000000000e+00,5.000000000000000000e+00,5.000000000000000000e+00,5.000000000000000000e+00,5.000000000000000000e+00,5.000000000000000000e+00,5.000000000000000000e+00,5.000000000000000000e+00,5.000000000000000000e+00,4.698642253875732422e+00,4.548933506011962891e+00,4.408470630645751953e+00,4.276430130004882812e+00,4.152154445648193359e+00,4.034897804260253906e+00,3.924082040786743164e+00,3.819190263748168945e+00,3.719760179519653320e+00
3.095719575881958008e+00,3.173913717269897461e+00,3.256170749664306641e+00,3.342804908752441406e+00,3.434174776077270508e+00,3.530679941177368164e+00,3.632766008377075195e+00,3.740931272506713867e+00,3.855735301971435547e+00,3.977808713912963867e+00,4.107864856719970703e+00,4.246712207794189453e+00,4.395275115966796875e+00,4.554608345031738281e+00,4.725928783416748047e+00,4.910641193389892578e+00,5.000000000000000000e+00,5.000000000000000000e+00,5.000000000000000000e+00,5.000000000000000000e+00,5.000000000000000000e+00,5.000000000000000000e+00,5.000000000000000000e+00,5.000000000000000000e+00,2.095097303390502930e+00,2.077922105789184570e+00,2.087385654449462891e+00,2.083791971206665039e+00,2.070945024490356445e+00,2.064756870269775391e+00,2.073102474212646484e+00,2.091372966766357422e+00,2.113335609436035156e+00,2.139097213745117188e+00,2.179874658584594727e+00,2.283825159072875977e+00,2.300387859344482422e+00,5.000000000000000000e+00,5.000000000000000000e+00,5.000000000000000000e+00,5.000000000000000000e+00,5.000000000000000000e+00,5.000000000000000000e+00,5.000000000000000000e+00,5.000000000000000000e+00,5.000000000000000000e+00,5.000000000000000000e+00,5.000000000000000000e+00,5.000000000000000000e+00,5.000000000000000000e+00,5.000000000000000000e+00,5.000000000000000000e+00,5.000000000000000000e+00,5.000000000000000000e+00,5.000000000000000000e+00,5.000000000000000000e+00,5.000000000000000000e+00,5.000000000000000000e+00,5.000000000000000000e+00,5.000000000000000000e+00,5.000000000000000000e+00,5.000000000000000000e+00,5.000000000000000000e+00,5.000000000000000000e+00,5.000000000000000000e+00,5.000000000000000000e+00,5.000000000000000000e+00,5.000000000000000000e+00,5.000000000000000000e+00,5.000000000000000000e+00,4.858540058135986328e+00,4.698642253875732422e+00,4.548933506011962891e+00,4.408492565155029297e+00,4.276540756225585938e+00,4.152258872985839844e+00,4.034996032714843750e+00,3.924175024032592773e+00,3.819278717041015625e+00,3.719843864440917969e+00
3.095653295516967773e+00,3.173838615417480469e+00,3.256082057952880859e+00,3.342711210250854492e+00,3.434076070785522461e+00,3.530575752258300781e+00,3.632655620574951172e+00,3.740813970565795898e+00,3.855610370635986328e+00,3.977675676345825195e+00,4.107723236083984375e+00,4.246561050415039062e+00,4.395112991333007812e+00,4.554434299468994141e+00,4.725741386413574219e+00,4.910438537597656250e+00,5.000000000000000000e+00,5.000000000000000000e+00,5.000000000000000000e+00,5.000000000000000000e+00,5.000000000000000000e+00,5.000000000000000000e+00,5.000000000000000000e+00,5.000000000000000000e+00,5.000000000000000000e+00,2.093899488449096680e+00,2.097635746002197266e+00,2.099258184432983398e+00,2.075647354125976562e+00,2.077812910079956055e+00,2.080599784851074219e+00,2.083786487579345703e+00,2.111112833023071289e+00,2.138414621353149414e+00,2.181449890136718750e+00,2.300712108612060547e+00,2.309937953948974609e+00,5.000000000000000000e+00,5.000000000000000000e+00,5.000000000000000000e+00,5.000000000000000000e+00,5.000000000000000000e+00,5.000000000000000000e+00,5.000000000000000000e+00,5.000000000000000000e+00,5.000000000000000000e+00,5.000000000000000000e+00,5.000000000000000000e+00,5.000000000000000000e+00,5.000000000000000000e+00,5.000000000000000000e+00,5.000000000000000000e+00,5.000000000000000000e+00,5.000000000000000000e+00,5.000000000000000000e+00,5.000000000000000000e+00,5.000000000000000000e+00,5.000000000000000000e+00,5.000000000000000000e+00,5.000000000000000000e+00,5.000000000000000000e+00,5.000000000000000000e+00,5.000000000000000000e+00,5.000000000000000000e+00,5.000000000000000000e+00,5.000000000000000000e+00,5.000000000000000000e+00,5.000000000000000000e+00,5.000000000000000000e+00,5.000000000000000000e+00,4.858540058135986328e+00,4.698642253875732422e+00,4.548971176147460938e+00,4.408610343933105469e+00,4.276651859283447266e+00,4.152363300323486328e+00,4.035094738006591797e+00,3.924268722534179688e+00,3.819366931915283203e+00,3.719927549362182617e+00
3.095587015151977539e+00,3.173768997192382812e+00,3.256002426147460938e+00,3.342617273330688477e+00,3.433976888656616211e+00,3.530470848083496094e+00,3.632544755935668945e+00,3.740696430206298828e+00,3.855485916137695312e+00,3.977543115615844727e+00,4.107581615447998047e+00,4.246409893035888672e+00,4.394950866699218750e+00,4.554260253906250000e+00,4.725553989410400391e+00,4.910236358642578125e+00,5.000000000000000000e+00,5.000000000000000000e+00,5.000000000000000000e+00,5.000000000000000000e+00,5.000000000000000000e+00,5.000000000000000000e+00,5.000000000000000000e+00,5.000000000000000000e+00,5.000000000000000000e+00,2.102978229522705078e+00,2.104760408401489258e+00,2.111228704452514648e+00,2.078918457031250000e+00,2.077323436737060547e+00,2.078481912612915039e+00,2.086731195449829102e+00,2.107189893722534180e+00,2.131606817245483398e+00,2.194812774658203125e+00,2.291086912155151367e+00,2.308325052261352539e+00,5.000000000000000000e+00,5.000000000000000000e+00,5.000000000000000000e+00,5.000000000000000000e+00,5.000000000000000000e+00,5.000000000000000000e+00,5.000000000000000000e+00,5.000000000000000000e+00,5.000000000000000000e+00,5.000000000000000000e+00,5.000000000000000000e+00,5.000000000000000000e+00,5.000000000000000000e+00,5.000000000000000000e+00,5.000000000000000000e+00,5.000000000000000000e+00,5.000000000000000000e+00,5.000000000000000000e+00,5.000000000000000000e+00,5.000000000000000000e+00,5.000000000000000000e+00,5.000000000000000000e+00,5.000000000000000000e+00,5.000000000000000000e+00,5.000000000000000000e+00,5.000000000000000000e+00,5.000000000000000000e+00,5.000000000000000000e+00,5.000000000000000000e+00,5.000000000000000000e+00,5.000000000000000000e+00,5.000000000000000000e+00,5.000000000000000000e+00,4.858540058135986328e+00,4.698697566986083984e+00,4.549096584320068359e+00,4.408728122711181641e+00,4.276762962341308594e+00,4.152467727661132812e+00,4.035193443298339844e+00,3.924361944198608398e+00,3.819455623626708984e+00,3.720011711120605469e+00
3.095520734786987305e+00,3.173699140548706055e+00,3.255928993225097656e+00,3.342533349990844727e+00,3.433878183364868164e+00,3.530366420745849609e+00,3.632434129714965820e+00,3.740579128265380859e+00,3.855360984802246094e+00,3.977410316467285156e+00,4.107439994812011719e+00,4.246258735656738281e+00,4.394788742065429688e+00,4.554086685180664062e+00,4.725366592407226562e+00,4.910034179687500000e+00,5.000000000000000000e+00,5.000000000000000000e+00,5.000000000000000000e+00,5.000000000000000000e+00,5.000000000000000000e+00,5.000000000000000000e+00,5.000000000000000000e+00,5.000000000000000000e+00,5.000000000000000000e+00,2.110599517822265625e+00,2.107466220855712891e+00,2.120359182357788086e+00,2.088086605072021484e+00,2.075314760208129883e+00,2.076160192489624023e+00,2.086189270019531250e+00,2.106003046035766602e+00,2.135291814804077148e+00,2.210152626037597656e+00,2.290506362915039062e+00,2.308380126953125000e+00,5.000000000000000000e+00,5.000000000000000000e+00,5.000000000000000000e+00,5.000000000000000000e+00,5.000000000000000000e+00,5.000000000000000000e+00,5.000000000000000000e+00,5.000000000000000000e+00,5.000000000000000000e+00,5.000000000000000000e+00,5.000000000000000000e+00,5.000000000000000000e+00,5.000000000000000000e+00,5.000000000000000000e+00,5.000000000000000000e+00,5.000000000000000000e+00,5.000000000000000000e+00,5.000000000000000000e+00,5.000000000000000000e+00,5.000000000000000000e+00,5.000000000000000000e+00,5.000000000000000000e+00,5.000000000000000000e+00,5.000000000000000000e+00,5.000000000000000000e+00,5.000000000000000000e+00,5.000000000000000000e+00,5.000000000000000000e+00,5.000000000000000000e+00,5.000000000000000000e+00,5.000000000000000000e+00,5.000000000000000000e+00,5.000000000000000000e+00,4.858615398406982422e+00,4.698831081390380859e+00,4.549221992492675781e+00,4.408845424652099609e+00,4.276873588562011719e+00,4.152572154998779297e+00,4.035292148590087891e+00,3.924455165863037109e+00,3.819543838500976562e+00,3.720095396041870117e+00
3.095454454421997070e+00,3.173629522323608398e+00,3.255855798721313477e+00,3.342456102371215820e+00,3.433789253234863281e+00,3.530261754989624023e+00,3.632323265075683594e+00,3.740461587905883789e+00,3.855236291885375977e+00,3.977277755737304688e+00,4.107298374176025391e+00,4.246107101440429688e+00,4.394626617431640625e+00,4.553912639617919922e+00,4.725179195404052734e+00,4.909832000732421875e+00,5.000000000000000000e+00,5.000000000000000000e+00,5.000000000000000000e+00,5.000000000000000000e+00,5.000000000000000000e+00,5.000000000000000000e+00,5.000000000000000000e+00,5.000000000000000000e+00,5.000000000000000000e+00,2.118439912796020508e+00,2.110803604125976562e+00,2.128568410873413086e+00,2.093648195266723633e+00,2.075942277908325195e+00,2.077964305877685547e+00,2.089183092117309570e+00,2.108599901199340820e+00,2.137868404388427734e+00,2.199229001998901367e+00,2.290137529373168945e+00,2.300175905227661133e+00,5.000000000000000000e+00,5.000000000000000000e+00,5.000000000000000000e+00,5.000000000000000000e+00,5.000000000000000000e+00,5.000000000000000000e+00,5.000000000000000000e+00,5.000000000000000000e+00,5.000000000000000000e+00,5.000000000000000000e+00,5.000000000000000000e+00,5.000000000000000000e+00,5.000000000000000000e+00,5.000000000000000000e+00,5.000000000000000000e+00,5.000000000000000000e+00,5.000000000000000000e+00,5.000000000000000000e+00,5.000000000000000000e+00,5.000000000000000000e+00,5.000000000000000000e+00,5.000000000000000000e+00,5.000000000000000000e+00,5.000000000000000000e+00,5.000000000000000000e+00,5.000000000000000000e+00,5.000000000000000000e+00,5.000000000000000000e+00,5.000000000000000000e+00,5.000000000000000000e+00,5.000000000000000000e+00,5.000000000000000000e+00,5.000000000000000000e+00,4.858758449554443359e+00,4.698965072631835938e+00,4.549347400665283203e+00,4.408963680267333984e+00,4.276984214782714844e+00,4.152676582336425781e+00,4.035390853881835938e+00,3.924548149108886719e+00,3.819632053375244141e+00,3.720179080963134766e+00
3.095388174057006836e+00,3.173559904098510742e+00,3.255782365798950195e+00,3.342378854751586914e+00,3.433707714080810547e+00,3.530167818069458008e+00,3.632212638854980469e+00,3.740344524383544922e+00,3.855111598968505859e+00,3.977144956588745117e+00,4.107156753540039062e+00,4.245955944061279297e+00,4.394464492797851562e+00,4.553738594055175781e+00,4.724992275238037109e+00,4.909629821777343750e+00,5.000000000000000000e+00,5.000000000000000000e+00,5.000000000000000000e+00,5.000000000000000000e+00,5.000000000000000000e+00,5.000000000000000000e+00,5.000000000000000000e+00,5.000000000000000000e+00,5.000000000000000000e+00,2.128709554672241211e+00,2.119076728820800781e+00,2.115945339202880859e+00,2.079915523529052734e+00,2.065134048461914062e+00,2.067346572875976562e+00,2.082122802734375000e+00,2.115661382675170898e+00,2.141146659851074219e+00,2.206988811492919922e+00,2.302906513214111328e+00,2.302165985107421875e+00,5.000000000000000000e+00,5.000000000000000000e+00,5.000000000000000000e+00,5.000000000000000000e+00,5.000000000000000000e+00,5.000000000000000000e+00,5.000000000000000000e+00,5.000000000000000000e+00,5.000000000000000000e+00,5.000000000000000000e+00,5.000000000000000000e+00,5.000000000000000000e+00,5.000000000000000000e+00,5.000000000000000000e+00,5.000000000000000000e+00,5.000000000000000000e+00,5.000000000000000000e+00,5.000000000000000000e+00,5.000000000000000000e+00,5.000000000000000000e+00,5.000000000000000000e+00,5.000000000000000000e+00,5.000000000000000000e+00,5.000000000000000000e+00,5.000000000000000000e+00,5.000000000000000000e+00,5.000000000000000000e+00,5.000000000000000000e+00,5.000000000000000000e+00,5.000000000000000000e+00,5.000000000000000000e+00,5.000000000000000000e+00,5.000000000000000000e+00,4.858901500701904297e+00,4.699098587036132812e+00,4.549472808837890625e+00,4.409081459045410156e+00,4.277095317840576172e+00,4.152781009674072266e+00,4.035489559173583984e+00,3.924641847610473633e+00,3.819720745086669922e+00,3.720263242721557617e+00
3.095321893692016602e+00,3.173490285873413086e+00,3.255709171295166016e+00,3.342301607131958008e+00,3.433626174926757812e+00,3.530081748962402344e+00,3.632112503051757812e+00,3.740226984024047852e+00,3.854987144470214844e+00,3.977012395858764648e+00,4.107015609741210938e+00,4.245804786682128906e+00,4.394302845001220703e+00,4.553564548492431641e+00,4.724804878234863281e+00,4.909427642822265625e+00,5.000000000000000000e+00,5.000000000000000000e+00,5.000000000000000000e+00,5.000000000000000000e+00,5.000000000000000000e+00,5.000000000000000000e+00,5.000000000000000000e+00,5.000000000000000000e+00,5.000000000000000000e+00,2.137928009033203125e+00,2.132495403289794922e+00,2.101483821868896484e+00,2.078947544097900391e+00,2.064240932464599609e+00,2.063461303710937500e+00,2.078204154968261719e+00,2.106331825256347656e+00,2.131040811538696289e+00,2.191140174865722656e+00,2.314826726913452148e+00,2.312636613845825195e+00,2.358969449996948242e+00,5.000000000000000000e+00,5.000000000000000000e+00,5.000000000000000000e+00,5.000000000000000000e+00,5.000000000000000000e+00,5.000000000000000000e+00,5.000000000000000000e+00,5.000000000000000000e+00,5.000000000000000000e+00,5.000000000000000000e+00,5.000000000000000000e+00,5.000000000000000000e+00,5.000000000000000000e+00,5.000000000000000000e+00,5.000000000000000000e+00,5.000000000000000000e+00,5.000000000000000000e+00,5.000000000000000000e+00,5.000000000000000000e+00,5.000000000000000000e+00,5.000000000000000000e+00,5.000000000000000000e+00,5.000000000000000000e+00,5.000000000000000000e+00,5.000000000000000000e+00,5.000000000000000000e+00,5.000000000000000000e+00,5.000000000000000000e+00,5.000000000000000000e+00,5.000000000000000000e+00,5.000000000000000000e+00,5.000000000000000000e+00,4.859044551849365234e+00,4.699232578277587891e+00,4.549598217010498047e+00,4.409199237823486328e+00,4.277205944061279297e+00,4.152885913848876953e+00,4.035588264465332031e+00,3.924736022949218750e+00,3.819816827774047852e+00,3.720360755920410156e+00
3.095255613327026367e+00,3.173420667648315430e+00,3.255635976791381836e+00,3.342224359512329102e+00,3.433544635772705078e+00,3.529995441436767578e+00,3.632021188735961914e+00,3.740120649337768555e+00,3.854862213134765625e+00,3.976879358291625977e+00,4.106873989105224609e+00,4.245653629302978516e+00,4.394140720367431641e+00,4.553390502929687500e+00,4.724617481231689453e+00,4.909225463867187500e+00,5.000000000000000000e+00,5.000000000000000000e+00,5.000000000000000000e+00,5.000000000000000000e+00,5.000000000000000000e+00,5.000000000000000000e+00,5.000000000000000000e+00,5.000000000000000000e+00,5.000000000000000000e+00,2.142992019653320312e+00,2.141385793685913086e+00,2.102676868438720703e+00,2.080961465835571289e+00,2.077096700668334961e+00,2.079870462417602539e+00,2.091171503067016602e+00,2.098644256591796875e+00,2.127468585968017578e+00,2.170005798339843750e+00,2.325109481811523438e+00,2.312418460845947266e+00,2.321680068969726562e+00,5.000000000000000000e+00,5.000000000000000000e+00,5.000000000000000000e+00,5.000000000000000000e+00,5.000000000000000000e+00,5.000000000000000000e+00,5.000000000000000000e+00,5.000000000000000000e+00,5.000000000000000000e+00,5.000000000000000000e+00,5.000000000000000000e+00,5.000000000000000000e+00,5.000000000000000000e+00,5.000000000000000000e+00,5.000000000000000000e+00,5.000000000000000000e+00,5.000000000000000000e+00,5.000000000000000000e+00,5.000000000000000000e+00,5.000000000000000000e+00,5.000000000000000000e+00,5.000000000000000000e+00,5.000000000000000000e+00,5.000000000000000000e+00,5.000000000000000000e+00,5.000000000000000000e+00,5.000000000000000000e+00,5.000000000000000000e+00,5.000000000000000000e+00,5.000000000000000000e+00,5.000000000000000000e+00,5.000000000000000000e+00,4.859187602996826172e+00,4.699366092681884766e+00,4.549723625183105469e+00,4.409317016601562500e+00,4.277317047119140625e+00,4.152997493743896484e+00,4.035701274871826172e+00,3.924849033355712891e+00,3.819923400878906250e+00,3.720462083816528320e+00
3.095189571380615234e+00,3.173351049423217773e+00,3.255562543869018555e+00,3.342147111892700195e+00,3.433463096618652344e+00,3.529909372329711914e+00,3.631930112838745117e+00,3.740023851394653320e+00,3.854749202728271484e+00,3.976747035980224609e+00,4.106732368469238281e+00,4.245502471923828125e+00,4.393978595733642578e+00,4.553216457366943359e+00,4.724430084228515625e+00,4.909023284912109375e+00,5.000000000000000000e+00,5.000000000000000000e+00,5.000000000000000000e+00,5.000000000000000000e+00,5.000000000000000000e+00,5.000000000000000000e+00,5.000000000000000000e+00,5.000000000000000000e+00,5.000000000000000000e+00,2.132048606872558594e+00,2.129181146621704102e+00,2.111599445343017578e+00,2.085157394409179688e+00,2.082546710968017578e+00,2.082400321960449219e+00,2.096469163894653320e+00,2.108685970306396484e+00,2.143256664276123047e+00,2.206682443618774414e+00,2.337127447128295898e+00,2.295508861541748047e+00,2.289056062698364258e+00,5.000000000000000000e+00,5.000000000000000000e+00,5.000000000000000000e+00,5.000000000000000000e+00,5.000000000000000000e+00,5.000000000000000000e+00,5.000000000000000000e+00,5.000000000000000000e+00,5.000000000000000000e+00,5.000000000000000000e+00,5.000000000000000000e+00,5.000000000000000000e+00,5.000000000000000000e+00,5.000000000000000000e+00,5.000000000000000000e+00,5.000000000000000000e+00,5.000000000000000000e+00,5.000000000000000000e+00,5.000000000000000000e+00,5.000000000000000000e+00,5.000000000000000000e+00,5.000000000000000000e+00,5.000000000000000000e+00,5.000000000000000000e+00,5.000000000000000000e+00,5.000000000000000000e+00,5.000000000000000000e+00,5.000000000000000000e+00,5.000000000000000000e+00,5.000000000000000000e+00,5.000000000000000000e+00,5.000000000000000000e+00,4.859330654144287109e+00,4.699500083923339844e+00,4.549855232238769531e+00,4.409449100494384766e+00,4.277450084686279297e+00,4.153123855590820312e+00,4.035820484161376953e+00,3.924961805343627930e+00,3.820030450820922852e+00,3.720563650131225586e+00
3.095123052597045898e+00,3.173281431198120117e+00,3.255489349365234375e+00,3.342069864273071289e+00,3.433381795883178711e+00,3.529823303222656250e+00,3.631838798522949219e+00,3.739927053451538086e+00,3.854646444320678711e+00,3.976626396179199219e+00,4.106590747833251953e+00,4.245351314544677734e+00,4.393816471099853516e+00,4.553042888641357422e+00,4.724243164062500000e+00,4.908821105957031250e+00,5.000000000000000000e+00,5.000000000000000000e+00,5.000000000000000000e+00,5.000000000000000000e+00,5.000000000000000000e+00,5.000000000000000000e+00,5.000000000000000000e+00,5.000000000000000000e+00,5.000000000000000000e+00,2.125272512435913086e+00,2.121140718460083008e+00,2.107093334197998047e+00,2.070990800857543945e+00,2.070254802703857422e+00,2.076446533203125000e+00,2.109222888946533203e+00,2.120058536529541016e+00,2.146838665008544922e+00,2.198908090591430664e+00,5.000000000000000000e+00,2.298533678054809570e+00,2.271887063980102539e+00,2.271159410476684570e+00,5.000000000000000000e+00,5.000000000000000000e+00,5.000000000000000000e+00,5.000000000000000000e+00,5.000000000000000000e+00,5.000000000000000000e+00,5.000000000000000000e+00,5.000000000000000000e+00,5.000000000000000000e+00,5.000000000000000000e+00,5.000000000000000000e+00,5.000000000000000000e+00,5.000000000000000000e+00,5.000000000000000000e+00,5.000000000000000000e+00,5.000000000000000000e+00,5.000000000000000000e+00,5.000000000000000000e+00,5.000000000000000000e+00,5.000000000000000000e+00,5.000000000000000000e+00,5.000000000000000000e+00,5.000000000000000000e+00,5.000000000000000000e+00,5.000000000000000000e+00,5.000000000000000000e+00,5.000000000000000000e+00,5.000000000000000000e+00,5.000000000000000000e+00,5.000000000000000000e+00,5.000000000000000000e+00,4.859488964080810547e+00,4.699658393859863281e+00,4.550006866455078125e+00,4.409591674804687500e+00,4.277584075927734375e+00,4.153250217437744141e+00,4.035940170288085938e+00,3.925074815750122070e+00,3.820137262344360352e+00,3.720665216445922852e+00
3.095056772232055664e+00,3.173211574554443359e+00,3.255416154861450195e+00,3.341992855072021484e+00,3.433300256729125977e+00,3.529736995697021484e+00,3.631747722625732422e+00,3.739830493927001953e+00,3.854543685913085938e+00,3.976516962051391602e+00,4.106462001800537109e+00,4.245200157165527344e+00,4.393654823303222656e+00,4.552868843078613281e+00,4.724055767059326172e+00,4.908618927001953125e+00,5.000000000000000000e+00,5.000000000000000000e+00,5.000000000000000000e+00,5.000000000000000000e+00,5.000000000000000000e+00,5.000000000000000000e+00,5.000000000000000000e+00,5.000000000000000000e+00,5.000000000000000000e+00,2.121960163116455078e+00,2.114292621612548828e+00,2.099883079528808594e+00,2.044637203216552734e+00,2.025397539138793945e+00,2.030020952224731445e+00,2.056424617767333984e+00,2.134864807128906250e+00,2.172494649887084961e+00,2.200304746627807617e+00,5.000000000000000000e+00,5.000000000000000000e+00,2.269078016281127930e+00,2.245152235031127930e+00,5.000000000000000000e+00,5.000000000000000000e+00,5.000000000000000000e+00,5.000000000000000000e+00,5.000000000000000000e+00,5.000000000000000000e+00,5.000000000000000000e+00,5.000000000000000000e+00,5.000000000000000000e+00,5.000000000000000000e+00,5.000000000000000000e+00,5.000000000000000000e+00,5.000000000000000000e+00,5.000000000000000000e+00,5.000000000000000000e+00,5.000000000000000000e+00,5.000000000000000000e+00,5.000000000000000000e+00,5.000000000000000000e+00,5.000000000000000000e+00,5.000000000000000000e+00,5.000000000000000000e+00,5.000000000000000000e+00,5.000000000000000000e+00,5.000000000000000000e+00,5.000000000000000000e+00,5.000000000000000000e+00,5.000000000000000000e+00,5.000000000000000000e+00,5.000000000000000000e+00,5.000000000000000000e+00,4.859662055969238281e+00,4.699820518493652344e+00,4.550158500671386719e+00,4.409734249114990234e+00,4.277718067169189453e+00,4.153376579284667969e+00,4.036059379577636719e+00,3.925187826156616211e+00,3.820244312286376953e+00,3.720766544342041016e+00
3.094990491867065430e+00,3.173141956329345703e+00,3.255342721939086914e+00,3.341915607452392578e+00,3.433218717575073242e+00,3.529650449752807617e+00,3.631656408309936523e+00,3.739733695983886719e+00,3.854441165924072266e+00,3.976407766342163086e+00,4.106345176696777344e+00,4.245061874389648438e+00,4.393492698669433594e+00,4.552694797515869141e+00,4.723868370056152344e+00,4.908416748046875000e+00,5.000000000000000000e+00,5.000000000000000000e+00,5.000000000000000000e+00,5.000000000000000000e+00,5.000000000000000000e+00,5.000000000000000000e+00,5.000000000000000000e+00,5.000000000000000000e+00,5.000000000000000000e+00,2.114047765731811523e+00,2.103105068206787109e+00,2.095689773559570312e+00,2.034014701843261719e+00,2.008678913116455078e+00,2.012954473495483398e+00,2.017248630523681641e+00,2.087502241134643555e+00,2.182898521423339844e+00,2.206223487854003906e+00,5.000000000000000000e+00,5.000000000000000000e+00,5.000000000000000000e+00,2.272080421447753906e+00,2.234850168228149414e+00,5.000000000000000000e+00,5.000000000000000000e+00,5.000000000000000000e+00,5.000000000000000000e+00,5.000000000000000000e+00,5.000000000000000000e+00,5.000000000000000000e+00,5.000000000000000000e+00,5.000000000000000000e+00,5.000000000000000000e+00,5.000000000000000000e+00,5.000000000000000000e+00,5.000000000000000000e+00,5.000000000000000000e+00,5.000000000000000000e+00,5.000000000000000000e+00,5.000000000000000000e+00,5.000000000000000000e+00,5.000000000000000000e+00,5.000000000000000000e+00,5.000000000000000000e+00,5.000000000000000000e+00,5.000000000000000000e+00,5.000000000000000000e+00,5.000000000000000000e+00,5.000000000000000000e+00,5.000000000000000000e+00,5.000000000000000000e+00,5.000000000000000000e+00,5.000000000000000000e+00,4.859835147857666016e+00,4.699982166290283203e+00,4.550310134887695312e+00,4.409876823425292969e+00,4.277852535247802734e+00,4.153502941131591797e+00,4.036178588867187500e+00,3.925300836563110352e+00,3.820351362228393555e+00,3.720868110656738281e+00
3.094924211502075195e+00,3.173072338104248047e+00,3.255269527435302734e+00,3.341838359832763672e+00,3.433137178421020508e+00,3.529564380645751953e+00,3.631565332412719727e+00,3.739637136459350586e+00,3.854338407516479492e+00,3.976298332214355469e+00,4.106228828430175781e+00,4.244936943054199219e+00,4.393344402313232422e+00,4.552521228790283203e+00,4.723681449890136719e+00,4.908214569091796875e+00,5.000000000000000000e+00,5.000000000000000000e+00,5.000000000000000000e+00,5.000000000000000000e+00,5.000000000000000000e+00,5.000000000000000000e+00,5.000000000000000000e+00,5.000000000000000000e+00,5.000000000000000000e+00,2.108645200729370117e+00,2.093774318695068359e+00,2.103482484817504883e+00,2.027093172073364258e+00,1.996458172798156738e+00,1.999652147293090820e+00,2.003889322280883789e+00,2.053224086761474609e+00,2.183189630508422852e+00,2.212113380432128906e+00,5.000000000000000000e+00,5.000000000000000000e+00,5.000000000000000000e+00,5.000000000000000000e+00,2.176654100418090820e+00,2.202292680740356445e+00,5.000000000000000000e+00,5.000000000000000000e+00,5.000000000000000000e+00,5.000000000000000000e+00,5.000000000000000000e+00,5.000000000000000000e+00,5.000000000000000000e+00,5.000000000000000000e+00,5.000000000000000000e+00,5.000000000000000000e+00,5.000000000000000000e+00,5.000000000000000000e+00,5.000000000000000000e+00,5.000000000000000000e+00,5.000000000000000000e+00,5.000000000000000000e+00,5.000000000000000000e+00,5.000000000000000000e+00,5.000000000000000000e+00,5.000000000000000000e+00,5.000000000000000000e+00,5.000000000000000000e+00,5.000000000000000000e+00,5.000000000000000000e+00,5.000000000000000000e+00,5.000000000000000000e+00,5.000000000000000000e+00,5.000000000000000000e+00,5.000000000000000000e+00,4.860008716583251953e+00,4.700144290924072266e+00,4.550462245941162109e+00,4.410019397735595703e+00,4.277986526489257812e+00,4.153629779815673828e+00,4.036297798156738281e+00,3.925413608551025391e+00,3.820458412170410156e+00,3.720969676971435547e+00
3.094857931137084961e+00,3.173002958297729492e+00,3.255196332931518555e+00,3.341761112213134766e+00,3.433055639266967773e+00,3.529478311538696289e+00,3.631474256515502930e+00,3.739540338516235352e+00,3.854235649108886719e+00,3.976189136505126953e+00,4.106112003326416016e+00,4.244812488555908203e+00,4.393210887908935547e+00,4.552361011505126953e+00,4.723494052886962891e+00,4.908012390136718750e+00,5.000000000000000000e+00,5.000000000000000000e+00,5.000000000000000000e+00,5.000000000000000000e+00,5.000000000000000000e+00,5.000000000000000000e+00,5.000000000000000000e+00,5.000000000000000000e+00,5.000000000000000000e+00,2.114426851272583008e+00,2.103705883026123047e+00,5.000000000000000000e+00,2.031804084777832031e+00,1.993692398071289062e+00,1.987680912017822266e+00,1.990706205368041992e+00,2.027471780776977539e+00,2.183364391326904297e+00,2.214500665664672852e+00,5.000000000000000000e+00,5.000000000000000000e+00,5.000000000000000000e+00,5.000000000000000000e+00,5.000000000000000000e+00,2.215745687484741211e+00,5.000000000000000000e+00,5.000000000000000000e+00,5.000000000000000000e+00,5.000000000000000000e+00,5.000000000000000000e+00,5.000000000000000000e+00,5.000000000000000000e+00,5.000000000000000000e+00,5.000000000000000000e+00,5.000000000000000000e+00,5.000000000000000000e+00,5.000000000000000000e+00,5.000000000000000000e+00,5.000000000000000000e+00,5.000000000000000000e+00,5.000000000000000000e+00,5.000000000000000000e+00,5.000000000000000000e+00,5.000000000000000000e+00,5.000000000000000000e+00,5.000000000000000000e+00,5.000000000000000000e+00,5.000000000000000000e+00,5.000000000000000000e+00,5.000000000000000000e+00,5.000000000000000000e+00,5.000000000000000000e+00,5.000000000000000000e+00,5.000000000000000000e+00,4.860181331634521484e+00,4.700305938720703125e+00,4.550613880157470703e+00,4.410161972045898438e+00,4.278120994567871094e+00,4.153755664825439453e+00,4.036417484283447266e+00,3.925526618957519531e+00,3.820565462112426758e+00,3.721071243286132812e+00
3.094849824905395508e+00,3.172961711883544922e+00,3.255122900009155273e+00,3.341683864593505859e+00,3.432974100112915039e+00,3.529392242431640625e+00,3.631382942199707031e+00,3.739443778991699219e+00,3.854132890701293945e+00,3.976079702377319336e+00,4.105995655059814453e+00,4.244688034057617188e+00,4.393077373504638672e+00,4.552217960357666016e+00,4.723321437835693359e+00,4.907810211181640625e+00,5.000000000000000000e+00,5.000000000000000000e+00,5.000000000000000000e+00,5.000000000000000000e+00,5.000000000000000000e+00,5.000000000000000000e+00,5.000000000000000000e+00,5.000000000000000000e+00,5.000000000000000000e+00,2.104987144470214844e+00,2.082861423492431641e+00,2.097530603408813477e+00,2.048162698745727539e+00,1.998448967933654785e+00,1.976603746414184570e+00,1.978981018066406250e+00,1.999629735946655273e+00,2.188730955123901367e+00,2.229815006256103516e+00,5.000000000000000000e+00,5.000000000000000000e+00,5.000000000000000000e+00,5.000000000000000000e+00,5.000000000000000000e+00,2.258203506469726562e+00,2.185093879699707031e+00,5.000000000000000000e+00,5.000000000000000000e+00,5.000000000000000000e+00,5.000000000000000000e+00,5.000000000000000000e+00,5.000000000000000000e+00,5.000000000000000000e+00,5.000000000000000000e+00,5.000000000000000000e+00,5.000000000000000000e+00,5.000000000000000000e+00,5.000000000000000000e+00,5.000000000000000000e+00,5.000000000000000000e+00,5.000000000000000000e+00,5.000000000000000000e+00,5.000000000000000000e+00,5.000000000000000000e+00,5.000000000000000000e+00,5.000000000000000000e+00,5.000000000000000000e+00,5.000000000000000000e+00,5.000000000000000000e+00,5.000000000000000000e+00,5.000000000000000000e+00,5.000000000000000000e+00,5.000000000000000000e+00,5.000000000000000000e+00,4.860354423522949219e+00,4.700468063354492188e+00,4.550765991210937500e+00,4.410304546356201172e+00,4.278254985809326172e+00,4.153882503509521484e+00,4.036536693572998047e+00,3.925639629364013672e+00,3.820672273635864258e+00,3.721172571182250977e+00
3.094850063323974609e+00,3.172961950302124023e+00,3.255119085311889648e+00,3.341644048690795898e+00,3.432894468307495117e+00,3.529305934906005859e+00,3.631291866302490234e+00,3.739346981048583984e+00,3.854030132293701172e+00,3.975970506668090820e+00,4.105878829956054688e+00,4.244563102722167969e+00,4.392943859100341797e+00,4.552074432373046875e+00,4.723167419433593750e+00,4.907623291015625000e+00,5.000000000000000000e+00,5.000000000000000000e+00,5.000000000000000000e+00,5.000000000000000000e+00,5.000000000000000000e+00,5.000000000000000000e+00,5.000000000000000000e+00,5.000000000000000000e+00,5.000000000000000000e+00,2.093547821044921875e+00,2.071203947067260742e+00,2.080078840255737305e+00,2.062344551086425781e+00,2.003458261489868164e+00,1.965039610862731934e+00,1.963207244873046875e+00,1.973499655723571777e+00,2.198544502258300781e+00,2.250922918319702148e+00,5.000000000000000000e+00,5.000000000000000000e+00,5.000000000000000000e+00,5.000000000000000000e+00,5.000000000000000000e+00,5.000000000000000000e+00,5.000000000000000000e+00,5.000000000000000000e+00,5.000000000000000000e+00,5.000000000000000000e+00,5.000000000000000000e+00,5.000000000000000000e+00,5.000000000000000000e+00,5.000000000000000000e+00,5.000000000000000000e+00,5.000000000000000000e+00,5.000000000000000000e+00,5.000000000000000000e+00,5.000000000000000000e+00,5.000000000000000000e+00,5.000000000000000000e+00,5.000000000000000000e+00,5.000000000000000000e+00,5.000000000000000000e+00,5.000000000000000000e+00,5.000000000000000000e+00,5.000000000000000000e+00,5.000000000000000000e+00,5.000000000000000000e+00,5.000000000000000000e+00,5.000000000000000000e+00,5.000000000000000000e+00,5.000000000000000000e+00,5.000000000000000000e+00,5.000000000000000000e+00,4.860527515411376953e+00,4.700630187988281250e+00,4.550917625427246094e+00,4.410447597503662109e+00,4.278388977050781250e+00,4.154008865356445312e+00,4.036656379699707031e+00,3.925752639770507812e+00,3.820779323577880859e+00,3.721274137496948242e+00
3.094850540161132812e+00,3.172962665557861328e+00,3.255119800567626953e+00,3.341644525527954102e+00,3.432894945144653320e+00,3.529268503189086914e+00,3.631209611892700195e+00,3.739250421524047852e+00,3.853927612304687500e+00,3.975861072540283203e+00,4.105762481689453125e+00,4.244438648223876953e+00,4.392810821533203125e+00,4.551931381225585938e+00,4.723012924194335938e+00,4.907456874847412109e+00,5.000000000000000000e+00,5.000000000000000000e+00,5.000000000000000000e+00,5.000000000000000000e+00,5.000000000000000000e+00,5.000000000000000000e+00,5.000000000000000000e+00,5.000000000000000000e+00,5.000000000000000000e+00,2.098031044006347656e+00,2.057868003845214844e+00,2.075877666473388672e+00,5.000000000000000000e+00,2.014543056488037109e+00,1.970714330673217773e+00,1.950353503227233887e+00,1.949530839920043945e+00,2.002732276916503906e+00,2.278038263320922852e+00,5.000000000000000000e+00,5.000000000000000000e+00,5.000000000000000000e+00,5.000000000000000000e+00,5.000000000000000000e+00,5.000000000000000000e+00,5.000000000000000000e+00,5.000000000000000000e+00,5.000000000000000000e+00,5.000000000000000000e+00,5.000000000000000000e+00,5.000000000000000000e+00,5.000000000000000000e+00,5.000000000000000000e+00,5.000000000000000000e+00,5.000000000000000000e+00,5.000000000000000000e+00,5.000000000000000000e+00,5.000000000000000000e+00,5.000000000000000000e+00,5.000000000000000000e+00,5.000000000000000000e+00,5.000000000000000000e+00,5.000000000000000000e+00,5.000000000000000000e+00,5.000000000000000000e+00,5.000000000000000000e+00,5.000000000000000000e+00,5.000000000000000000e+00,5.000000000000000000e+00,5.000000000000000000e+00,5.000000000000000000e+00,5.000000000000000000e+00,5.000000000000000000e+00,5.000000000000000000e+00,4.860701084136962891e+00,4.700791835784912109e+00,4.551069259643554688e+00,4.410590171813964844e+00,4.278522968292236328e+00,4.154135227203369141e+00,4.036775588989257812e+00,3.925865650177001953e+00,3.820886373519897461e+00,3.721375226974487305e+00
3.094789743423461914e+00,3.172931432723999023e+00,3.255120038986206055e+00,3.341645002365112305e+00,3.432895421981811523e+00,3.529269218444824219e+00,3.631210327148437500e+00,3.739215850830078125e+00,3.853842973709106445e+00,3.975751876831054688e+00,4.105645656585693359e+00,4.244314193725585938e+00,4.392676830291748047e+00,4.551787853240966797e+00,4.722858905792236328e+00,4.907290458679199219e+00,5.000000000000000000e+00,5.000000000000000000e+00,5.000000000000000000e+00,5.000000000000000000e+00,5.000000000000000000e+00,5.000000000000000000e+00,5.000000000000000000e+00,5.000000000000000000e+00,5.000000000000000000e+00,2.090948820114135742e+00,2.049276828765869141e+00,5.000000000000000000e+00,5.000000000000000000e+00,2.027609109878540039e+00,1.976830482482910156e+00,1.943179607391357422e+00,1.935885429382324219e+00,1.973412036895751953e+00,5.000000000000000000e+00,5.000000000000000000e+00,5.000000000000000000e+00,5.000000000000000000e+00,5.000000000000000000e+00,5.000000000000000000e+00,5.000000000000000000e+00,5.000000000000000000e+00,5.000000000000000000e+00,5.000000000000000000e+00,5.000000000000000000e+00,5.000000000000000000e+00,5.000000000000000000e+00,5.000000000000000000e+00,5.000000000000000000e+00,5.000000000000000000e+00,5.000000000000000000e+00,5.000000000000000000e+00,5.000000000000000000e+00,5.000000000000000000e+00,5.000000000000000000e+00,5.000000000000000000e+00,5.000000000000000000e+00,5.000000000000000000e+00,5.000000000000000000e+00,5.000000000000000000e+00,5.000000000000000000e+00,5.000000000000000000e+00,5.000000000000000000e+00,5.000000000000000000e+00,5.000000000000000000e+00,5.000000000000000000e+00,5.000000000000000000e+00,5.000000000000000000e+00,5.000000000000000000e+00,5.000000000000000000e+00,4.860874176025390625e+00,4.700953960418701172e+00,4.551221370697021484e+00,4.410732269287109375e+00,4.278657436370849609e+00,4.154262065887451172e+00,4.036895275115966797e+00,3.925978660583496094e+00,3.820993423461914062e+00,3.721476793289184570e+00
3.094723939895629883e+00,3.172861814498901367e+00,3.255047798156738281e+00,3.341604948043823242e+00,3.432890892028808594e+00,3.529269695281982422e+00,3.631210803985595703e+00,3.739216089248657227e+00,3.853843450546264648e+00,3.975721359252929688e+00,4.105558872222900391e+00,4.244189739227294922e+00,4.392543315887451172e+00,4.551644802093505859e+00,4.722704887390136719e+00,4.907124042510986328e+00,5.000000000000000000e+00,5.000000000000000000e+00,5.000000000000000000e+00,5.000000000000000000e+00,5.000000000000000000e+00,5.000000000000000000e+00,5.000000000000000000e+00,5.000000000000000000e+00,5.000000000000000000e+00,5.000000000000000000e+00,5.000000000000000000e+00,5.000000000000000000e+00,5.000000000000000000e+00,5.000000000000000000e+00,1.986024379730224609e+00,1.942043662071228027e+00,1.927837967872619629e+00,1.950566053390502930e+00,5.000000000000000000e+00,5.000000000000000000e+00,5.000000000000000000e+00,5.000000000000000000e+00,5.000000000000000000e+00,5.000000000000000000e+00,5.000000000000000000e+00,5.000000000000000000e+00,5.000000000000000000e+00,5.000000000000000000e+00,5.000000000000000000e+00,5.000000000000000000e+00,5.000000000000000000e+00,5.000000000000000000e+00,5.000000000000000000e+00,5.000000000000000000e+00,5.000000000000000000e+00,5.000000000000000000e+00,5.000000000000000000e+00,5.000000000000000000e+00,5.000000000000000000e+00,5.000000000000000000e+00,5.000000000000000000e+00,5.000000000000000000e+00,5.000000000000000000e+00,5.000000000000000000e+00,5.000000000000000000e+00,5.000000000000000000e+00,5.000000000000000000e+00,5.000000000000000000e+00,5.000000000000000000e+00,5.000000000000000000e+00,5.000000000000000000e+00,5.000000000000000000e+00,5.000000000000000000e+00,5.000000000000000000e+00,4.861047267913818359e+00,4.701116085052490234e+00,4.551373004913330078e+00,4.410874843597412109e+00,4.278791427612304688e+00,4.154388427734375000e+00,4.037014961242675781e+00,3.926091670989990234e+00,3.821100473403930664e+00,3.721578359603881836e+00
3.094657659530639648e+00,3.172792196273803711e+00,3.254974603652954102e+00,3.341527700424194336e+00,3.432809591293334961e+00,3.529218435287475586e+00,3.631199359893798828e+00,3.739217042922973633e+00,3.853844404220581055e+00,3.975721836090087891e+00,4.105559825897216797e+00,4.244164466857910156e+00,4.392454624176025391e+00,4.551501274108886719e+00,4.722550392150878906e+00,4.906957149505615234e+00,5.000000000000000000e+00,5.000000000000000000e+00,5.000000000000000000e+00,5.000000000000000000e+00,5.000000000000000000e+00,5.000000000000000000e+00,5.000000000000000000e+00,5.000000000000000000e+00,5.000000000000000000e+00,5.000000000000000000e+00,5.000000000000000000e+00,5.000000000000000000e+00,5.000000000000000000e+00,5.000000000000000000e+00,1.993712902069091797e+00,1.945165514945983887e+00,1.929086089134216309e+00,1.951849937438964844e+00,5.000000000000000000e+00,5.000000000000000000e+00,5.000000000000000000e+00,5.000000000000000000e+00,5.000000000000000000e+00,5.000000000000000000e+00,5.000000000000000000e+00,5.000000000000000000e+00,5.000000000000000000e+00,5.000000000000000000e+00,5.000000000000000000e+00,5.000000000000000000e+00,5.000000000000000000e+00,5.000000000000000000e+00,5.000000000000000000e+00,5.000000000000000000e+00,5.000000000000000000e+00,5.000000000000000000e+00,5.000000000000000000e+00,5.000000000000000000e+00,5.000000000000000000e+00,5.000000000000000000e+00,5.000000000000000000e+00,5.000000000000000000e+00,5.000000000000000000e+00,5.000000000000000000e+00,5.000000000000000000e+00,5.000000000000000000e+00,5.000000000000000000e+00,5.000000000000000000e+00,5.000000000000000000e+00,5.000000000000000000e+00,5.000000000000000000e+00,5.000000000000000000e+00,5.000000000000000000e+00,5.000000000000000000e+00,4.861220836639404297e+00,4.701278209686279297e+00,4.551524639129638672e+00,4.411017417907714844e+00,4.278925895690917969e+00,4.154514789581298828e+00,4.037134170532226562e+00,3.926204681396484375e+00,3.821207523345947266e+00,3.721679925918579102e+00
3.094591379165649414e+00,3.172722578048706055e+00,3.254901647567749023e+00,3.341450691223144531e+00,3.432728052139282227e+00,3.529132366180419922e+00,3.631108283996582031e+00,3.739152431488037109e+00,3.853823423385620117e+00,3.975722312927246094e+00,4.105560779571533203e+00,4.244165420532226562e+00,4.392455577850341797e+00,4.551483631134033203e+00,4.722459316253662109e+00,4.906790733337402344e+00,5.000000000000000000e+00,5.000000000000000000e+00,5.000000000000000000e+00,5.000000000000000000e+00,5.000000000000000000e+00,5.000000000000000000e+00,5.000000000000000000e+00,5.000000000000000000e+00,5.000000000000000000e+00,5.000000000000000000e+00,5.000000000000000000e+00,5.000000000000000000e+00,5.000000000000000000e+00,5.000000000000000000e+00,1.994436979293823242e+00,1.943448662757873535e+00,1.935737609863281250e+00,1.955400347709655762e+00,5.000000000000000000e+00,5.000000000000000000e+00,5.000000000000000000e+00,5.000000000000000000e+00,5.000000000000000000e+00,5.000000000000000000e+00,5.000000000000000000e+00,5.000000000000000000e+00,5.000000000000000000e+00,5.000000000000000000e+00,5.000000000000000000e+00,5.000000000000000000e+00,5.000000000000000000e+00,5.000000000000000000e+00,5.000000000000000000e+00,5.000000000000000000e+00,5.000000000000000000e+00,5.000000000000000000e+00,5.000000000000000000e+00,5.000000000000000000e+00,5.000000000000000000e+00,5.000000000000000000e+00,5.000000000000000000e+00,5.000000000000000000e+00,5.000000000000000000e+00,5.000000000000000000e+00,5.000000000000000000e+00,5.000000000000000000e+00,5.000000000000000000e+00,5.000000000000000000e+00,5.000000000000000000e+00,5.000000000000000000e+00,5.000000000000000000e+00,5.000000000000000000e+00,5.000000000000000000e+00,5.000000000000000000e+00,4.861393928527832031e+00,4.701440334320068359e+00,4.551676750183105469e+00,4.411160469055175781e+00,4.279059886932373047e+00,4.154641628265380859e+00,4.037253856658935547e+00,3.926317214965820312e+00,3.821314573287963867e+00,3.721780300140380859e+00
3.094525337219238281e+00,3.172653436660766602e+00,3.254828453063964844e+00,3.341373443603515625e+00,3.432646512985229492e+00,3.529046535491943359e+00,3.631016969680786133e+00,3.739055633544921875e+00,3.853721141815185547e+00,3.975641727447509766e+00,4.105528831481933594e+00,4.244165897369384766e+00,4.392456531524658203e+00,4.551484584808349609e+00,4.722460269927978516e+00,4.906783580780029297e+00,5.000000000000000000e+00,5.000000000000000000e+00,5.000000000000000000e+00,5.000000000000000000e+00,5.000000000000000000e+00,5.000000000000000000e+00,5.000000000000000000e+00,5.000000000000000000e+00,5.000000000000000000e+00,5.000000000000000000e+00,5.000000000000000000e+00,5.000000000000000000e+00,5.000000000000000000e+00,5.000000000000000000e+00,1.984117031097412109e+00,1.943994164466857910e+00,1.941700816154479980e+00,1.963213682174682617e+00,5.000000000000000000e+00,5.000000000000000000e+00,5.000000000000000000e+00,5.000000000000000000e+00,5.000000000000000000e+00,5.000000000000000000e+00,5.000000000000000000e+00,5.000000000000000000e+00,5.000000000000000000e+00,5.000000000000000000e+00,5.000000000000000000e+00,5.000000000000000000e+00,5.000000000000000000e+00,5.000000000000000000e+00,5.000000000000000000e+00,5.000000000000000000e+00,5.000000000000000000e+00,5.000000000000000000e+00,5.000000000000000000e+00,5.000000000000000000e+00,5.000000000000000000e+00,5.000000000000000000e+00,5.000000000000000000e+00,5.000000000000000000e+00,5.000000000000000000e+00,5.000000000000000000e+00,5.000000000000000000e+00,5.000000000000000000e+00,5.000000000000000000e+00,5.000000000000000000e+00,5.000000000000000000e+00,5.000000000000000000e+00,5.000000000000000000e+00,5.000000000000000000e+00,5.000000000000000000e+00,5.000000000000000000e+00,4.861567020416259766e+00,4.701601982116699219e+00,4.551828384399414062e+00,4.411303043365478516e+00,4.279194355010986328e+00,4.154767990112304688e+00,4.037373065948486328e+00,3.926424264907836914e+00,3.821408987045288086e+00,3.721864938735961914e+00
3.094459056854248047e+00,3.172583818435668945e+00,3.254755258560180664e+00,3.341296195983886719e+00,3.432565450668334961e+00,3.528960466384887695e+00,3.630925893783569336e+00,3.738959074020385742e+00,3.853618621826171875e+00,3.975532293319702148e+00,4.105412006378173828e+00,4.244064807891845703e+00,4.392410278320312500e+00,4.551485538482666016e+00,4.722461223602294922e+00,4.906784534454345703e+00,5.000000000000000000e+00,5.000000000000000000e+00,5.000000000000000000e+00,5.000000000000000000e+00,5.000000000000000000e+00,5.000000000000000000e+00,5.000000000000000000e+00,5.000000000000000000e+00,5.000000000000000000e+00,5.000000000000000000e+00,5.000000000000000000e+00,5.000000000000000000e+00,5.000000000000000000e+00,2.307505607604980469e+00,1.973384857177734375e+00,1.944540143013000488e+00,1.942605972290039062e+00,1.977324008941650391e+00,5.000000000000000000e+00,5.000000000000000000e+00,5.000000000000000000e+00,5.000000000000000000e+00,5.000000000000000000e+00,5.000000000000000000e+00,5.000000000000000000e+00,5.000000000000000000e+00,5.000000000000000000e+00,5.000000000000000000e+00,5.000000000000000000e+00,5.000000000000000000e+00,5.000000000000000000e+00,5.000000000000000000e+00,5.000000000000000000e+00,5.000000000000000000e+00,5.000000000000000000e+00,5.000000000000000000e+00,5.000000000000000000e+00,5.000000000000000000e+00,5.000000000000000000e+00,5.000000000000000000e+00,5.000000000000000000e+00,5.000000000000000000e+00,5.000000000000000000e+00,5.000000000000000000e+00,5.000000000000000000e+00,5.000000000000000000e+00,5.000000000000000000e+00,5.000000000000000000e+00,5.000000000000000000e+00,5.000000000000000000e+00,5.000000000000000000e+00,5.000000000000000000e+00,5.000000000000000000e+00,5.000000000000000000e+00,4.861740589141845703e+00,4.701764106750488281e+00,4.551980495452880859e+00,4.411445617675781250e+00,4.279324054718017578e+00,4.154882431030273438e+00,4.037473201751708984e+00,3.926517963409423828e+00,3.821497917175292969e+00,3.721949100494384766e+00
3.094393014907836914e+00,3.172514200210571289e+00,3.254681825637817383e+00,3.341219425201416016e+00,3.432483911514282227e+00,3.528874397277832031e+00,3.630834817886352539e+00,3.738862991333007812e+00,3.853515863418579102e+00,3.975423097610473633e+00,4.105295658111572266e+00,4.243940353393554688e+00,4.392277240753173828e+00,4.551358699798583984e+00,4.722396850585937500e+00,4.906785488128662109e+00,5.000000000000000000e+00,5.000000000000000000e+00,5.000000000000000000e+00,5.000000000000000000e+00,5.000000000000000000e+00,5.000000000000000000e+00,5.000000000000000000e+00,5.000000000000000000e+00,5.000000000000000000e+00,5.000000000000000000e+00,5.000000000000000000e+00,5.000000000000000000e+00,5.000000000000000000e+00,2.324259757995605469e+00,1.969784021377563477e+00,1.944460272789001465e+00,1.936596751213073730e+00,1.961640357971191406e+00,5.000000000000000000e+00,5.000000000000000000e+00,5.000000000000000000e+00,5.000000000000000000e+00,5.000000000000000000e+00,5.000000000000000000e+00,5.000000000000000000e+00,5.000000000000000000e+00,5.000000000000000000e+00,5.000000000000000000e+00,5.000000000000000000e+00,5.000000000000000000e+00,5.000000000000000000e+00,5.000000000000000000e+00,5.000000000000000000e+00,5.000000000000000000e+00,5.000000000000000000e+00,5.000000000000000000e+00,5.000000000000000000e+00,5.000000000000000000e+00,5.000000000000000000e+00,5.000000000000000000e+00,5.000000000000000000e+00,5.000000000000000000e+00,5.000000000000000000e+00,5.000000000000000000e+00,5.000000000000000000e+00,5.000000000000000000e+00,5.000000000000000000e+00,5.000000000000000000e+00,5.000000000000000000e+00,5.000000000000000000e+00,5.000000000000000000e+00,5.000000000000000000e+00,5.000000000000000000e+00,5.000000000000000000e+00,4.861913681030273438e+00,4.701923847198486328e+00,4.552120685577392578e+00,4.411568164825439453e+00,4.279435634613037109e+00,4.154987335205078125e+00,4.037572860717773438e+00,3.926612138748168945e+00,3.821586608886718750e+00,3.722033262252807617e+00
3.094326972961425781e+00,3.172444581985473633e+00,3.254608631134033203e+00,3.341142177581787109e+00,3.432402610778808594e+00,3.528788328170776367e+00,3.630743980407714844e+00,3.738766193389892578e+00,3.853413343429565430e+00,3.975313901901245117e+00,4.105179309844970703e+00,4.243815898895263672e+00,4.392143726348876953e+00,4.551215648651123047e+00,4.722242832183837891e+00,4.906625747680664062e+00,5.000000000000000000e+00,5.000000000000000000e+00,5.000000000000000000e+00,5.000000000000000000e+00,5.000000000000000000e+00,5.000000000000000000e+00,5.000000000000000000e+00,5.000000000000000000e+00,5.000000000000000000e+00,5.000000000000000000e+00,5.000000000000000000e+00,5.000000000000000000e+00,2.400512695312500000e+00,2.329070329666137695e+00,2.329955816268920898e+00,1.943979978561401367e+00,1.930036306381225586e+00,1.943634390830993652e+00,5.000000000000000000e+00,5.000000000000000000e+00,5.000000000000000000e+00,5.000000000000000000e+00,5.000000000000000000e+00,5.000000000000000000e+00,5.000000000000000000e+00,5.000000000000000000e+00,5.000000000000000000e+00,5.000000000000000000e+00,5.000000000000000000e+00,5.000000000000000000e+00,5.000000000000000000e+00,5.000000000000000000e+00,5.000000000000000000e+00,5.000000000000000000e+00,5.000000000000000000e+00,5.000000000000000000e+00,5.000000000000000000e+00,5.000000000000000000e+00,5.000000000000000000e+00,5.000000000000000000e+00,5.000000000000000000e+00,5.000000000000000000e+00,5.000000000000000000e+00,5.000000000000000000e+00,5.000000000000000000e+00,5.000000000000000000e+00,5.000000000000000000e+00,5.000000000000000000e+00,5.000000000000000000e+00,5.000000000000000000e+00,5.000000000000000000e+00,5.000000000000000000e+00,5.000000000000000000e+00,5.000000000000000000e+00,4.862066268920898438e+00,4.702058315277099609e+00,4.552246570587158203e+00,4.411686897277832031e+00,4.279546737670898438e+00,4.155092239379882812e+00,4.037671566009521484e+00,3.926705837249755859e+00,3.821675777435302734e+00,3.722117424011230469e+00
3.094260692596435547e+00,3.172374963760375977e+00,3.254535675048828125e+00,3.341064929962158203e+00,3.432321071624755859e+00,3.528702497482299805e+00,3.630652904510498047e+00,3.738669633865356445e+00,3.853310585021972656e+00,3.975204944610595703e+00,4.105062961578369141e+00,4.243691444396972656e+00,4.392010211944580078e+00,4.551072597503662109e+00,4.722088813781738281e+00,4.906459331512451172e+00,5.000000000000000000e+00,5.000000000000000000e+00,5.000000000000000000e+00,5.000000000000000000e+00,5.000000000000000000e+00,5.000000000000000000e+00,5.000000000000000000e+00,5.000000000000000000e+00,5.000000000000000000e+00,5.000000000000000000e+00,5.000000000000000000e+00,5.000000000000000000e+00,2.365434169769287109e+00,2.340812683105468750e+00,2.345624923706054688e+00,1.943500041961669922e+00,1.925938010215759277e+00,1.925956010818481445e+00,5.000000000000000000e+00,5.000000000000000000e+00,5.000000000000000000e+00,5.000000000000000000e+00,5.000000000000000000e+00,5.000000000000000000e+00,5.000000000000000000e+00,5.000000000000000000e+00,5.000000000000000000e+00,5.000000000000000000e+00,5.000000000000000000e+00,5.000000000000000000e+00,5.000000000000000000e+00,5.000000000000000000e+00,5.000000000000000000e+00,5.000000000000000000e+00,5.000000000000000000e+00,5.000000000000000000e+00,5.000000000000000000e+00,5.000000000000000000e+00,5.000000000000000000e+00,5.000000000000000000e+00,5.000000000000000000e+00,5.000000000000000000e+00,5.000000000000000000e+00,5.000000000000000000e+00,5.000000000000000000e+00,5.000000000000000000e+00,5.000000000000000000e+00,5.000000000000000000e+00,5.000000000000000000e+00,5.000000000000000000e+00,5.000000000000000000e+00,5.000000000000000000e+00,5.000000000000000000e+00,5.000000000000000000e+00,4.862209796905517578e+00,4.702193260192871094e+00,4.552372932434082031e+00,4.411805152893066406e+00,4.279658317565917969e+00,4.155197620391845703e+00,4.037771224975585938e+00,3.926799774169921875e+00,3.821764707565307617e+00,3.722202062606811523e+00
3.094194412231445312e+00,3.172305583953857422e+00,3.254462480545043945e+00,3.340987920761108398e+00,3.432239532470703125e+00,3.528616428375244141e+00,3.630561828613281250e+00,3.738572835922241211e+00,3.853208303451538086e+00,3.975095748901367188e+00,4.104946613311767578e+00,4.243566989898681641e+00,4.391877174377441406e+00,4.550929546356201172e+00,4.721934795379638672e+00,4.906293392181396484e+00,5.000000000000000000e+00,5.000000000000000000e+00,5.000000000000000000e+00,5.000000000000000000e+00,5.000000000000000000e+00,5.000000000000000000e+00,5.000000000000000000e+00,5.000000000000000000e+00,5.000000000000000000e+00,5.000000000000000000e+00,5.000000000000000000e+00,5.000000000000000000e+00,2.370551586151123047e+00,2.356179475784301758e+00,2.361505985260009766e+00,1.943069219589233398e+00,1.924801349639892578e+00,1.917690396308898926e+00,5.000000000000000000e+00,5.000000000000000000e+00,5.000000000000000000e+00,5.000000000000000000e+00,5.000000000000000000e+00,5.000000000000000000e+00,5.000000000000000000e+00,5.000000000000000000e+00,5.000000000000000000e+00,5.000000000000000000e+00,5.000000000000000000e+00,5.000000000000000000e+00,5.000000000000000000e+00,5.000000000000000000e+00,5.000000000000000000e+00,5.000000000000000000e+00,5.000000000000000000e+00,5.000000000000000000e+00,5.000000000000000000e+00,5.000000000000000000e+00,5.000000000000000000e+00,5.000000000000000000e+00,5.000000000000000000e+00,5.000000000000000000e+00,5.000000000000000000e+00,5.000000000000000000e+00,5.000000000000000000e+00,5.000000000000000000e+00,5.000000000000000000e+00,5.000000000000000000e+00,5.000000000000000000e+00,5.000000000000000000e+00,5.000000000000000000e+00,5.000000000000000000e+00,5.000000000000000000e+00,5.000000000000000000e+00,4.862354278564453125e+00,4.702327728271484375e+00,4.552499294281005859e+00,4.411923885345458984e+00,4.279769897460937500e+00,4.155302524566650391e+00,4.037870407104492188e+00,3.926893472671508789e+00,3.821853399276733398e+00,3.722286462783813477e+00
3.094128608703613281e+00,3.172236204147338867e+00,3.254389286041259766e+00,3.340910673141479492e+00,3.432158470153808594e+00,3.528530359268188477e+00,3.630470514297485352e+00,3.738476276397705078e+00,3.853105783462524414e+00,3.974986553192138672e+00,4.104830265045166016e+00,4.243443012237548828e+00,4.391743659973144531e+00,4.550786495208740234e+00,4.721780776977539062e+00,4.906126976013183594e+00,5.000000000000000000e+00,5.000000000000000000e+00,5.000000000000000000e+00,5.000000000000000000e+00,5.000000000000000000e+00,5.000000000000000000e+00,5.000000000000000000e+00,5.000000000000000000e+00,5.000000000000000000e+00,5.000000000000000000e+00,5.000000000000000000e+00,5.000000000000000000e+00,2.379738807678222656e+00,2.372459411621093750e+00,5.000000000000000000e+00,1.942937493324279785e+00,1.925305962562561035e+00,1.918704748153686523e+00,1.958544135093688965e+00,5.000000000000000000e+00,5.000000000000000000e+00,5.000000000000000000e+00,5.000000000000000000e+00,5.000000000000000000e+00,5.000000000000000000e+00,5.000000000000000000e+00,5.000000000000000000e+00,5.000000000000000000e+00,5.000000000000000000e+00,5.000000000000000000e+00,5.000000000000000000e+00,5.000000000000000000e+00,5.000000000000000000e+00,5.000000000000000000e+00,5.000000000000000000e+00,5.000000000000000000e+00,5.000000000000000000e+00,5.000000000000000000e+00,5.000000000000000000e+00,5.000000000000000000e+00,5.000000000000000000e+00,5.000000000000000000e+00,5.000000000000000000e+00,5.000000000000000000e+00,5.000000000000000000e+00,5.000000000000000000e+00,5.000000000000000000e+00,5.000000000000000000e+00,5.000000000000000000e+00,5.000000000000000000e+00,5.000000000000000000e+00,5.000000000000000000e+00,5.000000000000000000e+00,5.000000000000000000e+00,4.862497806549072266e+00,4.702462196350097656e+00,4.552625179290771484e+00,4.412042140960693359e+00,4.279881477355957031e+00,4.155407905578613281e+00,4.037969589233398438e+00,3.926987648010253906e+00,3.821942567825317383e+00,3.722370624542236328e+00
3.094062328338623047e+00,3.172166585922241211e+00,3.254316091537475586e+00,3.340833902359008789e+00,3.432077169418334961e+00,3.528444290161132812e+00,3.630379438400268555e+00,3.738380193710327148e+00,3.853003025054931641e+00,3.974877357482910156e+00,4.104713916778564453e+00,4.243318080902099609e+00,4.391610622406005859e+00,4.550643444061279297e+00,4.721626758575439453e+00,4.905960559844970703e+00,5.000000000000000000e+00,5.000000000000000000e+00,5.000000000000000000e+00,5.000000000000000000e+00,5.000000000000000000e+00,5.000000000000000000e+00,5.000000000000000000e+00,5.000000000000000000e+00,5.000000000000000000e+00,5.000000000000000000e+00,5.000000000000000000e+00,5.000000000000000000e+00,2.388454914093017578e+00,2.389561414718627930e+00,5.000000000000000000e+00,1.965222239494323730e+00,1.925978064537048340e+00,1.916882991790771484e+00,1.940982460975646973e+00,5.000000000000000000e+00,5.000000000000000000e+00,5.000000000000000000e+00,5.000000000000000000e+00,5.000000000000000000e+00,5.000000000000000000e+00,5.000000000000000000e+00,5.000000000000000000e+00,5.000000000000000000e+00,5.000000000000000000e+00,5.000000000000000000e+00,5.000000000000000000e+00,5.000000000000000000e+00,5.000000000000000000e+00,5.000000000000000000e+00,5.000000000000000000e+00,5.000000000000000000e+00,5.000000000000000000e+00,5.000000000000000000e+00,5.000000000000000000e+00,5.000000000000000000e+00,5.000000000000000000e+00,5.000000000000000000e+00,5.000000000000000000e+00,5.000000000000000000e+00,5.000000000000000000e+00,5.000000000000000000e+00,5.000000000000000000e+00,5.000000000000000000e+00,5.000000000000000000e+00,5.000000000000000000e+00,5.000000000000000000e+00,5.000000000000000000e+00,5.000000000000000000e+00,5.000000000000000000e+00,4.862641811370849609e+00,4.702597141265869141e+00,4.552751541137695312e+00,4.412160873413085938e+00,4.279993057250976562e+00,4.155512809753417969e+00,4.038069248199462891e+00,3.927081346511840820e+00,3.822031497955322266e+00,3.722455263137817383e+00
3.093996286392211914e+00,3.172096967697143555e+00,3.254242897033691406e+00,3.340756654739379883e+00,3.431995630264282227e+00,3.528358221054077148e+00,3.630288839340209961e+00,3.738283395767211914e+00,3.852900505065917969e+00,3.974768161773681641e+00,4.104597568511962891e+00,4.243194103240966797e+00,4.391477584838867188e+00,4.550500392913818359e+00,4.721472740173339844e+00,4.854235649108886719e+00,4.853027343750000000e+00,4.851819515228271484e+00,4.850612163543701172e+00,4.849405288696289062e+00,4.848199367523193359e+00,4.846993923187255859e+00,4.845788955688476562e+00,4.844584941864013672e+00,4.843380928039550781e+00,4.842178344726562500e+00,4.840975761413574219e+00,4.839773654937744141e+00,2.403621196746826172e+00,4.837371349334716797e+00,4.836171627044677734e+00,4.834971904754638672e+00,1.926671028137207031e+00,1.910203337669372559e+00,1.925411581993103027e+00,4.830180168151855469e+00,4.828983306884765625e+00,4.827787399291992188e+00,4.826591968536376953e+00,4.825397491455078125e+00,4.824203491210937500e+00,4.823009490966796875e+00,4.821816921234130859e+00,4.820624351501464844e+00,4.819432735443115234e+00,4.818241119384765625e+00,4.817050933837890625e+00,4.815860748291015625e+00,4.814671039581298828e+00,4.813482284545898438e+00,4.812294006347656250e+00,4.811106681823730469e+00,4.809919357299804688e+00,4.808732986450195312e+00,4.807546615600585938e+00,4.806361198425292969e+00,4.805176734924316406e+00,4.803992271423339844e+00,4.802809238433837891e+00,4.801625728607177734e+00,4.800443649291992188e+00,4.799261569976806641e+00,4.798080444335937500e+00,4.796899795532226562e+00,4.795719623565673828e+00,4.794540405273437500e+00,4.793361186981201172e+00,4.792182922363281250e+00,4.791005134582519531e+00,4.789828300476074219e+00,4.788651466369628906e+00,4.702731609344482422e+00,4.552877902984619141e+00,4.412279605865478516e+00,4.280104637145996094e+00,4.155618190765380859e+00,4.038167953491210938e+00,3.927175283432006836e+00,3.822120189666748047e+00,3.722539424896240234e+00
3.093930006027221680e+00,3.172027349472045898e+00,3.254169940948486328e+00,3.340679407119750977e+00,3.431914091110229492e+00,3.528272628784179688e+00,3.630197763442993164e+00,3.738186836242675781e+00,3.770757913589477539e+00,3.770028352737426758e+00,3.769299507141113281e+00,3.768570899963378906e+00,3.767842531204223633e+00,3.767114162445068359e+00,3.766386508941650391e+00,3.765659093856811523e+00,3.764931440353393555e+00,3.764204502105712891e+00,3.763477802276611328e+00,3.762751579284667969e+00,3.762025117874145508e+00,3.761299371719360352e+00,3.760573863983154297e+00,3.759848356246948242e+00,3.759123325347900391e+00,3.758398771286010742e+00,3.757674455642700195e+00,2.437942266464233398e+00,2.430795669555664062e+00,3.755502700805664062e+00,3.754778861999511719e+00,3.754055976867675781e+00,1.927419543266296387e+00,1.910939216613769531e+00,1.916046619415283203e+00,3.751166343688964844e+00,3.750444889068603516e+00,3.749723672866821289e+00,3.749002218246459961e+00,3.748281478881835938e+00,3.747560977935791016e+00,3.746840238571166992e+00,3.746120452880859375e+00,3.745400905609130859e+00,3.744681358337402344e+00,3.743962049484252930e+00,3.743243217468261719e+00,3.742524623870849609e+00,3.741806030273437500e+00,3.741087913513183594e+00,3.740370273590087891e+00,3.739652872085571289e+00,3.738935232162475586e+00,3.738218545913696289e+00,3.737501859664916992e+00,3.736785173416137695e+00,3.736068964004516602e+00,3.735353231430053711e+00,3.734637737274169922e+00,3.733922243118286133e+00,3.733207225799560547e+00,3.732492446899414062e+00,3.731777667999267578e+00,3.731063604354858398e+00,3.730349779129028320e+00,3.729636192321777344e+00,3.728922367095947266e+00,3.728209257125854492e+00,3.727496623992919922e+00,3.726783752441406250e+00,3.726071357727050781e+00,3.725359439849853516e+00,3.724647760391235352e+00,3.723935842514038086e+00,3.723224878311157227e+00,3.722513914108276367e+00,3.721802949905395508e+00,3.721092700958251953e+00,3.720382452011108398e+00,3.719672679901123047e+00
3.083180427551269531e+00,3.082693099975585938e+00,3.082205533981323242e+00,3.081718206405639648e+00,3.081231117248535156e+00,3.080744028091430664e+00,3.080257415771484375e+00,3.079770803451538086e+00,3.079284191131591797e+00,3.078797817230224609e+00,3.078311443328857422e+00,3.077825546264648438e+00,3.077339649200439453e+00,3.076853752136230469e+00,3.076368331909179688e+00,3.075882911682128906e+00,3.075397729873657227e+00,3.074912786483764648e+00,3.074427604675292969e+00,3.073942899703979492e+00,3.073458433151245117e+00,3.072973728179931641e+00,3.072489261627197266e+00,3.072005271911621094e+00,3.071521282196044922e+00,3.071037292480468750e+00,3.070553541183471680e+00,2.439851045608520508e+00,2.384228944778442383e+00,3.069103240966796875e+00,3.068620204925537109e+00,3.068137407302856445e+00,3.067654371261596680e+00,1.919707059860229492e+00,1.914766430854797363e+00,3.066206693649291992e+00,3.065724611282348633e+00,3.065242767333984375e+00,3.064760923385620117e+00,3.064278841018676758e+00,3.063797473907470703e+00,3.063315868377685547e+00,3.062834501266479492e+00,3.062353372573852539e+00,3.061872482299804688e+00,3.061391830444335938e+00,3.060910701751708984e+00,3.060430288314819336e+00,3.059950113296508789e+00,3.059469461441040039e+00,3.058989524841308594e+00,3.058509588241577148e+00,3.058029890060424805e+00,3.057550191879272461e+00,3.057070732116699219e+00,3.056591510772705078e+00,3.056112051010131836e+00,3.055633068084716797e+00,3.055154323577880859e+00,3.054675579071044922e+00,3.054196834564208984e+00,3.053718328475952148e+00,3.053240299224853516e+00,3.052761793136596680e+00,3.052284002304077148e+00,3.051806211471557617e+00,3.051328659057617188e+00,3.050850868225097656e+00,3.050373554229736328e+00,3.049896240234375000e+00,3.049418926239013672e+00,3.048942089080810547e+00,3.048465490341186523e+00,3.047988891601562500e+00,3.047512292861938477e+00,3.047035932540893555e+00,3.046559810638427734e+00,3.046083688735961914e+00,3.045607805252075195e+00,3.045132160186767578e+00
2.604895830154418945e+00,2.604547739028930664e+00,2.604199886322021484e+00,2.603852033615112305e+00,2.603504180908203125e+00,2.603156566619873047e+00,2.602808952331542969e+00,2.602461338043212891e+00,2.602113962173461914e+00,2.601766586303710938e+00,2.601419448852539062e+00,2.601072311401367188e+00,2.600725173950195312e+00,2.600378274917602539e+00,2.600031614303588867e+00,2.599684715270996094e+00,2.599338054656982422e+00,2.598991632461547852e+00,2.598644971847534180e+00,2.598298549652099609e+00,2.597952365875244141e+00,2.597606420516967773e+00,2.597260236740112305e+00,2.596914052963256836e+00,2.596568346023559570e+00,2.596222639083862305e+00,2.595876693725585938e+00,2.595530986785888672e+00,2.327241659164428711e+00,2.357359409332275391e+00,2.594494819641113281e+00,2.594149589538574219e+00,2.593804359436035156e+00,1.904584527015686035e+00,1.867272377014160156e+00,1.845869302749633789e+00,1.808870673179626465e+00,1.796143174171447754e+00,2.591735124588012695e+00,2.591390848159790039e+00,2.591046094894409180e+00,2.590701818466186523e+00,2.590357780456542969e+00,2.590013504028320312e+00,2.589669466018676758e+00,2.589325428009033203e+00,2.588981628417968750e+00,2.588637590408325195e+00,2.588294029235839844e+00,2.587950468063354492e+00,2.587606906890869141e+00,2.587263345718383789e+00,2.586920261383056641e+00,2.586576938629150391e+00,2.586233615875244141e+00,2.585890769958496094e+00,2.585547685623168945e+00,2.585204839706420898e+00,2.584861993789672852e+00,2.584519386291503906e+00,2.584176778793334961e+00,2.583834171295166016e+00,2.583491802215576172e+00,2.583149433135986328e+00,2.582807302474975586e+00,2.582464933395385742e+00,2.582123041152954102e+00,2.581781148910522461e+00,2.581439018249511719e+00,2.581097364425659180e+00,2.580755710601806641e+00,2.580414056777954102e+00,2.580072402954101562e+00,2.579730987548828125e+00,2.579389810562133789e+00,2.579048395156860352e+00,2.578707218170166016e+00,2.578366279602050781e+00,2.578025341033935547e+00,2.577684164047241211e+00
2.255072832107543945e+00,2.254812240600585938e+00,2.254551410675048828e+00,2.254290580749511719e+00,2.254029989242553711e+00,2.253769397735595703e+00,2.253508806228637695e+00,2.253248453140258789e+00,2.252987861633300781e+00,2.252727508544921875e+00,2.252467155456542969e+00,2.252206802368164062e+00,2.251946687698364258e+00,2.251686811447143555e+00,2.251426458358764648e+00,2.251166582107543945e+00,2.250906705856323242e+00,2.250646829605102539e+00,2.250386953353881836e+00,2.250127315521240234e+00,2.249867439270019531e+00,2.249607801437377930e+00,2.249348402023315430e+00,2.249088764190673828e+00,2.248829364776611328e+00,2.248569965362548828e+00,2.248310565948486328e+00,2.248051166534423828e+00,2.247792005538940430e+00,2.247532844543457031e+00,2.247273921966552734e+00,2.247014760971069336e+00,2.246755838394165039e+00,1.886421084403991699e+00,1.814998030662536621e+00,1.795103549957275391e+00,1.825979471206665039e+00,2.245461940765380859e+00,2.245203018188476562e+00,2.244944572448730469e+00,2.244686126708984375e+00,2.244427680969238281e+00,2.244169235229492188e+00,2.243911027908325195e+00,2.243652820587158203e+00,2.243394374847412109e+00,2.243136405944824219e+00,2.242878198623657227e+00,2.242620229721069336e+00,2.242362260818481445e+00,2.242104291915893555e+00,2.241846561431884766e+00,2.241588592529296875e+00,2.241330862045288086e+00,2.241073369979858398e+00,2.240815639495849609e+00,2.240558147430419922e+00,2.240300655364990234e+00,2.240043163299560547e+00,2.239785909652709961e+00,2.239528417587280273e+00,2.239271402359008789e+00,2.239013910293579102e+00,2.238756895065307617e+00,2.238499879837036133e+00,2.238242864608764648e+00,2.237985849380493164e+00,2.237729072570800781e+00,2.237472057342529297e+00,2.237215518951416016e+00,2.236958503723144531e+00,2.236701965332031250e+00,2.236445426940917969e+00,2.236188650131225586e+00,2.235932350158691406e+00,2.235675811767578125e+00,2.235419511795043945e+00,2.235163211822509766e+00,2.234906911849975586e+00,2.234650850296020508e+00
1.988084435462951660e+00,1.987881779670715332e+00,1.987679004669189453e+00,1.987476348876953125e+00,1.987273573875427246e+00,1.987071156501770020e+00,1.986868619918823242e+00,1.986666083335876465e+00,1.986463785171508789e+00,1.986261248588562012e+00,1.986058831214904785e+00,1.985856652259826660e+00,1.985654234886169434e+00,1.985451936721801758e+00,1.985249876976013184e+00,1.985047698020935059e+00,1.984845519065856934e+00,1.984643578529357910e+00,1.984441399574279785e+00,1.984239339828491211e+00,1.984037518501281738e+00,1.983835577964782715e+00,1.983633637428283691e+00,1.983431935310363770e+00,1.983230113983154297e+00,1.983028292655944824e+00,1.982826709747314453e+00,1.982625007629394531e+00,1.982423305511474609e+00,1.982221841812133789e+00,1.982020258903503418e+00,1.981818795204162598e+00,1.981617331504821777e+00,1.981415748596191406e+00,1.981214523315429688e+00,1.981013178825378418e+00,1.980811834335327148e+00,1.980610728263854980e+00,1.980409383773803711e+00,1.980208158493041992e+00,1.980007171630859375e+00,1.979805946350097656e+00,1.979605078697204590e+00,1.979403972625732422e+00,1.979202866554260254e+00,1.979002118110656738e+00,1.978801131248474121e+00,1.978600263595581055e+00,1.978399515151977539e+00,1.978198766708374023e+00,1.977997899055480957e+00,1.977797389030456543e+00,1.977596640586853027e+00,1.977396011352539062e+00,1.977195501327514648e+00,1.976994991302490234e+00,1.976794600486755371e+00,1.976594090461730957e+00,1.976393580436706543e+00,1.976193428039550781e+00,1.975993037223815918e+00,1.975792646408081055e+00,1.975592494010925293e+00,1.975392222404479980e+00,1.975191950798034668e+00,1.974992036819458008e+00,1.974791884422302246e+00,1.974591732025146484e+00,1.974391937255859375e+00,1.974191904067993164e+00,1.973992109298706055e+00,1.973792195320129395e+00,1.973592281341552734e+00,1.973392605781555176e+00,1.973192811012268066e+00,1.972993016242980957e+00,1.972793459892272949e+00,1.972593784332275391e+00,1.972394108772277832e+00,1.972194671630859375e+00
1.777623534202575684e+00,1.777461409568786621e+00,1.777299284934997559e+00,1.777137160301208496e+00,1.776975274085998535e+00,1.776813268661499023e+00,1.776651263236999512e+00,1.776489496231079102e+00,1.776327490806579590e+00,1.776165604591369629e+00,1.776003956794738770e+00,1.775842070579528809e+00,1.775680184364318848e+00,1.775518655776977539e+00,1.775356888771057129e+00,1.775195121765136719e+00,1.775033593177795410e+00,1.774871945381164551e+00,1.774710297584533691e+00,1.774548768997192383e+00,1.774387240409851074e+00,1.774225711822509766e+00,1.774064302444458008e+00,1.773902773857116699e+00,1.773741364479064941e+00,1.773580074310302734e+00,1.773418664932250977e+00,1.773257255554199219e+00,1.773096084594726562e+00,1.772934794425964355e+00,1.772773504257202148e+00,1.772612333297729492e+00,1.772451162338256836e+00,1.772289991378784180e+00,1.772128939628601074e+00,1.771967768669128418e+00,1.771806836128234863e+00,1.771645784378051758e+00,1.771484732627868652e+00,1.771323800086975098e+00,1.771162867546081543e+00,1.771001815795898438e+00,1.770841121673583984e+00,1.770680189132690430e+00,1.770519256591796875e+00,1.770358562469482422e+00,1.770197749137878418e+00,1.770037174224853516e+00,1.769876360893249512e+00,1.769715666770935059e+00,1.769555091857910156e+00,1.769394397735595703e+00,1.769233822822570801e+00,1.769073367118835449e+00,1.768912672996520996e+00,1.768752217292785645e+00,1.768591761589050293e+00,1.768431305885314941e+00,1.768270850181579590e+00,1.768110513687133789e+00,1.767950177192687988e+00,1.767789959907531738e+00,1.767629504203796387e+00,1.767469167709350586e+00,1.767309069633483887e+00,1.767148852348327637e+00,1.766988635063171387e+00,1.766828536987304688e+00,1.766668319702148438e+00,1.766508221626281738e+00,1.766348242759704590e+00,1.766188144683837891e+00,1.766028046607971191e+00,1.765868186950683594e+00,1.765708208084106445e+00,1.765548467636108398e+00,1.765388488769531250e+00,1.765228629112243652e+00,1.765068888664245605e+00,1.764909029006958008e+00
1.607456207275390625e+00,1.607323527336120605e+00,1.607190966606140137e+00,1.607058644294738770e+00,1.606926083564758301e+00,1.606793522834777832e+00,1.606661200523376465e+00,1.606528759002685547e+00,1.606396317481994629e+00,1.606264114379882812e+00,1.606131672859191895e+00,1.605999350547790527e+00,1.605867147445678711e+00,1.605734825134277344e+00,1.605602502822875977e+00,1.605470299720764160e+00,1.605338096618652344e+00,1.605205774307250977e+00,1.605073690414428711e+00,1.604941487312316895e+00,1.604809403419494629e+00,1.604677319526672363e+00,1.604545235633850098e+00,1.604413151741027832e+00,1.604281187057495117e+00,1.604149103164672852e+00,1.604017019271850586e+00,1.603885173797607422e+00,1.603753209114074707e+00,1.603621125221252441e+00,1.603489398956298828e+00,1.603357434272766113e+00,1.603225469589233398e+00,1.603093743324279785e+00,1.602961897850036621e+00,1.602830052375793457e+00,1.602698206901550293e+00,1.602566480636596680e+00,1.602434754371643066e+00,1.602303028106689453e+00,1.602171421051025391e+00,1.602039813995361328e+00,1.601908087730407715e+00,1.601776480674743652e+00,1.601644873619079590e+00,1.601513266563415527e+00,1.601381659507751465e+00,1.601250290870666504e+00,1.601118683815002441e+00,1.600987076759338379e+00,1.600855708122253418e+00,1.600724220275878906e+00,1.600592732429504395e+00,1.600461483001708984e+00,1.600329995155334473e+00,1.600198745727539062e+00,1.600067377090454102e+00,1.599935889244079590e+00,1.599804759025573730e+00,1.599673390388488770e+00,1.599542021751403809e+00,1.599410891532897949e+00,1.599279642105102539e+00,1.599148392677307129e+00,1.599017381668090820e+00,1.598886132240295410e+00,1.598755002021789551e+00,1.598623991012573242e+00,1.598492860794067383e+00,1.598361849784851074e+00,1.598230719566345215e+00,1.598099708557128906e+00,1.597968816757202148e+00,1.597837686538696289e+00,1.597706675529479980e+00,1.597575902938842773e+00,1.597444891929626465e+00,1.597314000129699707e+00,1.597183227539062500e+00,1.597052335739135742e+00
1.467021942138671875e+00,1.466911435127258301e+00,1.466801166534423828e+00,1.466690778732299805e+00,1.466580390930175781e+00,1.466470122337341309e+00,1.466359734535217285e+00,1.466249465942382812e+00,1.466139197349548340e+00,1.466028928756713867e+00,1.465918660163879395e+00,1.465808510780334473e+00,1.465698242187500000e+00,1.465587973594665527e+00,1.465477943420410156e+00,1.465367674827575684e+00,1.465257525444030762e+00,1.465147495269775391e+00,1.465037345886230469e+00,1.464927196502685547e+00,1.464817166328430176e+00,1.464707016944885254e+00,1.464596986770629883e+00,1.464487075805664062e+00,1.464376926422119141e+00,1.464266896247863770e+00,1.464156985282897949e+00,1.464046955108642578e+00,1.463937044143676758e+00,1.463827133178710938e+00,1.463717222213745117e+00,1.463607311248779297e+00,1.463497281074523926e+00,1.463387608528137207e+00,1.463277697563171387e+00,1.463167786598205566e+00,1.463057994842529297e+00,1.462948203086853027e+00,1.462838411331176758e+00,1.462728738784790039e+00,1.462618947029113770e+00,1.462509155273437500e+00,1.462399482727050781e+00,1.462289810180664062e+00,1.462180018424987793e+00,1.462070465087890625e+00,1.461960792541503906e+00,1.461851239204406738e+00,1.461741566658020020e+00,1.461632013320922852e+00,1.461522459983825684e+00,1.461412787437438965e+00,1.461303353309631348e+00,1.461193799972534180e+00,1.461084127426147461e+00,1.460974812507629395e+00,1.460865259170532227e+00,1.460755705833435059e+00,1.460646390914916992e+00,1.460536837577819824e+00,1.460427522659301758e+00,1.460318088531494141e+00,1.460208654403686523e+00,1.460099339485168457e+00,1.459989905357360840e+00,1.459880590438842773e+00,1.459771394729614258e+00,1.459661960601806641e+00,1.459552645683288574e+00,1.459443449974060059e+00,1.459334135055541992e+00,1.459224939346313477e+00,1.459115743637084961e+00,1.459006547927856445e+00,1.458897352218627930e+00,1.458788156509399414e+00,1.458678960800170898e+00,1.458569884300231934e+00,1.458460688591003418e+00,1.458351612091064453e+00
1.349153995513916016e+00,1.349060773849487305e+00,1.348967313766479492e+00,1.348873972892761230e+00,1.348780632019042969e+00,1.348687291145324707e+00,1.348593950271606445e+00,1.348500728607177734e+00,1.348407506942749023e+00,1.348314166069030762e+00,1.348220944404602051e+00,1.348127722740173340e+00,1.348034381866455078e+00,1.347941279411315918e+00,1.347848057746887207e+00,1.347754836082458496e+00,1.347661733627319336e+00,1.347568511962890625e+00,1.347475290298461914e+00,1.347382307052612305e+00,1.347289204597473145e+00,1.347195982933044434e+00,1.347102999687194824e+00,1.347009897232055664e+00,1.346916794776916504e+00,1.346823811531066895e+00,1.346730709075927734e+00,1.346637606620788574e+00,1.346544623374938965e+00,1.346451640129089355e+00,1.346358537673950195e+00,1.346265554428100586e+00,1.346172690391540527e+00,1.346079707145690918e+00,1.345986723899841309e+00,1.345893859863281250e+00,1.345800876617431641e+00,1.345707893371582031e+00,1.345615148544311523e+00,1.345522165298461914e+00,1.345429301261901855e+00,1.345336437225341797e+00,1.345243573188781738e+00,1.345150709152221680e+00,1.345057964324951172e+00,1.344965219497680664e+00,1.344872355461120605e+00,1.344779610633850098e+00,1.344686865806579590e+00,1.344594001770019531e+00,1.344501376152038574e+00,1.344408631324768066e+00,1.344316005706787109e+00,1.344223260879516602e+00,1.344130635261535645e+00,1.344037890434265137e+00,1.343945145606994629e+00,1.343852639198303223e+00,1.343759894371032715e+00,1.343667268753051758e+00,1.343574762344360352e+00,1.343482136726379395e+00,1.343389511108398438e+00,1.343297004699707031e+00,1.343204379081726074e+00,1.343111872673034668e+00,1.343019366264343262e+00,1.342926740646362305e+00,1.342834353446960449e+00,1.342741727828979492e+00,1.342649221420288086e+00,1.342556834220886230e+00,1.342464327812194824e+00,1.342371821403503418e+00,1.342279553413391113e+00,1.342187047004699707e+00,1.342094659805297852e+00,1.342002272605895996e+00,1.341909885406494141e+00,1.341817617416381836e+00
1.248817801475524902e+00,1.248737812042236328e+00,1.248657822608947754e+00,1.248577952384948730e+00,1.248497843742370605e+00,1.248417854309082031e+00,1.248337984085083008e+00,1.248257994651794434e+00,1.248178124427795410e+00,1.248098254203796387e+00,1.248018264770507812e+00,1.247938394546508789e+00,1.247858524322509766e+00,1.247778654098510742e+00,1.247698783874511719e+00,1.247618913650512695e+00,1.247539043426513672e+00,1.247459173202514648e+00,1.247379422187805176e+00,1.247299551963806152e+00,1.247219800949096680e+00,1.247140049934387207e+00,1.247060179710388184e+00,1.246980428695678711e+00,1.246900677680969238e+00,1.246820926666259766e+00,1.246741175651550293e+00,1.246661424636840820e+00,1.246581673622131348e+00,1.246501922607421875e+00,1.246422290802001953e+00,1.246342658996582031e+00,1.246262907981872559e+00,1.246183156967163086e+00,1.246103644371032715e+00,1.246023893356323242e+00,1.245944261550903320e+00,1.245864629745483398e+00,1.245784997940063477e+00,1.245705366134643555e+00,1.245625853538513184e+00,1.245546221733093262e+00,1.245466589927673340e+00,1.245387077331542969e+00,1.245307445526123047e+00,1.245227932929992676e+00,1.245148420333862305e+00,1.245068907737731934e+00,1.244989275932312012e+00,1.244909882545471191e+00,1.244830369949340820e+00,1.244750857353210449e+00,1.244671463966369629e+00,1.244591951370239258e+00,1.244512438774108887e+00,1.244433045387268066e+00,1.244353532791137695e+00,1.244274139404296875e+00,1.244194746017456055e+00,1.244115352630615234e+00,1.244035959243774414e+00,1.243956565856933594e+00,1.243877291679382324e+00,1.243797898292541504e+00,1.243718504905700684e+00,1.243639230728149414e+00,1.243559837341308594e+00,1.243480443954467773e+00,1.243401169776916504e+00,1.243321895599365234e+00,1.243242502212524414e+00,1.243163347244262695e+00,1.243083953857421875e+00,1.243004798889160156e+00,1.242925524711608887e+00,1.242846250534057617e+00,1.242767095565795898e+00,1.242687821388244629e+00,1.242608547210693359e+00,1.242529392242431641e+00
1.162372469902038574e+00,1.162303209304809570e+00,1.162233948707580566e+00,1.162164568901062012e+00,1.162095308303833008e+00,1.162026047706604004e+00,1.161956787109375000e+00,1.161887526512145996e+00,1.161818265914916992e+00,1.161749005317687988e+00,1.161679744720458984e+00,1.161610603332519531e+00,1.161541342735290527e+00,1.161472082138061523e+00,1.161402940750122070e+00,1.161333799362182617e+00,1.161264538764953613e+00,1.161195397377014160e+00,1.161126255989074707e+00,1.161056995391845703e+00,1.160987973213195801e+00,1.160918831825256348e+00,1.160849571228027344e+00,1.160780549049377441e+00,1.160711407661437988e+00,1.160642266273498535e+00,1.160573124885559082e+00,1.160504102706909180e+00,1.160434961318969727e+00,1.160365819931030273e+00,1.160296916961669922e+00,1.160227775573730469e+00,1.160158634185791016e+00,1.160089731216430664e+00,1.160020589828491211e+00,1.159951567649841309e+00,1.159882664680480957e+00,1.159813523292541504e+00,1.159744501113891602e+00,1.159675598144531250e+00,1.159606575965881348e+00,1.159537553787231445e+00,1.159468650817871094e+00,1.159399628639221191e+00,1.159330725669860840e+00,1.159261822700500488e+00,1.159192800521850586e+00,1.159123897552490234e+00,1.159054994583129883e+00,1.158986091613769531e+00,1.158917188644409180e+00,1.158848285675048828e+00,1.158779382705688477e+00,1.158710479736328125e+00,1.158641695976257324e+00,1.158572793006896973e+00,1.158503890037536621e+00,1.158435106277465820e+00,1.158366203308105469e+00,1.158297419548034668e+00,1.158228516578674316e+00,1.158159732818603516e+00,1.158090949058532715e+00,1.158022165298461914e+00,1.157953500747680664e+00,1.157884597778320312e+00,1.157815814018249512e+00,1.157747149467468262e+00,1.157678365707397461e+00,1.157609581947326660e+00,1.157540917396545410e+00,1.157472133636474609e+00,1.157403349876403809e+00,1.157334685325622559e+00,1.157266020774841309e+00,1.157197237014770508e+00,1.157128572463989258e+00,1.157059907913208008e+00,1.156991243362426758e+00,1.156922578811645508e+00
1.087120175361633301e+00,1.087059497833251953e+00,1.086998939514160156e+00,1.086938261985778809e+00,1.086877703666687012e+00,1.086817145347595215e+00,1.086756467819213867e+00,1.086695909500122070e+00,1.086635351181030273e+00,1.086574792861938477e+00,1.086514234542846680e+00,1.086453676223754883e+00,1.086393117904663086e+00,1.086332559585571289e+00,1.086272001266479492e+00,1.086211442947387695e+00,1.086151003837585449e+00,1.086090445518493652e+00,1.086029887199401855e+00,1.085969448089599609e+00,1.085909008979797363e+00,1.085848450660705566e+00,1.085788011550903320e+00,1.085727453231811523e+00,1.085667014122009277e+00,1.085606575012207031e+00,1.085546135902404785e+00,1.085485696792602539e+00,1.085425138473510742e+00,1.085364818572998047e+00,1.085304379463195801e+00,1.085243940353393555e+00,1.085183501243591309e+00,1.085123062133789062e+00,1.085062742233276367e+00,1.085002303123474121e+00,1.084941983222961426e+00,1.084881544113159180e+00,1.084821224212646484e+00,1.084760785102844238e+00,1.084700345993041992e+00,1.084640145301818848e+00,1.084579706192016602e+00,1.084519386291503906e+00,1.084459066390991211e+00,1.084398746490478516e+00,1.084338426589965820e+00,1.084278106689453125e+00,1.084217786788940430e+00,1.084157466888427734e+00,1.084097266197204590e+00,1.084036946296691895e+00,1.083976626396179199e+00,1.083916425704956055e+00,1.083856105804443359e+00,1.083795785903930664e+00,1.083735585212707520e+00,1.083675265312194824e+00,1.083615064620971680e+00,1.083554744720458984e+00,1.083494663238525391e+00,1.083434343338012695e+00,1.083374142646789551e+00,1.083313941955566406e+00,1.083253741264343262e+00,1.083193540573120117e+00,1.083133339881896973e+00,1.083073139190673828e+00,1.083013057708740234e+00,1.082952976226806641e+00,1.082892775535583496e+00,1.082832574844360352e+00,1.082772493362426758e+00,1.082712292671203613e+00,1.082652211189270020e+00,1.082592129707336426e+00,1.082531929016113281e+00,1.082471847534179688e+00,1.082411766052246094e+00,1.082351565361022949e+00
1.021019101142883301e+00,1.020965576171875000e+00,1.020912051200866699e+00,1.020858645439147949e+00,1.020805239677429199e+00,1.020751714706420898e+00,1.020698308944702148e+00,1.020644783973693848e+00,1.020591378211975098e+00,1.020537972450256348e+00,1.020484566688537598e+00,1.020431160926818848e+00,1.020377755165100098e+00,1.020324349403381348e+00,1.020270824432373047e+00,1.020217537879943848e+00,1.020164132118225098e+00,1.020110726356506348e+00,1.020057320594787598e+00,1.020003914833068848e+00,1.019950628280639648e+00,1.019897222518920898e+00,1.019843935966491699e+00,1.019790530204772949e+00,1.019737124443054199e+00,1.019683837890625000e+00,1.019630432128906250e+00,1.019577145576477051e+00,1.019523859024047852e+00,1.019470453262329102e+00,1.019417166709899902e+00,1.019363880157470703e+00,1.019310593605041504e+00,1.019257307052612305e+00,1.019204020500183105e+00,1.019150733947753906e+00,1.019097447395324707e+00,1.019044160842895508e+00,1.018990874290466309e+00,1.018937587738037109e+00,1.018884420394897461e+00,1.018831133842468262e+00,1.018777847290039062e+00,1.018724679946899414e+00,1.018671393394470215e+00,1.018618106842041016e+00,1.018564939498901367e+00,1.018511772155761719e+00,1.018458485603332520e+00,1.018405318260192871e+00,1.018352150917053223e+00,1.018298864364624023e+00,1.018245697021484375e+00,1.018192529678344727e+00,1.018139362335205078e+00,1.018086194992065430e+00,1.018033027648925781e+00,1.017979860305786133e+00,1.017926573753356934e+00,1.017873525619506836e+00,1.017820358276367188e+00,1.017767190933227539e+00,1.017714142799377441e+00,1.017660975456237793e+00,1.017607808113098145e+00,1.017554759979248047e+00,1.017501592636108398e+00,1.017448425292968750e+00,1.017395377159118652e+00,1.017342329025268555e+00,1.017289161682128906e+00,1.017236113548278809e+00,1.017183065414428711e+00,1.017130017280578613e+00,1.017076849937438965e+00,1.017023921012878418e+00,1.016970753669738770e+00,1.016917824745178223e+00,1.016864776611328125e+00,1.016811609268188477e+00
9.624956846237182617e-01,9.624481201171875000e-01,9.624006152153015137e-01,9.623531103134155273e-01,9.623055458068847656e-01,9.622581005096435547e-01,9.622105956077575684e-01,9.621630311012268066e-01,9.621155858039855957e-01,9.620681405067443848e-01,9.620206356048583984e-01,9.619731903076171875e-01,9.619257450103759766e-01,9.618781805038452148e-01,9.618307948112487793e-01,9.617833495140075684e-01,9.617358446121215820e-01,9.616883993148803711e-01,9.616410136222839355e-01,9.615935087203979492e-01,9.615461230278015137e-01,9.614987373352050781e-01,9.614512324333190918e-01,9.614038467407226562e-01,9.613564610481262207e-01,9.613090157508850098e-01,9.612616300582885742e-01,9.612142443656921387e-01,9.611667990684509277e-01,9.611194133758544922e-01,9.610720872879028320e-01,9.610246419906616211e-01,9.609773159027099609e-01,9.609299898147583008e-01,9.608825445175170898e-01,9.608352184295654297e-01,9.607878923416137695e-01,9.607404470443725586e-01,9.606931209564208984e-01,9.606458544731140137e-01,9.605984091758728027e-01,9.605511426925659180e-01,9.605038166046142578e-01,9.604564309120178223e-01,9.604091644287109375e-01,9.603618383407592773e-01,9.603145122528076172e-01,9.602671861648559570e-01,9.602199196815490723e-01,9.601725935935974121e-01,9.601253271102905273e-01,9.600780606269836426e-01,9.600307345390319824e-01,9.599834680557250977e-01,9.599361419677734375e-01,9.598888754844665527e-01,9.598416686058044434e-01,9.597943425178527832e-01,9.597471356391906738e-01,9.596998691558837891e-01,9.596526026725769043e-01,9.596053957939147949e-01,9.595581889152526855e-01,9.595108628273010254e-01,9.594636559486389160e-01,9.594165086746215820e-01,9.593691825866699219e-01,9.593220353126525879e-01,9.592748284339904785e-01,9.592275619506835938e-01,9.591804146766662598e-01,9.591332674026489258e-01,9.590860009193420410e-01,9.590388536453247070e-01,9.589917063713073730e-01,9.589444398880004883e-01,9.588972926139831543e-01,9.588501453399658203e-01,9.588029384613037109e-01,9.587557911872863770e-01
9.103174209594726562e-01,9.102749824523925781e-01,9.102324843406677246e-01,9.101899266242980957e-01,9.101474881172180176e-01,9.101049900054931641e-01,9.100624322891235352e-01,9.100199937820434570e-01,9.099775552749633789e-01,9.099349975585937500e-01,9.098925590515136719e-01,9.098501205444335938e-01,9.098076224327087402e-01,9.097651839256286621e-01,9.097227454185485840e-01,9.096802473068237305e-01,9.096378087997436523e-01,9.095953702926635742e-01,9.095528721809387207e-01,9.095104932785034180e-01,9.094680547714233398e-01,9.094255566596984863e-01,9.093831777572631836e-01,9.093407988548278809e-01,9.092983007431030273e-01,9.092559218406677246e-01,9.092135429382324219e-01,9.091711044311523438e-01,9.091287255287170410e-01,9.090863466262817383e-01,9.090439081192016602e-01,9.090015292167663574e-01,9.089592099189758301e-01,9.089167118072509766e-01,9.088743925094604492e-01,9.088320732116699219e-01,9.087896347045898438e-01,9.087472558021545410e-01,9.087049365043640137e-01,9.086624979972839355e-01,9.086201786994934082e-01,9.085779190063476562e-01,9.085354804992675781e-01,9.084931612014770508e-01,9.084508419036865234e-01,9.084084630012512207e-01,9.083661437034606934e-01,9.083238840103149414e-01,9.082815051078796387e-01,9.082391858100891113e-01,9.081969261169433594e-01,9.081545472145080566e-01,9.081122875213623047e-01,9.080699086189270020e-01,9.080276489257812500e-01,9.079853892326354980e-01,9.079430103302001953e-01,9.079007506370544434e-01,9.078584909439086914e-01,9.078161716461181641e-01,9.077739119529724121e-01,9.077316522598266602e-01,9.076893329620361328e-01,9.076471328735351562e-01,9.076048731803894043e-01,9.075625538825988770e-01,9.075203537940979004e-01,9.074781537055969238e-01,9.074358344078063965e-01,9.073936343193054199e-01,9.073514342308044434e-01,9.073091149330139160e-01,9.072669148445129395e-01,9.072247147560119629e-01,9.071824550628662109e-01,9.071402549743652344e-01,9.070980548858642578e-01,9.070557951927185059e-01,9.070136547088623047e-01,9.069714546203613281e-01
