5.000000000000000000e+00,5.000000000000000000e+00,5.000000000000000000e+00,5.000000000000000000e+00,5.000000000000000000e+00,5.000000000000000000e+00,5.000000000000000000e+00,5.000000000000000000e+00,5.000000000000000000e+00,5.000000000000000000e+00,5.000000000000000000e+00,5.000000000000000000e+00,5.000000000000000000e+00,5.000000000000000000e+00,5.000000000000000000e+00,5.000000000000000000e+00,5.000000000000000000e+00,5.000000000000000000e+00,5.000000000000000000e+00,5.000000000000000000e+00,5.000000000000000000e+00,5.000000000000000000e+00,5.000000000000000000e+00,5.000000000000000000e+00,5.000000000000000000e+00,5.000000000000000000e+00,5.000000000000000000e+00,5.000000000000000000e+00,5.000000000000000000e+00,5.000000000000000000e+00,5.000000000000000000e+00,5.000000000000000000e+00,5.000000000000000000e+00,5.000000000000000000e+00,5.000000000000000000e+00,5.000000000000000000e+00,5.000000000000000000e+00,5.000000000000000000e+00,5.000000000000000000e+00,5.000000000000000000e+00,5.000000000000000000e+00,5.000000000000000000e+00,5.000000000000000000e+00,5.000000000000000000e+00,5.000000000000000000e+00,5.000000000000000000e+00,5.000000000000000000e+00,5.000000000000000000e+00,5.000000000000000000e+00,5.000000000000000000e+00,5.000000000000000000e+00,5.000000000000000000e+00,5.000000000000000000e+00,5.000000000000000000e+00,5.000000000000000000e+00,5.000000000000000000e+00,5.000000000000000000e+00,5.000000000000000000e+00,5.000000000000000000e+00,4.277464389801025391e+00,4.129203796386718750e+00,3.990876436233520508e+00,3.861516475677490234e+00,3.740279912948608398e+00,3.626423835754394531e+00,3.519294977188110352e+00,3.418313503265380859e+00,3.322965860366821289e+00,3.232792615890502930e+00,3.147384166717529297e+00,3.066372632980346680e+00,2.989426612854003906e+00,2.916247844696044922e+00,2.846556901931762695e+00,2.780102968215942383e+00,2.716680765151977539e+00,2.656087875366210938e+00,2.598138809204101562e+00,2.542683839797973633e+00,2.489548206329345703e+00
5.000000000000000000e+00,5.000000000000000000e+00,5.000000000000000000e+00,5.000000000000000000e+00,5.000000000000000000e+00,5.000000000000000000e+00,5.000000000000000000e+00,5.000000000000000000e+00,5.000000000000000000e+00,5.000000000000000000e+00,5.000000000000000000e+00,5.000000000000000000e+00,5.000000000000000000e+00,5.000000000000000000e+00,5.000000000000000000e+00,5.000000000000000000e+00,5.000000000000000000e+00,5.000000000000000000e+00,5.000000000000000000e+00,5.000000000000000000e+00,5.000000000000000000e+00,5.000000000000000000e+00,5.000000000000000000e+00,5.000000000000000000e+00,5.000000000000000000e+00,5.000000000000000000e+00,5.000000000000000000e+00,5.000000000000000000e+00,5.000000000000000000e+00,5.000000000000000000e+00,5.000000000000000000e+00,5.000000000000000000e+00,5.000000000000000000e+00,5.000000000000000000e+00,5.000000000000000000e+00,5.000000000000000000e+00,5.000000000000000000e+00,5.000000000000000000e+00,5.000000000000000000e+00,5.000000000000000000e+00,5.000000000000000000e+00,5.000000000000000000e+00,5.000000000000000000e+00,5.000000000000000000e+00,5.000000000000000000e+00,5.000000000000000000e+00,5.000000000000000000e+00,5.000000000000000000e+00,5.000000000000000000e+00,5.000000000000000000e+00,5.000000000000000000e+00,5.000000000000000000e+00,5.000000000000000000e+00,5.000000000000000000e+00,5.000000000000000000e+00,5.000000000000000000e+00,5.000000000000000000e+00,5.000000000000000000e+00,4.436901092529296875e+00,4.277587890625000000e+00,4.129319190979003906e+00,3.990984201431274414e+00,3.861617326736450195e+00,3.740374565124511719e+00,3.626512765884399414e+00,3.519378662109375000e+00,3.418392658233642578e+00,3.323040485382080078e+00,3.232863426208496094e+00,3.147451162338256836e+00,3.066436290740966797e+00,2.989474534988403320e+00,2.916265964508056641e+00,2.846556901931762695e+00,2.780102968215942383e+00,2.716680765151977539e+00,2.656110525131225586e+00,2.598182678222656250e+00,2.542727231979370117e+00,2.489589929580688477e+00
5.000000000000000000e+00,5.000000000000000000e+00,5.000000000000000000e+00,5.000000000000000000e+00,5.000000000000000000e+00,5.000000000000000000e+00,5.000000000000000000e+00,5.000000000000000000e+00,5.000000000000000000e+00,5.000000000000000000e+00,5.000000000000000000e+00,5.000000000000000000e+00,5.000000000000000000e+00,5.000000000000000000e+00,5.000000000000000000e+00,5.000000000000000000e+00,5.000000000000000000e+00,5.000000000000000000e+00,5.000000000000000000e+00,5.000000000000000000e+00,5.000000000000000000e+00,5.000000000000000000e+00,5.000000000000000000e+00,5.000000000000000000e+00,5.000000000000000000e+00,5.000000000000000000e+00,5.000000000000000000e+00,5.000000000000000000e+00,5.000000000000000000e+00,5.000000000000000000e+00,5.000000000000000000e+00,5.000000000000000000e+00,5.000000000000000000e+00,5.000000000000000000e+00,5.000000000000000000e+00,5.000000000000000000e+00,5.000000000000000000e+00,5.000000000000000000e+00,5.000000000000000000e+00,5.000000000000000000e+00,5.000000000000000000e+00,5.000000000000000000e+00,5.000000000000000000e+00,5.000000000000000000e+00,5.000000000000000000e+00,5.000000000000000000e+00,5.000000000000000000e+00,5.000000000000000000e+00,5.000000000000000000e+00,5.000000000000000000e+00,5.000000000000000000e+00,2.937189102172851562e+00,5.000000000000000000e+00,5.000000000000000000e+00,5.000000000000000000e+00,5.000000000000000000e+00,5.000000000000000000e+00,4.608683586120605469e+00,4.437034130096435547e+00,4.277711868286132812e+00,4.129434108734130859e+00,3.991091966629028320e+00,3.861718416213989258e+00,3.740469217300415039e+00,3.626601696014404297e+00,3.519462585449218750e+00,3.418471574783325195e+00,3.323114871978759766e+00,3.232933998107910156e+00,3.147501468658447266e+00,3.066453218460083008e+00,2.989474534988403320e+00,2.916265964508056641e+00,2.846558809280395508e+00,2.780129671096801758e+00,2.716730356216430664e+00,2.656157970428466797e+00,2.598227977752685547e+00,2.542770862579345703e+00,2.489631652832031250e+00
4.886027336120605469e+00,5.000000000000000000e+00,5.000000000000000000e+00,5.000000000000000000e+00,5.000000000000000000e+00,5.000000000000000000e+00,5.000000000000000000e+00,5.000000000000000000e+00,5.000000000000000000e+00,5.000000000000000000e+00,5.000000000000000000e+00,5.000000000000000000e+00,5.000000000000000000e+00,5.000000000000000000e+00,5.000000000000000000e+00,5.000000000000000000e+00,5.000000000000000000e+00,5.000000000000000000e+00,5.000000000000000000e+00,5.000000000000000000e+00,5.000000000000000000e+00,5.000000000000000000e+00,5.000000000000000000e+00,5.000000000000000000e+00,5.000000000000000000e+00,5.000000000000000000e+00,5.000000000000000000e+00,5.000000000000000000e+00,5.000000000000000000e+00,5.000000000000000000e+00,5.000000000000000000e+00,5.000000000000000000e+00,5.000000000000000000e+00,5.000000000000000000e+00,5.000000000000000000e+00,5.000000000000000000e+00,5.000000000000000000e+00,5.000000000000000000e+00,5.000000000000000000e+00,5.000000000000000000e+00,5.000000000000000000e+00,5.000000000000000000e+00,5.000000000000000000e+00,5.000000000000000000e+00,5.000000000000000000e+00,5.000000000000000000e+00,5.000000000000000000e+00,5.000000000000000000e+00,5.000000000000000000e+00,5.000000000000000000e+00,2.906802892684936523e+00,2.901645898818969727e+00,5.000000000000000000e+00,5.000000000000000000e+00,5.000000000000000000e+00,5.000000000000000000e+00,4.794303894042968750e+00,4.608827590942382812e+00,4.437167644500732422e+00,4.277835369110107422e+00,4.129549503326416016e+00,3.991199731826782227e+00,3.861819267272949219e+00,3.740563869476318359e+00,3.626690626144409180e+00,3.519546270370483398e+00,3.418550729751586914e+00,3.323168277740478516e+00,3.232950210571289062e+00,3.147501468658447266e+00,3.066453218460083008e+00,2.989478826522827148e+00,2.916297435760498047e+00,2.846613407135009766e+00,2.780181884765625000e+00,2.716780185699462891e+00,2.656205654144287109e+00,2.598273515701293945e+00,2.542814493179321289e+00,2.489673376083374023e+00
4.885900497436523438e+00,5.000000000000000000e+00,5.000000000000000000e+00,5.000000000000000000e+00,5.000000000000000000e+00,5.000000000000000000e+00,5.000000000000000000e+00,5.000000000000000000e+00,5.000000000000000000e+00,5.000000000000000000e+00,5.000000000000000000e+00,5.000000000000000000e+00,5.000000000000000000e+00,5.000000000000000000e+00,5.000000000000000000e+00,5.000000000000000000e+00,5.000000000000000000e+00,5.000000000000000000e+00,5.000000000000000000e+00,5.000000000000000000e+00,5.000000000000000000e+00,5.000000000000000000e+00,5.000000000000000000e+00,5.000000000000000000e+00,5.000000000000000000e+00,5.000000000000000000e+00,5.000000000000000000e+00,5.000000000000000000e+00,5.000000000000000000e+00,5.000000000000000000e+00,5.000000000000000000e+00,5.000000000000000000e+00,5.000000000000000000e+00,5.000000000000000000e+00,5.000000000000000000e+00,5.000000000000000000e+00,5.000000000000000000e+00,5.000000000000000000e+00,5.000000000000000000e+00,5.000000000000000000e+00,5.000000000000000000e+00,5.000000000000000000e+00,5.000000000000000000e+00,5.000000000000000000e+00,5.000000000000000000e+00,5.000000000000000000e+00,5.000000000000000000e+00,5.000000000000000000e+00,5.000000000000000000e+00,2.958791255950927734e+00,2.903809785842895508e+00,2.896791696548461914e+00,2.968531608581542969e+00,5.000000000000000000e+00,5.000000000000000000e+00,4.995503902435302734e+00,4.794459342956542969e+00,4.608971118927001953e+00,4.437300682067871094e+00,4.277959346771240234e+00,4.129664897918701172e+00,3.991307497024536133e+00,3.861920118331909180e+00,3.740658521652221680e+00,3.626779794692993164e+00,3.519602537155151367e+00,3.418565750122070312e+00,3.323168277740478516e+00,3.232950210571289062e+00,3.147508621215820312e+00,3.066490888595581055e+00,2.989538908004760742e+00,2.916354894638061523e+00,2.846667766571044922e+00,2.780234098434448242e+00,2.716829776763916016e+00,2.656253099441528320e+00,2.598319053649902344e+00,2.542857885360717773e+00,2.489715099334716797e+00
4.885774135589599609e+00,5.000000000000000000e+00,5.000000000000000000e+00,5.000000000000000000e+00,5.000000000000000000e+00,5.000000000000000000e+00,5.000000000000000000e+00,5.000000000000000000e+00,5.000000000000000000e+00,5.000000000000000000e+00,5.000000000000000000e+00,5.000000000000000000e+00,5.000000000000000000e+00,5.000000000000000000e+00,5.000000000000000000e+00,5.000000000000000000e+00,5.000000000000000000e+00,5.000000000000000000e+00,5.000000000000000000e+00,5.000000000000000000e+00,5.000000000000000000e+00,5.000000000000000000e+00,5.000000000000000000e+00,5.000000000000000000e+00,5.000000000000000000e+00,5.000000000000000000e+00,5.000000000000000000e+00,5.000000000000000000e+00,5.000000000000000000e+00,5.000000000000000000e+00,5.000000000000000000e+00,5.000000000000000000e+00,5.000000000000000000e+00,5.000000000000000000e+00,5.000000000000000000e+00,5.000000000000000000e+00,5.000000000000000000e+00,5.000000000000000000e+00,5.000000000000000000e+00,5.000000000000000000e+00,5.000000000000000000e+00,5.000000000000000000e+00,5.000000000000000000e+00,5.000000000000000000e+00,5.000000000000000000e+00,5.000000000000000000e+00,5.000000000000000000e+00,5.000000000000000000e+00,5.000000000000000000e+00,2.989944696426391602e+00,2.892346382141113281e+00,2.887909173965454102e+00,5.000000000000000000e+00,5.000000000000000000e+00,5.000000000000000000e+00,4.995672702789306641e+00,4.794614791870117188e+00,4.609114646911621094e+00,4.437433719635009766e+00,4.278083324432373047e+00,4.129780292510986328e+00,3.991415262222290039e+00,3.862020969390869141e+00,3.740717649459838867e+00,3.626792907714843750e+00,3.519602537155151367e+00,3.418565750122070312e+00,3.323179244995117188e+00,3.232994556427001953e+00,3.147575378417968750e+00,3.066554069519042969e+00,2.989599227905273438e+00,2.916412115097045898e+00,2.846722364425659180e+00,2.780286073684692383e+00,2.716879606246948242e+00,2.656300544738769531e+00,2.598364353179931641e+00,2.542901515960693359e+00,2.489756822586059570e+00
4.885647773742675781e+00,5.000000000000000000e+00,5.000000000000000000e+00,5.000000000000000000e+00,5.000000000000000000e+00,5.000000000000000000e+00,5.000000000000000000e+00,5.000000000000000000e+00,5.000000000000000000e+00,5.000000000000000000e+00,5.000000000000000000e+00,5.000000000000000000e+00,5.000000000000000000e+00,5.000000000000000000e+00,5.000000000000000000e+00,5.000000000000000000e+00,5.000000000000000000e+00,5.000000000000000000e+00,5.000000000000000000e+00,5.000000000000000000e+00,5.000000000000000000e+00,5.000000000000000000e+00,5.000000000000000000e+00,5.000000000000000000e+00,5.000000000000000000e+00,5.000000000000000000e+00,5.000000000000000000e+00,5.000000000000000000e+00,5.000000000000000000e+00,5.000000000000000000e+00,5.000000000000000000e+00,5.000000000000000000e+00,5.000000000000000000e+00,5.000000000000000000e+00,5.000000000000000000e+00,5.000000000000000000e+00,5.000000000000000000e+00,5.000000000000000000e+00,5.000000000000000000e+00,5.000000000000000000e+00,5.000000000000000000e+00,5.000000000000000000e+00,5.000000000000000000e+00,5.000000000000000000e+00,5.000000000000000000e+00,5.000000000000000000e+00,5.000000000000000000e+00,5.000000000000000000e+00,5.000000000000000000e+00,5.000000000000000000e+00,2.873202323913574219e+00,2.873212337493896484e+00,2.881598949432373047e+00,5.000000000000000000e+00,5.000000000000000000e+00,4.995841503143310547e+00,4.794770240783691406e+00,4.609258651733398438e+00,4.437567234039306641e+00,4.278206825256347656e+00,4.129895687103271484e+00,3.991478443145751953e+00,3.862032175064086914e+00,3.740717649459838867e+00,3.626792907714843750e+00,3.519617557525634766e+00,3.418617963790893555e+00,3.323253631591796875e+00,3.233064889907836914e+00,3.147642135620117188e+00,3.066617488861083984e+00,2.989659309387207031e+00,2.916469335556030273e+00,2.846776962280273438e+00,2.780338048934936523e+00,2.716929197311401367e+00,2.656348228454589844e+00,2.598409891128540039e+00,2.542945146560668945e+00,2.489798784255981445e+00
4.885521411895751953e+00,5.000000000000000000e+00,5.000000000000000000e+00,5.000000000000000000e+00,5.000000000000000000e+00,5.000000000000000000e+00,5.000000000000000000e+00,5.000000000000000000e+00,5.000000000000000000e+00,5.000000000000000000e+00,5.000000000000000000e+00,5.000000000000000000e+00,5.000000000000000000e+00,5.000000000000000000e+00,5.000000000000000000e+00,5.000000000000000000e+00,5.000000000000000000e+00,5.000000000000000000e+00,5.000000000000000000e+00,5.000000000000000000e+00,5.000000000000000000e+00,5.000000000000000000e+00,5.000000000000000000e+00,5.000000000000000000e+00,5.000000000000000000e+00,5.000000000000000000e+00,5.000000000000000000e+00,5.000000000000000000e+00,5.000000000000000000e+00,5.000000000000000000e+00,5.000000000000000000e+00,5.000000000000000000e+00,5.000000000000000000e+00,5.000000000000000000e+00,5.000000000000000000e+00,5.000000000000000000e+00,5.000000000000000000e+00,5.000000000000000000e+00,5.000000000000000000e+00,5.000000000000000000e+00,5.000000000000000000e+00,5.000000000000000000e+00,5.000000000000000000e+00,5.000000000000000000e+00,5.000000000000000000e+00,5.000000000000000000e+00,2.882959842681884766e+00,2.853954792022705078e+00,2.844227313995361328e+00,2.846492052078247070e+00,2.844740629196166992e+00,2.857453346252441406e+00,2.865637779235839844e+00,2.877256631851196289e+00,5.000000000000000000e+00,4.996010303497314453e+00,4.794926166534423828e+00,4.609402179718017578e+00,4.437700271606445312e+00,4.278275012969970703e+00,4.129903793334960938e+00,3.991478443145751953e+00,3.862032175064086914e+00,3.740738391876220703e+00,3.626854896545410156e+00,3.519701004028320312e+00,3.418696641921997070e+00,3.323328018188476562e+00,3.233135223388671875e+00,3.147708892822265625e+00,3.066680908203125000e+00,2.989719629287719727e+00,2.916526794433593750e+00,2.846831560134887695e+00,2.780390262603759766e+00,2.716979026794433594e+00,2.656395912170410156e+00,2.598455429077148438e+00,2.542988538742065430e+00,2.489840507507324219e+00
4.885394573211669922e+00,5.000000000000000000e+00,5.000000000000000000e+00,5.000000000000000000e+00,5.000000000000000000e+00,5.000000000000000000e+00,5.000000000000000000e+00,5.000000000000000000e+00,5.000000000000000000e+00,5.000000000000000000e+00,5.000000000000000000e+00,5.000000000000000000e+00,5.000000000000000000e+00,5.000000000000000000e+00,5.000000000000000000e+00,5.000000000000000000e+00,5.000000000000000000e+00,5.000000000000000000e+00,5.000000000000000000e+00,5.000000000000000000e+00,5.000000000000000000e+00,5.000000000000000000e+00,5.000000000000000000e+00,5.000000000000000000e+00,5.000000000000000000e+00,5.000000000000000000e+00,5.000000000000000000e+00,5.000000000000000000e+00,5.000000000000000000e+00,5.000000000000000000e+00,5.000000000000000000e+00,5.000000000000000000e+00,5.000000000000000000e+00,5.000000000000000000e+00,5.000000000000000000e+00,5.000000000000000000e+00,5.000000000000000000e+00,5.000000000000000000e+00,5.000000000000000000e+00,5.000000000000000000e+00,5.000000000000000000e+00,5.000000000000000000e+00,5.000000000000000000e+00,5.000000000000000000e+00,5.000000000000000000e+00,5.000000000000000000e+00,2.863076925277709961e+00,2.866142511367797852e+00,2.842559099197387695e+00,2.830805778503417969e+00,2.831438064575195312e+00,2.839777469635009766e+00,2.839672803878784180e+00,2.851496219635009766e+00,2.866036415100097656e+00,2.897090911865234375e+00,4.795079708099365234e+00,4.609475612640380859e+00,4.437704086303710938e+00,4.278275012969970703e+00,4.129903793334960938e+00,3.991506099700927734e+00,3.862105846405029297e+00,3.740832805633544922e+00,3.626943588256835938e+00,3.519784450531005859e+00,3.418775320053100586e+00,3.323402404785156250e+00,3.233205795288085938e+00,3.147775888442993164e+00,3.066744089126586914e+00,2.989779710769653320e+00,2.916584014892578125e+00,2.846886157989501953e+00,2.780442237854003906e+00,2.717028617858886719e+00,2.656443357467651367e+00,2.598500967025756836e+00,2.543032169342041016e+00,2.489882230758666992e+00
4.885268688201904297e+00,5.000000000000000000e+00,5.000000000000000000e+00,5.000000000000000000e+00,5.000000000000000000e+00,5.000000000000000000e+00,5.000000000000000000e+00,5.000000000000000000e+00,5.000000000000000000e+00,5.000000000000000000e+00,5.000000000000000000e+00,5.000000000000000000e+00,5.000000000000000000e+00,5.000000000000000000e+00,5.000000000000000000e+00,5.000000000000000000e+00,5.000000000000000000e+00,5.000000000000000000e+00,5.000000000000000000e+00,5.000000000000000000e+00,5.000000000000000000e+00,5.000000000000000000e+00,5.000000000000000000e+00,5.000000000000000000e+00,5.000000000000000000e+00,5.000000000000000000e+00,5.000000000000000000e+00,5.000000000000000000e+00,5.000000000000000000e+00,5.000000000000000000e+00,5.000000000000000000e+00,5.000000000000000000e+00,5.000000000000000000e+00,5.000000000000000000e+00,5.000000000000000000e+00,5.000000000000000000e+00,5.000000000000000000e+00,5.000000000000000000e+00,5.000000000000000000e+00,5.000000000000000000e+00,5.000000000000000000e+00,5.000000000000000000e+00,5.000000000000000000e+00,5.000000000000000000e+00,5.000000000000000000e+00,5.000000000000000000e+00,2.868978738784790039e+00,2.894844293594360352e+00,2.848613500595092773e+00,2.833131313323974609e+00,2.832364797592163086e+00,2.840758323669433594e+00,2.842266559600830078e+00,2.851646900177001953e+00,2.871151924133300781e+00,2.894578218460083008e+00,4.795079708099365234e+00,4.609475612640380859e+00,4.437704086303710938e+00,4.278310775756835938e+00,4.129992485046386719e+00,3.991613388061523438e+00,3.862206459045410156e+00,3.740926980972290039e+00,3.627032279968261719e+00,3.519867897033691406e+00,3.418853998184204102e+00,3.323476791381835938e+00,3.233276128768920898e+00,3.147842645645141602e+00,3.066807508468627930e+00,2.989840030670166016e+00,2.916641235351562500e+00,2.846940755844116211e+00,2.780494213104248047e+00,2.717078447341918945e+00,2.656491041183471680e+00,2.598546266555786133e+00,2.543075799942016602e+00,2.489923954010009766e+00
4.885120868682861328e+00,5.000000000000000000e+00,5.000000000000000000e+00,5.000000000000000000e+00,5.000000000000000000e+00,5.000000000000000000e+00,5.000000000000000000e+00,5.000000000000000000e+00,5.000000000000000000e+00,5.000000000000000000e+00,5.000000000000000000e+00,5.000000000000000000e+00,5.000000000000000000e+00,5.000000000000000000e+00,5.000000000000000000e+00,5.000000000000000000e+00,5.000000000000000000e+00,5.000000000000000000e+00,5.000000000000000000e+00,5.000000000000000000e+00,5.000000000000000000e+00,5.000000000000000000e+00,5.000000000000000000e+00,5.000000000000000000e+00,5.000000000000000000e+00,5.000000000000000000e+00,5.000000000000000000e+00,5.000000000000000000e+00,5.000000000000000000e+00,5.000000000000000000e+00,5.000000000000000000e+00,5.000000000000000000e+00,5.000000000000000000e+00,5.000000000000000000e+00,5.000000000000000000e+00,5.000000000000000000e+00,5.000000000000000000e+00,5.000000000000000000e+00,5.000000000000000000e+00,5.000000000000000000e+00,5.000000000000000000e+00,5.000000000000000000e+00,5.000000000000000000e+00,5.000000000000000000e+00,5.000000000000000000e+00,5.000000000000000000e+00,2.869413852691650391e+00,2.880943298339843750e+00,2.864368200302124023e+00,2.841597318649291992e+00,2.838885307312011719e+00,2.850552558898925781e+00,2.848647832870483398e+00,2.861017942428588867e+00,2.886144638061523438e+00,2.898318052291870117e+00,4.795079708099365234e+00,4.609522342681884766e+00,4.437811374664306641e+00,4.278434276580810547e+00,4.130107402801513672e+00,3.991720676422119141e+00,3.862307310104370117e+00,3.741021156311035156e+00,3.627120733261108398e+00,3.519951343536376953e+00,3.418932676315307617e+00,3.323551177978515625e+00,3.233346462249755859e+00,3.147909402847290039e+00,3.066870927810668945e+00,2.989900112152099609e+00,2.916698694229125977e+00,2.846995353698730469e+00,2.780546426773071289e+00,2.717128038406372070e+00,2.656538486480712891e+00,2.598591804504394531e+00,2.543119430541992188e+00,2.489965677261352539e+00
4.884969711303710938e+00,5.000000000000000000e+00,5.000000000000000000e+00,5.000000000000000000e+00,5.000000000000000000e+00,5.000000000000000000e+00,5.000000000000000000e+00,5.000000000000000000e+00,5.000000000000000000e+00,5.000000000000000000e+00,5.000000000000000000e+00,5.000000000000000000e+00,5.000000000000000000e+00,5.000000000000000000e+00,5.000000000000000000e+00,5.000000000000000000e+00,5.000000000000000000e+00,5.000000000000000000e+00,5.000000000000000000e+00,5.000000000000000000e+00,5.000000000000000000e+00,5.000000000000000000e+00,5.000000000000000000e+00,5.000000000000000000e+00,5.000000000000000000e+00,5.000000000000000000e+00,5.000000000000000000e+00,5.000000000000000000e+00,5.000000000000000000e+00,5.000000000000000000e+00,5.000000000000000000e+00,5.000000000000000000e+00,5.000000000000000000e+00,5.000000000000000000e+00,5.000000000000000000e+00,5.000000000000000000e+00,5.000000000000000000e+00,5.000000000000000000e+00,5.000000000000000000e+00,5.000000000000000000e+00,5.000000000000000000e+00,5.000000000000000000e+00,5.000000000000000000e+00,5.000000000000000000e+00,5.000000000000000000e+00,5.000000000000000000e+00,2.875401973724365234e+00,2.895765542984008789e+00,2.874081134796142578e+00,2.856578588485717773e+00,2.855098009109497070e+00,2.860382556915283203e+00,2.866740226745605469e+00,2.877483129501342773e+00,2.882135629653930664e+00,2.908114910125732422e+00,4.795210838317871094e+00,4.609665393829345703e+00,4.437944412231445312e+00,4.278557300567626953e+00,4.130222320556640625e+00,3.991827964782714844e+00,3.862407684326171875e+00,3.741115570068359375e+00,3.627209424972534180e+00,3.520034790039062500e+00,3.419011592864990234e+00,3.323625564575195312e+00,3.233417034149169922e+00,3.147976160049438477e+00,3.066934347152709961e+00,2.989960432052612305e+00,2.916755914688110352e+00,2.847049951553344727e+00,2.780598402023315430e+00,2.717177867889404297e+00,2.656585931777954102e+00,2.598637342453002930e+00,2.543163061141967773e+00,2.490007400512695312e+00
4.884818077087402344e+00,5.000000000000000000e+00,5.000000000000000000e+00,5.000000000000000000e+00,5.000000000000000000e+00,5.000000000000000000e+00,5.000000000000000000e+00,5.000000000000000000e+00,5.000000000000000000e+00,5.000000000000000000e+00,5.000000000000000000e+00,5.000000000000000000e+00,5.000000000000000000e+00,5.000000000000000000e+00,5.000000000000000000e+00,5.000000000000000000e+00,5.000000000000000000e+00,5.000000000000000000e+00,5.000000000000000000e+00,5.000000000000000000e+00,5.000000000000000000e+00,5.000000000000000000e+00,5.000000000000000000e+00,5.000000000000000000e+00,5.000000000000000000e+00,5.000000000000000000e+00,5.000000000000000000e+00,5.000000000000000000e+00,5.000000000000000000e+00,5.000000000000000000e+00,5.000000000000000000e+00,5.000000000000000000e+00,5.000000000000000000e+00,5.000000000000000000e+00,5.000000000000000000e+00,5.000000000000000000e+00,5.000000000000000000e+00,5.000000000000000000e+00,5.000000000000000000e+00,5.000000000000000000e+00,5.000000000000000000e+00,5.000000000000000000e+00,5.000000000000000000e+00,5.000000000000000000e+00,5.000000000000000000e+00,5.000000000000000000e+00,2.880201101303100586e+00,2.907852888107299805e+00,2.899654150009155273e+00,2.875260829925537109e+00,2.875525474548339844e+00,2.886990070343017578e+00,2.888832092285156250e+00,2.903068542480468750e+00,2.876944780349731445e+00,2.907646417617797852e+00,4.795365333557128906e+00,4.609808444976806641e+00,4.438076972961425781e+00,4.278680801391601562e+00,4.130337238311767578e+00,3.991935253143310547e+00,3.862508296966552734e+00,3.741209745407104492e+00,3.627298116683959961e+00,3.520118236541748047e+00,3.419090270996093750e+00,3.323699951171875000e+00,3.233487367630004883e+00,3.148042917251586914e+00,3.066997528076171875e+00,2.990020751953125000e+00,2.916813135147094727e+00,2.847104549407958984e+00,2.780650615692138672e+00,2.717227697372436523e+00,2.656633615493774414e+00,2.598682880401611328e+00,2.543206691741943359e+00,2.490049123764038086e+00
4.884667396545410156e+00,5.000000000000000000e+00,5.000000000000000000e+00,5.000000000000000000e+00,5.000000000000000000e+00,5.000000000000000000e+00,5.000000000000000000e+00,5.000000000000000000e+00,5.000000000000000000e+00,5.000000000000000000e+00,5.000000000000000000e+00,5.000000000000000000e+00,5.000000000000000000e+00,5.000000000000000000e+00,5.000000000000000000e+00,5.000000000000000000e+00,5.000000000000000000e+00,5.000000000000000000e+00,5.000000000000000000e+00,5.000000000000000000e+00,5.000000000000000000e+00,5.000000000000000000e+00,5.000000000000000000e+00,5.000000000000000000e+00,5.000000000000000000e+00,5.000000000000000000e+00,5.000000000000000000e+00,5.000000000000000000e+00,5.000000000000000000e+00,5.000000000000000000e+00,5.000000000000000000e+00,5.000000000000000000e+00,5.000000000000000000e+00,5.000000000000000000e+00,5.000000000000000000e+00,5.000000000000000000e+00,5.000000000000000000e+00,5.000000000000000000e+00,5.000000000000000000e+00,5.000000000000000000e+00,5.000000000000000000e+00,5.000000000000000000e+00,5.000000000000000000e+00,5.000000000000000000e+00,5.000000000000000000e+00,2.932459592819213867e+00,2.883772373199462891e+00,5.000000000000000000e+00,2.922607660293579102e+00,2.886656045913696289e+00,2.881157636642456055e+00,2.893588781356811523e+00,2.898760080337524414e+00,2.906998634338378906e+00,2.873514175415039062e+00,4.996655941009521484e+00,4.795520782470703125e+00,4.609951496124267578e+00,4.438209533691406250e+00,4.278804302215576172e+00,4.130452156066894531e+00,3.992042541503906250e+00,3.862608671188354492e+00,3.741304159164428711e+00,3.627387046813964844e+00,3.520201683044433594e+00,3.419168949127197266e+00,3.323774337768554688e+00,3.233557939529418945e+00,3.148109674453735352e+00,3.067060947418212891e+00,2.990081071853637695e+00,2.916870594024658203e+00,2.847159147262573242e+00,2.780702590942382812e+00,2.717277288436889648e+00,2.656681060791015625e+00,2.598728179931640625e+00,2.543250083923339844e+00,2.490091085433959961e+00
4.884515762329101562e+00,5.000000000000000000e+00,5.000000000000000000e+00,5.000000000000000000e+00,5.000000000000000000e+00,5.000000000000000000e+00,5.000000000000000000e+00,5.000000000000000000e+00,5.000000000000000000e+00,5.000000000000000000e+00,5.000000000000000000e+00,5.000000000000000000e+00,5.000000000000000000e+00,5.000000000000000000e+00,5.000000000000000000e+00,5.000000000000000000e+00,5.000000000000000000e+00,5.000000000000000000e+00,5.000000000000000000e+00,5.000000000000000000e+00,5.000000000000000000e+00,5.000000000000000000e+00,5.000000000000000000e+00,5.000000000000000000e+00,5.000000000000000000e+00,5.000000000000000000e+00,5.000000000000000000e+00,5.000000000000000000e+00,5.000000000000000000e+00,5.000000000000000000e+00,5.000000000000000000e+00,5.000000000000000000e+00,5.000000000000000000e+00,5.000000000000000000e+00,5.000000000000000000e+00,5.000000000000000000e+00,5.000000000000000000e+00,5.000000000000000000e+00,5.000000000000000000e+00,5.000000000000000000e+00,5.000000000000000000e+00,5.000000000000000000e+00,5.000000000000000000e+00,5.000000000000000000e+00,5.000000000000000000e+00,2.918003320693969727e+00,2.890360355377197266e+00,5.000000000000000000e+00,2.905233383178710938e+00,2.877222061157226562e+00,2.868057489395141602e+00,2.874764919281005859e+00,2.886486530303955078e+00,2.896477460861206055e+00,2.869317293167114258e+00,4.996824264526367188e+00,4.795675754547119141e+00,4.610094547271728516e+00,4.438342094421386719e+00,4.278927326202392578e+00,4.130567073822021484e+00,3.992150068283081055e+00,3.862709283828735352e+00,3.741398334503173828e+00,3.627475738525390625e+00,3.520285129547119141e+00,3.419247627258300781e+00,3.323848724365234375e+00,3.233628273010253906e+00,3.148176431655883789e+00,3.067124366760253906e+00,2.990141391754150391e+00,2.916927814483642578e+00,2.847213745117187500e+00,2.780754804611206055e+00,2.717327117919921875e+00,2.656728506088256836e+00,2.598773717880249023e+00,2.543293714523315430e+00,2.490132808685302734e+00
4.884364604949951172e+00,5.000000000000000000e+00,5.000000000000000000e+00,5.000000000000000000e+00,5.000000000000000000e+00,5.000000000000000000e+00,5.000000000000000000e+00,5.000000000000000000e+00,5.000000000000000000e+00,5.000000000000000000e+00,5.000000000000000000e+00,5.000000000000000000e+00,5.000000000000000000e+00,5.000000000000000000e+00,5.000000000000000000e+00,5.000000000000000000e+00,5.000000000000000000e+00,5.000000000000000000e+00,5.000000000000000000e+00,5.000000000000000000e+00,5.000000000000000000e+00,5.000000000000000000e+00,5.000000000000000000e+00,5.000000000000000000e+00,5.000000000000000000e+00,5.000000000000000000e+00,5.000000000000000000e+00,5.000000000000000000e+00,5.000000000000000000e+00,5.000000000000000000e+00,5.000000000000000000e+00,5.000000000000000000e+00,5.000000000000000000e+00,5.000000000000000000e+00,5.000000000000000000e+00,5.000000000000000000e+00,5.000000000000000000e+00,5.000000000000000000e+00,5.000000000000000000e+00,5.000000000000000000e+00,5.000000000000000000e+00,5.000000000000000000e+00,5.000000000000000000e+00,5.000000000000000000e+00,5.000000000000000000e+00,2.929553747177124023e+00,2.911921024322509766e+00,5.000000000000000000e+00,2.901237726211547852e+00,2.860606908798217773e+00,2.850042104721069336e+00,2.860482692718505859e+00,2.872743606567382812e+00,2.896131753921508789e+00,2.875558853149414062e+00,4.996992111206054688e+00,4.795830726623535156e+00,4.610238075256347656e+00,4.438474655151367188e+00,4.279050827026367188e+00,4.130681991577148438e+00,3.992257356643676758e+00,3.862809658050537109e+00,3.741492748260498047e+00,3.627564191818237305e+00,3.520368576049804688e+00,3.419326543807983398e+00,3.323923110961914062e+00,3.233698606491088867e+00,3.148243188858032227e+00,3.067187547683715820e+00,2.990201473236083984e+00,2.916985034942626953e+00,2.847268581390380859e+00,2.780806779861450195e+00,2.717376708984375000e+00,2.656776189804077148e+00,2.598819255828857422e+00,2.543337345123291016e+00,2.490174531936645508e+00
4.884212970733642578e+00,5.000000000000000000e+00,5.000000000000000000e+00,5.000000000000000000e+00,5.000000000000000000e+00,5.000000000000000000e+00,5.000000000000000000e+00,5.000000000000000000e+00,5.000000000000000000e+00,5.000000000000000000e+00,5.000000000000000000e+00,5.000000000000000000e+00,5.000000000000000000e+00,5.000000000000000000e+00,5.000000000000000000e+00,5.000000000000000000e+00,5.000000000000000000e+00,5.000000000000000000e+00,5.000000000000000000e+00,5.000000000000000000e+00,5.000000000000000000e+00,5.000000000000000000e+00,5.000000000000000000e+00,5.000000000000000000e+00,5.000000000000000000e+00,5.000000000000000000e+00,5.000000000000000000e+00,5.000000000000000000e+00,5.000000000000000000e+00,5.000000000000000000e+00,5.000000000000000000e+00,5.000000000000000000e+00,5.000000000000000000e+00,5.000000000000000000e+00,5.000000000000000000e+00,5.000000000000000000e+00,5.000000000000000000e+00,5.000000000000000000e+00,5.000000000000000000e+00,5.000000000000000000e+00,5.000000000000000000e+00,5.000000000000000000e+00,5.000000000000000000e+00,5.000000000000000000e+00,5.000000000000000000e+00,2.947950124740600586e+00,2.948683500289916992e+00,5.000000000000000000e+00,2.875704526901245117e+00,2.848900318145751953e+00,2.837645053863525391e+00,2.860151529312133789e+00,2.863094091415405273e+00,2.903689861297607422e+00,2.891262292861938477e+00,4.997160434722900391e+00,4.795985698699951172e+00,4.610381603240966797e+00,4.438607692718505859e+00,4.279173851013183594e+00,4.130796909332275391e+00,3.992364645004272461e+00,3.862910270690917969e+00,3.741586923599243164e+00,3.627652883529663086e+00,3.520452022552490234e+00,3.419405221939086914e+00,3.323997497558593750e+00,3.233769178390502930e+00,3.148309946060180664e+00,3.067250967025756836e+00,2.990261793136596680e+00,2.917042493820190430e+00,2.847323179244995117e+00,2.780858755111694336e+00,2.717426538467407227e+00,2.656823635101318359e+00,2.598864793777465820e+00,2.543380975723266602e+00,2.490216255187988281e+00
4.884062290191650391e+00,5.000000000000000000e+00,5.000000000000000000e+00,5.000000000000000000e+00,5.000000000000000000e+00,5.000000000000000000e+00,5.000000000000000000e+00,5.000000000000000000e+00,5.000000000000000000e+00,5.000000000000000000e+00,5.000000000000000000e+00,5.000000000000000000e+00,5.000000000000000000e+00,5.000000000000000000e+00,5.000000000000000000e+00,5.000000000000000000e+00,5.000000000000000000e+00,5.000000000000000000e+00,5.000000000000000000e+00,5.000000000000000000e+00,5.000000000000000000e+00,5.000000000000000000e+00,5.000000000000000000e+00,5.000000000000000000e+00,5.000000000000000000e+00,5.000000000000000000e+00,5.000000000000000000e+00,5.000000000000000000e+00,5.000000000000000000e+00,5.000000000000000000e+00,5.000000000000000000e+00,5.000000000000000000e+00,5.000000000000000000e+00,5.000000000000000000e+00,5.000000000000000000e+00,5.000000000000000000e+00,5.000000000000000000e+00,5.000000000000000000e+00,5.000000000000000000e+00,5.000000000000000000e+00,5.000000000000000000e+00,5.000000000000000000e+00,5.000000000000000000e+00,5.000000000000000000e+00,5.000000000000000000e+00,2.967793941497802734e+00,5.000000000000000000e+00,5.000000000000000000e+00,2.874087333679199219e+00,2.849275827407836914e+00,2.844899892807006836e+00,2.866915225982666016e+00,2.863868236541748047e+00,2.905747175216674805e+00,2.912896394729614258e+00,4.997356414794921875e+00,4.796159744262695312e+00,4.610537052154541016e+00,4.438747406005859375e+00,4.279299736022949219e+00,4.130911827087402344e+00,3.992471933364868164e+00,3.863010644912719727e+00,3.741681098937988281e+00,3.627741575241088867e+00,3.520535707473754883e+00,3.419484376907348633e+00,3.324071884155273438e+00,3.233839511871337891e+00,3.148376703262329102e+00,3.067314386367797852e+00,2.990321874618530273e+00,2.917099714279174805e+00,2.847377777099609375e+00,2.780910968780517578e+00,2.717476367950439453e+00,2.656871318817138672e+00,2.598910331726074219e+00,2.543424367904663086e+00,2.490257978439331055e+00
4.883910655975341797e+00,5.000000000000000000e+00,5.000000000000000000e+00,5.000000000000000000e+00,5.000000000000000000e+00,5.000000000000000000e+00,5.000000000000000000e+00,5.000000000000000000e+00,5.000000000000000000e+00,5.000000000000000000e+00,5.000000000000000000e+00,5.000000000000000000e+00,5.000000000000000000e+00,5.000000000000000000e+00,5.000000000000000000e+00,5.000000000000000000e+00,5.000000000000000000e+00,5.000000000000000000e+00,5.000000000000000000e+00,5.000000000000000000e+00,5.000000000000000000e+00,5.000000000000000000e+00,5.000000000000000000e+00,5.000000000000000000e+00,5.000000000000000000e+00,5.000000000000000000e+00,5.000000000000000000e+00,5.000000000000000000e+00,5.000000000000000000e+00,5.000000000000000000e+00,5.000000000000000000e+00,5.000000000000000000e+00,5.000000000000000000e+00,5.000000000000000000e+00,5.000000000000000000e+00,5.000000000000000000e+00,5.000000000000000000e+00,5.000000000000000000e+00,5.000000000000000000e+00,5.000000000000000000e+00,5.000000000000000000e+00,5.000000000000000000e+00,5.000000000000000000e+00,5.000000000000000000e+00,5.000000000000000000e+00,3.001488685607910156e+00,5.000000000000000000e+00,5.000000000000000000e+00,2.887203931808471680e+00,2.867464542388916016e+00,2.870888948440551758e+00,2.892667531967163086e+00,2.885316848754882812e+00,2.925145864486694336e+00,2.930586099624633789e+00,4.997565269470214844e+00,4.796352386474609375e+00,4.610714912414550781e+00,4.438912391662597656e+00,4.279452800750732422e+00,4.131052017211914062e+00,3.992599248886108398e+00,3.863126039505004883e+00,3.741786003112792969e+00,3.627836465835571289e+00,3.520622014999389648e+00,3.419563055038452148e+00,3.324146270751953125e+00,3.233910083770751953e+00,3.148443460464477539e+00,3.067377805709838867e+00,2.990382194519042969e+00,2.917156934738159180e+00,2.847432374954223633e+00,2.780962944030761719e+00,2.717526197433471680e+00,2.656918764114379883e+00,2.598955631256103516e+00,2.543467998504638672e+00,2.490299940109252930e+00
4.883759498596191406e+00,5.000000000000000000e+00,5.000000000000000000e+00,5.000000000000000000e+00,5.000000000000000000e+00,5.000000000000000000e+00,5.000000000000000000e+00,5.000000000000000000e+00,5.000000000000000000e+00,5.000000000000000000e+00,5.000000000000000000e+00,5.000000000000000000e+00,5.000000000000000000e+00,5.000000000000000000e+00,5.000000000000000000e+00,5.000000000000000000e+00,5.000000000000000000e+00,5.000000000000000000e+00,5.000000000000000000e+00,5.000000000000000000e+00,5.000000000000000000e+00,5.000000000000000000e+00,5.000000000000000000e+00,5.000000000000000000e+00,5.000000000000000000e+00,5.000000000000000000e+00,5.000000000000000000e+00,5.000000000000000000e+00,5.000000000000000000e+00,5.000000000000000000e+00,5.000000000000000000e+00,5.000000000000000000e+00,5.000000000000000000e+00,5.000000000000000000e+00,5.000000000000000000e+00,5.000000000000000000e+00,5.000000000000000000e+00,5.000000000000000000e+00,5.000000000000000000e+00,5.000000000000000000e+00,5.000000000000000000e+00,5.000000000000000000e+00,5.000000000000000000e+00,5.000000000000000000e+00,3.024740457534790039e+00,3.048413038253784180e+00,5.000000000000000000e+00,2.993465900421142578e+00,2.901590824127197266e+00,2.885406494140625000e+00,2.903787612915039062e+00,2.940508604049682617e+00,2.925886869430541992e+00,2.986837387084960938e+00,2.947575330734252930e+00,4.997773647308349609e+00,4.796544551849365234e+00,4.610892772674560547e+00,4.439076900482177734e+00,4.279605865478515625e+00,4.131195068359375000e+00,3.992732286453247070e+00,3.863250494003295898e+00,3.741903305053710938e+00,3.627946615219116211e+00,3.520725965499877930e+00,3.419660568237304688e+00,3.324235916137695312e+00,3.233992338180541992e+00,3.148518800735473633e+00,3.067446947097778320e+00,2.990445613861083984e+00,2.917215347290039062e+00,2.847486972808837891e+00,2.781015157699584961e+00,2.717576026916503906e+00,2.656966209411621094e+00,2.599001407623291016e+00,2.543511629104614258e+00,2.490341663360595703e+00
4.883608341217041016e+00,5.000000000000000000e+00,5.000000000000000000e+00,5.000000000000000000e+00,5.000000000000000000e+00,5.000000000000000000e+00,5.000000000000000000e+00,5.000000000000000000e+00,5.000000000000000000e+00,5.000000000000000000e+00,5.000000000000000000e+00,5.000000000000000000e+00,5.000000000000000000e+00,5.000000000000000000e+00,5.000000000000000000e+00,5.000000000000000000e+00,5.000000000000000000e+00,5.000000000000000000e+00,5.000000000000000000e+00,5.000000000000000000e+00,5.000000000000000000e+00,5.000000000000000000e+00,5.000000000000000000e+00,5.000000000000000000e+00,5.000000000000000000e+00,5.000000000000000000e+00,5.000000000000000000e+00,5.000000000000000000e+00,5.000000000000000000e+00,5.000000000000000000e+00,5.000000000000000000e+00,5.000000000000000000e+00,5.000000000000000000e+00,5.000000000000000000e+00,5.000000000000000000e+00,5.000000000000000000e+00,5.000000000000000000e+00,5.000000000000000000e+00,5.000000000000000000e+00,5.000000000000000000e+00,5.000000000000000000e+00,5.000000000000000000e+00,5.000000000000000000e+00,5.000000000000000000e+00,3.060528993606567383e+00,3.102066278457641602e+00,5.000000000000000000e+00,3.022655248641967773e+00,2.909234762191772461e+00,2.895853757858276367e+00,2.920740127563476562e+00,3.006886482238769531e+00,3.005576372146606445e+00,3.005947113037109375e+00,2.963252305984497070e+00,4.997982501983642578e+00,4.796736717224121094e+00,4.611070632934570312e+00,4.439241886138916016e+00,4.279758930206298828e+00,4.131337642669677734e+00,3.992865800857543945e+00,3.863375425338745117e+00,3.742020130157470703e+00,3.628056526184082031e+00,3.520829200744628906e+00,3.419758319854736328e+00,3.324328184127807617e+00,3.234079837799072266e+00,3.148601770401000977e+00,3.067525863647460938e+00,2.990520477294921875e+00,2.917286634445190430e+00,2.847553730010986328e+00,2.781076908111572266e+00,2.717633008956909180e+00,2.657019138336181641e+00,2.599050283432006836e+00,2.543556690216064453e+00,2.490383625030517578e+00
4.883457183837890625e+00,5.000000000000000000e+00,5.000000000000000000e+00,5.000000000000000000e+00,5.000000000000000000e+00,5.000000000000000000e+00,5.000000000000000000e+00,5.000000000000000000e+00,5.000000000000000000e+00,5.000000000000000000e+00,5.000000000000000000e+00,5.000000000000000000e+00,5.000000000000000000e+00,5.000000000000000000e+00,5.000000000000000000e+00,5.000000000000000000e+00,5.000000000000000000e+00,5.000000000000000000e+00,5.000000000000000000e+00,5.000000000000000000e+00,5.000000000000000000e+00,5.000000000000000000e+00,5.000000000000000000e+00,5.000000000000000000e+00,5.000000000000000000e+00,5.000000000000000000e+00,5.000000000000000000e+00,5.000000000000000000e+00,5.000000000000000000e+00,5.000000000000000000e+00,5.000000000000000000e+00,5.000000000000000000e+00,5.000000000000000000e+00,5.000000000000000000e+00,5.000000000000000000e+00,5.000000000000000000e+00,5.000000000000000000e+00,5.000000000000000000e+00,5.000000000000000000e+00,5.000000000000000000e+00,5.000000000000000000e+00,5.000000000000000000e+00,5.000000000000000000e+00,5.000000000000000000e+00,5.000000000000000000e+00,5.000000000000000000e+00,5.000000000000000000e+00,5.000000000000000000e+00,2.916302680969238281e+00,2.901206731796264648e+00,2.924375057220458984e+00,3.045780658721923828e+00,3.049418449401855469e+00,5.000000000000000000e+00,2.979805231094360352e+00,4.998191356658935547e+00,4.796929359436035156e+00,4.611248493194580078e+00,4.439406394958496094e+00,4.279911994934082031e+00,4.131480216979980469e+00,3.992998838424682617e+00,3.863500356674194336e+00,3.742137193679809570e+00,3.628166675567626953e+00,3.520933151245117188e+00,3.419856309890747070e+00,3.324420690536499023e+00,3.234167098999023438e+00,3.148684501647949219e+00,3.067604303359985352e+00,2.990595102310180664e+00,2.917357683181762695e+00,2.847621679306030273e+00,2.781141757965087891e+00,2.717694759368896484e+00,2.657078266143798828e+00,2.599106788635253906e+00,2.543610811233520508e+00,2.490435361862182617e+00
4.883306026458740234e+00,5.000000000000000000e+00,5.000000000000000000e+00,5.000000000000000000e+00,5.000000000000000000e+00,5.000000000000000000e+00,5.000000000000000000e+00,5.000000000000000000e+00,5.000000000000000000e+00,5.000000000000000000e+00,5.000000000000000000e+00,5.000000000000000000e+00,5.000000000000000000e+00,5.000000000000000000e+00,5.000000000000000000e+00,5.000000000000000000e+00,5.000000000000000000e+00,5.000000000000000000e+00,5.000000000000000000e+00,5.000000000000000000e+00,5.000000000000000000e+00,5.000000000000000000e+00,5.000000000000000000e+00,5.000000000000000000e+00,5.000000000000000000e+00,5.000000000000000000e+00,5.000000000000000000e+00,5.000000000000000000e+00,5.000000000000000000e+00,5.000000000000000000e+00,5.000000000000000000e+00,5.000000000000000000e+00,5.000000000000000000e+00,5.000000000000000000e+00,5.000000000000000000e+00,5.000000000000000000e+00,5.000000000000000000e+00,5.000000000000000000e+00,5.000000000000000000e+00,5.000000000000000000e+00,5.000000000000000000e+00,5.000000000000000000e+00,5.000000000000000000e+00,5.000000000000000000e+00,5.000000000000000000e+00,5.000000000000000000e+00,5.000000000000000000e+00,5.000000000000000000e+00,2.929325580596923828e+00,2.907302141189575195e+00,2.925543069839477539e+00,3.074020624160766602e+00,3.095469713211059570e+00,5.000000000000000000e+00,3.014803171157836914e+00,4.998400211334228516e+00,4.797121524810791016e+00,4.611426353454589844e+00,4.439571380615234375e+00,4.280065059661865234e+00,4.131622791290283203e+00,3.993132352828979492e+00,3.863625049591064453e+00,3.742254257202148438e+00,3.628276586532592773e+00,3.521036624908447266e+00,3.419953823089599609e+00,3.324513196945190430e+00,3.234254837036132812e+00,3.148767471313476562e+00,3.067683219909667969e+00,2.990669965744018555e+00,2.917428970336914062e+00,2.847689390182495117e+00,2.781206130981445312e+00,2.717756509780883789e+00,2.657137155532836914e+00,2.599163055419921875e+00,2.543665170669555664e+00,2.490487337112426758e+00
4.883154869079589844e+00,5.000000000000000000e+00,5.000000000000000000e+00,5.000000000000000000e+00,5.000000000000000000e+00,5.000000000000000000e+00,5.000000000000000000e+00,5.000000000000000000e+00,5.000000000000000000e+00,5.000000000000000000e+00,5.000000000000000000e+00,5.000000000000000000e+00,5.000000000000000000e+00,5.000000000000000000e+00,5.000000000000000000e+00,5.000000000000000000e+00,5.000000000000000000e+00,5.000000000000000000e+00,5.000000000000000000e+00,5.000000000000000000e+00,5.000000000000000000e+00,5.000000000000000000e+00,5.000000000000000000e+00,5.000000000000000000e+00,5.000000000000000000e+00,5.000000000000000000e+00,5.000000000000000000e+00,5.000000000000000000e+00,5.000000000000000000e+00,5.000000000000000000e+00,5.000000000000000000e+00,5.000000000000000000e+00,5.000000000000000000e+00,5.000000000000000000e+00,5.000000000000000000e+00,5.000000000000000000e+00,5.000000000000000000e+00,5.000000000000000000e+00,5.000000000000000000e+00,5.000000000000000000e+00,5.000000000000000000e+00,5.000000000000000000e+00,5.000000000000000000e+00,5.000000000000000000e+00,5.000000000000000000e+00,5.000000000000000000e+00,5.000000000000000000e+00,5.000000000000000000e+00,2.956369638442993164e+00,2.912322521209716797e+00,2.929329872131347656e+00,3.110977411270141602e+00,5.000000000000000000e+00,5.000000000000000000e+00,5.000000000000000000e+00,4.998609066009521484e+00,4.797314167022705078e+00,4.611604213714599609e+00,4.439735889434814453e+00,4.280218124389648438e+00,4.131765365600585938e+00,3.993266105651855469e+00,3.863749980926513672e+00,3.742371320724487305e+00,3.628386735916137695e+00,3.521140336990356445e+00,3.420051813125610352e+00,3.324605464935302734e+00,3.234342098236083984e+00,3.148850202560424805e+00,3.067761659622192383e+00,2.990744590759277344e+00,2.917500257492065430e+00,2.847757339477539062e+00,2.781270980834960938e+00,2.717818260192871094e+00,2.657196283340454102e+00,2.599219799041748047e+00,2.543719053268432617e+00,2.490539073944091797e+00
4.883003234863281250e+00,5.000000000000000000e+00,5.000000000000000000e+00,5.000000000000000000e+00,5.000000000000000000e+00,5.000000000000000000e+00,5.000000000000000000e+00,5.000000000000000000e+00,5.000000000000000000e+00,5.000000000000000000e+00,5.000000000000000000e+00,5.000000000000000000e+00,5.000000000000000000e+00,5.000000000000000000e+00,5.000000000000000000e+00,5.000000000000000000e+00,5.000000000000000000e+00,5.000000000000000000e+00,5.000000000000000000e+00,5.000000000000000000e+00,5.000000000000000000e+00,5.000000000000000000e+00,5.000000000000000000e+00,5.000000000000000000e+00,5.000000000000000000e+00,5.000000000000000000e+00,5.000000000000000000e+00,5.000000000000000000e+00,5.000000000000000000e+00,5.000000000000000000e+00,5.000000000000000000e+00,5.000000000000000000e+00,5.000000000000000000e+00,5.000000000000000000e+00,5.000000000000000000e+00,5.000000000000000000e+00,5.000000000000000000e+00,5.000000000000000000e+00,5.000000000000000000e+00,5.000000000000000000e+00,5.000000000000000000e+00,5.000000000000000000e+00,5.000000000000000000e+00,5.000000000000000000e+00,5.000000000000000000e+00,5.000000000000000000e+00,5.000000000000000000e+00,5.000000000000000000e+00,2.983073472976684570e+00,2.918158292770385742e+00,2.933922767639160156e+00,3.154780864715576172e+00,5.000000000000000000e+00,5.000000000000000000e+00,5.000000000000000000e+00,4.998817920684814453e+00,4.797506809234619141e+00,4.611781597137451172e+00,4.439900875091552734e+00,4.280371189117431641e+00,4.131908416748046875e+00,3.993399143218994141e+00,3.863874673843383789e+00,3.742488384246826172e+00,3.628496646881103516e+00,3.521243810653686523e+00,3.420149803161621094e+00,3.324697971343994141e+00,3.234429597854614258e+00,3.148933172225952148e+00,3.067840576171875000e+00,2.990819692611694336e+00,2.917571306228637695e+00,2.847824811935424805e+00,2.781335592269897461e+00,2.717880010604858398e+00,2.657255172729492188e+00,2.599276304244995117e+00,2.543773174285888672e+00,2.490591049194335938e+00
4.882852554321289062e+00,5.000000000000000000e+00,5.000000000000000000e+00,5.000000000000000000e+00,5.000000000000000000e+00,5.000000000000000000e+00,5.000000000000000000e+00,5.000000000000000000e+00,5.000000000000000000e+00,5.000000000000000000e+00,5.000000000000000000e+00,5.000000000000000000e+00,5.000000000000000000e+00,5.000000000000000000e+00,5.000000000000000000e+00,5.000000000000000000e+00,5.000000000000000000e+00,5.000000000000000000e+00,5.000000000000000000e+00,5.000000000000000000e+00,5.000000000000000000e+00,5.000000000000000000e+00,5.000000000000000000e+00,5.000000000000000000e+00,5.000000000000000000e+00,5.000000000000000000e+00,5.000000000000000000e+00,5.000000000000000000e+00,5.000000000000000000e+00,5.000000000000000000e+00,5.000000000000000000e+00,5.000000000000000000e+00,5.000000000000000000e+00,5.000000000000000000e+00,5.000000000000000000e+00,5.000000000000000000e+00,5.000000000000000000e+00,5.000000000000000000e+00,5.000000000000000000e+00,5.000000000000000000e+00,5.000000000000000000e+00,5.000000000000000000e+00,5.000000000000000000e+00,5.000000000000000000e+00,5.000000000000000000e+00,5.000000000000000000e+00,5.000000000000000000e+00,5.000000000000000000e+00,3.011046171188354492e+00,2.898172378540039062e+00,2.898902654647827148e+00,3.130406856536865234e+00,5.000000000000000000e+00,5.000000000000000000e+00,5.000000000000000000e+00,4.999027252197265625e+00,4.797698974609375000e+00,4.611959457397460938e+00,4.440065383911132812e+00,4.280524730682373047e+00,4.132051467895507812e+00,3.993532657623291016e+00,3.863999605178833008e+00,3.742605686187744141e+00,3.628607034683227539e+00,3.521347761154174805e+00,3.420247316360473633e+00,3.324790239334106445e+00,3.234516859054565430e+00,3.149015903472900391e+00,3.067919015884399414e+00,2.990894556045532227e+00,2.917642593383789062e+00,2.847892761230468750e+00,2.781400203704833984e+00,2.717941761016845703e+00,2.657314300537109375e+00,2.599332809448242188e+00,2.543827295303344727e+00,2.490642786026000977e+00
4.882721424102783203e+00,5.000000000000000000e+00,5.000000000000000000e+00,5.000000000000000000e+00,5.000000000000000000e+00,5.000000000000000000e+00,5.000000000000000000e+00,5.000000000000000000e+00,5.000000000000000000e+00,5.000000000000000000e+00,5.000000000000000000e+00,5.000000000000000000e+00,5.000000000000000000e+00,5.000000000000000000e+00,5.000000000000000000e+00,5.000000000000000000e+00,5.000000000000000000e+00,5.000000000000000000e+00,5.000000000000000000e+00,5.000000000000000000e+00,5.000000000000000000e+00,5.000000000000000000e+00,5.000000000000000000e+00,5.000000000000000000e+00,5.000000000000000000e+00,5.000000000000000000e+00,5.000000000000000000e+00,5.000000000000000000e+00,5.000000000000000000e+00,5.000000000000000000e+00,5.000000000000000000e+00,5.000000000000000000e+00,5.000000000000000000e+00,5.000000000000000000e+00,5.000000000000000000e+00,5.000000000000000000e+00,5.000000000000000000e+00,5.000000000000000000e+00,5.000000000000000000e+00,5.000000000000000000e+00,5.000000000000000000e+00,5.000000000000000000e+00,5.000000000000000000e+00,5.000000000000000000e+00,5.000000000000000000e+00,5.000000000000000000e+00,5.000000000000000000e+00,5.000000000000000000e+00,5.000000000000000000e+00,2.867556095123291016e+00,2.850223302841186523e+00,3.107682943344116211e+00,5.000000000000000000e+00,5.000000000000000000e+00,5.000000000000000000e+00,4.999236106872558594e+00,4.797891616821289062e+00,4.612137317657470703e+00,4.440230369567871094e+00,4.280677795410156250e+00,4.132194042205810547e+00,3.993665695190429688e+00,3.864124298095703125e+00,3.742722511291503906e+00,3.628716945648193359e+00,3.521451473236083984e+00,3.420345306396484375e+00,3.324882984161376953e+00,3.234604597091674805e+00,3.149099111557006836e+00,3.067997932434082031e+00,2.990969181060791016e+00,2.917713642120361328e+00,2.847960472106933594e+00,2.781464815139770508e+00,2.718003511428833008e+00,2.657373428344726562e+00,2.599389314651489258e+00,2.543881416320800781e+00,2.490694761276245117e+00
4.882596015930175781e+00,5.000000000000000000e+00,5.000000000000000000e+00,5.000000000000000000e+00,5.000000000000000000e+00,5.000000000000000000e+00,5.000000000000000000e+00,5.000000000000000000e+00,5.000000000000000000e+00,5.000000000000000000e+00,5.000000000000000000e+00,5.000000000000000000e+00,5.000000000000000000e+00,5.000000000000000000e+00,5.000000000000000000e+00,5.000000000000000000e+00,5.000000000000000000e+00,5.000000000000000000e+00,5.000000000000000000e+00,5.000000000000000000e+00,5.000000000000000000e+00,5.000000000000000000e+00,5.000000000000000000e+00,5.000000000000000000e+00,5.000000000000000000e+00,5.000000000000000000e+00,5.000000000000000000e+00,5.000000000000000000e+00,5.000000000000000000e+00,5.000000000000000000e+00,5.000000000000000000e+00,5.000000000000000000e+00,5.000000000000000000e+00,5.000000000000000000e+00,5.000000000000000000e+00,5.000000000000000000e+00,5.000000000000000000e+00,5.000000000000000000e+00,5.000000000000000000e+00,5.000000000000000000e+00,5.000000000000000000e+00,5.000000000000000000e+00,5.000000000000000000e+00,5.000000000000000000e+00,5.000000000000000000e+00,5.000000000000000000e+00,5.000000000000000000e+00,5.000000000000000000e+00,5.000000000000000000e+00,2.859331846237182617e+00,2.831464052200317383e+00,3.096480131149291992e+00,5.000000000000000000e+00,5.000000000000000000e+00,5.000000000000000000e+00,4.999445438385009766e+00,4.798084259033203125e+00,4.612315177917480469e+00,4.440395355224609375e+00,4.280830860137939453e+00,4.132336616516113281e+00,3.993799209594726562e+00,3.864249229431152344e+00,3.742839813232421875e+00,3.628827095031738281e+00,3.521554946899414062e+00,3.420442819595336914e+00,3.324975013732910156e+00,3.234691858291625977e+00,3.149181842803955078e+00,3.068076610565185547e+00,2.991044044494628906e+00,2.917784929275512695e+00,2.848028421401977539e+00,2.781529664993286133e+00,2.718065261840820312e+00,2.657432317733764648e+00,2.599445581436157227e+00,2.543935537338256836e+00,2.490746498107910156e+00
4.882470607757568359e+00,5.000000000000000000e+00,5.000000000000000000e+00,5.000000000000000000e+00,5.000000000000000000e+00,5.000000000000000000e+00,5.000000000000000000e+00,5.000000000000000000e+00,5.000000000000000000e+00,5.000000000000000000e+00,5.000000000000000000e+00,5.000000000000000000e+00,5.000000000000000000e+00,5.000000000000000000e+00,5.000000000000000000e+00,5.000000000000000000e+00,5.000000000000000000e+00,5.000000000000000000e+00,5.000000000000000000e+00,5.000000000000000000e+00,5.000000000000000000e+00,5.000000000000000000e+00,5.000000000000000000e+00,5.000000000000000000e+00,5.000000000000000000e+00,5.000000000000000000e+00,5.000000000000000000e+00,5.000000000000000000e+00,5.000000000000000000e+00,5.000000000000000000e+00,5.000000000000000000e+00,5.000000000000000000e+00,5.000000000000000000e+00,5.000000000000000000e+00,5.000000000000000000e+00,5.000000000000000000e+00,5.000000000000000000e+00,5.000000000000000000e+00,5.000000000000000000e+00,5.000000000000000000e+00,5.000000000000000000e+00,5.000000000000000000e+00,5.000000000000000000e+00,5.000000000000000000e+00,5.000000000000000000e+00,5.000000000000000000e+00,5.000000000000000000e+00,5.000000000000000000e+00,5.000000000000000000e+00,2.858951091766357422e+00,2.817768812179565430e+00,2.838125705718994141e+00,5.000000000000000000e+00,5.000000000000000000e+00,5.000000000000000000e+00,4.999654293060302734e+00,4.798276424407958984e+00,4.612493038177490234e+00,4.440559864044189453e+00,4.280984401702880859e+00,4.132479667663574219e+00,3.993932485580444336e+00,3.864373922348022461e+00,3.742956638336181641e+00,3.628937482833862305e+00,3.521658897399902344e+00,3.420540809631347656e+00,3.325067758560180664e+00,3.234779596328735352e+00,3.149264812469482422e+00,3.068155288696289062e+00,2.991118669509887695e+00,2.917855978012084961e+00,2.848096132278442383e+00,2.781594276428222656e+00,2.718127250671386719e+00,2.657491445541381836e+00,2.599502325057983398e+00,2.543989658355712891e+00,2.490798473358154297e+00
4.882345199584960938e+00,5.000000000000000000e+00,5.000000000000000000e+00,5.000000000000000000e+00,5.000000000000000000e+00,5.000000000000000000e+00,5.000000000000000000e+00,5.000000000000000000e+00,5.000000000000000000e+00,5.000000000000000000e+00,5.000000000000000000e+00,5.000000000000000000e+00,5.000000000000000000e+00,5.000000000000000000e+00,5.000000000000000000e+00,5.000000000000000000e+00,5.000000000000000000e+00,5.000000000000000000e+00,5.000000000000000000e+00,5.000000000000000000e+00,5.000000000000000000e+00,5.000000000000000000e+00,5.000000000000000000e+00,5.000000000000000000e+00,5.000000000000000000e+00,5.000000000000000000e+00,5.000000000000000000e+00,5.000000000000000000e+00,5.000000000000000000e+00,5.000000000000000000e+00,5.000000000000000000e+00,5.000000000000000000e+00,5.000000000000000000e+00,5.000000000000000000e+00,5.000000000000000000e+00,5.000000000000000000e+00,5.000000000000000000e+00,5.000000000000000000e+00,5.000000000000000000e+00,5.000000000000000000e+00,5.000000000000000000e+00,5.000000000000000000e+00,5.000000000000000000e+00,5.000000000000000000e+00,5.000000000000000000e+00,5.000000000000000000e+00,5.000000000000000000e+00,5.000000000000000000e+00,5.000000000000000000e+00,5.000000000000000000e+00,2.804239511489868164e+00,2.811919450759887695e+00,5.000000000000000000e+00,5.000000000000000000e+00,5.000000000000000000e+00,4.999863147735595703e+00,4.798469066619873047e+00,4.612670898437500000e+00,4.440724849700927734e+00,4.281137466430664062e+00,4.132622241973876953e+00,3.994065999984741211e+00,3.864498853683471680e+00,3.743073940277099609e+00,3.629047393798828125e+00,3.521762371063232422e+00,3.420638561248779297e+00,3.325160026550292969e+00,3.234866857528686523e+00,3.149348020553588867e+00,3.068233966827392578e+00,2.991193532943725586e+00,2.917927265167236328e+00,2.848164081573486328e+00,2.781659126281738281e+00,2.718188762664794922e+00,2.657550573348999023e+00,2.599558591842651367e+00,2.544043540954589844e+00,2.490850210189819336e+00
4.882219791412353516e+00,5.000000000000000000e+00,5.000000000000000000e+00,5.000000000000000000e+00,5.000000000000000000e+00,5.000000000000000000e+00,5.000000000000000000e+00,5.000000000000000000e+00,5.000000000000000000e+00,5.000000000000000000e+00,5.000000000000000000e+00,5.000000000000000000e+00,5.000000000000000000e+00,5.000000000000000000e+00,5.000000000000000000e+00,5.000000000000000000e+00,5.000000000000000000e+00,5.000000000000000000e+00,5.000000000000000000e+00,5.000000000000000000e+00,5.000000000000000000e+00,5.000000000000000000e+00,5.000000000000000000e+00,5.000000000000000000e+00,5.000000000000000000e+00,5.000000000000000000e+00,5.000000000000000000e+00,5.000000000000000000e+00,5.000000000000000000e+00,5.000000000000000000e+00,5.000000000000000000e+00,5.000000000000000000e+00,5.000000000000000000e+00,5.000000000000000000e+00,5.000000000000000000e+00,5.000000000000000000e+00,5.000000000000000000e+00,5.000000000000000000e+00,5.000000000000000000e+00,5.000000000000000000e+00,5.000000000000000000e+00,5.000000000000000000e+00,5.000000000000000000e+00,5.000000000000000000e+00,5.000000000000000000e+00,5.000000000000000000e+00,5.000000000000000000e+00,5.000000000000000000e+00,5.000000000000000000e+00,5.000000000000000000e+00,2.793317556381225586e+00,2.784514188766479492e+00,5.000000000000000000e+00,5.000000000000000000e+00,5.000000000000000000e+00,5.000000000000000000e+00,4.798661231994628906e+00,4.612848758697509766e+00,4.440889835357666016e+00,4.281291007995605469e+00,4.132764816284179688e+00,3.994199037551879883e+00,3.864623546600341797e+00,3.743191003799438477e+00,3.629157543182373047e+00,3.521866321563720703e+00,3.420736551284790039e+00,3.325252532958984375e+00,3.234954357147216797e+00,3.149430751800537109e+00,3.068312644958496094e+00,2.991268396377563477e+00,2.917998313903808594e+00,2.848231792449951172e+00,2.781723737716674805e+00,2.718250751495361328e+00,2.657609701156616211e+00,2.599615335464477539e+00,2.544097900390625000e+00,2.490902185440063477e+00
4.882172584533691406e+00,5.000000000000000000e+00,5.000000000000000000e+00,5.000000000000000000e+00,5.000000000000000000e+00,5.000000000000000000e+00,5.000000000000000000e+00,5.000000000000000000e+00,5.000000000000000000e+00,5.000000000000000000e+00,5.000000000000000000e+00,5.000000000000000000e+00,5.000000000000000000e+00,5.000000000000000000e+00,5.000000000000000000e+00,5.000000000000000000e+00,5.000000000000000000e+00,5.000000000000000000e+00,5.000000000000000000e+00,5.000000000000000000e+00,5.000000000000000000e+00,5.000000000000000000e+00,5.000000000000000000e+00,5.000000000000000000e+00,5.000000000000000000e+00,5.000000000000000000e+00,5.000000000000000000e+00,5.000000000000000000e+00,5.000000000000000000e+00,5.000000000000000000e+00,5.000000000000000000e+00,5.000000000000000000e+00,5.000000000000000000e+00,5.000000000000000000e+00,5.000000000000000000e+00,5.000000000000000000e+00,5.000000000000000000e+00,5.000000000000000000e+00,5.000000000000000000e+00,5.000000000000000000e+00,5.000000000000000000e+00,5.000000000000000000e+00,5.000000000000000000e+00,5.000000000000000000e+00,5.000000000000000000e+00,5.000000000000000000e+00,5.000000000000000000e+00,5.000000000000000000e+00,5.000000000000000000e+00,5.000000000000000000e+00,2.795673608779907227e+00,2.769949436187744141e+00,5.000000000000000000e+00,5.000000000000000000e+00,5.000000000000000000e+00,5.000000000000000000e+00,4.798853874206542969e+00,4.613026618957519531e+00,4.441054821014404297e+00,4.281444072723388672e+00,4.132907867431640625e+00,3.994332790374755859e+00,3.864748716354370117e+00,3.743308305740356445e+00,3.629267454147338867e+00,3.521969795227050781e+00,3.420834064483642578e+00,3.325344800949096680e+00,3.235042095184326172e+00,3.149513721466064453e+00,3.068391561508178711e+00,2.991343259811401367e+00,2.918069601058959961e+00,2.848299741744995117e+00,2.781788349151611328e+00,2.718312501907348633e+00,2.657668590545654297e+00,2.599671602249145508e+00,2.544151782989501953e+00,2.490954160690307617e+00
4.873217582702636719e+00,4.872005939483642578e+00,4.870794296264648438e+00,4.869583606719970703e+00,4.868373870849609375e+00,4.867164611816406250e+00,4.865955829620361328e+00,4.864747524261474609e+00,4.863539695739746094e+00,4.862332820892333984e+00,4.861126422882080078e+00,4.859920978546142578e+00,4.858715534210205078e+00,4.857511043548583984e+00,4.856307029724121094e+00,4.855103492736816406e+00,4.853900909423828125e+00,4.852698802947998047e+00,4.851497173309326172e+00,4.850296020507812500e+00,4.849095821380615234e+00,4.847896099090576172e+00,4.846696853637695312e+00,4.845498085021972656e+00,4.844299793243408203e+00,4.843102455139160156e+00,4.841905593872070312e+00,4.840709686279296875e+00,4.839513778686523438e+00,4.838318347930908203e+00,4.837123870849609375e+00,4.835930347442626953e+00,4.834736824035644531e+00,4.833544254302978516e+00,4.832351684570312500e+00,4.831160068511962891e+00,4.829969406127929688e+00,4.828779220581054688e+00,4.827589511871337891e+00,4.826400279998779297e+00,4.825211048126220703e+00,4.824023246765136719e+00,4.822835922241210938e+00,4.821649074554443359e+00,4.820462703704833984e+00,4.819277286529541016e+00,4.818091869354248047e+00,4.816907405853271484e+00,4.815723419189453125e+00,4.814540386199951172e+00,3.118307828903198242e+00,2.763008356094360352e+00,4.810993194580078125e+00,4.809812545776367188e+00,4.808631896972656250e+00,4.807452201843261719e+00,4.799046516418457031e+00,4.613204956054687500e+00,4.441219806671142578e+00,4.281597137451171875e+00,4.133050441741943359e+00,3.994465827941894531e+00,3.864873409271240234e+00,3.743425607681274414e+00,3.629377841949462891e+00,3.522073745727539062e+00,3.420932054519653320e+00,3.325437307357788086e+00,3.235129356384277344e+00,3.149596452713012695e+00,3.068470001220703125e+00,2.991417884826660156e+00,2.918140649795532227e+00,2.848367691040039062e+00,2.781853199005126953e+00,2.718374252319335938e+00,2.657727718353271484e+00,2.599728107452392578e+00,2.544206142425537109e+00,2.491005897521972656e+00
3.777072191238403320e+00,3.776343822479248047e+00,3.775616407394409180e+00,3.774888753890991211e+00,3.774161577224731445e+00,3.773434877395629883e+00,3.772707939147949219e+00,3.771981954574584961e+00,3.771255731582641602e+00,3.770530223846435547e+00,3.769804716110229492e+00,3.769079208374023438e+00,3.768354654312133789e+00,3.767629861831665039e+00,3.766905546188354492e+00,3.766181468963623047e+00,3.765457391738891602e+00,3.764734268188476562e+00,3.764010667800903320e+00,3.763288021087646484e+00,3.762565135955810547e+00,3.761842489242553711e+00,3.761120557785034180e+00,3.760398626327514648e+00,3.759677410125732422e+00,3.758955717086791992e+00,3.758234500885009766e+00,3.757513999938964844e+00,3.756793498992919922e+00,3.756073474884033203e+00,3.755353450775146484e+00,3.754633903503417969e+00,3.753914356231689453e+00,3.753195047378540039e+00,3.752476692199707031e+00,3.751757860183715820e+00,3.751039743423461914e+00,3.750321626663208008e+00,3.749603748321533203e+00,3.748886585235595703e+00,3.748169183731079102e+00,3.747452497482299805e+00,3.746735811233520508e+00,3.746019124984741211e+00,3.745303392410278320e+00,3.744587421417236328e+00,3.743872165679931641e+00,3.743156671524047852e+00,3.742441654205322266e+00,3.741727113723754883e+00,3.201646327972412109e+00,2.749084234237670898e+00,3.739584445953369141e+00,3.738871097564697266e+00,3.738157749176025391e+00,3.737444400787353516e+00,3.736731767654418945e+00,3.736019134521484375e+00,3.735307216644287109e+00,3.734595060348510742e+00,3.733883142471313477e+00,3.733171939849853516e+00,3.732460498809814453e+00,3.731750011444091797e+00,3.629487752914428711e+00,3.522177219390869141e+00,3.421029806137084961e+00,3.325530052185058594e+00,3.235217094421386719e+00,3.149679660797119141e+00,3.068548917770385742e+00,2.991492748260498047e+00,2.918211936950683594e+00,2.848435401916503906e+00,2.781917810440063477e+00,2.718436002731323242e+00,2.657786607742309570e+00,2.599784612655639648e+00,2.544260263442993164e+00,2.491057872772216797e+00
3.083493947982788086e+00,3.083008527755737305e+00,3.082523345947265625e+00,3.082038640975952148e+00,3.081553936004638672e+00,3.081069469451904297e+00,3.080584764480590820e+00,3.080100536346435547e+00,3.079616546630859375e+00,3.079132318496704102e+00,3.078648805618286133e+00,3.078164815902709961e+00,3.077681303024291992e+00,3.077198028564453125e+00,3.076714754104614258e+00,3.076231718063354492e+00,3.075748682022094727e+00,3.075266122817993164e+00,3.074783563613891602e+00,3.074300765991210938e+00,3.073818683624267578e+00,3.073336362838745117e+00,3.072854518890380859e+00,3.072372674942016602e+00,3.071890830993652344e+00,3.071409463882446289e+00,3.070927858352661133e+00,3.070446729660034180e+00,3.069965600967407227e+00,3.069484472274780273e+00,3.069003820419311523e+00,3.068523168563842773e+00,3.068042755126953125e+00,3.067562341690063477e+00,3.067081928253173828e+00,3.066601991653442383e+00,3.066122055053710938e+00,3.065642595291137695e+00,3.065162897109985352e+00,3.064683675765991211e+00,3.064204216003417969e+00,3.063724994659423828e+00,3.063246011734008789e+00,3.062767028808593750e+00,3.062288522720336914e+00,3.061810016632080078e+00,3.061331272125244141e+00,3.060853242874145508e+00,3.060374975204467773e+00,3.059897184371948242e+00,2.848270654678344727e+00,2.885218620300292969e+00,3.058464288711547852e+00,3.057986736297607422e+00,3.057509660720825195e+00,3.057032585144042969e+00,3.056555509567260742e+00,3.056078910827636719e+00,3.055602073669433594e+00,3.055125951766967773e+00,3.054649353027343750e+00,3.054173469543457031e+00,3.053697347640991211e+00,3.053221225738525391e+00,3.052745819091796875e+00,3.052269935607910156e+00,3.051794767379760742e+00,3.051319360733032227e+00,3.050844192504882812e+00,3.050369262695312500e+00,3.049894332885742188e+00,2.991567611694335938e+00,2.918283224105834961e+00,2.848503351211547852e+00,2.781982660293579102e+00,2.718497753143310547e+00,2.657845735549926758e+00,2.599841117858886719e+00,2.544314384460449219e+00,2.491109609603881836e+00
2.605119466781616211e+00,2.604773044586181641e+00,2.604426860809326172e+00,2.604080677032470703e+00,2.603734731674194336e+00,2.603388547897338867e+00,2.603042840957641602e+00,2.602696895599365234e+00,2.602351427078247070e+00,2.602005720138549805e+00,2.601660013198852539e+00,2.601314783096313477e+00,2.600969314575195312e+00,2.600624322891235352e+00,2.600279092788696289e+00,2.599933862686157227e+00,2.599589109420776367e+00,2.599244117736816406e+00,2.598899364471435547e+00,2.598554611206054688e+00,2.598210096359252930e+00,2.597865581512451172e+00,2.597521066665649414e+00,2.597176790237426758e+00,2.596832513809204102e+00,2.596488475799560547e+00,2.596144437789916992e+00,2.595800399780273438e+00,2.595456600189208984e+00,2.595112800598144531e+00,2.594769239425659180e+00,2.594425439834594727e+00,2.594081878662109375e+00,2.593738555908203125e+00,2.593395233154296875e+00,2.593052148818969727e+00,2.592708826065063477e+00,2.592365741729736328e+00,2.592022895812988281e+00,2.591680049896240234e+00,2.591337442398071289e+00,2.590994596481323242e+00,2.590651988983154297e+00,2.590309619903564453e+00,2.589967012405395508e+00,2.589624881744384766e+00,2.589282512664794922e+00,2.588940382003784180e+00,2.588598251342773438e+00,2.588256359100341797e+00,2.587914466857910156e+00,2.587572813034057617e+00,2.587231159210205078e+00,2.586889505386352539e+00,2.586547851562500000e+00,2.586206674575805664e+00,2.585865259170532227e+00,2.585524082183837891e+00,2.585182905197143555e+00,2.584841728210449219e+00,2.584500789642333984e+00,2.584159851074218750e+00,2.583819150924682617e+00,2.583478450775146484e+00,2.583137989044189453e+00,2.582797288894653320e+00,2.582456827163696289e+00,2.582116603851318359e+00,2.581776380538940430e+00,2.581436157226562500e+00,2.581096172332763672e+00,2.580755949020385742e+00,2.580416202545166016e+00,2.580076456069946289e+00,2.579736709594726562e+00,2.579396963119506836e+00,2.579057455062866211e+00,2.578718185424804688e+00,2.544368505477905273e+00,2.491161584854125977e+00
2.255240440368652344e+00,2.254981040954589844e+00,2.254721641540527344e+00,2.254462003707885742e+00,2.254202842712402344e+00,2.253943443298339844e+00,2.253684282302856445e+00,2.253424882888793945e+00,2.253165721893310547e+00,2.252906799316406250e+00,2.252647638320922852e+00,2.252388715744018555e+00,2.252129793167114258e+00,2.251870870590209961e+00,2.251612186431884766e+00,2.251353502273559570e+00,2.251094818115234375e+00,2.250836133956909180e+00,2.250577688217163086e+00,2.250319242477416992e+00,2.250060796737670898e+00,2.249802350997924805e+00,2.249544143676757812e+00,2.249285936355590820e+00,2.249027729034423828e+00,2.248769521713256836e+00,2.248511552810668945e+00,2.248253345489501953e+00,2.247995615005493164e+00,2.247737646102905273e+00,2.247479677200317383e+00,2.247221946716308594e+00,2.246964216232299805e+00,2.246706724166870117e+00,2.246448993682861328e+00,2.246191263198852539e+00,2.245934009552001953e+00,2.245676517486572266e+00,2.245419263839721680e+00,2.245161771774291992e+00,2.244904518127441406e+00,2.244647502899169922e+00,2.244390249252319336e+00,2.244133234024047852e+00,2.243876218795776367e+00,2.243619203567504883e+00,2.243362426757812500e+00,2.243105411529541016e+00,2.242848634719848633e+00,2.242592096328735352e+00,2.242335319519042969e+00,2.242078781127929688e+00,2.241822242736816406e+00,2.241565704345703125e+00,2.241309165954589844e+00,2.241053104400634766e+00,2.240796566009521484e+00,2.240540266036987305e+00,2.240284204483032227e+00,2.240027904510498047e+00,2.239772081375122070e+00,2.239516019821166992e+00,2.239259958267211914e+00,2.239004135131835938e+00,2.238748311996459961e+00,2.238492488861083984e+00,2.238236665725708008e+00,2.237981081008911133e+00,2.237725496292114258e+00,2.237469911575317383e+00,2.237214565277099609e+00,2.236958980560302734e+00,2.236703872680664062e+00,2.236448287963867188e+00,2.236193180084228516e+00,2.235938072204589844e+00,2.235682725906372070e+00,2.235427618026733398e+00,2.235172748565673828e+00,2.234917640686035156e+00
1.988214731216430664e+00,1.988013029098510742e+00,1.987811446189880371e+00,1.987609624862670898e+00,1.987408041954040527e+00,1.987206578254699707e+00,1.987004876136779785e+00,1.986803412437438965e+00,1.986602067947387695e+00,1.986400723457336426e+00,1.986199140548706055e+00,1.985997915267944336e+00,1.985796689987182617e+00,1.985595345497131348e+00,1.985394239425659180e+00,1.985193133354187012e+00,1.984991788864135742e+00,1.984790802001953125e+00,1.984589815139770508e+00,1.984388828277587891e+00,1.984187722206115723e+00,1.983986854553222656e+00,1.983786106109619141e+00,1.983585119247436523e+00,1.983384370803833008e+00,1.983183622360229492e+00,1.982982754707336426e+00,1.982782125473022461e+00,1.982581615447998047e+00,1.982381105422973633e+00,1.982180356979370117e+00,1.981979966163635254e+00,1.981779575347900391e+00,1.981578946113586426e+00,1.981378555297851562e+00,1.981178283691406250e+00,1.980978131294250488e+00,1.980777621269226074e+00,1.980577468872070312e+00,1.980377316474914551e+00,1.980177044868469238e+00,1.979977011680603027e+00,1.979776978492736816e+00,1.979576826095581055e+00,1.979376912117004395e+00,1.979176998138427734e+00,1.978977203369140625e+00,1.978777170181274414e+00,1.978577375411987305e+00,1.978377699851989746e+00,1.978177666664123535e+00,1.977978110313415527e+00,1.977778434753417969e+00,1.977578878402709961e+00,1.977379202842712402e+00,1.977179646492004395e+00,1.976980209350585938e+00,1.976780652999877930e+00,1.976581215858459473e+00,1.976381897926330566e+00,1.976182460784912109e+00,1.975983262062072754e+00,1.975784063339233398e+00,1.975584864616394043e+00,1.975385546684265137e+00,1.975186467170715332e+00,1.974987387657165527e+00,1.974788188934326172e+00,1.974589228630065918e+00,1.974390268325805664e+00,1.974191188812255859e+00,1.973992347717285156e+00,1.973793506622314453e+00,1.973594784736633301e+00,1.973395824432373047e+00,1.973197221755981445e+00,1.972998499870300293e+00,1.972799777984619141e+00,1.972601175308227539e+00,1.972402691841125488e+00
1.777727603912353516e+00,1.777566194534301758e+00,1.777405023574829102e+00,1.777243852615356445e+00,1.777082562446594238e+00,1.776921391487121582e+00,1.776760339736938477e+00,1.776599168777465820e+00,1.776438117027282715e+00,1.776277065277099609e+00,1.776116132736206055e+00,1.775954961776733398e+00,1.775794148445129395e+00,1.775633215904235840e+00,1.775472164154052734e+00,1.775311350822448730e+00,1.775150537490844727e+00,1.774989843368530273e+00,1.774828910827636719e+00,1.774668216705322266e+00,1.774507522583007812e+00,1.774346709251403809e+00,1.774186015129089355e+00,1.774025440216064453e+00,1.773864746093750000e+00,1.773704171180725098e+00,1.773543715476989746e+00,1.773383259773254395e+00,1.773222565650939941e+00,1.773062229156494141e+00,1.772901773452758789e+00,1.772741198539733887e+00,1.772580981254577637e+00,1.772420644760131836e+00,1.772260189056396484e+00,1.772099971771240234e+00,1.771939754486083984e+00,1.771779537200927734e+00,1.771619200706481934e+00,1.771459102630615234e+00,1.771299004554748535e+00,1.771138668060302734e+00,1.770978689193725586e+00,1.770818710327148438e+00,1.770658731460571289e+00,1.770498514175415039e+00,1.770338654518127441e+00,1.770178675651550293e+00,1.770018696784973145e+00,1.769858837127685547e+00,1.769698977470397949e+00,1.769539117813110352e+00,1.769379258155822754e+00,1.769219636917114258e+00,1.769059896469116211e+00,1.768900036811828613e+00,1.768740415573120117e+00,1.768580794334411621e+00,1.768421053886413574e+00,1.768261551856994629e+00,1.768101930618286133e+00,1.767942547798156738e+00,1.767782807350158691e+00,1.767623424530029297e+00,1.767464041709899902e+00,1.767304420471191406e+00,1.767145156860351562e+00,1.766985774040222168e+00,1.766826272010803223e+00,1.766667008399963379e+00,1.766507863998413086e+00,1.766348600387573242e+00,1.766189217567443848e+00,1.766030073165893555e+00,1.765871047973632812e+00,1.765711784362792969e+00,1.765552639961242676e+00,1.765393733978271484e+00,1.765234708786010742e+00,1.765075564384460449e+00
1.607541322708129883e+00,1.607409477233886719e+00,1.607277512550354004e+00,1.607145786285400391e+00,1.607013940811157227e+00,1.606882095336914062e+00,1.606750369071960449e+00,1.606618642807006836e+00,1.606486916542053223e+00,1.606355071067810059e+00,1.606223464012145996e+00,1.606091856956481934e+00,1.605960130691528320e+00,1.605828523635864258e+00,1.605696916580200195e+00,1.605565309524536133e+00,1.605433702468872070e+00,1.605302214622497559e+00,1.605170845985412598e+00,1.605039238929748535e+00,1.604907751083374023e+00,1.604776382446289062e+00,1.604644775390625000e+00,1.604513406753540039e+00,1.604382157325744629e+00,1.604250788688659668e+00,1.604119300842285156e+00,1.603988051414489746e+00,1.603856801986694336e+00,1.603725433349609375e+00,1.603594183921813965e+00,1.603463053703308105e+00,1.603331685066223145e+00,1.603200554847717285e+00,1.603069424629211426e+00,1.602938294410705566e+00,1.602807044982910156e+00,1.602676033973693848e+00,1.602544903755187988e+00,1.602413773536682129e+00,1.602282762527465820e+00,1.602151751518249512e+00,1.602020859718322754e+00,1.601889729499816895e+00,1.601758837699890137e+00,1.601627945899963379e+00,1.601496934890747070e+00,1.601366043090820312e+00,1.601235270500183105e+00,1.601104259490966797e+00,1.600973486900329590e+00,1.600842714309692383e+00,1.600712060928344727e+00,1.600581169128417969e+00,1.600450515747070312e+00,1.600319743156433105e+00,1.600188970565795898e+00,1.600058317184448242e+00,1.599927663803100586e+00,1.599796891212463379e+00,1.599666357040405273e+00,1.599535822868347168e+00,1.599405288696289062e+00,1.599274635314941406e+00,1.599144101142883301e+00,1.599013686180114746e+00,1.598883032798767090e+00,1.598752617835998535e+00,1.598622322082519531e+00,1.598491907119750977e+00,1.598361372947692871e+00,1.598231077194213867e+00,1.598100781440734863e+00,1.597970247268676758e+00,1.597839951515197754e+00,1.597709774971008301e+00,1.597579360008239746e+00,1.597449183464050293e+00,1.597319006919860840e+00,1.597188830375671387e+00
1.467092871665954590e+00,1.466983079910278320e+00,1.466873288154602051e+00,1.466763377189636230e+00,1.466653585433959961e+00,1.466543912887573242e+00,1.466434121131896973e+00,1.466324329376220703e+00,1.466214537620544434e+00,1.466104865074157715e+00,1.465995073318481445e+00,1.465885519981384277e+00,1.465775847434997559e+00,1.465666055679321289e+00,1.465556502342224121e+00,1.465446949005126953e+00,1.465337395668029785e+00,1.465227723121643066e+00,1.465118169784545898e+00,1.465008616447448730e+00,1.464899063110351562e+00,1.464789509773254395e+00,1.464680075645446777e+00,1.464570641517639160e+00,1.464461088180541992e+00,1.464351654052734375e+00,1.464242219924926758e+00,1.464132785797119141e+00,1.464023351669311523e+00,1.463914036750793457e+00,1.463804602622985840e+00,1.463695287704467773e+00,1.463585972785949707e+00,1.463476657867431641e+00,1.463367223739624023e+00,1.463258028030395508e+00,1.463148713111877441e+00,1.463039398193359375e+00,1.462930202484130859e+00,1.462821006774902344e+00,1.462711691856384277e+00,1.462602615356445312e+00,1.462493419647216797e+00,1.462384343147277832e+00,1.462275147438049316e+00,1.462166070938110352e+00,1.462056994438171387e+00,1.461947798728942871e+00,1.461838722229003906e+00,1.461729764938354492e+00,1.461620688438415527e+00,1.461511611938476562e+00,1.461402654647827148e+00,1.461293697357177734e+00,1.461184620857238770e+00,1.461075663566589355e+00,1.460966706275939941e+00,1.460857748985290527e+00,1.460748910903930664e+00,1.460639953613281250e+00,1.460531115531921387e+00,1.460422158241271973e+00,1.460313439369201660e+00,1.460204601287841797e+00,1.460095643997192383e+00,1.459986925125122070e+00,1.459878206253051758e+00,1.459769487380981445e+00,1.459660649299621582e+00,1.459551930427551270e+00,1.459443211555480957e+00,1.459334373474121094e+00,1.459225773811340332e+00,1.459117174148559570e+00,1.459008336067199707e+00,1.458899736404418945e+00,1.458791255950927734e+00,1.458682656288146973e+00,1.458573937416076660e+00,1.458465456962585449e+00
1.349214076995849609e+00,1.349121093750000000e+00,1.349028229713439941e+00,1.348935484886169434e+00,1.348842501640319824e+00,1.348749637603759766e+00,1.348656892776489258e+00,1.348564028739929199e+00,1.348471164703369141e+00,1.348378419876098633e+00,1.348285675048828125e+00,1.348192811012268066e+00,1.348100066184997559e+00,1.348007321357727051e+00,1.347914695739746094e+00,1.347821831703186035e+00,1.347729206085205078e+00,1.347636461257934570e+00,1.347543716430664062e+00,1.347451090812683105e+00,1.347358465194702148e+00,1.347265720367431641e+00,1.347173213958740234e+00,1.347080588340759277e+00,1.346987962722778320e+00,1.346895337104797363e+00,1.346802830696105957e+00,1.346710205078125000e+00,1.346617579460144043e+00,1.346525073051452637e+00,1.346432566642761230e+00,1.346340060234069824e+00,1.346247553825378418e+00,1.346155047416687012e+00,1.346062541007995605e+00,1.345970034599304199e+00,1.345877647399902344e+00,1.345785260200500488e+00,1.345692753791809082e+00,1.345600366592407227e+00,1.345507979393005371e+00,1.345415592193603516e+00,1.345323085784912109e+00,1.345230817794799805e+00,1.345138430595397949e+00,1.345046043395996094e+00,1.344953775405883789e+00,1.344861507415771484e+00,1.344769120216369629e+00,1.344676852226257324e+00,1.344584584236145020e+00,1.344492316246032715e+00,1.344399929046630859e+00,1.344307780265808105e+00,1.344215631484985352e+00,1.344123244285583496e+00,1.344031095504760742e+00,1.343938946723937988e+00,1.343846797943115234e+00,1.343754529953002930e+00,1.343662381172180176e+00,1.343570351600646973e+00,1.343478083610534668e+00,1.343386054039001465e+00,1.343293905258178711e+00,1.343201756477355957e+00,1.343109726905822754e+00,1.343017697334289551e+00,1.342925667762756348e+00,1.342833518981933594e+00,1.342741608619689941e+00,1.342649579048156738e+00,1.342557549476623535e+00,1.342465519905090332e+00,1.342373609542846680e+00,1.342281699180603027e+00,1.342189669609069824e+00,1.342097759246826172e+00,1.342005848884582520e+00,1.341913819313049316e+00
1.248869180679321289e+00,1.248789668083190918e+00,1.248710036277770996e+00,1.248630523681640625e+00,1.248550891876220703e+00,1.248471379280090332e+00,1.248391747474670410e+00,1.248312234878540039e+00,1.248232841491699219e+00,1.248153209686279297e+00,1.248073697090148926e+00,1.247994303703308105e+00,1.247914671897888184e+00,1.247835278511047363e+00,1.247755765914916992e+00,1.247676372528076172e+00,1.247596859931945801e+00,1.247517466545104980e+00,1.247438073158264160e+00,1.247358560562133789e+00,1.247279167175292969e+00,1.247199773788452148e+00,1.247120499610900879e+00,1.247040987014770508e+00,1.246961712837219238e+00,1.246882319450378418e+00,1.246802926063537598e+00,1.246723651885986328e+00,1.246644377708435059e+00,1.246564984321594238e+00,1.246485710144042969e+00,1.246406435966491699e+00,1.246327161788940430e+00,1.246247768402099609e+00,1.246168613433837891e+00,1.246089339256286621e+00,1.246010065078735352e+00,1.245930790901184082e+00,1.245851635932922363e+00,1.245772480964660645e+00,1.245693206787109375e+00,1.245613932609558105e+00,1.245534777641296387e+00,1.245455622673034668e+00,1.245376467704772949e+00,1.245297312736511230e+00,1.245218157768249512e+00,1.245139002799987793e+00,1.245059967041015625e+00,1.244980812072753906e+00,1.244901657104492188e+00,1.244822621345520020e+00,1.244743585586547852e+00,1.244664430618286133e+00,1.244585394859313965e+00,1.244506359100341797e+00,1.244427204132080078e+00,1.244348168373107910e+00,1.244269251823425293e+00,1.244190216064453125e+00,1.244111180305480957e+00,1.244032144546508789e+00,1.243953227996826172e+00,1.243874192237854004e+00,1.243795275688171387e+00,1.243716359138488770e+00,1.243637442588806152e+00,1.243558406829833984e+00,1.243479490280151367e+00,1.243400692939758301e+00,1.243321657180786133e+00,1.243242859840393066e+00,1.243163943290710449e+00,1.243085026741027832e+00,1.243006229400634766e+00,1.242927312850952148e+00,1.242848515510559082e+00,1.242769598960876465e+00,1.242690801620483398e+00,1.242612123489379883e+00
1.162417054176330566e+00,1.162348151206970215e+00,1.162279129028320312e+00,1.162210226058959961e+00,1.162141323089599609e+00,1.162072420120239258e+00,1.162003517150878906e+00,1.161934494972229004e+00,1.161865592002868652e+00,1.161796689033508301e+00,1.161727786064147949e+00,1.161659002304077148e+00,1.161590099334716797e+00,1.161521315574645996e+00,1.161452293395996094e+00,1.161383509635925293e+00,1.161314725875854492e+00,1.161245822906494141e+00,1.161177039146423340e+00,1.161108255386352539e+00,1.161039471626281738e+00,1.160970568656921387e+00,1.160901784896850586e+00,1.160833120346069336e+00,1.160764217376708984e+00,1.160695552825927734e+00,1.160626769065856934e+00,1.160557985305786133e+00,1.160489201545715332e+00,1.160420536994934082e+00,1.160351872444152832e+00,1.160283088684082031e+00,1.160214424133300781e+00,1.160145640373229980e+00,1.160076975822448730e+00,1.160008311271667480e+00,1.159939646720886230e+00,1.159870862960815430e+00,1.159802317619323730e+00,1.159733653068542480e+00,1.159664988517761230e+00,1.159596323966979980e+00,1.159527778625488281e+00,1.159459114074707031e+00,1.159390449523925781e+00,1.159321904182434082e+00,1.159253358840942383e+00,1.159184694290161133e+00,1.159116148948669434e+00,1.159047603607177734e+00,1.158979058265686035e+00,1.158910393714904785e+00,1.158841848373413086e+00,1.158773422241210938e+00,1.158704757690429688e+00,1.158636331558227539e+00,1.158567786216735840e+00,1.158499360084533691e+00,1.158430814743041992e+00,1.158362269401550293e+00,1.158293843269348145e+00,1.158225297927856445e+00,1.158156871795654297e+00,1.158088445663452148e+00,1.158020019531250000e+00,1.157951593399047852e+00,1.157883167266845703e+00,1.157814741134643555e+00,1.157746315002441406e+00,1.157677888870239258e+00,1.157609462738037109e+00,1.157541036605834961e+00,1.157472729682922363e+00,1.157404303550720215e+00,1.157335996627807617e+00,1.157267570495605469e+00,1.157199263572692871e+00,1.157130956649780273e+00,1.157062530517578125e+00,1.156994223594665527e+00
1.087159156799316406e+00,1.087098836898803711e+00,1.087038516998291016e+00,1.086978197097778320e+00,1.086917877197265625e+00,1.086857557296752930e+00,1.086797356605529785e+00,1.086737036705017090e+00,1.086676716804504395e+00,1.086616516113281250e+00,1.086556196212768555e+00,1.086495995521545410e+00,1.086435675621032715e+00,1.086375474929809570e+00,1.086315274238586426e+00,1.086254954338073730e+00,1.086194753646850586e+00,1.086134552955627441e+00,1.086074352264404297e+00,1.086014151573181152e+00,1.085953950881958008e+00,1.085893869400024414e+00,1.085833668708801270e+00,1.085773468017578125e+00,1.085713267326354980e+00,1.085653066635131836e+00,1.085592985153198242e+00,1.085532903671264648e+00,1.085472702980041504e+00,1.085412502288818359e+00,1.085352420806884766e+00,1.085292339324951172e+00,1.085232138633728027e+00,1.085172057151794434e+00,1.085111975669860840e+00,1.085051894187927246e+00,1.084991812705993652e+00,1.084931731224060059e+00,1.084871649742126465e+00,1.084811568260192871e+00,1.084751605987548828e+00,1.084691524505615234e+00,1.084631443023681641e+00,1.084571361541748047e+00,1.084511399269104004e+00,1.084451317787170410e+00,1.084391236305236816e+00,1.084331274032592773e+00,1.084271311759948730e+00,1.084211230278015137e+00,1.084151268005371094e+00,1.084091305732727051e+00,1.084031343460083008e+00,1.083971381187438965e+00,1.083911418914794922e+00,1.083851456642150879e+00,1.083791494369506836e+00,1.083731532096862793e+00,1.083671569824218750e+00,1.083611607551574707e+00,1.083551764488220215e+00,1.083491802215576172e+00,1.083431839942932129e+00,1.083371996879577637e+00,1.083312034606933594e+00,1.083252191543579102e+00,1.083192229270935059e+00,1.083132386207580566e+00,1.083072543144226074e+00,1.083012700080871582e+00,1.082952857017517090e+00,1.082893013954162598e+00,1.082833170890808105e+00,1.082773208618164062e+00,1.082713484764099121e+00,1.082653641700744629e+00,1.082593798637390137e+00,1.082533955574035645e+00,1.082474231719970703e+00,1.082414269447326660e+00
1.021053433418273926e+00,1.021000266075134277e+00,1.020947098731994629e+00,1.020893812179565430e+00,1.020840644836425781e+00,1.020787477493286133e+00,1.020734310150146484e+00,1.020681142807006836e+00,1.020627975463867188e+00,1.020574808120727539e+00,1.020521640777587891e+00,1.020468473434448242e+00,1.020415306091308594e+00,1.020362138748168945e+00,1.020309090614318848e+00,1.020255923271179199e+00,1.020202755928039551e+00,1.020149707794189453e+00,1.020096540451049805e+00,1.020043492317199707e+00,1.019990324974060059e+00,1.019937276840209961e+00,1.019884228706359863e+00,1.019831061363220215e+00,1.019778013229370117e+00,1.019724965095520020e+00,1.019671797752380371e+00,1.019618749618530273e+00,1.019565701484680176e+00,1.019512653350830078e+00,1.019459605216979980e+00,1.019406557083129883e+00,1.019353508949279785e+00,1.019300460815429688e+00,1.019247531890869141e+00,1.019194483757019043e+00,1.019141435623168945e+00,1.019088387489318848e+00,1.019035458564758301e+00,1.018982529640197754e+00,1.018929481506347656e+00,1.018876433372497559e+00,1.018823504447937012e+00,1.018770456314086914e+00,1.018717527389526367e+00,1.018664598464965820e+00,1.018611669540405273e+00,1.018558621406555176e+00,1.018505692481994629e+00,1.018452763557434082e+00,1.018399834632873535e+00,1.018346905708312988e+00,1.018293976783752441e+00,1.018241047859191895e+00,1.018188118934631348e+00,1.018135190010070801e+00,1.018082380294799805e+00,1.018029451370239258e+00,1.017976522445678711e+00,1.017923712730407715e+00,1.017870783805847168e+00,1.017817854881286621e+00,1.017765045166015625e+00,1.017712235450744629e+00,1.017659306526184082e+00,1.017606496810913086e+00,1.017553567886352539e+00,1.017500758171081543e+00,1.017447948455810547e+00,1.017395138740539551e+00,1.017342209815979004e+00,1.017289400100708008e+00,1.017236590385437012e+00,1.017183780670166016e+00,1.017130970954895020e+00,1.017078161239624023e+00,1.017025470733642578e+00,1.016972541809082031e+00,1.016919851303100586e+00,1.016867041587829590e+00
9.625262618064880371e-01,9.624789357185363770e-01,9.624316692352294922e-01,9.623843431472778320e-01,9.623371362686157227e-01,9.622898697853088379e-01,9.622426033020019531e-01,9.621952772140502930e-01,9.621480703353881836e-01,9.621008038520812988e-01,9.620535969734191895e-01,9.620063900947570801e-01,9.619591832160949707e-01,9.619119763374328613e-01,9.618646502494812012e-01,9.618174433708190918e-01,9.617702364921569824e-01,9.617230296134948730e-01,9.616758823394775391e-01,9.616286754608154297e-01,9.615814685821533203e-01,9.615342020988464355e-01,9.614870548248291016e-01,9.614399075508117676e-01,9.613927006721496582e-01,9.613455533981323242e-01,9.612984061241149902e-01,9.612512588500976562e-01,9.612039923667907715e-01,9.611569046974182129e-01,9.611097574234008789e-01,9.610626101493835449e-01,9.610155224800109863e-01,9.609683752059936523e-01,9.609211683273315430e-01,9.608740210533142090e-01,9.608269333839416504e-01,9.607798457145690918e-01,9.607327580451965332e-01,9.606856703758239746e-01,9.606385827064514160e-01,9.605913758277893066e-01,9.605442881584167480e-01,9.604972004890441895e-01,9.604501724243164062e-01,9.604030847549438477e-01,9.603560566902160645e-01,9.603089690208435059e-01,9.602618217468261719e-01,9.602147936820983887e-01,9.601677656173706055e-01,9.601206779479980469e-01,9.600736498832702637e-01,9.600266218185424805e-01,9.599796533584594727e-01,9.599325060844421387e-01,9.598854780197143555e-01,9.598384499549865723e-01,9.597914814949035645e-01,9.597444534301757812e-01,9.596974849700927734e-01,9.596505165100097656e-01,9.596033692359924316e-01,9.595564007759094238e-01,9.595094323158264160e-01,9.594624638557434082e-01,9.594154953956604004e-01,9.593685269355773926e-01,9.593214392662048340e-01,9.592745304107666016e-01,9.592275619506835938e-01,9.591805934906005859e-01,9.591336846351623535e-01,9.590867161750793457e-01,9.590398073196411133e-01,9.589927792549133301e-01,9.589458703994750977e-01,9.588989615440368652e-01,9.588520526885986328e-01,9.588051438331604004e-01
