3.094037771224975586e+00,3.172141313552856445e+00,3.254290580749511719e+00,3.340807199478149414e+00,3.432049989700317383e+00,3.528416395187377930e+00,3.630351305007934570e+00,3.738350629806518555e+00,3.852969408035278320e+00,3.974833965301513672e+00,4.104658603668212891e+00,4.243250370025634766e+00,4.391528129577636719e+00,4.550544261932373047e+00,4.721508979797363281e+00,4.905820846557617188e+00,5.000000000000000000e+00,5.000000000000000000e+00,5.000000000000000000e+00,5.000000000000000000e+00,5.000000000000000000e+00,5.000000000000000000e+00,5.000000000000000000e+00,5.000000000000000000e+00,5.000000000000000000e+00,5.000000000000000000e+00,5.000000000000000000e+00,5.000000000000000000e+00,5.000000000000000000e+00,5.000000000000000000e+00,5.000000000000000000e+00,5.000000000000000000e+00,5.000000000000000000e+00,5.000000000000000000e+00,5.000000000000000000e+00,5.000000000000000000e+00,5.000000000000000000e+00,5.000000000000000000e+00,5.000000000000000000e+00,5.000000000000000000e+00,5.000000000000000000e+00,5.000000000000000000e+00,5.000000000000000000e+00,5.000000000000000000e+00,5.000000000000000000e+00,5.000000000000000000e+00,5.000000000000000000e+00,5.000000000000000000e+00,5.000000000000000000e+00,5.000000000000000000e+00,4.142567157745361328e+00,5.000000000000000000e+00,5.000000000000000000e+00,5.000000000000000000e+00,5.000000000000000000e+00,5.000000000000000000e+00,5.000000000000000000e+00,5.000000000000000000e+00,5.000000000000000000e+00,5.000000000000000000e+00,5.000000000000000000e+00,5.000000000000000000e+00,5.000000000000000000e+00,5.000000000000000000e+00,5.000000000000000000e+00,5.000000000000000000e+00,5.000000000000000000e+00,5.000000000000000000e+00,5.000000000000000000e+00,5.000000000000000000e+00,4.862459659576416016e+00,4.702429771423339844e+00,4.552597522735595703e+00,4.412019252777099609e+00,4.279862403869628906e+00,4.155389308929443359e+00,4.037951469421386719e+00,3.926969766616821289e+00,3.821924686431884766e+00,3.722353219985961914e+00
3.093972206115722656e+00,3.172072410583496094e+00,3.254217863082885742e+00,3.340730667114257812e+00,3.431969404220581055e+00,3.528331518173217773e+00,3.630260944366455078e+00,3.738255262374877930e+00,3.852871179580688477e+00,3.974734544754028320e+00,4.104552745819091797e+00,4.243137359619140625e+00,4.391407012939453125e+00,4.550414085388183594e+00,4.721368789672851562e+00,4.905670166015625000e+00,5.000000000000000000e+00,5.000000000000000000e+00,5.000000000000000000e+00,5.000000000000000000e+00,5.000000000000000000e+00,5.000000000000000000e+00,5.000000000000000000e+00,5.000000000000000000e+00,5.000000000000000000e+00,5.000000000000000000e+00,5.000000000000000000e+00,5.000000000000000000e+00,5.000000000000000000e+00,5.000000000000000000e+00,5.000000000000000000e+00,5.000000000000000000e+00,5.000000000000000000e+00,5.000000000000000000e+00,5.000000000000000000e+00,5.000000000000000000e+00,5.000000000000000000e+00,5.000000000000000000e+00,5.000000000000000000e+00,5.000000000000000000e+00,5.000000000000000000e+00,5.000000000000000000e+00,5.000000000000000000e+00,5.000000000000000000e+00,5.000000000000000000e+00,5.000000000000000000e+00,5.000000000000000000e+00,5.000000000000000000e+00,5.000000000000000000e+00,5.000000000000000000e+00,4.103167057037353516e+00,4.095752716064453125e+00,5.000000000000000000e+00,5.000000000000000000e+00,5.000000000000000000e+00,5.000000000000000000e+00,5.000000000000000000e+00,5.000000000000000000e+00,5.000000000000000000e+00,5.000000000000000000e+00,5.000000000000000000e+00,5.000000000000000000e+00,5.000000000000000000e+00,5.000000000000000000e+00,5.000000000000000000e+00,5.000000000000000000e+00,5.000000000000000000e+00,5.000000000000000000e+00,5.000000000000000000e+00,5.000000000000000000e+00,4.862602233886718750e+00,4.702562808990478516e+00,4.552720069885253906e+00,4.412130355834960938e+00,4.279963493347167969e+00,4.155484199523925781e+00,4.038041114807128906e+00,3.927054405212402344e+00,3.822005271911621094e+00,3.722429752349853516e+00
3.093906641006469727e+00,3.172003746032714844e+00,3.254145383834838867e+00,3.340654611587524414e+00,3.431888580322265625e+00,3.528246164321899414e+00,3.630170583724975586e+00,3.738159418106079102e+00,3.852769374847412109e+00,3.974630117416381836e+00,4.104446887969970703e+00,4.243024349212646484e+00,4.391285896301269531e+00,4.550283908843994141e+00,4.721228599548339844e+00,4.905518531799316406e+00,5.000000000000000000e+00,5.000000000000000000e+00,5.000000000000000000e+00,5.000000000000000000e+00,5.000000000000000000e+00,5.000000000000000000e+00,5.000000000000000000e+00,5.000000000000000000e+00,5.000000000000000000e+00,5.000000000000000000e+00,5.000000000000000000e+00,5.000000000000000000e+00,5.000000000000000000e+00,5.000000000000000000e+00,5.000000000000000000e+00,5.000000000000000000e+00,5.000000000000000000e+00,5.000000000000000000e+00,5.000000000000000000e+00,5.000000000000000000e+00,5.000000000000000000e+00,5.000000000000000000e+00,5.000000000000000000e+00,5.000000000000000000e+00,5.000000000000000000e+00,5.000000000000000000e+00,5.000000000000000000e+00,5.000000000000000000e+00,5.000000000000000000e+00,5.000000000000000000e+00,5.000000000000000000e+00,5.000000000000000000e+00,5.000000000000000000e+00,5.000000000000000000e+00,4.122924804687500000e+00,4.110163688659667969e+00,5.000000000000000000e+00,5.000000000000000000e+00,5.000000000000000000e+00,5.000000000000000000e+00,5.000000000000000000e+00,5.000000000000000000e+00,5.000000000000000000e+00,5.000000000000000000e+00,5.000000000000000000e+00,5.000000000000000000e+00,5.000000000000000000e+00,5.000000000000000000e+00,5.000000000000000000e+00,5.000000000000000000e+00,5.000000000000000000e+00,5.000000000000000000e+00,5.000000000000000000e+00,5.000000000000000000e+00,4.862738132476806641e+00,4.702686309814453125e+00,4.552834033966064453e+00,4.412237167358398438e+00,4.280064105987548828e+00,4.155579090118408203e+00,4.038130760192871094e+00,3.927139282226562500e+00,3.822085380554199219e+00,3.722506046295166016e+00
3.093841075897216797e+00,3.171934604644775391e+00,3.254073143005371094e+00,3.340578079223632812e+00,3.431808233261108398e+00,3.528160810470581055e+00,3.630080699920654297e+00,3.738063573837280273e+00,3.852668285369873047e+00,3.974521875381469727e+00,4.104335784912109375e+00,4.242910861968994141e+00,4.391164779663085938e+00,4.550153732299804688e+00,4.721088886260986328e+00,4.905367851257324219e+00,5.000000000000000000e+00,5.000000000000000000e+00,5.000000000000000000e+00,5.000000000000000000e+00,5.000000000000000000e+00,5.000000000000000000e+00,5.000000000000000000e+00,5.000000000000000000e+00,5.000000000000000000e+00,5.000000000000000000e+00,5.000000000000000000e+00,5.000000000000000000e+00,5.000000000000000000e+00,5.000000000000000000e+00,5.000000000000000000e+00,5.000000000000000000e+00,5.000000000000000000e+00,5.000000000000000000e+00,5.000000000000000000e+00,5.000000000000000000e+00,5.000000000000000000e+00,5.000000000000000000e+00,5.000000000000000000e+00,5.000000000000000000e+00,5.000000000000000000e+00,5.000000000000000000e+00,5.000000000000000000e+00,5.000000000000000000e+00,5.000000000000000000e+00,5.000000000000000000e+00,5.000000000000000000e+00,5.000000000000000000e+00,5.000000000000000000e+00,5.000000000000000000e+00,4.186130523681640625e+00,5.000000000000000000e+00,5.000000000000000000e+00,5.000000000000000000e+00,5.000000000000000000e+00,5.000000000000000000e+00,5.000000000000000000e+00,5.000000000000000000e+00,5.000000000000000000e+00,5.000000000000000000e+00,5.000000000000000000e+00,5.000000000000000000e+00,5.000000000000000000e+00,5.000000000000000000e+00,5.000000000000000000e+00,5.000000000000000000e+00,5.000000000000000000e+00,5.000000000000000000e+00,5.000000000000000000e+00,5.000000000000000000e+00,4.862868309020996094e+00,4.702807903289794922e+00,4.552947998046875000e+00,4.412344455718994141e+00,4.280164718627929688e+00,4.155674457550048828e+00,4.038220882415771484e+00,3.927223920822143555e+00,3.822165966033935547e+00,3.722582101821899414e+00
3.093775749206542969e+00,3.171865701675415039e+00,3.254000425338745117e+00,3.340501546859741211e+00,3.431727409362792969e+00,3.528075456619262695e+00,3.629990339279174805e+00,3.737967729568481445e+00,3.852566480636596680e+00,3.974414110183715820e+00,4.104220390319824219e+00,4.242792606353759766e+00,4.391043663024902344e+00,4.550024032592773438e+00,4.720948696136474609e+00,4.905216217041015625e+00,5.000000000000000000e+00,5.000000000000000000e+00,5.000000000000000000e+00,5.000000000000000000e+00,5.000000000000000000e+00,5.000000000000000000e+00,5.000000000000000000e+00,5.000000000000000000e+00,5.000000000000000000e+00,5.000000000000000000e+00,5.000000000000000000e+00,5.000000000000000000e+00,5.000000000000000000e+00,5.000000000000000000e+00,5.000000000000000000e+00,5.000000000000000000e+00,5.000000000000000000e+00,5.000000000000000000e+00,5.000000000000000000e+00,5.000000000000000000e+00,5.000000000000000000e+00,5.000000000000000000e+00,5.000000000000000000e+00,5.000000000000000000e+00,5.000000000000000000e+00,5.000000000000000000e+00,5.000000000000000000e+00,5.000000000000000000e+00,5.000000000000000000e+00,5.000000000000000000e+00,5.000000000000000000e+00,4.178678035736083984e+00,4.122997283935546875e+00,4.129038333892822266e+00,4.118449687957763672e+00,4.131141662597656250e+00,4.182821273803710938e+00,4.198694705963134766e+00,5.000000000000000000e+00,5.000000000000000000e+00,5.000000000000000000e+00,5.000000000000000000e+00,5.000000000000000000e+00,5.000000000000000000e+00,5.000000000000000000e+00,5.000000000000000000e+00,5.000000000000000000e+00,5.000000000000000000e+00,5.000000000000000000e+00,5.000000000000000000e+00,5.000000000000000000e+00,5.000000000000000000e+00,5.000000000000000000e+00,5.000000000000000000e+00,4.862998008728027344e+00,4.702929496765136719e+00,4.553061962127685547e+00,4.412451267242431641e+00,4.280265331268310547e+00,4.155769348144531250e+00,4.038310527801513672e+00,3.927309036254882812e+00,3.822246074676513672e+00,3.722658395767211914e+00
3.093710184097290039e+00,3.171797037124633789e+00,3.253927946090698242e+00,3.340425491333007812e+00,3.431646823883056641e+00,3.527990579605102539e+00,3.629899978637695312e+00,3.737872362136840820e+00,3.852464675903320312e+00,3.974305629730224609e+00,4.104104995727539062e+00,4.242669105529785156e+00,4.390916347503662109e+00,4.549893856048583984e+00,4.720808506011962891e+00,4.905065536499023438e+00,5.000000000000000000e+00,5.000000000000000000e+00,5.000000000000000000e+00,5.000000000000000000e+00,5.000000000000000000e+00,5.000000000000000000e+00,5.000000000000000000e+00,5.000000000000000000e+00,5.000000000000000000e+00,5.000000000000000000e+00,5.000000000000000000e+00,5.000000000000000000e+00,5.000000000000000000e+00,5.000000000000000000e+00,5.000000000000000000e+00,5.000000000000000000e+00,5.000000000000000000e+00,5.000000000000000000e+00,5.000000000000000000e+00,5.000000000000000000e+00,5.000000000000000000e+00,5.000000000000000000e+00,5.000000000000000000e+00,5.000000000000000000e+00,5.000000000000000000e+00,5.000000000000000000e+00,5.000000000000000000e+00,5.000000000000000000e+00,5.000000000000000000e+00,5.000000000000000000e+00,5.000000000000000000e+00,4.137577056884765625e+00,4.128955364227294922e+00,4.089634418487548828e+00,4.068858146667480469e+00,4.088918685913085938e+00,4.110658645629882812e+00,4.215092658996582031e+00,5.000000000000000000e+00,5.000000000000000000e+00,5.000000000000000000e+00,5.000000000000000000e+00,5.000000000000000000e+00,5.000000000000000000e+00,5.000000000000000000e+00,5.000000000000000000e+00,5.000000000000000000e+00,5.000000000000000000e+00,5.000000000000000000e+00,5.000000000000000000e+00,5.000000000000000000e+00,5.000000000000000000e+00,5.000000000000000000e+00,5.000000000000000000e+00,4.863128185272216797e+00,4.703051090240478516e+00,4.553175926208496094e+00,4.412558555603027344e+00,4.280366420745849609e+00,4.155864238739013672e+00,4.038400173187255859e+00,3.927393436431884766e+00,3.822326660156250000e+00,3.722734451293945312e+00
3.093644380569458008e+00,3.171728134155273438e+00,3.253855228424072266e+00,3.340348958969116211e+00,3.431565999984741211e+00,3.527905225753784180e+00,3.629809617996215820e+00,3.737776756286621094e+00,3.852363348007202148e+00,3.974197387695312500e+00,4.103990077972412109e+00,4.242546081542968750e+00,4.390784740447998047e+00,4.549757957458496094e+00,4.720668792724609375e+00,4.904914379119873047e+00,5.000000000000000000e+00,5.000000000000000000e+00,5.000000000000000000e+00,5.000000000000000000e+00,5.000000000000000000e+00,5.000000000000000000e+00,5.000000000000000000e+00,5.000000000000000000e+00,5.000000000000000000e+00,5.000000000000000000e+00,5.000000000000000000e+00,5.000000000000000000e+00,5.000000000000000000e+00,5.000000000000000000e+00,5.000000000000000000e+00,5.000000000000000000e+00,5.000000000000000000e+00,5.000000000000000000e+00,5.000000000000000000e+00,5.000000000000000000e+00,5.000000000000000000e+00,5.000000000000000000e+00,5.000000000000000000e+00,5.000000000000000000e+00,5.000000000000000000e+00,5.000000000000000000e+00,5.000000000000000000e+00,5.000000000000000000e+00,5.000000000000000000e+00,5.000000000000000000e+00,5.000000000000000000e+00,4.162022590637207031e+00,4.127061843872070312e+00,4.097354412078857422e+00,4.077190399169921875e+00,4.081566333770751953e+00,4.120290756225585938e+00,4.227792263031005859e+00,5.000000000000000000e+00,5.000000000000000000e+00,5.000000000000000000e+00,5.000000000000000000e+00,5.000000000000000000e+00,5.000000000000000000e+00,5.000000000000000000e+00,5.000000000000000000e+00,5.000000000000000000e+00,5.000000000000000000e+00,5.000000000000000000e+00,5.000000000000000000e+00,5.000000000000000000e+00,5.000000000000000000e+00,5.000000000000000000e+00,5.000000000000000000e+00,4.863258361816406250e+00,4.703172683715820312e+00,4.553289890289306641e+00,4.412665367126464844e+00,4.280467033386230469e+00,4.155959129333496094e+00,4.038489818572998047e+00,3.927478551864624023e+00,3.822406768798828125e+00,3.722810983657836914e+00
3.093550443649291992e+00,3.171645164489746094e+00,3.253782987594604492e+00,3.340272426605224609e+00,3.431485652923583984e+00,3.527819871902465820e+00,3.629719734191894531e+00,3.737680912017822266e+00,3.852261781692504883e+00,3.974089145660400391e+00,4.103874206542968750e+00,4.242422580718994141e+00,4.390652656555175781e+00,4.549616336822509766e+00,4.720522403717041016e+00,4.904762744903564453e+00,5.000000000000000000e+00,5.000000000000000000e+00,5.000000000000000000e+00,5.000000000000000000e+00,5.000000000000000000e+00,5.000000000000000000e+00,5.000000000000000000e+00,5.000000000000000000e+00,5.000000000000000000e+00,5.000000000000000000e+00,5.000000000000000000e+00,5.000000000000000000e+00,5.000000000000000000e+00,5.000000000000000000e+00,5.000000000000000000e+00,5.000000000000000000e+00,5.000000000000000000e+00,5.000000000000000000e+00,5.000000000000000000e+00,5.000000000000000000e+00,5.000000000000000000e+00,5.000000000000000000e+00,5.000000000000000000e+00,5.000000000000000000e+00,5.000000000000000000e+00,5.000000000000000000e+00,5.000000000000000000e+00,5.000000000000000000e+00,5.000000000000000000e+00,5.000000000000000000e+00,5.000000000000000000e+00,4.155913352966308594e+00,4.115258693695068359e+00,4.111827850341796875e+00,4.076117515563964844e+00,4.076005458831787109e+00,4.113535404205322266e+00,4.238487720489501953e+00,5.000000000000000000e+00,5.000000000000000000e+00,5.000000000000000000e+00,5.000000000000000000e+00,5.000000000000000000e+00,5.000000000000000000e+00,5.000000000000000000e+00,5.000000000000000000e+00,5.000000000000000000e+00,5.000000000000000000e+00,5.000000000000000000e+00,5.000000000000000000e+00,5.000000000000000000e+00,5.000000000000000000e+00,5.000000000000000000e+00,5.000000000000000000e+00,4.863388061523437500e+00,4.703294277191162109e+00,4.553403854370117188e+00,4.412772655487060547e+00,4.280568122863769531e+00,4.156054019927978516e+00,4.038579463958740234e+00,3.927563190460205078e+00,3.822487354278564453e+00,3.722886800765991211e+00
3.093451738357543945e+00,3.171541452407836914e+00,3.253675699234008789e+00,3.340177297592163086e+00,3.431404352188110352e+00,3.527734994888305664e+00,3.629629373550415039e+00,3.737585544586181641e+00,3.852159976959228516e+00,3.973981380462646484e+00,4.103759288787841797e+00,4.242299556732177734e+00,4.390520572662353516e+00,4.549474239349365234e+00,4.720369815826416016e+00,4.904605388641357422e+00,5.000000000000000000e+00,5.000000000000000000e+00,5.000000000000000000e+00,5.000000000000000000e+00,5.000000000000000000e+00,5.000000000000000000e+00,5.000000000000000000e+00,5.000000000000000000e+00,5.000000000000000000e+00,5.000000000000000000e+00,5.000000000000000000e+00,5.000000000000000000e+00,5.000000000000000000e+00,5.000000000000000000e+00,5.000000000000000000e+00,5.000000000000000000e+00,5.000000000000000000e+00,5.000000000000000000e+00,5.000000000000000000e+00,5.000000000000000000e+00,5.000000000000000000e+00,5.000000000000000000e+00,5.000000000000000000e+00,5.000000000000000000e+00,5.000000000000000000e+00,5.000000000000000000e+00,5.000000000000000000e+00,5.000000000000000000e+00,5.000000000000000000e+00,5.000000000000000000e+00,5.000000000000000000e+00,4.160330772399902344e+00,4.116905212402343750e+00,4.115288257598876953e+00,4.073651313781738281e+00,4.083144187927246094e+00,4.107563972473144531e+00,4.253378391265869141e+00,5.000000000000000000e+00,5.000000000000000000e+00,5.000000000000000000e+00,5.000000000000000000e+00,5.000000000000000000e+00,5.000000000000000000e+00,5.000000000000000000e+00,5.000000000000000000e+00,5.000000000000000000e+00,5.000000000000000000e+00,5.000000000000000000e+00,5.000000000000000000e+00,5.000000000000000000e+00,5.000000000000000000e+00,5.000000000000000000e+00,5.000000000000000000e+00,4.863518238067626953e+00,4.703415870666503906e+00,4.553517818450927734e+00,4.412879943847656250e+00,4.280668735504150391e+00,4.156148910522460938e+00,4.038669109344482422e+00,3.927648305892944336e+00,3.822567462921142578e+00,3.722963333129882812e+00
3.093353033065795898e+00,3.171437740325927734e+00,3.253566503524780273e+00,3.340062379837036133e+00,3.431282520294189453e+00,3.527625560760498047e+00,3.629534721374511719e+00,3.737489938735961914e+00,3.852058172225952148e+00,3.973873138427734375e+00,4.103643894195556641e+00,4.242176532745361328e+00,4.390388965606689453e+00,4.549333095550537109e+00,4.720217227935791016e+00,4.904440879821777344e+00,5.000000000000000000e+00,5.000000000000000000e+00,5.000000000000000000e+00,5.000000000000000000e+00,5.000000000000000000e+00,5.000000000000000000e+00,5.000000000000000000e+00,5.000000000000000000e+00,5.000000000000000000e+00,5.000000000000000000e+00,5.000000000000000000e+00,5.000000000000000000e+00,5.000000000000000000e+00,5.000000000000000000e+00,5.000000000000000000e+00,5.000000000000000000e+00,5.000000000000000000e+00,5.000000000000000000e+00,5.000000000000000000e+00,5.000000000000000000e+00,5.000000000000000000e+00,5.000000000000000000e+00,5.000000000000000000e+00,5.000000000000000000e+00,5.000000000000000000e+00,5.000000000000000000e+00,5.000000000000000000e+00,5.000000000000000000e+00,5.000000000000000000e+00,5.000000000000000000e+00,5.000000000000000000e+00,5.000000000000000000e+00,4.092815399169921875e+00,4.111718177795410156e+00,4.081296443939208984e+00,4.069882392883300781e+00,4.097620964050292969e+00,4.262153625488281250e+00,5.000000000000000000e+00,5.000000000000000000e+00,5.000000000000000000e+00,5.000000000000000000e+00,5.000000000000000000e+00,5.000000000000000000e+00,5.000000000000000000e+00,5.000000000000000000e+00,5.000000000000000000e+00,5.000000000000000000e+00,5.000000000000000000e+00,5.000000000000000000e+00,5.000000000000000000e+00,5.000000000000000000e+00,5.000000000000000000e+00,5.000000000000000000e+00,4.863648414611816406e+00,4.703537464141845703e+00,4.553631782531738281e+00,4.412986755371093750e+00,4.280769348144531250e+00,4.156244277954101562e+00,4.038758754730224609e+00,3.927732706069946289e+00,3.822648048400878906e+00,3.723039388656616211e+00
3.093284368515014648e+00,3.171349525451660156e+00,3.253457546234130859e+00,3.339947223663330078e+00,3.431161165237426758e+00,3.527497291564941406e+00,3.629399061203002930e+00,3.737363338470458984e+00,3.851947784423828125e+00,3.973764896392822266e+00,4.103528499603271484e+00,4.242053031921386719e+00,4.390256881713867188e+00,4.549190998077392578e+00,4.720064640045166016e+00,4.904275894165039062e+00,5.000000000000000000e+00,5.000000000000000000e+00,5.000000000000000000e+00,5.000000000000000000e+00,5.000000000000000000e+00,5.000000000000000000e+00,5.000000000000000000e+00,5.000000000000000000e+00,5.000000000000000000e+00,5.000000000000000000e+00,5.000000000000000000e+00,5.000000000000000000e+00,5.000000000000000000e+00,5.000000000000000000e+00,5.000000000000000000e+00,5.000000000000000000e+00,5.000000000000000000e+00,5.000000000000000000e+00,5.000000000000000000e+00,5.000000000000000000e+00,5.000000000000000000e+00,5.000000000000000000e+00,5.000000000000000000e+00,5.000000000000000000e+00,5.000000000000000000e+00,5.000000000000000000e+00,5.000000000000000000e+00,5.000000000000000000e+00,5.000000000000000000e+00,5.000000000000000000e+00,5.000000000000000000e+00,5.000000000000000000e+00,4.035255432128906250e+00,4.107635974884033203e+00,4.086045265197753906e+00,4.099984645843505859e+00,4.130430698394775391e+00,4.249375820159912109e+00,5.000000000000000000e+00,5.000000000000000000e+00,5.000000000000000000e+00,5.000000000000000000e+00,5.000000000000000000e+00,5.000000000000000000e+00,5.000000000000000000e+00,5.000000000000000000e+00,5.000000000000000000e+00,5.000000000000000000e+00,5.000000000000000000e+00,5.000000000000000000e+00,5.000000000000000000e+00,5.000000000000000000e+00,5.000000000000000000e+00,5.000000000000000000e+00,4.863778591156005859e+00,4.703659057617187500e+00,4.553745746612548828e+00,4.413094043731689453e+00,4.280870437622070312e+00,4.156339168548583984e+00,4.038848400115966797e+00,3.927817821502685547e+00,3.822728157043457031e+00,3.723115682601928711e+00
3.093218326568603516e+00,3.171280384063720703e+00,3.253384351730346680e+00,3.339852571487426758e+00,3.431042432785034180e+00,3.527369022369384766e+00,3.629263162612915039e+00,3.737219095230102539e+00,3.851794719696044922e+00,3.973617553710937500e+00,4.103398323059082031e+00,4.241930007934570312e+00,4.390124797821044922e+00,4.549049377441406250e+00,4.719912052154541016e+00,4.904111385345458984e+00,5.000000000000000000e+00,5.000000000000000000e+00,5.000000000000000000e+00,5.000000000000000000e+00,5.000000000000000000e+00,5.000000000000000000e+00,5.000000000000000000e+00,5.000000000000000000e+00,5.000000000000000000e+00,5.000000000000000000e+00,5.000000000000000000e+00,5.000000000000000000e+00,5.000000000000000000e+00,5.000000000000000000e+00,5.000000000000000000e+00,5.000000000000000000e+00,5.000000000000000000e+00,5.000000000000000000e+00,5.000000000000000000e+00,5.000000000000000000e+00,5.000000000000000000e+00,5.000000000000000000e+00,5.000000000000000000e+00,5.000000000000000000e+00,5.000000000000000000e+00,5.000000000000000000e+00,5.000000000000000000e+00,5.000000000000000000e+00,5.000000000000000000e+00,5.000000000000000000e+00,5.000000000000000000e+00,5.000000000000000000e+00,3.993249177932739258e+00,4.114826679229736328e+00,4.125718593597412109e+00,4.072120666503906250e+00,4.032039165496826172e+00,4.231099605560302734e+00,5.000000000000000000e+00,5.000000000000000000e+00,5.000000000000000000e+00,5.000000000000000000e+00,5.000000000000000000e+00,5.000000000000000000e+00,5.000000000000000000e+00,5.000000000000000000e+00,5.000000000000000000e+00,5.000000000000000000e+00,5.000000000000000000e+00,5.000000000000000000e+00,5.000000000000000000e+00,5.000000000000000000e+00,5.000000000000000000e+00,5.000000000000000000e+00,4.863908767700195312e+00,4.703780651092529297e+00,4.553859710693359375e+00,4.413200855255126953e+00,4.280971050262451172e+00,4.156434059143066406e+00,4.038938045501708984e+00,3.927902460098266602e+00,3.822808742523193359e+00,3.723191738128662109e+00
3.093152523040771484e+00,3.171211004257202148e+00,3.253311395645141602e+00,3.339775800704956055e+00,3.430961132049560547e+00,3.527266025543212891e+00,3.629133224487304688e+00,3.737075090408325195e+00,3.851641654968261719e+00,3.973454952239990234e+00,4.103224754333496094e+00,4.241757392883300781e+00,4.389970779418945312e+00,4.548907756805419922e+00,4.719759464263916016e+00,4.903946876525878906e+00,5.000000000000000000e+00,5.000000000000000000e+00,5.000000000000000000e+00,5.000000000000000000e+00,5.000000000000000000e+00,5.000000000000000000e+00,5.000000000000000000e+00,5.000000000000000000e+00,5.000000000000000000e+00,5.000000000000000000e+00,5.000000000000000000e+00,5.000000000000000000e+00,5.000000000000000000e+00,5.000000000000000000e+00,5.000000000000000000e+00,5.000000000000000000e+00,5.000000000000000000e+00,5.000000000000000000e+00,5.000000000000000000e+00,5.000000000000000000e+00,5.000000000000000000e+00,5.000000000000000000e+00,5.000000000000000000e+00,5.000000000000000000e+00,5.000000000000000000e+00,5.000000000000000000e+00,5.000000000000000000e+00,5.000000000000000000e+00,5.000000000000000000e+00,5.000000000000000000e+00,5.000000000000000000e+00,5.000000000000000000e+00,3.934215545654296875e+00,4.122671604156494141e+00,4.130592346191406250e+00,4.058574199676513672e+00,4.006405830383300781e+00,4.049248695373535156e+00,5.000000000000000000e+00,5.000000000000000000e+00,5.000000000000000000e+00,5.000000000000000000e+00,5.000000000000000000e+00,5.000000000000000000e+00,5.000000000000000000e+00,5.000000000000000000e+00,5.000000000000000000e+00,5.000000000000000000e+00,5.000000000000000000e+00,5.000000000000000000e+00,5.000000000000000000e+00,5.000000000000000000e+00,5.000000000000000000e+00,5.000000000000000000e+00,4.864038467407226562e+00,4.703902721405029297e+00,4.553974151611328125e+00,4.413308143615722656e+00,4.281071662902832031e+00,4.156528949737548828e+00,4.039027690887451172e+00,3.927987575531005859e+00,3.822888851165771484e+00,3.723268270492553711e+00
3.093086719512939453e+00,3.171141862869262695e+00,3.253238201141357422e+00,3.339698553085327148e+00,3.430880069732666016e+00,3.527180194854736328e+00,3.629042625427246094e+00,3.736963272094726562e+00,3.851499319076538086e+00,3.973292112350463867e+00,4.103051185607910156e+00,4.241571903228759766e+00,4.389771938323974609e+00,4.548703670501708984e+00,4.719575881958007812e+00,4.903781890869140625e+00,5.000000000000000000e+00,5.000000000000000000e+00,5.000000000000000000e+00,5.000000000000000000e+00,5.000000000000000000e+00,5.000000000000000000e+00,5.000000000000000000e+00,5.000000000000000000e+00,5.000000000000000000e+00,5.000000000000000000e+00,5.000000000000000000e+00,5.000000000000000000e+00,5.000000000000000000e+00,5.000000000000000000e+00,5.000000000000000000e+00,5.000000000000000000e+00,5.000000000000000000e+00,5.000000000000000000e+00,5.000000000000000000e+00,5.000000000000000000e+00,5.000000000000000000e+00,5.000000000000000000e+00,5.000000000000000000e+00,5.000000000000000000e+00,5.000000000000000000e+00,5.000000000000000000e+00,5.000000000000000000e+00,5.000000000000000000e+00,5.000000000000000000e+00,5.000000000000000000e+00,5.000000000000000000e+00,5.000000000000000000e+00,3.889912128448486328e+00,4.145165920257568359e+00,4.157275199890136719e+00,4.054353713989257812e+00,3.979458808898925781e+00,4.002681732177734375e+00,5.000000000000000000e+00,5.000000000000000000e+00,5.000000000000000000e+00,5.000000000000000000e+00,5.000000000000000000e+00,5.000000000000000000e+00,5.000000000000000000e+00,5.000000000000000000e+00,5.000000000000000000e+00,5.000000000000000000e+00,5.000000000000000000e+00,5.000000000000000000e+00,5.000000000000000000e+00,5.000000000000000000e+00,5.000000000000000000e+00,5.000000000000000000e+00,4.864168643951416016e+00,4.704024314880371094e+00,4.554088115692138672e+00,4.413414955139160156e+00,4.281172752380371094e+00,4.156623840332031250e+00,4.039117336273193359e+00,3.928072690963745117e+00,3.822969436645507812e+00,3.723344564437866211e+00
3.093020915985107422e+00,3.171072244644165039e+00,3.253165483474731445e+00,3.339621782302856445e+00,3.430799007415771484e+00,3.527094602584838867e+00,3.628952026367187500e+00,3.736867189407348633e+00,3.851397275924682617e+00,3.973169803619384766e+00,4.102893829345703125e+00,4.241385936737060547e+00,4.389573097229003906e+00,4.548490047454833984e+00,4.719346046447753906e+00,4.903538227081298828e+00,5.000000000000000000e+00,5.000000000000000000e+00,5.000000000000000000e+00,5.000000000000000000e+00,5.000000000000000000e+00,5.000000000000000000e+00,5.000000000000000000e+00,5.000000000000000000e+00,5.000000000000000000e+00,5.000000000000000000e+00,5.000000000000000000e+00,5.000000000000000000e+00,5.000000000000000000e+00,5.000000000000000000e+00,5.000000000000000000e+00,5.000000000000000000e+00,5.000000000000000000e+00,5.000000000000000000e+00,5.000000000000000000e+00,5.000000000000000000e+00,5.000000000000000000e+00,5.000000000000000000e+00,5.000000000000000000e+00,5.000000000000000000e+00,5.000000000000000000e+00,5.000000000000000000e+00,5.000000000000000000e+00,5.000000000000000000e+00,5.000000000000000000e+00,5.000000000000000000e+00,5.000000000000000000e+00,5.000000000000000000e+00,5.000000000000000000e+00,4.171762466430664062e+00,4.188243389129638672e+00,5.000000000000000000e+00,3.947334527969360352e+00,3.949190139770507812e+00,5.000000000000000000e+00,5.000000000000000000e+00,5.000000000000000000e+00,5.000000000000000000e+00,5.000000000000000000e+00,5.000000000000000000e+00,5.000000000000000000e+00,5.000000000000000000e+00,5.000000000000000000e+00,5.000000000000000000e+00,5.000000000000000000e+00,5.000000000000000000e+00,5.000000000000000000e+00,5.000000000000000000e+00,5.000000000000000000e+00,5.000000000000000000e+00,4.864298820495605469e+00,4.704145908355712891e+00,4.554202079772949219e+00,4.413522243499755859e+00,4.281273365020751953e+00,4.156719207763671875e+00,4.039207458496093750e+00,3.928159952163696289e+00,3.823055267333984375e+00,3.723428487777709961e+00
3.092954635620117188e+00,3.171003103256225586e+00,3.253092527389526367e+00,3.339545011520385742e+00,3.430717945098876953e+00,3.527009010314941406e+00,3.628861188888549805e+00,3.736770868301391602e+00,3.851295232772827148e+00,3.973061084747314453e+00,4.102777957916259766e+00,4.241250991821289062e+00,4.389398097991943359e+00,4.548276901245117188e+00,4.719116210937500000e+00,4.903290271759033203e+00,5.000000000000000000e+00,5.000000000000000000e+00,5.000000000000000000e+00,5.000000000000000000e+00,5.000000000000000000e+00,5.000000000000000000e+00,5.000000000000000000e+00,5.000000000000000000e+00,5.000000000000000000e+00,5.000000000000000000e+00,5.000000000000000000e+00,5.000000000000000000e+00,5.000000000000000000e+00,5.000000000000000000e+00,5.000000000000000000e+00,5.000000000000000000e+00,5.000000000000000000e+00,5.000000000000000000e+00,5.000000000000000000e+00,5.000000000000000000e+00,5.000000000000000000e+00,5.000000000000000000e+00,5.000000000000000000e+00,5.000000000000000000e+00,5.000000000000000000e+00,5.000000000000000000e+00,5.000000000000000000e+00,5.000000000000000000e+00,5.000000000000000000e+00,5.000000000000000000e+00,5.000000000000000000e+00,5.000000000000000000e+00,5.000000000000000000e+00,4.192693233489990234e+00,4.214344978332519531e+00,5.000000000000000000e+00,3.930651664733886719e+00,3.912031888961791992e+00,5.000000000000000000e+00,5.000000000000000000e+00,5.000000000000000000e+00,5.000000000000000000e+00,5.000000000000000000e+00,5.000000000000000000e+00,5.000000000000000000e+00,5.000000000000000000e+00,5.000000000000000000e+00,5.000000000000000000e+00,5.000000000000000000e+00,5.000000000000000000e+00,5.000000000000000000e+00,5.000000000000000000e+00,5.000000000000000000e+00,5.000000000000000000e+00,4.864428997039794922e+00,4.704267501831054688e+00,4.554316043853759766e+00,4.413629531860351562e+00,4.281375885009765625e+00,4.156819343566894531e+00,4.039305210113525391e+00,3.928252935409545898e+00,3.823143243789672852e+00,3.723512411117553711e+00
3.092888832092285156e+00,3.170933723449707031e+00,3.253019571304321289e+00,3.339468240737915039e+00,3.430636882781982422e+00,3.526923418045043945e+00,3.628770589828491211e+00,3.736674785614013672e+00,3.851193189620971680e+00,3.972951889038085938e+00,4.102662086486816406e+00,4.241127014160156250e+00,4.389265060424804688e+00,4.548126697540283203e+00,4.718918800354003906e+00,4.903042316436767578e+00,5.000000000000000000e+00,5.000000000000000000e+00,5.000000000000000000e+00,5.000000000000000000e+00,5.000000000000000000e+00,5.000000000000000000e+00,5.000000000000000000e+00,5.000000000000000000e+00,5.000000000000000000e+00,5.000000000000000000e+00,5.000000000000000000e+00,5.000000000000000000e+00,5.000000000000000000e+00,5.000000000000000000e+00,5.000000000000000000e+00,5.000000000000000000e+00,5.000000000000000000e+00,5.000000000000000000e+00,5.000000000000000000e+00,5.000000000000000000e+00,5.000000000000000000e+00,5.000000000000000000e+00,5.000000000000000000e+00,5.000000000000000000e+00,5.000000000000000000e+00,5.000000000000000000e+00,5.000000000000000000e+00,5.000000000000000000e+00,5.000000000000000000e+00,5.000000000000000000e+00,5.000000000000000000e+00,5.000000000000000000e+00,5.000000000000000000e+00,4.219185352325439453e+00,5.000000000000000000e+00,5.000000000000000000e+00,3.943248510360717773e+00,3.941953897476196289e+00,5.000000000000000000e+00,5.000000000000000000e+00,5.000000000000000000e+00,5.000000000000000000e+00,5.000000000000000000e+00,5.000000000000000000e+00,5.000000000000000000e+00,5.000000000000000000e+00,5.000000000000000000e+00,5.000000000000000000e+00,5.000000000000000000e+00,5.000000000000000000e+00,5.000000000000000000e+00,5.000000000000000000e+00,5.000000000000000000e+00,5.000000000000000000e+00,4.864559173583984375e+00,4.704390048980712891e+00,4.554435253143310547e+00,4.413745403289794922e+00,4.281486511230468750e+00,4.156923770904541016e+00,4.039403915405273438e+00,3.928346157073974609e+00,3.823231697082519531e+00,3.723595857620239258e+00
3.092823028564453125e+00,3.170864582061767578e+00,3.252946853637695312e+00,3.339391469955444336e+00,3.430556058883666992e+00,3.526837825775146484e+00,3.628679990768432617e+00,3.736578226089477539e+00,3.851090431213378906e+00,3.972843170166015625e+00,4.102546215057373047e+00,4.241003036499023438e+00,4.389132499694824219e+00,4.547984123229980469e+00,4.718765735626220703e+00,4.902873992919921875e+00,5.000000000000000000e+00,5.000000000000000000e+00,5.000000000000000000e+00,5.000000000000000000e+00,5.000000000000000000e+00,5.000000000000000000e+00,5.000000000000000000e+00,5.000000000000000000e+00,5.000000000000000000e+00,5.000000000000000000e+00,5.000000000000000000e+00,5.000000000000000000e+00,5.000000000000000000e+00,5.000000000000000000e+00,5.000000000000000000e+00,5.000000000000000000e+00,5.000000000000000000e+00,5.000000000000000000e+00,5.000000000000000000e+00,5.000000000000000000e+00,5.000000000000000000e+00,5.000000000000000000e+00,5.000000000000000000e+00,5.000000000000000000e+00,5.000000000000000000e+00,5.000000000000000000e+00,5.000000000000000000e+00,5.000000000000000000e+00,5.000000000000000000e+00,5.000000000000000000e+00,5.000000000000000000e+00,5.000000000000000000e+00,4.377902507781982422e+00,4.275450229644775391e+00,5.000000000000000000e+00,5.000000000000000000e+00,3.957395553588867188e+00,3.945187330245971680e+00,5.000000000000000000e+00,5.000000000000000000e+00,5.000000000000000000e+00,5.000000000000000000e+00,5.000000000000000000e+00,5.000000000000000000e+00,5.000000000000000000e+00,5.000000000000000000e+00,5.000000000000000000e+00,5.000000000000000000e+00,5.000000000000000000e+00,5.000000000000000000e+00,5.000000000000000000e+00,5.000000000000000000e+00,5.000000000000000000e+00,5.000000000000000000e+00,4.864698410034179688e+00,4.704523563385009766e+00,4.554560661315917969e+00,4.413862705230712891e+00,4.281597137451171875e+00,4.157028198242187500e+00,4.039502620697021484e+00,3.928439617156982422e+00,3.823320150375366211e+00,3.723679780960083008e+00
3.092756986618041992e+00,3.170795440673828125e+00,3.252873897552490234e+00,3.339314699172973633e+00,3.430474996566772461e+00,3.526751995086669922e+00,3.628588914871215820e+00,3.736482143402099609e+00,3.850988388061523438e+00,3.972734689712524414e+00,4.102430343627929688e+00,4.240879058837890625e+00,4.388999938964843750e+00,4.547841548919677734e+00,4.718612670898437500e+00,4.902708530426025391e+00,5.000000000000000000e+00,5.000000000000000000e+00,5.000000000000000000e+00,5.000000000000000000e+00,5.000000000000000000e+00,5.000000000000000000e+00,5.000000000000000000e+00,5.000000000000000000e+00,5.000000000000000000e+00,5.000000000000000000e+00,5.000000000000000000e+00,5.000000000000000000e+00,5.000000000000000000e+00,5.000000000000000000e+00,5.000000000000000000e+00,5.000000000000000000e+00,5.000000000000000000e+00,5.000000000000000000e+00,5.000000000000000000e+00,5.000000000000000000e+00,5.000000000000000000e+00,5.000000000000000000e+00,5.000000000000000000e+00,5.000000000000000000e+00,5.000000000000000000e+00,5.000000000000000000e+00,5.000000000000000000e+00,5.000000000000000000e+00,5.000000000000000000e+00,5.000000000000000000e+00,5.000000000000000000e+00,5.000000000000000000e+00,4.405358791351318359e+00,4.342828273773193359e+00,5.000000000000000000e+00,5.000000000000000000e+00,3.950293064117431641e+00,3.925298929214477539e+00,5.000000000000000000e+00,5.000000000000000000e+00,5.000000000000000000e+00,5.000000000000000000e+00,5.000000000000000000e+00,5.000000000000000000e+00,5.000000000000000000e+00,5.000000000000000000e+00,5.000000000000000000e+00,5.000000000000000000e+00,5.000000000000000000e+00,5.000000000000000000e+00,5.000000000000000000e+00,5.000000000000000000e+00,5.000000000000000000e+00,5.000000000000000000e+00,4.864840984344482422e+00,4.704657554626464844e+00,4.554685592651367188e+00,4.413980484008789062e+00,4.281708240509033203e+00,4.157132625579833984e+00,4.039600849151611328e+00,3.928532600402832031e+00,3.823408126831054688e+00,3.723763227462768555e+00
3.092691183090209961e+00,3.170726299285888672e+00,3.252801179885864258e+00,3.339237928390502930e+00,3.430393695831298828e+00,3.526666164398193359e+00,3.628498315811157227e+00,3.736386060714721680e+00,3.850886344909667969e+00,3.972625970840454102e+00,4.102313995361328125e+00,4.240755558013916016e+00,4.388866901397705078e+00,4.547699451446533203e+00,4.718459129333496094e+00,4.902542591094970703e+00,5.000000000000000000e+00,5.000000000000000000e+00,5.000000000000000000e+00,5.000000000000000000e+00,5.000000000000000000e+00,5.000000000000000000e+00,5.000000000000000000e+00,5.000000000000000000e+00,5.000000000000000000e+00,5.000000000000000000e+00,5.000000000000000000e+00,5.000000000000000000e+00,5.000000000000000000e+00,5.000000000000000000e+00,5.000000000000000000e+00,5.000000000000000000e+00,5.000000000000000000e+00,5.000000000000000000e+00,5.000000000000000000e+00,5.000000000000000000e+00,5.000000000000000000e+00,5.000000000000000000e+00,5.000000000000000000e+00,5.000000000000000000e+00,5.000000000000000000e+00,5.000000000000000000e+00,5.000000000000000000e+00,5.000000000000000000e+00,5.000000000000000000e+00,5.000000000000000000e+00,5.000000000000000000e+00,5.000000000000000000e+00,4.450068473815917969e+00,4.392610073089599609e+00,5.000000000000000000e+00,5.000000000000000000e+00,3.950405597686767578e+00,3.913860082626342773e+00,5.000000000000000000e+00,5.000000000000000000e+00,5.000000000000000000e+00,5.000000000000000000e+00,5.000000000000000000e+00,5.000000000000000000e+00,5.000000000000000000e+00,5.000000000000000000e+00,5.000000000000000000e+00,5.000000000000000000e+00,5.000000000000000000e+00,5.000000000000000000e+00,5.000000000000000000e+00,5.000000000000000000e+00,5.000000000000000000e+00,5.000000000000000000e+00,4.864984035491943359e+00,4.704791069030761719e+00,4.554811477661132812e+00,4.414098262786865234e+00,4.281818866729736328e+00,4.157237052917480469e+00,4.039699554443359375e+00,3.928625822067260742e+00,3.823496580123901367e+00,3.723847150802612305e+00
3.092625379562377930e+00,3.170656919479370117e+00,3.252728223800659180e+00,3.339160919189453125e+00,3.430312633514404297e+00,3.526580572128295898e+00,3.628407716751098633e+00,3.736289978027343750e+00,3.850784301757812500e+00,3.972517251968383789e+00,4.102198123931884766e+00,4.240631580352783203e+00,4.388734340667724609e+00,4.547556400299072266e+00,4.718305587768554688e+00,4.902377128601074219e+00,5.000000000000000000e+00,5.000000000000000000e+00,5.000000000000000000e+00,5.000000000000000000e+00,5.000000000000000000e+00,5.000000000000000000e+00,5.000000000000000000e+00,5.000000000000000000e+00,5.000000000000000000e+00,5.000000000000000000e+00,5.000000000000000000e+00,5.000000000000000000e+00,5.000000000000000000e+00,5.000000000000000000e+00,5.000000000000000000e+00,5.000000000000000000e+00,5.000000000000000000e+00,5.000000000000000000e+00,5.000000000000000000e+00,5.000000000000000000e+00,5.000000000000000000e+00,5.000000000000000000e+00,5.000000000000000000e+00,5.000000000000000000e+00,5.000000000000000000e+00,5.000000000000000000e+00,5.000000000000000000e+00,5.000000000000000000e+00,5.000000000000000000e+00,5.000000000000000000e+00,5.000000000000000000e+00,5.000000000000000000e+00,4.500934123992919922e+00,4.446010112762451172e+00,5.000000000000000000e+00,5.000000000000000000e+00,3.956005096435546875e+00,3.916623353958129883e+00,5.000000000000000000e+00,5.000000000000000000e+00,5.000000000000000000e+00,5.000000000000000000e+00,5.000000000000000000e+00,5.000000000000000000e+00,5.000000000000000000e+00,5.000000000000000000e+00,5.000000000000000000e+00,5.000000000000000000e+00,5.000000000000000000e+00,5.000000000000000000e+00,5.000000000000000000e+00,5.000000000000000000e+00,5.000000000000000000e+00,5.000000000000000000e+00,4.865127086639404297e+00,4.704925060272216797e+00,4.554936408996582031e+00,4.414216041564941406e+00,4.281929492950439453e+00,4.157341003417968750e+00,4.039797782897949219e+00,3.928718805313110352e+00,3.823585033416748047e+00,3.723931074142456055e+00
3.092559576034545898e+00,3.170587539672851562e+00,3.252655029296875000e+00,3.339084148406982422e+00,3.430231571197509766e+00,3.526494741439819336e+00,3.628317117691040039e+00,3.736193895339965820e+00,3.850682258605957031e+00,3.972408771514892578e+00,4.102082252502441406e+00,4.240507602691650391e+00,4.388601779937744141e+00,4.547414302825927734e+00,4.718152523040771484e+00,4.902211666107177734e+00,5.000000000000000000e+00,5.000000000000000000e+00,5.000000000000000000e+00,5.000000000000000000e+00,5.000000000000000000e+00,5.000000000000000000e+00,5.000000000000000000e+00,5.000000000000000000e+00,5.000000000000000000e+00,5.000000000000000000e+00,5.000000000000000000e+00,5.000000000000000000e+00,5.000000000000000000e+00,5.000000000000000000e+00,5.000000000000000000e+00,5.000000000000000000e+00,5.000000000000000000e+00,5.000000000000000000e+00,5.000000000000000000e+00,5.000000000000000000e+00,5.000000000000000000e+00,5.000000000000000000e+00,5.000000000000000000e+00,5.000000000000000000e+00,5.000000000000000000e+00,5.000000000000000000e+00,5.000000000000000000e+00,5.000000000000000000e+00,5.000000000000000000e+00,5.000000000000000000e+00,5.000000000000000000e+00,5.000000000000000000e+00,5.000000000000000000e+00,4.494139194488525391e+00,5.000000000000000000e+00,5.000000000000000000e+00,5.000000000000000000e+00,3.930860757827758789e+00,5.000000000000000000e+00,5.000000000000000000e+00,5.000000000000000000e+00,5.000000000000000000e+00,5.000000000000000000e+00,5.000000000000000000e+00,5.000000000000000000e+00,5.000000000000000000e+00,5.000000000000000000e+00,5.000000000000000000e+00,5.000000000000000000e+00,5.000000000000000000e+00,5.000000000000000000e+00,5.000000000000000000e+00,5.000000000000000000e+00,5.000000000000000000e+00,4.865270137786865234e+00,4.705058574676513672e+00,4.555061817169189453e+00,4.414333343505859375e+00,4.282040119171142578e+00,4.157445430755615234e+00,4.039896488189697266e+00,3.928812265396118164e+00,3.823673009872436523e+00,3.724014520645141602e+00
3.092493534088134766e+00,3.170518159866333008e+00,3.252582311630249023e+00,3.339007377624511719e+00,3.430150508880615234e+00,3.526409149169921875e+00,3.628226280212402344e+00,3.736097812652587891e+00,3.850580215454101562e+00,3.972300052642822266e+00,4.101966381072998047e+00,4.240383625030517578e+00,4.388469219207763672e+00,4.547271728515625000e+00,4.717998981475830078e+00,4.854395866394042969e+00,4.853195190429687500e+00,4.851995468139648438e+00,4.850796222686767578e+00,4.849597454071044922e+00,4.848399639129638672e+00,4.847202301025390625e+00,4.846005439758300781e+00,4.844809055328369141e+00,4.843613624572753906e+00,4.842418670654296875e+00,4.841223716735839844e+00,4.840030193328857422e+00,4.838836669921875000e+00,4.837644100189208984e+00,4.836452007293701172e+00,4.835260391235351562e+00,4.834069728851318359e+00,4.832879066467285156e+00,4.831689357757568359e+00,4.830500125885009766e+00,4.829311370849609375e+00,4.828123569488525391e+00,4.826936244964599609e+00,4.825749397277832031e+00,4.824563026428222656e+00,4.823377609252929688e+00,4.822192192077636719e+00,4.821007728576660156e+00,4.819823741912841797e+00,4.818640708923339844e+00,4.817457675933837891e+00,4.816275596618652344e+00,4.815093994140625000e+00,4.406929969787597656e+00,4.812732219696044922e+00,4.811552524566650391e+00,4.810373306274414062e+00,3.796048641204833984e+00,3.785584926605224609e+00,4.806838989257812500e+00,4.805662155151367188e+00,4.804485321044921875e+00,4.803309440612792969e+00,4.802134513854980469e+00,4.800959587097167969e+00,4.799785614013671875e+00,4.798612117767333984e+00,4.797439098358154297e+00,4.796266555786132812e+00,4.795094966888427734e+00,4.793923854827880859e+00,4.792752742767333984e+00,4.791583061218261719e+00,4.790413379669189453e+00,4.789244174957275391e+00,4.705192089080810547e+00,4.555186748504638672e+00,4.414451122283935547e+00,4.282151222229003906e+00,4.157549858093261719e+00,4.039995193481445312e+00,3.928905487060546875e+00,3.823761463165283203e+00,3.724098443984985352e+00
3.092427492141723633e+00,3.170449018478393555e+00,3.252509355545043945e+00,3.338930606842041016e+00,3.430069684982299805e+00,3.526323556900024414e+00,3.628135681152343750e+00,3.736001729965209961e+00,3.770808219909667969e+00,3.770083665847778320e+00,3.769360065460205078e+00,3.768635988235473633e+00,3.767912387847900391e+00,3.767189502716064453e+00,3.766466379165649414e+00,3.765743494033813477e+00,3.765021324157714844e+00,3.764299154281616211e+00,3.763577222824096680e+00,3.762855768203735352e+00,3.762134313583374023e+00,3.761413574218750000e+00,3.760692834854125977e+00,3.759972095489501953e+00,3.759252309799194336e+00,3.758532285690307617e+00,3.757812500000000000e+00,3.757093429565429688e+00,3.756374120712280273e+00,3.755655288696289062e+00,3.754936933517456055e+00,3.754218578338623047e+00,3.753500461578369141e+00,3.752783060073852539e+00,3.752065420150756836e+00,3.751348495483398438e+00,3.750631570816040039e+00,3.749914646148681641e+00,3.749198675155639648e+00,3.748482465744018555e+00,3.747766494750976562e+00,3.747051239013671875e+00,3.746335744857788086e+00,3.745620727539062500e+00,3.744906187057495117e+00,3.744191646575927734e+00,3.743477344512939453e+00,3.742763757705688477e+00,3.742050170898437500e+00,3.741336584091186523e+00,3.740623950958251953e+00,3.739910840988159180e+00,3.739198207855224609e+00,3.738486289978027344e+00,3.737774133682250977e+00,3.737062692642211914e+00,3.736351013183593750e+00,3.735639810562133789e+00,3.734929084777832031e+00,3.734218358993530273e+00,3.733507871627807617e+00,3.732798099517822266e+00,3.732088088989257812e+00,3.731378555297851562e+00,3.730669498443603516e+00,3.729960441589355469e+00,3.729251384735107422e+00,3.728543281555175781e+00,3.727834939956665039e+00,3.727127313613891602e+00,3.726419448852539062e+00,3.725711822509765625e+00,3.725005149841308594e+00,3.724298000335693359e+00,3.723591327667236328e+00,3.722885131835937500e+00,3.722178936004638672e+00,3.721473217010498047e+00,3.720767974853515625e+00,3.720062494277954102e+00
3.083180427551269531e+00,3.082696199417114258e+00,3.082212209701538086e+00,3.081728219985961914e+00,3.081244230270385742e+00,3.080760478973388672e+00,3.080276966094970703e+00,3.079793691635131836e+00,3.079310417175292969e+00,3.078827142715454102e+00,3.078344345092773438e+00,3.077861309051513672e+00,3.077378988265991211e+00,3.076896429061889648e+00,3.076414108276367188e+00,3.075932025909423828e+00,3.075449943542480469e+00,3.074968338012695312e+00,3.074486494064331055e+00,3.074004888534545898e+00,3.073523521423339844e+00,3.073042392730712891e+00,3.072561025619506836e+00,3.072080373764038086e+00,3.071599483489990234e+00,3.071118593215942383e+00,3.070638418197631836e+00,3.070158004760742188e+00,3.069677591323852539e+00,3.069197893142700195e+00,3.068717718124389648e+00,3.068238019943237305e+00,3.067758560180664062e+00,3.067279100418090820e+00,3.066799879074096680e+00,3.066320657730102539e+00,3.065841674804687500e+00,3.065363168716430664e+00,3.064884185791015625e+00,3.064405679702758789e+00,3.063927412033081055e+00,3.063449144363403320e+00,3.062970876693725586e+00,3.062493085861206055e+00,3.062015295028686523e+00,3.061537504196166992e+00,3.061060190200805664e+00,3.060582637786865234e+00,3.060105562210083008e+00,3.059628486633300781e+00,3.059151649475097656e+00,3.058675050735473633e+00,3.058198213577270508e+00,3.057721853256225586e+00,3.057245731353759766e+00,3.056769371032714844e+00,3.056293249130249023e+00,3.055817604064941406e+00,3.055341720581054688e+00,3.054866075515747070e+00,3.054390907287597656e+00,3.053915500640869141e+00,3.053440332412719727e+00,3.052965402603149414e+00,3.052490472793579102e+00,3.052015781402587891e+00,3.051541328430175781e+00,3.051066875457763672e+00,3.050592899322509766e+00,3.050118684768676758e+00,3.049644708633422852e+00,3.049170970916748047e+00,3.048697233200073242e+00,3.048223733901977539e+00,3.047750473022460938e+00,3.047277212142944336e+00,3.046804189682006836e+00,3.046331405639648438e+00,3.045858621597290039e+00,3.045385837554931641e+00
2.604890346527099609e+00,2.604544878005981445e+00,2.604199171066284180e+00,2.603853702545166016e+00,2.603508234024047852e+00,2.603162765502929688e+00,2.602817535400390625e+00,2.602472543716430664e+00,2.602127313613891602e+00,2.601782321929931641e+00,2.601437330245971680e+00,2.601092815399169922e+00,2.600748062133789062e+00,2.600403308868408203e+00,2.600058794021606445e+00,2.599714279174804688e+00,2.599370241165161133e+00,2.599025964736938477e+00,2.598681688308715820e+00,2.598337411880493164e+00,2.597993612289428711e+00,2.597649812698364258e+00,2.597306013107299805e+00,2.596962451934814453e+00,2.596618652343750000e+00,2.596275329589843750e+00,2.595932006835937500e+00,2.595588445663452148e+00,2.595245361328125000e+00,2.594902276992797852e+00,2.594559192657470703e+00,2.594216346740722656e+00,2.593873262405395508e+00,2.593530654907226562e+00,2.593188047409057617e+00,2.592845439910888672e+00,2.592503070831298828e+00,2.592160463333129883e+00,2.591818094253540039e+00,2.591475963592529297e+00,2.591133832931518555e+00,2.590791702270507812e+00,2.590449810028076172e+00,2.590107917785644531e+00,2.589766025543212891e+00,2.589424610137939453e+00,2.589082956314086914e+00,2.588741540908813477e+00,2.588400125503540039e+00,2.588058710098266602e+00,2.587717533111572266e+00,2.587376356124877930e+00,2.587035179138183594e+00,2.586694478988647461e+00,2.586353540420532227e+00,2.586012601852416992e+00,2.585672140121459961e+00,2.585331439971923828e+00,2.584990739822387695e+00,2.584650516510009766e+00,2.584310054779052734e+00,2.583969831466674805e+00,2.583629846572875977e+00,2.583289623260498047e+00,2.582949638366699219e+00,2.582609891891479492e+00,2.582270145416259766e+00,2.581930398941040039e+00,2.581590652465820312e+00,2.581251144409179688e+00,2.580911874771118164e+00,2.580572366714477539e+00,2.580233097076416016e+00,2.579894065856933594e+00,2.579554796218872070e+00,2.579215764999389648e+00,2.578876972198486328e+00,2.578538179397583008e+00,2.578199386596679688e+00,2.577860832214355469e+00
2.255064964294433594e+00,2.254805803298950195e+00,2.254546880722045898e+00,2.254287958145141602e+00,2.254028797149658203e+00,2.253770112991333008e+00,2.253511428833007812e+00,2.253252506256103516e+00,2.252993822097778320e+00,2.252735137939453125e+00,2.252476692199707031e+00,2.252218246459960938e+00,2.251959800720214844e+00,2.251701354980468750e+00,2.251442909240722656e+00,2.251184701919555664e+00,2.250926733016967773e+00,2.250668525695800781e+00,2.250410318374633789e+00,2.250152349472045898e+00,2.249894380569458008e+00,2.249636411666870117e+00,2.249378681182861328e+00,2.249120712280273438e+00,2.248862981796264648e+00,2.248605489730834961e+00,2.248347759246826172e+00,2.248090505599975586e+00,2.247832775115966797e+00,2.247575521469116211e+00,2.247318029403686523e+00,2.247060775756835938e+00,2.246803760528564453e+00,2.246546506881713867e+00,2.246289253234863281e+00,2.246032238006591797e+00,2.245775222778320312e+00,2.245518207550048828e+00,2.245261430740356445e+00,2.245004415512084961e+00,2.244747638702392578e+00,2.244491100311279297e+00,2.244234323501586914e+00,2.243977785110473633e+00,2.243721246719360352e+00,2.243464708328247070e+00,2.243208408355712891e+00,2.242952108383178711e+00,2.242695808410644531e+00,2.242439508438110352e+00,2.242183208465576172e+00,2.241927146911621094e+00,2.241671085357666016e+00,2.241415023803710938e+00,2.241159200668334961e+00,2.240903377532958984e+00,2.240647554397583008e+00,2.240391731262207031e+00,2.240135908126831055e+00,2.239880323410034180e+00,2.239624738693237305e+00,2.239369153976440430e+00,2.239113569259643555e+00,2.238858222961425781e+00,2.238602876663208008e+00,2.238347530364990234e+00,2.238092422485351562e+00,2.237837076187133789e+00,2.237581968307495117e+00,2.237327098846435547e+00,2.237071990966796875e+00,2.236816883087158203e+00,2.236562013626098633e+00,2.236307144165039062e+00,2.236052513122558594e+00,2.235797643661499023e+00,2.235543012619018555e+00,2.235288381576538086e+00,2.235033988952636719e+00,2.234779357910156250e+00
1.988075256347656250e+00,1.987873792648315430e+00,1.987672448158264160e+00,1.987471103668212891e+00,1.987269878387451172e+00,1.987068653106689453e+00,1.986867427825927734e+00,1.986666202545166016e+00,1.986465096473693848e+00,1.986264109611511230e+00,1.986063241958618164e+00,1.985862255096435547e+00,1.985661387443542480e+00,1.985460400581359863e+00,1.985259532928466797e+00,1.985058784484863281e+00,1.984857916831970215e+00,1.984657168388366699e+00,1.984456419944763184e+00,1.984255790710449219e+00,1.984055399894714355e+00,1.983854770660400391e+00,1.983654260635375977e+00,1.983453750610351562e+00,1.983253240585327148e+00,1.983052849769592285e+00,1.982852458953857422e+00,1.982652187347412109e+00,1.982451796531677246e+00,1.982251524925231934e+00,1.982051610946655273e+00,1.981851339340209961e+00,1.981651186943054199e+00,1.981451153755187988e+00,1.981251358985900879e+00,1.981051325798034668e+00,1.980851292610168457e+00,1.980651378631591797e+00,1.980451464653015137e+00,1.980251550674438477e+00,1.980051994323730469e+00,1.979852199554443359e+00,1.979652523994445801e+00,1.979452729225158691e+00,1.979253053665161133e+00,1.979053735733032227e+00,1.978854179382324219e+00,1.978654623031616211e+00,1.978455066680908203e+00,1.978255629539489746e+00,1.978056192398071289e+00,1.977857112884521484e+00,1.977657675743103027e+00,1.977458477020263672e+00,1.977259159088134766e+00,1.977059960365295410e+00,1.976860761642456055e+00,1.976661801338195801e+00,1.976462721824645996e+00,1.976263642311096191e+00,1.976064682006835938e+00,1.975865721702575684e+00,1.975666999816894531e+00,1.975468039512634277e+00,1.975269198417663574e+00,1.975070357322692871e+00,1.974871635437011719e+00,1.974672913551330566e+00,1.974474430084228516e+00,1.974275708198547363e+00,1.974077105522155762e+00,1.973878502845764160e+00,1.973680019378662109e+00,1.973481535911560059e+00,1.973283290863037109e+00,1.973084807395935059e+00,1.972886443138122559e+00,1.972688198089599609e+00,1.972489833831787109e+00,1.972291827201843262e+00
1.777613520622253418e+00,1.777452468872070312e+00,1.777291536331176758e+00,1.777130603790283203e+00,1.776969671249389648e+00,1.776808738708496094e+00,1.776647806167602539e+00,1.776486992835998535e+00,1.776326179504394531e+00,1.776165604591369629e+00,1.776004791259765625e+00,1.775844097137451172e+00,1.775683403015136719e+00,1.775522708892822266e+00,1.775362133979797363e+00,1.775201439857482910e+00,1.775040864944458008e+00,1.774880290031433105e+00,1.774719834327697754e+00,1.774559378623962402e+00,1.774399042129516602e+00,1.774238586425781250e+00,1.774078249931335449e+00,1.773917794227600098e+00,1.773757457733154297e+00,1.773597121238708496e+00,1.773436784744262695e+00,1.773276567459106445e+00,1.773116350173950195e+00,1.772956132888793945e+00,1.772796154022216797e+00,1.772635936737060547e+00,1.772475838661193848e+00,1.772315740585327148e+00,1.772155761718750000e+00,1.771995663642883301e+00,1.771835803985595703e+00,1.771675825119018555e+00,1.771515965461730957e+00,1.771355986595153809e+00,1.771196126937866211e+00,1.771036386489868164e+00,1.770876646041870117e+00,1.770716786384582520e+00,1.770557045936584473e+00,1.770397305488586426e+00,1.770237565040588379e+00,1.770078063011169434e+00,1.769918441772460938e+00,1.769758820533752441e+00,1.769599199295043945e+00,1.769439578056335449e+00,1.769280076026916504e+00,1.769120693206787109e+00,1.768961191177368164e+00,1.768801808357238770e+00,1.768642306327819824e+00,1.768482923507690430e+00,1.768323540687561035e+00,1.768164396286010742e+00,1.768005132675170898e+00,1.767845749855041504e+00,1.767686605453491211e+00,1.767527341842651367e+00,1.767368316650390625e+00,1.767209172248840332e+00,1.767050027847290039e+00,1.766890883445739746e+00,1.766731739044189453e+00,1.766572713851928711e+00,1.766413927078247070e+00,1.766254901885986328e+00,1.766095995903015137e+00,1.765936970710754395e+00,1.765778064727783203e+00,1.765619397163391113e+00,1.765460610389709473e+00,1.765301704406738281e+00,1.765142917633056641e+00,1.764984250068664551e+00
1.607446074485778809e+00,1.607314348220825195e+00,1.607182741165161133e+00,1.607051134109497070e+00,1.606919527053833008e+00,1.606787919998168945e+00,1.606656312942504883e+00,1.606524825096130371e+00,1.606393218040466309e+00,1.606261968612670898e+00,1.606130480766296387e+00,1.605998992919921875e+00,1.605867505073547363e+00,1.605736136436462402e+00,1.605604767799377441e+00,1.605473399162292480e+00,1.605342030525207520e+00,1.605210781097412109e+00,1.605079412460327148e+00,1.604948282241821289e+00,1.604817032814025879e+00,1.604685783386230469e+00,1.604554533958435059e+00,1.604423403739929199e+00,1.604292154312133789e+00,1.604161024093627930e+00,1.604029893875122070e+00,1.603898763656616211e+00,1.603767752647399902e+00,1.603636860847473145e+00,1.603505730628967285e+00,1.603374719619750977e+00,1.603243708610534668e+00,1.603112816810607910e+00,1.602981805801391602e+00,1.602850914001464844e+00,1.602719902992248535e+00,1.602589011192321777e+00,1.602458119392395020e+00,1.602327466011047363e+00,1.602196693420410156e+00,1.602065801620483398e+00,1.601935029029846191e+00,1.601804375648498535e+00,1.601673722267150879e+00,1.601542949676513672e+00,1.601412296295166016e+00,1.601281523704528809e+00,1.601150870323181152e+00,1.601020455360412598e+00,1.600889801979064941e+00,1.600759267807006836e+00,1.600628614425659180e+00,1.600498080253601074e+00,1.600367546081542969e+00,1.600237250328063965e+00,1.600106716156005859e+00,1.599976181983947754e+00,1.599845767021179199e+00,1.599715352058410645e+00,1.599585056304931641e+00,1.599454641342163086e+00,1.599324345588684082e+00,1.599194049835205078e+00,1.599063634872436523e+00,1.598933339118957520e+00,1.598803281784057617e+00,1.598672986030578613e+00,1.598542809486389160e+00,1.598412513732910156e+00,1.598282337188720703e+00,1.598152160644531250e+00,1.598022222518920898e+00,1.597892045974731445e+00,1.597761988639831543e+00,1.597631812095642090e+00,1.597501754760742188e+00,1.597371935844421387e+00,1.597241878509521484e+00,1.597111821174621582e+00
1.467011809349060059e+00,1.466902136802673340e+00,1.466792464256286621e+00,1.466682791709899902e+00,1.466573238372802734e+00,1.466463565826416016e+00,1.466354012489318848e+00,1.466244459152221680e+00,1.466135025024414062e+00,1.466025471687316895e+00,1.465915918350219727e+00,1.465806484222412109e+00,1.465696930885314941e+00,1.465587496757507324e+00,1.465478062629699707e+00,1.465368628501892090e+00,1.465259194374084473e+00,1.465149760246276855e+00,1.465040445327758789e+00,1.464931130409240723e+00,1.464821815490722656e+00,1.464712381362915039e+00,1.464603066444396973e+00,1.464493751525878906e+00,1.464384555816650391e+00,1.464275240898132324e+00,1.464165925979614258e+00,1.464056730270385742e+00,1.463947534561157227e+00,1.463838458061218262e+00,1.463729262351989746e+00,1.463620066642761230e+00,1.463510870933532715e+00,1.463401675224304199e+00,1.463292598724365234e+00,1.463183522224426270e+00,1.463074326515197754e+00,1.462965250015258789e+00,1.462856292724609375e+00,1.462747335433959961e+00,1.462638258934020996e+00,1.462529301643371582e+00,1.462420225143432617e+00,1.462311267852783203e+00,1.462202310562133789e+00,1.462093353271484375e+00,1.461984515190124512e+00,1.461875677108764648e+00,1.461766719818115234e+00,1.461657881736755371e+00,1.461549043655395508e+00,1.461440324783325195e+00,1.461331486701965332e+00,1.461222648620605469e+00,1.461113810539245605e+00,1.461005091667175293e+00,1.460896372795104980e+00,1.460787653923034668e+00,1.460678935050964355e+00,1.460570216178894043e+00,1.460461497306823730e+00,1.460352778434753418e+00,1.460244297981262207e+00,1.460135579109191895e+00,1.460026979446411133e+00,1.459918260574340820e+00,1.459809660911560059e+00,1.459701061248779297e+00,1.459592700004577637e+00,1.459484100341796875e+00,1.459375500679016113e+00,1.459267020225524902e+00,1.459158539772033691e+00,1.459050178527832031e+00,1.458941698074340820e+00,1.458833217620849609e+00,1.458724737167358398e+00,1.458616256713867188e+00,1.458507895469665527e+00,1.458399653434753418e+00
1.349143981933593750e+00,1.349051237106323242e+00,1.348958492279052734e+00,1.348865866661071777e+00,1.348773121833801270e+00,1.348680377006530762e+00,1.348587751388549805e+00,1.348495125770568848e+00,1.348402500152587891e+00,1.348309874534606934e+00,1.348217129707336426e+00,1.348124504089355469e+00,1.348031878471374512e+00,1.347939372062683105e+00,1.347846746444702148e+00,1.347754120826721191e+00,1.347661614418029785e+00,1.347569108009338379e+00,1.347476601600646973e+00,1.347384095191955566e+00,1.347291588783264160e+00,1.347199082374572754e+00,1.347106695175170898e+00,1.347014188766479492e+00,1.346921682357788086e+00,1.346829295158386230e+00,1.346736788749694824e+00,1.346644401550292969e+00,1.346552133560180664e+00,1.346459746360778809e+00,1.346367359161376953e+00,1.346274971961975098e+00,1.346182584762573242e+00,1.346090197563171387e+00,1.345997929573059082e+00,1.345905542373657227e+00,1.345813274383544922e+00,1.345721006393432617e+00,1.345628857612609863e+00,1.345536589622497559e+00,1.345444321632385254e+00,1.345352053642272949e+00,1.345259785652160645e+00,1.345167517662048340e+00,1.345075368881225586e+00,1.344983220100402832e+00,1.344890952110290527e+00,1.344798803329467773e+00,1.344706654548645020e+00,1.344614624977111816e+00,1.344522476196289062e+00,1.344430327415466309e+00,1.344338297843933105e+00,1.344246268272399902e+00,1.344154238700866699e+00,1.344062089920043945e+00,1.343970060348510742e+00,1.343878030776977539e+00,1.343786120414733887e+00,1.343694090843200684e+00,1.343602061271667480e+00,1.343510031700134277e+00,1.343418121337890625e+00,1.343326091766357422e+00,1.343234300613403320e+00,1.343142271041870117e+00,1.343050360679626465e+00,1.342958450317382812e+00,1.342866539955139160e+00,1.342774748802185059e+00,1.342682838439941406e+00,1.342591047286987305e+00,1.342499136924743652e+00,1.342407345771789551e+00,1.342315435409545898e+00,1.342223763465881348e+00,1.342131972312927246e+00,1.342040181159973145e+00,1.341948390007019043e+00,1.341856598854064941e+00
1.248808026313781738e+00,1.248728513717651367e+00,1.248649120330810547e+00,1.248569607734680176e+00,1.248490214347839355e+00,1.248410701751708984e+00,1.248331308364868164e+00,1.248252034187316895e+00,1.248172640800476074e+00,1.248093247413635254e+00,1.248013854026794434e+00,1.247934460639953613e+00,1.247855067253112793e+00,1.247775793075561523e+00,1.247696399688720703e+00,1.247617125511169434e+00,1.247537732124328613e+00,1.247458577156066895e+00,1.247379302978515625e+00,1.247299909591674805e+00,1.247220635414123535e+00,1.247141361236572266e+00,1.247062206268310547e+00,1.246982932090759277e+00,1.246903657913208008e+00,1.246824383735656738e+00,1.246745228767395020e+00,1.246666073799133301e+00,1.246586918830871582e+00,1.246507763862609863e+00,1.246428489685058594e+00,1.246349334716796875e+00,1.246270179748535156e+00,1.246191024780273438e+00,1.246111869812011719e+00,1.246032834053039551e+00,1.245953679084777832e+00,1.245874524116516113e+00,1.245795607566833496e+00,1.245716452598571777e+00,1.245637416839599609e+00,1.245558261871337891e+00,1.245479226112365723e+00,1.245400190353393555e+00,1.245321154594421387e+00,1.245242118835449219e+00,1.245163083076477051e+00,1.245084166526794434e+00,1.245005249977111816e+00,1.244926214218139648e+00,1.244847297668457031e+00,1.244768261909484863e+00,1.244689345359802246e+00,1.244610428810119629e+00,1.244531393051147461e+00,1.244452476501464844e+00,1.244373559951782227e+00,1.244294762611389160e+00,1.244215846061706543e+00,1.244137048721313477e+00,1.244058251380920410e+00,1.243979334831237793e+00,1.243900537490844727e+00,1.243821620941162109e+00,1.243742823600769043e+00,1.243664026260375977e+00,1.243585228919982910e+00,1.243506431579589844e+00,1.243427634239196777e+00,1.243348836898803711e+00,1.243270039558410645e+00,1.243191361427307129e+00,1.243112683296203613e+00,1.243033885955810547e+00,1.242955207824707031e+00,1.242876410484313965e+00,1.242797732353210449e+00,1.242719054222106934e+00,1.242640376091003418e+00,1.242561697959899902e+00
1.162362933158874512e+00,1.162294030189514160e+00,1.162225246429443359e+00,1.162156343460083008e+00,1.162087559700012207e+00,1.162018775939941406e+00,1.161949992179870605e+00,1.161881208419799805e+00,1.161812424659729004e+00,1.161743640899658203e+00,1.161674857139587402e+00,1.161606073379516602e+00,1.161537289619445801e+00,1.161468625068664551e+00,1.161399841308593750e+00,1.161331057548522949e+00,1.161262512207031250e+00,1.161193728446960449e+00,1.161125063896179199e+00,1.161056280136108398e+00,1.160987615585327148e+00,1.160918951034545898e+00,1.160850286483764648e+00,1.160781621932983398e+00,1.160712957382202148e+00,1.160644292831420898e+00,1.160575628280639648e+00,1.160507082939147949e+00,1.160438418388366699e+00,1.160369753837585449e+00,1.160301208496093750e+00,1.160232543945312500e+00,1.160163998603820801e+00,1.160095453262329102e+00,1.160026788711547852e+00,1.159958243370056152e+00,1.159889698028564453e+00,1.159821152687072754e+00,1.159752607345581055e+00,1.159684062004089355e+00,1.159615516662597656e+00,1.159547090530395508e+00,1.159478545188903809e+00,1.159409999847412109e+00,1.159341454505920410e+00,1.159273028373718262e+00,1.159204483032226562e+00,1.159136176109313965e+00,1.159067630767822266e+00,1.158999204635620117e+00,1.158930778503417969e+00,1.158862352371215820e+00,1.158793807029724121e+00,1.158725380897521973e+00,1.158656954765319824e+00,1.158588647842407227e+00,1.158520221710205078e+00,1.158451914787292480e+00,1.158383488655090332e+00,1.158315181732177734e+00,1.158246755599975586e+00,1.158178448677062988e+00,1.158110022544860840e+00,1.158041834831237793e+00,1.157973408699035645e+00,1.157905101776123047e+00,1.157836794853210449e+00,1.157768607139587402e+00,1.157700300216674805e+00,1.157631993293762207e+00,1.157563686370849609e+00,1.157495379447937012e+00,1.157427072525024414e+00,1.157358884811401367e+00,1.157290697097778320e+00,1.157222390174865723e+00,1.157154202461242676e+00,1.157085895538330078e+00,1.157017707824707031e+00,1.156949520111083984e+00
1.087110877037048340e+00,1.087050557136535645e+00,1.086990356445312500e+00,1.086930155754089355e+00,1.086869955062866211e+00,1.086809873580932617e+00,1.086749672889709473e+00,1.086689472198486328e+00,1.086629271507263184e+00,1.086569070816040039e+00,1.086508989334106445e+00,1.086448788642883301e+00,1.086388587951660156e+00,1.086328506469726562e+00,1.086268305778503418e+00,1.086208224296569824e+00,1.086148142814636230e+00,1.086088061332702637e+00,1.086027979850769043e+00,1.085967898368835449e+00,1.085907697677612305e+00,1.085847616195678711e+00,1.085787534713745117e+00,1.085727453231811523e+00,1.085667490959167480e+00,1.085607409477233887e+00,1.085547327995300293e+00,1.085487365722656250e+00,1.085427284240722656e+00,1.085367202758789062e+00,1.085307240486145020e+00,1.085247159004211426e+00,1.085187196731567383e+00,1.085127234458923340e+00,1.085067152976989746e+00,1.085007190704345703e+00,1.084947228431701660e+00,1.084887266159057617e+00,1.084827303886413574e+00,1.084767341613769531e+00,1.084707379341125488e+00,1.084647417068481445e+00,1.084587454795837402e+00,1.084527492523193359e+00,1.084467530250549316e+00,1.084407567977905273e+00,1.084347724914550781e+00,1.084287881851196289e+00,1.084227919578552246e+00,1.084168076515197754e+00,1.084108114242553711e+00,1.084048271179199219e+00,1.083988308906555176e+00,1.083928465843200684e+00,1.083868622779846191e+00,1.083808779716491699e+00,1.083748936653137207e+00,1.083689093589782715e+00,1.083629250526428223e+00,1.083569407463073730e+00,1.083509564399719238e+00,1.083449721336364746e+00,1.083389997482299805e+00,1.083330154418945312e+00,1.083270311355590820e+00,1.083210587501525879e+00,1.083150744438171387e+00,1.083091020584106445e+00,1.083031296730041504e+00,1.082971572875976562e+00,1.082911729812622070e+00,1.082852005958557129e+00,1.082792282104492188e+00,1.082732558250427246e+00,1.082672715187072754e+00,1.082613110542297363e+00,1.082553386688232422e+00,1.082493662834167480e+00,1.082433938980102539e+00,1.082374215126037598e+00
1.021010041236877441e+00,1.020956873893737793e+00,1.020903706550598145e+00,1.020850658416748047e+00,1.020797491073608398e+00,1.020744562149047852e+00,1.020691394805908203e+00,1.020638346672058105e+00,1.020585179328918457e+00,1.020532131195068359e+00,1.020479083061218262e+00,1.020426034927368164e+00,1.020372986793518066e+00,1.020319938659667969e+00,1.020266890525817871e+00,1.020213842391967773e+00,1.020160794258117676e+00,1.020107746124267578e+00,1.020054817199707031e+00,1.020001769065856934e+00,1.019948720932006836e+00,1.019895672798156738e+00,1.019842743873596191e+00,1.019789695739746094e+00,1.019736766815185547e+00,1.019683837890625000e+00,1.019630789756774902e+00,1.019577860832214355e+00,1.019524812698364258e+00,1.019471883773803711e+00,1.019418954849243164e+00,1.019365906715393066e+00,1.019312977790832520e+00,1.019260048866271973e+00,1.019207119941711426e+00,1.019154191017150879e+00,1.019101262092590332e+00,1.019048333168029785e+00,1.018995523452758789e+00,1.018942594528198242e+00,1.018889665603637695e+00,1.018836736679077148e+00,1.018783807754516602e+00,1.018730998039245605e+00,1.018678069114685059e+00,1.018625140190124512e+00,1.018572330474853516e+00,1.018519520759582520e+00,1.018466591835021973e+00,1.018413782119750977e+00,1.018360972404479980e+00,1.018308043479919434e+00,1.018255233764648438e+00,1.018202424049377441e+00,1.018149614334106445e+00,1.018096804618835449e+00,1.018043994903564453e+00,1.017991185188293457e+00,1.017938375473022461e+00,1.017885565757751465e+00,1.017832756042480469e+00,1.017779946327209473e+00,1.017727136611938477e+00,1.017674446105957031e+00,1.017621636390686035e+00,1.017568826675415039e+00,1.017516136169433594e+00,1.017463445663452148e+00,1.017410635948181152e+00,1.017357945442199707e+00,1.017305135726928711e+00,1.017252445220947266e+00,1.017199635505676270e+00,1.017147064208984375e+00,1.017094254493713379e+00,1.017041563987731934e+00,1.016988873481750488e+00,1.016936182975769043e+00,1.016883492469787598e+00,1.016830801963806152e+00
9.624868631362915039e-01,9.624397158622741699e-01,9.623924493789672852e-01,9.623453021049499512e-01,9.622981548309326172e-01,9.622508883476257324e-01,9.622038006782531738e-01,9.621565341949462891e-01,9.621094465255737305e-01,9.620621800422668457e-01,9.620150923728942871e-01,9.619678854942321777e-01,9.619207978248596191e-01,9.618735909461975098e-01,9.618265032768249512e-01,9.617794156074523926e-01,9.617322087287902832e-01,9.616851210594177246e-01,9.616379141807556152e-01,9.615908861160278320e-01,9.615436792373657227e-01,9.614966511726379395e-01,9.614494442939758301e-01,9.614024162292480469e-01,9.613552689552307129e-01,9.613082408905029297e-01,9.612612128257751465e-01,9.612140655517578125e-01,9.611670374870300293e-01,9.611198902130126953e-01,9.610728621482849121e-01,9.610257148742675781e-01,9.609787464141845703e-01,9.609315991401672363e-01,9.608846306800842285e-01,9.608376026153564453e-01,9.607905149459838867e-01,9.607435464859008789e-01,9.606964588165283203e-01,9.606494903564453125e-01,9.606024026870727539e-01,9.605554342269897461e-01,9.605083465576171875e-01,9.604613780975341797e-01,9.604142904281616211e-01,9.603673815727233887e-01,9.603204131126403809e-01,9.602733850479125977e-01,9.602264165878295898e-01,9.601793885231018066e-01,9.601324796676635742e-01,9.600854516029357910e-01,9.600384831428527832e-01,9.599915146827697754e-01,9.599446058273315430e-01,9.598975777626037598e-01,9.598506689071655273e-01,9.598037600517272949e-01,9.597567915916442871e-01,9.597098827362060547e-01,9.596629142761230469e-01,9.596160054206848145e-01,9.595690369606018066e-01,9.595221877098083496e-01,9.594752192497253418e-01,9.594283103942871094e-01,9.593814611434936523e-01,9.593345522880554199e-01,9.592877030372619629e-01,9.592407345771789551e-01,9.591938853263854980e-01,9.591469764709472656e-01,9.591001272201538086e-01,9.590532183647155762e-01,9.590063691139221191e-01,9.589594602584838867e-01,9.589126706123352051e-01,9.588658213615417480e-01,9.588189125061035156e-01,9.587721228599548340e-01
9.103089570999145508e-01,9.102667570114135742e-01,9.102244973182678223e-01,9.101822972297668457e-01,9.101401567459106445e-01,9.100978970527648926e-01,9.100557565689086914e-01,9.100134968757629395e-01,9.099712967872619629e-01,9.099290966987609863e-01,9.098869562149047852e-01,9.098446965217590332e-01,9.098025560379028320e-01,9.097603559494018555e-01,9.097182154655456543e-01,9.096760749816894531e-01,9.096338748931884766e-01,9.095917344093322754e-01,9.095495343208312988e-01,9.095074534416198730e-01,9.094651937484741211e-01,9.094231128692626953e-01,9.093809127807617188e-01,9.093388319015502930e-01,9.092967510223388672e-01,9.092545509338378906e-01,9.092124700546264648e-01,9.091703295707702637e-01,9.091282486915588379e-01,9.090860486030578613e-01,9.090439677238464355e-01,9.090018272399902344e-01,9.089598059654235840e-01,9.089176058769226074e-01,9.088755846023559570e-01,9.088335037231445312e-01,9.087913632392883301e-01,9.087493419647216797e-01,9.087072014808654785e-01,9.086651802062988281e-01,9.086230397224426270e-01,9.085810184478759766e-01,9.085389375686645508e-01,9.084969162940979004e-01,9.084547758102416992e-01,9.084128141403198242e-01,9.083707928657531738e-01,9.083287119865417480e-01,9.082866907119750977e-01,9.082446098327636719e-01,9.082026481628417969e-01,9.081605672836303711e-01,9.081185460090637207e-01,9.080764651298522949e-01,9.080345034599304199e-01,9.079925417900085449e-01,9.079504609107971191e-01,9.079084992408752441e-01,9.078664779663085938e-01,9.078245162963867188e-01,9.077824354171752930e-01,9.077405333518981934e-01,9.076984524726867676e-01,9.076565504074096680e-01,9.076145291328430176e-01,9.075725674629211426e-01,9.075306653976440430e-01,9.074886441230773926e-01,9.074467420578002930e-01,9.074047207832336426e-01,9.073628187179565430e-01,9.073207974433898926e-01,9.072788953781127930e-01,9.072368741035461426e-01,9.071950316429138184e-01,9.071531295776367188e-01,9.071111083030700684e-01,9.070692658424377441e-01,9.070272445678710938e-01,9.069854021072387695e-01
8.634974360466003418e-01,8.634594678878784180e-01,8.634214401245117188e-01,8.633834719657897949e-01,8.633455634117126465e-01,8.633075356483459473e-01,8.632695674896240234e-01,8.632315397262573242e-01,8.631936311721801758e-01,8.631556034088134766e-01,8.631176948547363281e-01,8.630796670913696289e-01,8.630417585372924805e-01,8.630038499832153320e-01,8.629658222198486328e-01,8.629279732704162598e-01,8.628899455070495605e-01,8.628520369529724121e-01,8.628140687942504883e-01,8.627761602401733398e-01,8.627381920814514160e-01,8.627003431320190430e-01,8.626623153686523438e-01,8.626244664192199707e-01,8.625866174697875977e-01,8.625486493110656738e-01,8.625107407569885254e-01,8.624727725982666016e-01,8.624349236488342285e-01,8.623970150947570801e-01,8.623591065406799316e-01,8.623211979866027832e-01,8.622833490371704102e-01,8.622453808784484863e-01,8.622075915336608887e-01,8.621697425842285156e-01,8.621317744255065918e-01,8.620939850807189941e-01,8.620560765266418457e-01,8.620182275772094727e-01,8.619803190231323242e-01,8.619424700736999512e-01,8.619046211242675781e-01,8.618667721748352051e-01,8.618289828300476074e-01,8.617910742759704590e-01,8.617532849311828613e-01,8.617153763771057129e-01,8.616775870323181152e-01,8.616396784782409668e-01,8.616018891334533691e-01,8.615640401840209961e-01,8.615262508392333984e-01,8.614884018898010254e-01,8.614506125450134277e-01,8.614128232002258301e-01,8.613749742507934570e-01,8.613372445106506348e-01,8.612993359565734863e-01,8.612616062164306641e-01,8.612237572669982910e-01,8.611860275268554688e-01,8.611481785774230957e-01,8.611104488372802734e-01,8.610725998878479004e-01,8.610348701477050781e-01,8.609971404075622559e-01,8.609592914581298828e-01,8.609215617179870605e-01,8.608837723731994629e-01,8.608460426330566406e-01,8.608081936836242676e-01,8.607705235481262207e-01,8.607326745986938477e-01,8.606950044631958008e-01,8.606572747230529785e-01,8.606194853782653809e-01,8.605818152427673340e-01,8.605440258979797363e-01,8.605062961578369141e-01
8.212648630142211914e-01,8.212305307388305664e-01,8.211961984634399414e-01,8.211618065834045410e-01,8.211274743080139160e-01,8.210930824279785156e-01,8.210587501525878906e-01,8.210243582725524902e-01,8.209900856018066406e-01,8.209556937217712402e-01,8.209213614463806152e-01,8.208869695663452148e-01,8.208526968955993652e-01,8.208183646202087402e-01,8.207840323448181152e-01,8.207497596740722656e-01,8.207153677940368652e-01,8.206810951232910156e-01,8.206467032432556152e-01,8.206124305725097656e-01,8.205780982971191406e-01,8.205438256263732910e-01,8.205094933509826660e-01,8.204752206802368164e-01,8.204409480094909668e-01,8.204066157341003418e-01,8.203723430633544922e-01,8.203380107879638672e-01,8.203037381172180176e-01,8.202694058418273926e-01,8.202351331710815430e-01,8.202008605003356934e-01,8.201665878295898438e-01,8.201323747634887695e-01,8.200980424880981445e-01,8.200638294219970703e-01,8.200294971466064453e-01,8.199952840805053711e-01,8.199609518051147461e-01,8.199267387390136719e-01,8.198924660682678223e-01,8.198582530021667480e-01,8.198239207267761230e-01,8.197897076606750488e-01,8.197554945945739746e-01,8.197212219238281250e-01,8.196870088577270508e-01,8.196527361869812012e-01,8.196185231208801270e-01,8.195842504501342773e-01,8.195500969886779785e-01,8.195158243179321289e-01,8.194816112518310547e-01,8.194473385810852051e-01,8.194131851196289062e-01,8.193790316581726074e-01,8.193447589874267578e-01,8.193106055259704590e-01,8.192763328552246094e-01,8.192421793937683105e-01,8.192079067230224609e-01,8.191737532615661621e-01,8.191395401954650879e-01,8.191053867340087891e-01,8.190712332725524902e-01,8.190370202064514160e-01,8.190028667449951172e-01,8.189686536788940430e-01,8.189345002174377441e-01,8.189002871513366699e-01,8.188661336898803711e-01,8.188319206237792969e-01,8.187978267669677734e-01,8.187636137008666992e-01,8.187294602394104004e-01,8.186953663825988770e-01,8.186611533164978027e-01,8.186270594596862793e-01,8.185928463935852051e-01,8.185587525367736816e-01
7.829707860946655273e-01,7.829396128654479980e-01,7.829083800315856934e-01,7.828770875930786133e-01,7.828459143638610840e-01,7.828146219253540039e-01,7.827834486961364746e-01,7.827522158622741699e-01,7.827209830284118652e-01,7.826897501945495605e-01,7.826585769653320312e-01,7.826273441314697266e-01,7.825961112976074219e-01,7.825649380683898926e-01,7.825337052345275879e-01,7.825025320053100586e-01,7.824712991714477539e-01,7.824401259422302246e-01,7.824088931083679199e-01,7.823777794837951660e-01,7.823465466499328613e-01,7.823153734207153320e-01,7.822842001914978027e-01,7.822529673576354980e-01,7.822218537330627441e-01,7.821906208992004395e-01,7.821595072746276855e-01,7.821282744407653809e-01,7.820971012115478516e-01,7.820659279823303223e-01,7.820348143577575684e-01,7.820035815238952637e-01,7.819724678993225098e-01,7.819413542747497559e-01,7.819101214408874512e-01,7.818790078163146973e-01,7.818478345870971680e-01,7.818167209625244141e-01,7.817855477333068848e-01,7.817544341087341309e-01,7.817232608795166016e-01,7.816921472549438477e-01,7.816609740257263184e-01,7.816298604011535645e-01,7.815987467765808105e-01,7.815675735473632812e-01,7.815365195274353027e-01,7.815053462982177734e-01,7.814742326736450195e-01,7.814431190490722656e-01,7.814120054244995117e-01,7.813808321952819824e-01,7.813497781753540039e-01,7.813187241554260254e-01,7.812875509262084961e-01,7.812564969062805176e-01,7.812253236770629883e-01,7.811942696571350098e-01,7.811631560325622559e-01,7.811321020126342773e-01,7.811009287834167480e-01,7.810698747634887695e-01,7.810387611389160156e-01,7.810077071189880371e-01,7.809766530990600586e-01,7.809455394744873047e-01,7.809144854545593262e-01,7.808833718299865723e-01,7.808523774147033691e-01,7.808212637901306152e-01,7.807902097702026367e-01,7.807590961456298828e-01,7.807281017303466797e-01,7.806970477104187012e-01,7.806659340858459473e-01,7.806349396705627441e-01,7.806038260459899902e-01,7.805728316307067871e-01,7.805417776107788086e-01,7.805107235908508301e-01
7.480887770652770996e-01,7.480602860450744629e-01,7.480317950248718262e-01,7.480032444000244141e-01,7.479747533798217773e-01,7.479462027549743652e-01,7.479177713394165039e-01,7.478892207145690918e-01,7.478607296943664551e-01,7.478321790695190430e-01,7.478037476539611816e-01,7.477752566337585449e-01,7.477467656135559082e-01,7.477182745933532715e-01,7.476897835731506348e-01,7.476612925529479980e-01,7.476328015327453613e-01,7.476043105125427246e-01,7.475758194923400879e-01,7.475473880767822266e-01,7.475188374519348145e-01,7.474904060363769531e-01,7.474619746208190918e-01,7.474334836006164551e-01,7.474050521850585938e-01,7.473765611648559570e-01,7.473481297492980957e-01,7.473196387290954590e-01,7.472912073135375977e-01,7.472627162933349609e-01,7.472342848777770996e-01,7.472057938575744629e-01,7.471773624420166016e-01,7.471489310264587402e-01,7.471204400062561035e-01,7.470920681953430176e-01,7.470635771751403809e-01,7.470351457595825195e-01,7.470067143440246582e-01,7.469782829284667969e-01,7.469498515129089355e-01,7.469214200973510742e-01,7.468930482864379883e-01,7.468645572662353516e-01,7.468361854553222656e-01,7.468076944351196289e-01,7.467793226242065430e-01,7.467508912086486816e-01,7.467225193977355957e-01,7.466940283775329590e-01,7.466656565666198730e-01,7.466372251510620117e-01,7.466088533401489258e-01,7.465804815292358398e-01,7.465520501136779785e-01,7.465236783027648926e-01,7.464952468872070312e-01,7.464668750762939453e-01,7.464384436607360840e-01,7.464100718498229980e-01,7.463816404342651367e-01,7.463532686233520508e-01,7.463248968124389648e-01,7.462965250015258789e-01,7.462681531906127930e-01,7.462397813796997070e-01,7.462114095687866211e-01,7.461829781532287598e-01,7.461546659469604492e-01,7.461262345314025879e-01,7.460979223251342773e-01,7.460694909095764160e-01,7.460411787033081055e-01,7.460128664970397949e-01,7.459844350814819336e-01,7.459561228752136230e-01,7.459277510643005371e-01,7.458994388580322266e-01,7.458710670471191406e-01,7.458426952362060547e-01
7.161822915077209473e-01,7.161561250686645508e-01,7.161300182342529297e-01,7.161038517951965332e-01,7.160777449607849121e-01,7.160515785217285156e-01,7.160254716873168945e-01,7.159993052482604980e-01,7.159732580184936523e-01,7.159470915794372559e-01,7.159209847450256348e-01,7.158948779106140137e-01,7.158687710762023926e-01,7.158426642417907715e-01,7.158164978027343750e-01,7.157904505729675293e-01,7.157642841339111328e-01,7.157382369041442871e-01,7.157120704650878906e-01,7.156860232353210449e-01,7.156598567962646484e-01,7.156338095664978027e-01,7.156077623367309570e-01,7.155815958976745605e-01,7.155555486679077148e-01,7.155294418334960938e-01,7.155033946037292480e-01,7.154772281646728516e-01,7.154511809349060059e-01,7.154250741004943848e-01,7.153990268707275391e-01,7.153729796409606934e-01,7.153468728065490723e-01,7.153208255767822266e-01,7.152947187423706055e-01,7.152686715126037598e-01,7.152425646781921387e-01,7.152165174484252930e-01,7.151904106140136719e-01,7.151644229888916016e-01,7.151383161544799805e-01,7.151122689247131348e-01,7.150862216949462891e-01,7.150601744651794434e-01,7.150341272354125977e-01,7.150080800056457520e-01,7.149820327758789062e-01,7.149559259414672852e-01,7.149299383163452148e-01,7.149038314819335938e-01,7.148778438568115234e-01,7.148517370223999023e-01,7.148257493972778320e-01,7.147997617721557617e-01,7.147736549377441406e-01,7.147476673126220703e-01,7.147216200828552246e-01,7.146956324577331543e-01,7.146695256233215332e-01,7.146435379981994629e-01,7.146174907684326172e-01,7.145915031433105469e-01,7.145655155181884766e-01,7.145394682884216309e-01,7.145134806632995605e-01,7.144874334335327148e-01,7.144614458084106445e-01,7.144353985786437988e-01,7.144094109535217285e-01,7.143833637237548828e-01,7.143573760986328125e-01,7.143313884735107422e-01,7.143054008483886719e-01,7.142794132232666016e-01,7.142533659934997559e-01,7.142274379730224609e-01,7.142013907432556152e-01,7.141754031181335449e-01,7.141494154930114746e-01,7.141234278678894043e-01
6.868860721588134766e-01,6.868620514869689941e-01,6.868380308151245117e-01,6.868139505386352539e-01,6.867899298667907715e-01,6.867658495903015137e-01,6.867418885231018066e-01,6.867178082466125488e-01,6.866937875747680664e-01,6.866697072982788086e-01,6.866457462310791016e-01,6.866217255592346191e-01,6.865977048873901367e-01,6.865736842155456543e-01,6.865496635437011719e-01,6.865256428718566895e-01,6.865016222000122070e-01,6.864776015281677246e-01,6.864535808563232422e-01,6.864295601844787598e-01,6.864055991172790527e-01,6.863815784454345703e-01,6.863575577735900879e-01,6.863335371017456055e-01,6.863095760345458984e-01,6.862855553627014160e-01,6.862615346908569336e-01,6.862375140190124512e-01,6.862135529518127441e-01,6.861895322799682617e-01,6.861655712127685547e-01,6.861416101455688477e-01,6.861175894737243652e-01,6.860936284065246582e-01,6.860696077346801758e-01,6.860456466674804688e-01,6.860216259956359863e-01,6.859976649284362793e-01,6.859736442565917969e-01,6.859497427940368652e-01,6.859257221221923828e-01,6.859017610549926758e-01,6.858777999877929688e-01,6.858538389205932617e-01,6.858298778533935547e-01,6.858058571815490723e-01,6.857819557189941406e-01,6.857579350471496582e-01,6.857340335845947266e-01,6.857100129127502441e-01,6.856861114501953125e-01,6.856621503829956055e-01,6.856381893157958984e-01,6.856142282485961914e-01,6.855902671813964844e-01,6.855663061141967773e-01,6.855423450469970703e-01,6.855184435844421387e-01,6.854944229125976562e-01,6.854705214500427246e-01,6.854465603828430176e-01,6.854226589202880859e-01,6.853987574577331543e-01,6.853747367858886719e-01,6.853508353233337402e-01,6.853268742561340332e-01,6.853029727935791016e-01,6.852790117263793945e-01,6.852551102638244629e-01,6.852311491966247559e-01,6.852072477340698242e-01,6.851832866668701172e-01,6.851593852043151855e-01,6.851355433464050293e-01,6.851115822792053223e-01,6.850876808166503906e-01,6.850637197494506836e-01,6.850398182868957520e-01,6.850159168243408203e-01,6.849920153617858887e-01
6.598924994468688965e-01,6.598702669143676758e-01,6.598480939865112305e-01,6.598259210586547852e-01,6.598037481307983398e-01,6.597815155982971191e-01,6.597593426704406738e-01,6.597371697425842285e-01,6.597149968147277832e-01,6.596928834915161133e-01,6.596706509590148926e-01,6.596484780311584473e-01,6.596263051033020020e-01,6.596041321754455566e-01,6.595819592475891113e-01,6.595597863197326660e-01,6.595376133918762207e-01,6.595155000686645508e-01,6.594932675361633301e-01,6.594711542129516602e-01,6.594490408897399902e-01,6.594268083572387695e-01,6.594046950340270996e-01,6.593825221061706543e-01,6.593604087829589844e-01,6.593381762504577637e-01,6.593160629272460938e-01,6.592938899993896484e-01,6.592717766761779785e-01,6.592496037483215332e-01,6.592274904251098633e-01,6.592053771018981934e-01,6.591832041740417480e-01,6.591610908508300781e-01,6.591389179229736328e-01,6.591168045997619629e-01,6.590946316719055176e-01,6.590725183486938477e-01,6.590503454208374023e-01,6.590282320976257324e-01,6.590061187744140625e-01,6.589839458465576172e-01,6.589618921279907227e-01,6.589397192001342773e-01,6.589176058769226074e-01,6.588954329490661621e-01,6.588733792304992676e-01,6.588512063026428223e-01,6.588290929794311523e-01,6.588069796562194824e-01,6.587848663330078125e-01,6.587628126144409180e-01,6.587406396865844727e-01,6.587185859680175781e-01,6.586964130401611328e-01,6.586743593215942383e-01,6.586521863937377930e-01,6.586301326751708984e-01,6.586079597473144531e-01,6.585859060287475586e-01,6.585637927055358887e-01,6.585416793823242188e-01,6.585196256637573242e-01,6.584975123405456543e-01,6.584754586219787598e-01,6.584532856941223145e-01,6.584312319755554199e-01,6.584091186523437500e-01,6.583870649337768555e-01,6.583649516105651855e-01,6.583428978919982910e-01,6.583208441734313965e-01,6.582987308502197266e-01,6.582766175270080566e-01,6.582545638084411621e-01,6.582325100898742676e-01,6.582103967666625977e-01,6.581883430480957031e-01,6.581662297248840332e-01,6.581441760063171387e-01
6.349402666091918945e-01,6.349197030067443848e-01,6.348991990089416504e-01,6.348786354064941406e-01,6.348580718040466309e-01,6.348375082015991211e-01,6.348170042037963867e-01,6.347964406013488770e-01,6.347759366035461426e-01,6.347554326057434082e-01,6.347348690032958984e-01,6.347143650054931641e-01,6.346938014030456543e-01,6.346732974052429199e-01,6.346527934074401855e-01,6.346322894096374512e-01,6.346117258071899414e-01,6.345912218093872070e-01,6.345706582069396973e-01,6.345501542091369629e-01,6.345296502113342285e-01,6.345091462135314941e-01,6.344886422157287598e-01,6.344680786132812500e-01,6.344476342201232910e-01,6.344270706176757812e-01,6.344065666198730469e-01,6.343860626220703125e-01,6.343655586242675781e-01,6.343451142311096191e-01,6.343245506286621094e-01,6.343040466308593750e-01,6.342835426330566406e-01,6.342630982398986816e-01,6.342425346374511719e-01,6.342220902442932129e-01,6.342015266418457031e-01,6.341810822486877441e-01,6.341605782508850098e-01,6.341400742530822754e-01,6.341196298599243164e-01,6.340991258621215820e-01,6.340786218643188477e-01,6.340581178665161133e-01,6.340376734733581543e-01,6.340171694755554199e-01,6.339966654777526855e-01,6.339761614799499512e-01,6.339557170867919922e-01,6.339352130889892578e-01,6.339147686958312988e-01,6.338943243026733398e-01,6.338738203048706055e-01,6.338533759117126465e-01,6.338328719139099121e-01,6.338124275207519531e-01,6.337919235229492188e-01,6.337714791297912598e-01,6.337509751319885254e-01,6.337305307388305664e-01,6.337100863456726074e-01,6.336895823478698730e-01,6.336691379547119141e-01,6.336486935615539551e-01,6.336282491683959961e-01,6.336077451705932617e-01,6.335873007774353027e-01,6.335668563842773438e-01,6.335464119911193848e-01,6.335259079933166504e-01,6.335054636001586914e-01,6.334850788116455078e-01,6.334645748138427734e-01,6.334441900253295898e-01,6.334236860275268555e-01,6.334032416343688965e-01,6.333827972412109375e-01,6.333624124526977539e-01,6.333419084548950195e-01,6.333215236663818359e-01
6.118063330650329590e-01,6.117872595787048340e-01,6.117681860923767090e-01,6.117491126060485840e-01,6.117300391197204590e-01,6.117109656333923340e-01,6.116918921470642090e-01,6.116728186607360840e-01,6.116537451744079590e-01,6.116347312927246094e-01,6.116156578063964844e-01,6.115965843200683594e-01,6.115775108337402344e-01,6.115584969520568848e-01,6.115394234657287598e-01,6.115203499794006348e-01,6.115012764930725098e-01,6.114822626113891602e-01,6.114631891250610352e-01,6.114441156387329102e-01,6.114251017570495605e-01,6.114060282707214355e-01,6.113870143890380859e-01,6.113679409027099609e-01,6.113489270210266113e-01,6.113298535346984863e-01,6.113108396530151367e-01,6.112917661666870117e-01,6.112727522850036621e-01,6.112537384033203125e-01,6.112346649169921875e-01,6.112156510353088379e-01,6.111965775489807129e-01,6.111775636672973633e-01,6.111584901809692383e-01,6.111394762992858887e-01,6.111204028129577637e-01,6.111014485359191895e-01,6.110823750495910645e-01,6.110633611679077148e-01,6.110443472862243652e-01,6.110253334045410156e-01,6.110063195228576660e-01,6.109872460365295410e-01,6.109682321548461914e-01,6.109492182731628418e-01,6.109302043914794922e-01,6.109111905097961426e-01,6.108921766281127930e-01,6.108731627464294434e-01,6.108541488647460938e-01,6.108351349830627441e-01,6.108161211013793945e-01,6.107971072196960449e-01,6.107780933380126953e-01,6.107590794563293457e-01,6.107400655746459961e-01,6.107210516929626465e-01,6.107020378112792969e-01,6.106830835342407227e-01,6.106640696525573730e-01,6.106450557708740234e-01,6.106260418891906738e-01,6.106070280075073242e-01,6.105880737304687500e-01,6.105690598487854004e-01,6.105500459671020508e-01,6.105310320854187012e-01,6.105120778083801270e-01,6.104930639266967773e-01,6.104741096496582031e-01,6.104550957679748535e-01,6.104360818862915039e-01,6.104171276092529297e-01,6.103981137275695801e-01,6.103791594505310059e-01,6.103601455688476562e-01,6.103411912918090820e-01,6.103221774101257324e-01,6.103032231330871582e-01
