3.097489833831787109e+00,3.176047325134277344e+00,3.258695840835571289e+00,3.345760345458984375e+00,3.437605142593383789e+00,3.534634113311767578e+00,3.637300491333007812e+00,3.746109247207641602e+00,3.861628055572509766e+00,3.984498739242553711e+00,4.115445137023925781e+00,4.255290985107421875e+00,4.404974937438964844e+00,4.565573692321777344e+00,4.738326072692871094e+00,4.924665451049804688e+00,5.000000000000000000e+00,5.000000000000000000e+00,5.000000000000000000e+00,5.000000000000000000e+00,5.000000000000000000e+00,5.000000000000000000e+00,5.000000000000000000e+00,5.000000000000000000e+00,5.000000000000000000e+00,5.000000000000000000e+00,5.000000000000000000e+00,5.000000000000000000e+00,5.000000000000000000e+00,5.000000000000000000e+00,5.000000000000000000e+00,5.000000000000000000e+00,5.000000000000000000e+00,5.000000000000000000e+00,5.000000000000000000e+00,5.000000000000000000e+00,5.000000000000000000e+00,5.000000000000000000e+00,5.000000000000000000e+00,5.000000000000000000e+00,5.000000000000000000e+00,5.000000000000000000e+00,5.000000000000000000e+00,5.000000000000000000e+00,5.000000000000000000e+00,5.000000000000000000e+00,5.000000000000000000e+00,5.000000000000000000e+00,5.000000000000000000e+00,5.000000000000000000e+00,5.000000000000000000e+00,5.000000000000000000e+00,5.000000000000000000e+00,5.000000000000000000e+00,5.000000000000000000e+00,5.000000000000000000e+00,5.000000000000000000e+00,5.000000000000000000e+00,5.000000000000000000e+00,5.000000000000000000e+00,5.000000000000000000e+00,5.000000000000000000e+00,5.000000000000000000e+00,5.000000000000000000e+00,5.000000000000000000e+00,5.000000000000000000e+00,5.000000000000000000e+00,5.000000000000000000e+00,5.000000000000000000e+00,5.000000000000000000e+00,4.846040248870849609e+00,4.687592983245849609e+00,4.539179325103759766e+00,4.399816513061523438e+00,4.268734931945800781e+00,4.145238399505615234e+00,4.028686046600341797e+00,3.918509483337402344e+00,3.814198255538940430e+00,3.715296268463134766e+00
3.097424030303955078e+00,3.175967216491699219e+00,3.258608818054199219e+00,3.345668792724609375e+00,3.437508583068847656e+00,3.534532308578491211e+00,3.637192487716674805e+00,3.745994567871093750e+00,3.861506223678588867e+00,3.984369039535522461e+00,4.115306377410888672e+00,4.255143165588378906e+00,4.404816627502441406e+00,4.565403461456298828e+00,4.738142490386962891e+00,4.924467563629150391e+00,5.000000000000000000e+00,5.000000000000000000e+00,5.000000000000000000e+00,5.000000000000000000e+00,5.000000000000000000e+00,5.000000000000000000e+00,5.000000000000000000e+00,5.000000000000000000e+00,5.000000000000000000e+00,5.000000000000000000e+00,5.000000000000000000e+00,5.000000000000000000e+00,5.000000000000000000e+00,5.000000000000000000e+00,5.000000000000000000e+00,5.000000000000000000e+00,5.000000000000000000e+00,5.000000000000000000e+00,5.000000000000000000e+00,5.000000000000000000e+00,5.000000000000000000e+00,5.000000000000000000e+00,5.000000000000000000e+00,5.000000000000000000e+00,5.000000000000000000e+00,5.000000000000000000e+00,5.000000000000000000e+00,5.000000000000000000e+00,5.000000000000000000e+00,5.000000000000000000e+00,5.000000000000000000e+00,5.000000000000000000e+00,5.000000000000000000e+00,5.000000000000000000e+00,5.000000000000000000e+00,5.000000000000000000e+00,5.000000000000000000e+00,5.000000000000000000e+00,5.000000000000000000e+00,5.000000000000000000e+00,5.000000000000000000e+00,5.000000000000000000e+00,5.000000000000000000e+00,5.000000000000000000e+00,5.000000000000000000e+00,5.000000000000000000e+00,5.000000000000000000e+00,5.000000000000000000e+00,5.000000000000000000e+00,5.000000000000000000e+00,5.000000000000000000e+00,5.000000000000000000e+00,5.000000000000000000e+00,5.000000000000000000e+00,4.846292972564697266e+00,4.687829494476318359e+00,4.539327144622802734e+00,4.399932861328125000e+00,4.268845081329345703e+00,4.145341873168945312e+00,4.028783798217773438e+00,3.918601989746093750e+00,3.814285755157470703e+00,3.715379476547241211e+00
3.097357988357543945e+00,3.175897598266601562e+00,3.258524417877197266e+00,3.345577478408813477e+00,3.437411785125732422e+00,3.534430265426635742e+00,3.637084484100341797e+00,3.745879411697387695e+00,3.861384630203247070e+00,3.984239339828491211e+00,4.115168094635009766e+00,4.254994869232177734e+00,4.404657840728759766e+00,4.565233230590820312e+00,4.737958908081054688e+00,4.924269199371337891e+00,5.000000000000000000e+00,5.000000000000000000e+00,5.000000000000000000e+00,5.000000000000000000e+00,5.000000000000000000e+00,5.000000000000000000e+00,5.000000000000000000e+00,5.000000000000000000e+00,5.000000000000000000e+00,5.000000000000000000e+00,5.000000000000000000e+00,5.000000000000000000e+00,5.000000000000000000e+00,5.000000000000000000e+00,5.000000000000000000e+00,5.000000000000000000e+00,5.000000000000000000e+00,5.000000000000000000e+00,5.000000000000000000e+00,5.000000000000000000e+00,5.000000000000000000e+00,5.000000000000000000e+00,5.000000000000000000e+00,5.000000000000000000e+00,5.000000000000000000e+00,5.000000000000000000e+00,5.000000000000000000e+00,5.000000000000000000e+00,5.000000000000000000e+00,5.000000000000000000e+00,5.000000000000000000e+00,5.000000000000000000e+00,5.000000000000000000e+00,5.000000000000000000e+00,5.000000000000000000e+00,5.000000000000000000e+00,5.000000000000000000e+00,5.000000000000000000e+00,5.000000000000000000e+00,5.000000000000000000e+00,5.000000000000000000e+00,5.000000000000000000e+00,5.000000000000000000e+00,5.000000000000000000e+00,5.000000000000000000e+00,5.000000000000000000e+00,5.000000000000000000e+00,5.000000000000000000e+00,5.000000000000000000e+00,5.000000000000000000e+00,5.000000000000000000e+00,5.000000000000000000e+00,5.000000000000000000e+00,5.000000000000000000e+00,4.846545219421386719e+00,4.687974929809570312e+00,4.539451122283935547e+00,4.400049686431884766e+00,4.268954753875732422e+00,4.145445346832275391e+00,4.028881549835205078e+00,3.918694257736206055e+00,3.814373493194580078e+00,3.715462446212768555e+00
3.097291946411132812e+00,3.175828218460083008e+00,3.258451223373413086e+00,3.345488071441650391e+00,3.437315225601196289e+00,3.534328222274780273e+00,3.636976003646850586e+00,3.745764970779418945e+00,3.861262798309326172e+00,3.984109401702880859e+00,4.115029811859130859e+00,4.254847049713134766e+00,4.404499530792236328e+00,4.565062522888183594e+00,4.737775325775146484e+00,4.924071311950683594e+00,5.000000000000000000e+00,5.000000000000000000e+00,5.000000000000000000e+00,5.000000000000000000e+00,5.000000000000000000e+00,5.000000000000000000e+00,5.000000000000000000e+00,5.000000000000000000e+00,5.000000000000000000e+00,5.000000000000000000e+00,5.000000000000000000e+00,5.000000000000000000e+00,5.000000000000000000e+00,5.000000000000000000e+00,5.000000000000000000e+00,5.000000000000000000e+00,5.000000000000000000e+00,5.000000000000000000e+00,5.000000000000000000e+00,5.000000000000000000e+00,5.000000000000000000e+00,5.000000000000000000e+00,5.000000000000000000e+00,5.000000000000000000e+00,5.000000000000000000e+00,5.000000000000000000e+00,5.000000000000000000e+00,5.000000000000000000e+00,5.000000000000000000e+00,5.000000000000000000e+00,5.000000000000000000e+00,5.000000000000000000e+00,5.000000000000000000e+00,5.000000000000000000e+00,5.000000000000000000e+00,5.000000000000000000e+00,5.000000000000000000e+00,5.000000000000000000e+00,5.000000000000000000e+00,5.000000000000000000e+00,5.000000000000000000e+00,5.000000000000000000e+00,5.000000000000000000e+00,5.000000000000000000e+00,5.000000000000000000e+00,5.000000000000000000e+00,5.000000000000000000e+00,5.000000000000000000e+00,5.000000000000000000e+00,5.000000000000000000e+00,5.000000000000000000e+00,5.000000000000000000e+00,5.000000000000000000e+00,5.000000000000000000e+00,4.846688270568847656e+00,4.688107490539550781e+00,4.539575576782226562e+00,4.400166511535644531e+00,4.269064426422119141e+00,4.145548820495605469e+00,4.028979301452636719e+00,3.918786764144897461e+00,3.814460992813110352e+00,3.715545654296875000e+00
3.097225904464721680e+00,3.175759077072143555e+00,3.258378028869628906e+00,3.345411062240600586e+00,3.437220573425292969e+00,3.534226179122924805e+00,3.636868000030517578e+00,3.745650291442871094e+00,3.861140966415405273e+00,3.983979701995849609e+00,4.114891529083251953e+00,4.254698753356933594e+00,4.404340744018554688e+00,4.564892768859863281e+00,4.737592220306396484e+00,4.923872947692871094e+00,5.000000000000000000e+00,5.000000000000000000e+00,5.000000000000000000e+00,5.000000000000000000e+00,5.000000000000000000e+00,5.000000000000000000e+00,5.000000000000000000e+00,5.000000000000000000e+00,5.000000000000000000e+00,5.000000000000000000e+00,5.000000000000000000e+00,5.000000000000000000e+00,5.000000000000000000e+00,5.000000000000000000e+00,5.000000000000000000e+00,5.000000000000000000e+00,5.000000000000000000e+00,5.000000000000000000e+00,5.000000000000000000e+00,5.000000000000000000e+00,5.000000000000000000e+00,5.000000000000000000e+00,5.000000000000000000e+00,5.000000000000000000e+00,5.000000000000000000e+00,5.000000000000000000e+00,5.000000000000000000e+00,5.000000000000000000e+00,5.000000000000000000e+00,5.000000000000000000e+00,5.000000000000000000e+00,5.000000000000000000e+00,5.000000000000000000e+00,5.000000000000000000e+00,5.000000000000000000e+00,5.000000000000000000e+00,5.000000000000000000e+00,5.000000000000000000e+00,5.000000000000000000e+00,5.000000000000000000e+00,5.000000000000000000e+00,5.000000000000000000e+00,5.000000000000000000e+00,5.000000000000000000e+00,5.000000000000000000e+00,5.000000000000000000e+00,5.000000000000000000e+00,5.000000000000000000e+00,5.000000000000000000e+00,5.000000000000000000e+00,5.000000000000000000e+00,5.000000000000000000e+00,5.000000000000000000e+00,5.000000000000000000e+00,4.846829414367675781e+00,4.688240051269531250e+00,4.539699554443359375e+00,4.400282859802246094e+00,4.269174575805664062e+00,4.145652294158935547e+00,4.029077053070068359e+00,3.918879270553588867e+00,3.814548730850219727e+00,3.715629100799560547e+00
3.097159862518310547e+00,3.175689697265625000e+00,3.258305072784423828e+00,3.345334053039550781e+00,3.437139272689819336e+00,3.534125566482543945e+00,3.636759996414184570e+00,3.745535850524902344e+00,3.861018896102905273e+00,3.983850002288818359e+00,4.114753246307373047e+00,4.254550933837890625e+00,4.404182434082031250e+00,4.564722061157226562e+00,4.737409114837646484e+00,4.923675060272216797e+00,5.000000000000000000e+00,5.000000000000000000e+00,5.000000000000000000e+00,5.000000000000000000e+00,5.000000000000000000e+00,5.000000000000000000e+00,5.000000000000000000e+00,5.000000000000000000e+00,5.000000000000000000e+00,5.000000000000000000e+00,5.000000000000000000e+00,5.000000000000000000e+00,5.000000000000000000e+00,5.000000000000000000e+00,5.000000000000000000e+00,5.000000000000000000e+00,5.000000000000000000e+00,5.000000000000000000e+00,5.000000000000000000e+00,5.000000000000000000e+00,5.000000000000000000e+00,5.000000000000000000e+00,5.000000000000000000e+00,5.000000000000000000e+00,5.000000000000000000e+00,5.000000000000000000e+00,5.000000000000000000e+00,5.000000000000000000e+00,5.000000000000000000e+00,5.000000000000000000e+00,5.000000000000000000e+00,5.000000000000000000e+00,5.000000000000000000e+00,5.000000000000000000e+00,5.000000000000000000e+00,5.000000000000000000e+00,5.000000000000000000e+00,5.000000000000000000e+00,5.000000000000000000e+00,5.000000000000000000e+00,5.000000000000000000e+00,5.000000000000000000e+00,5.000000000000000000e+00,5.000000000000000000e+00,5.000000000000000000e+00,5.000000000000000000e+00,5.000000000000000000e+00,5.000000000000000000e+00,5.000000000000000000e+00,5.000000000000000000e+00,5.000000000000000000e+00,5.000000000000000000e+00,5.000000000000000000e+00,5.000000000000000000e+00,4.846971035003662109e+00,4.688372135162353516e+00,4.539824008941650391e+00,4.400399684906005859e+00,4.269284248352050781e+00,4.145755767822265625e+00,4.029175281524658203e+00,3.918971776962280273e+00,3.814634084701538086e+00,3.715706110000610352e+00
3.097093820571899414e+00,3.175620317459106445e+00,3.258231878280639648e+00,3.345257043838500977e+00,3.437058210372924805e+00,3.534039735794067383e+00,3.636653661727905273e+00,3.745420932769775391e+00,3.860897064208984375e+00,3.983720541000366211e+00,4.114614486694335938e+00,4.254403114318847656e+00,4.404024124145507812e+00,4.564551830291748047e+00,4.737225532531738281e+00,4.923476696014404297e+00,5.000000000000000000e+00,5.000000000000000000e+00,5.000000000000000000e+00,5.000000000000000000e+00,5.000000000000000000e+00,5.000000000000000000e+00,5.000000000000000000e+00,5.000000000000000000e+00,5.000000000000000000e+00,5.000000000000000000e+00,5.000000000000000000e+00,5.000000000000000000e+00,5.000000000000000000e+00,5.000000000000000000e+00,5.000000000000000000e+00,5.000000000000000000e+00,5.000000000000000000e+00,5.000000000000000000e+00,5.000000000000000000e+00,5.000000000000000000e+00,5.000000000000000000e+00,5.000000000000000000e+00,5.000000000000000000e+00,5.000000000000000000e+00,5.000000000000000000e+00,5.000000000000000000e+00,5.000000000000000000e+00,5.000000000000000000e+00,5.000000000000000000e+00,5.000000000000000000e+00,5.000000000000000000e+00,5.000000000000000000e+00,5.000000000000000000e+00,5.000000000000000000e+00,5.000000000000000000e+00,5.000000000000000000e+00,5.000000000000000000e+00,5.000000000000000000e+00,5.000000000000000000e+00,5.000000000000000000e+00,5.000000000000000000e+00,5.000000000000000000e+00,5.000000000000000000e+00,5.000000000000000000e+00,5.000000000000000000e+00,5.000000000000000000e+00,5.000000000000000000e+00,5.000000000000000000e+00,5.000000000000000000e+00,5.000000000000000000e+00,5.000000000000000000e+00,5.000000000000000000e+00,5.000000000000000000e+00,5.000000000000000000e+00,4.847112655639648438e+00,4.688504695892333984e+00,4.539947986602783203e+00,4.400516510009765625e+00,4.269393920898437500e+00,4.145858287811279297e+00,4.029267787933349609e+00,3.919055461883544922e+00,3.814711570739746094e+00,3.715780258178710938e+00
3.097028255462646484e+00,3.175550699234008789e+00,3.258159160614013672e+00,3.345179796218872070e+00,3.436976909637451172e+00,3.533953666687011719e+00,3.636562585830688477e+00,3.745307683944702148e+00,3.860775470733642578e+00,3.983590841293334961e+00,4.114476680755615234e+00,4.254255294799804688e+00,4.403865337371826172e+00,4.564382076263427734e+00,4.737041950225830078e+00,4.923278808593750000e+00,5.000000000000000000e+00,5.000000000000000000e+00,5.000000000000000000e+00,5.000000000000000000e+00,5.000000000000000000e+00,5.000000000000000000e+00,5.000000000000000000e+00,5.000000000000000000e+00,5.000000000000000000e+00,5.000000000000000000e+00,5.000000000000000000e+00,5.000000000000000000e+00,5.000000000000000000e+00,5.000000000000000000e+00,5.000000000000000000e+00,5.000000000000000000e+00,5.000000000000000000e+00,5.000000000000000000e+00,5.000000000000000000e+00,5.000000000000000000e+00,5.000000000000000000e+00,5.000000000000000000e+00,5.000000000000000000e+00,5.000000000000000000e+00,5.000000000000000000e+00,5.000000000000000000e+00,5.000000000000000000e+00,5.000000000000000000e+00,5.000000000000000000e+00,5.000000000000000000e+00,5.000000000000000000e+00,5.000000000000000000e+00,5.000000000000000000e+00,5.000000000000000000e+00,5.000000000000000000e+00,5.000000000000000000e+00,5.000000000000000000e+00,5.000000000000000000e+00,5.000000000000000000e+00,5.000000000000000000e+00,5.000000000000000000e+00,5.000000000000000000e+00,5.000000000000000000e+00,5.000000000000000000e+00,5.000000000000000000e+00,5.000000000000000000e+00,5.000000000000000000e+00,5.000000000000000000e+00,5.000000000000000000e+00,5.000000000000000000e+00,5.000000000000000000e+00,5.000000000000000000e+00,5.000000000000000000e+00,5.000000000000000000e+00,4.847254276275634766e+00,4.688637256622314453e+00,4.540072441101074219e+00,4.400628566741943359e+00,4.269495010375976562e+00,4.145950317382812500e+00,4.029354572296142578e+00,3.919137477874755859e+00,3.814789772033691406e+00,3.715853929519653320e+00
3.096962213516235352e+00,3.175481319427490234e+00,3.258086204528808594e+00,3.345102787017822266e+00,3.436895608901977539e+00,3.533867835998535156e+00,3.636471509933471680e+00,3.745210886001586914e+00,3.860654592514038086e+00,3.983460903167724609e+00,4.114337921142578125e+00,4.254107475280761719e+00,4.403707027435302734e+00,4.564211368560791016e+00,4.736858367919921875e+00,4.923080921173095703e+00,5.000000000000000000e+00,5.000000000000000000e+00,5.000000000000000000e+00,5.000000000000000000e+00,5.000000000000000000e+00,5.000000000000000000e+00,5.000000000000000000e+00,5.000000000000000000e+00,5.000000000000000000e+00,5.000000000000000000e+00,5.000000000000000000e+00,5.000000000000000000e+00,5.000000000000000000e+00,5.000000000000000000e+00,5.000000000000000000e+00,5.000000000000000000e+00,5.000000000000000000e+00,5.000000000000000000e+00,5.000000000000000000e+00,5.000000000000000000e+00,5.000000000000000000e+00,5.000000000000000000e+00,5.000000000000000000e+00,5.000000000000000000e+00,5.000000000000000000e+00,5.000000000000000000e+00,5.000000000000000000e+00,5.000000000000000000e+00,5.000000000000000000e+00,5.000000000000000000e+00,5.000000000000000000e+00,5.000000000000000000e+00,5.000000000000000000e+00,5.000000000000000000e+00,5.000000000000000000e+00,5.000000000000000000e+00,5.000000000000000000e+00,5.000000000000000000e+00,5.000000000000000000e+00,5.000000000000000000e+00,5.000000000000000000e+00,5.000000000000000000e+00,5.000000000000000000e+00,5.000000000000000000e+00,5.000000000000000000e+00,5.000000000000000000e+00,5.000000000000000000e+00,5.000000000000000000e+00,5.000000000000000000e+00,5.000000000000000000e+00,5.000000000000000000e+00,5.000000000000000000e+00,5.000000000000000000e+00,5.000000000000000000e+00,4.847392559051513672e+00,4.688761234283447266e+00,4.540183067321777344e+00,4.400732040405273438e+00,4.269592285156250000e+00,4.146042346954345703e+00,4.029441356658935547e+00,3.919219732284545898e+00,3.814867496490478516e+00,3.715927839279174805e+00
3.096896171569824219e+00,3.175411939620971680e+00,3.258013010025024414e+00,3.345025777816772461e+00,3.436814308166503906e+00,3.533782243728637695e+00,3.636380434036254883e+00,3.745114803314208984e+00,3.860552072525024414e+00,3.983332157135009766e+00,4.114199638366699219e+00,4.253959655761718750e+00,4.403548240661621094e+00,4.564041137695312500e+00,4.736675262451171875e+00,4.922882080078125000e+00,5.000000000000000000e+00,5.000000000000000000e+00,5.000000000000000000e+00,5.000000000000000000e+00,5.000000000000000000e+00,5.000000000000000000e+00,5.000000000000000000e+00,5.000000000000000000e+00,5.000000000000000000e+00,5.000000000000000000e+00,5.000000000000000000e+00,5.000000000000000000e+00,5.000000000000000000e+00,5.000000000000000000e+00,5.000000000000000000e+00,5.000000000000000000e+00,5.000000000000000000e+00,5.000000000000000000e+00,5.000000000000000000e+00,5.000000000000000000e+00,5.000000000000000000e+00,5.000000000000000000e+00,5.000000000000000000e+00,5.000000000000000000e+00,5.000000000000000000e+00,5.000000000000000000e+00,5.000000000000000000e+00,5.000000000000000000e+00,5.000000000000000000e+00,5.000000000000000000e+00,5.000000000000000000e+00,5.000000000000000000e+00,5.000000000000000000e+00,5.000000000000000000e+00,5.000000000000000000e+00,5.000000000000000000e+00,5.000000000000000000e+00,5.000000000000000000e+00,5.000000000000000000e+00,5.000000000000000000e+00,5.000000000000000000e+00,5.000000000000000000e+00,5.000000000000000000e+00,5.000000000000000000e+00,5.000000000000000000e+00,5.000000000000000000e+00,5.000000000000000000e+00,5.000000000000000000e+00,5.000000000000000000e+00,5.000000000000000000e+00,5.000000000000000000e+00,5.000000000000000000e+00,5.000000000000000000e+00,5.000000000000000000e+00,4.847518444061279297e+00,4.688879013061523438e+00,4.540293693542480469e+00,4.400835990905761719e+00,4.269690036773681641e+00,4.146133899688720703e+00,4.029528141021728516e+00,3.919301748275756836e+00,3.814945459365844727e+00,3.716001510620117188e+00
3.096830129623413086e+00,3.175342798233032227e+00,3.257940053939819336e+00,3.344949245452880859e+00,3.436733007431030273e+00,3.533696174621582031e+00,3.636289358139038086e+00,3.745018243789672852e+00,3.860449314117431641e+00,3.983222961425781250e+00,4.114061832427978516e+00,4.253811836242675781e+00,4.403389930725097656e+00,4.563870906829833984e+00,4.736492156982421875e+00,4.922684192657470703e+00,5.000000000000000000e+00,5.000000000000000000e+00,5.000000000000000000e+00,5.000000000000000000e+00,5.000000000000000000e+00,5.000000000000000000e+00,5.000000000000000000e+00,5.000000000000000000e+00,5.000000000000000000e+00,5.000000000000000000e+00,5.000000000000000000e+00,5.000000000000000000e+00,5.000000000000000000e+00,5.000000000000000000e+00,5.000000000000000000e+00,5.000000000000000000e+00,5.000000000000000000e+00,5.000000000000000000e+00,5.000000000000000000e+00,5.000000000000000000e+00,5.000000000000000000e+00,5.000000000000000000e+00,5.000000000000000000e+00,5.000000000000000000e+00,5.000000000000000000e+00,5.000000000000000000e+00,5.000000000000000000e+00,5.000000000000000000e+00,5.000000000000000000e+00,5.000000000000000000e+00,5.000000000000000000e+00,5.000000000000000000e+00,5.000000000000000000e+00,5.000000000000000000e+00,4.819881439208984375e+00,5.000000000000000000e+00,5.000000000000000000e+00,5.000000000000000000e+00,5.000000000000000000e+00,5.000000000000000000e+00,5.000000000000000000e+00,5.000000000000000000e+00,5.000000000000000000e+00,5.000000000000000000e+00,5.000000000000000000e+00,5.000000000000000000e+00,5.000000000000000000e+00,5.000000000000000000e+00,5.000000000000000000e+00,5.000000000000000000e+00,5.000000000000000000e+00,5.000000000000000000e+00,5.000000000000000000e+00,5.000000000000000000e+00,4.847644329071044922e+00,4.688996791839599609e+00,4.540403842926025391e+00,4.400939464569091797e+00,4.269787788391113281e+00,4.146226406097412109e+00,4.029615402221679688e+00,3.919384241104125977e+00,3.815023422241210938e+00,3.716075658798217773e+00
3.096764087677001953e+00,3.175273418426513672e+00,3.257866859436035156e+00,3.344872236251831055e+00,3.436651706695556641e+00,3.533610105514526367e+00,3.636198520660400391e+00,3.744921684265136719e+00,3.860346794128417969e+00,3.983113765716552734e+00,4.113945484161376953e+00,4.253664016723632812e+00,4.403231620788574219e+00,4.563700675964355469e+00,4.736308574676513672e+00,4.922486305236816406e+00,5.000000000000000000e+00,5.000000000000000000e+00,5.000000000000000000e+00,5.000000000000000000e+00,5.000000000000000000e+00,5.000000000000000000e+00,5.000000000000000000e+00,5.000000000000000000e+00,5.000000000000000000e+00,5.000000000000000000e+00,5.000000000000000000e+00,5.000000000000000000e+00,5.000000000000000000e+00,5.000000000000000000e+00,5.000000000000000000e+00,5.000000000000000000e+00,5.000000000000000000e+00,5.000000000000000000e+00,5.000000000000000000e+00,5.000000000000000000e+00,5.000000000000000000e+00,5.000000000000000000e+00,5.000000000000000000e+00,5.000000000000000000e+00,5.000000000000000000e+00,5.000000000000000000e+00,5.000000000000000000e+00,5.000000000000000000e+00,5.000000000000000000e+00,5.000000000000000000e+00,5.000000000000000000e+00,5.000000000000000000e+00,5.000000000000000000e+00,4.937674522399902344e+00,4.826863288879394531e+00,5.000000000000000000e+00,5.000000000000000000e+00,5.000000000000000000e+00,5.000000000000000000e+00,5.000000000000000000e+00,5.000000000000000000e+00,5.000000000000000000e+00,5.000000000000000000e+00,5.000000000000000000e+00,5.000000000000000000e+00,5.000000000000000000e+00,5.000000000000000000e+00,5.000000000000000000e+00,5.000000000000000000e+00,5.000000000000000000e+00,5.000000000000000000e+00,5.000000000000000000e+00,5.000000000000000000e+00,5.000000000000000000e+00,4.847770214080810547e+00,4.689114570617675781e+00,4.540514469146728516e+00,4.401043415069580078e+00,4.269885063171386719e+00,4.146318435668945312e+00,4.029702186584472656e+00,3.919466495513916016e+00,3.815101146697998047e+00,3.716149806976318359e+00
3.096698045730590820e+00,3.175204038619995117e+00,3.257793903350830078e+00,3.344795227050781250e+00,3.436570405960083008e+00,3.533524274826049805e+00,3.636107921600341797e+00,3.744825124740600586e+00,3.860244750976562500e+00,3.983004570007324219e+00,4.113829135894775391e+00,4.253539562225341797e+00,4.403072834014892578e+00,4.563530445098876953e+00,4.736125469207763672e+00,4.922288417816162109e+00,5.000000000000000000e+00,5.000000000000000000e+00,5.000000000000000000e+00,5.000000000000000000e+00,5.000000000000000000e+00,5.000000000000000000e+00,5.000000000000000000e+00,5.000000000000000000e+00,5.000000000000000000e+00,5.000000000000000000e+00,5.000000000000000000e+00,5.000000000000000000e+00,5.000000000000000000e+00,5.000000000000000000e+00,5.000000000000000000e+00,5.000000000000000000e+00,5.000000000000000000e+00,5.000000000000000000e+00,5.000000000000000000e+00,5.000000000000000000e+00,5.000000000000000000e+00,5.000000000000000000e+00,5.000000000000000000e+00,5.000000000000000000e+00,5.000000000000000000e+00,5.000000000000000000e+00,5.000000000000000000e+00,5.000000000000000000e+00,5.000000000000000000e+00,5.000000000000000000e+00,5.000000000000000000e+00,5.000000000000000000e+00,5.000000000000000000e+00,5.000000000000000000e+00,4.845743656158447266e+00,5.000000000000000000e+00,5.000000000000000000e+00,5.000000000000000000e+00,5.000000000000000000e+00,5.000000000000000000e+00,5.000000000000000000e+00,5.000000000000000000e+00,5.000000000000000000e+00,5.000000000000000000e+00,5.000000000000000000e+00,5.000000000000000000e+00,5.000000000000000000e+00,5.000000000000000000e+00,5.000000000000000000e+00,5.000000000000000000e+00,5.000000000000000000e+00,5.000000000000000000e+00,5.000000000000000000e+00,5.000000000000000000e+00,4.847896099090576172e+00,4.689231872558593750e+00,4.540624618530273438e+00,4.401146888732910156e+00,4.269982814788818359e+00,4.146410465240478516e+00,4.029788970947265625e+00,3.919548511505126953e+00,3.815179347991943359e+00,3.716223478317260742e+00
3.096632242202758789e+00,3.175134658813476562e+00,3.257721185684204102e+00,3.344717979431152344e+00,3.436489343643188477e+00,3.533438205718994141e+00,3.636016845703125000e+00,3.744728565216064453e+00,3.860141992568969727e+00,3.982895374298095703e+00,4.113712310791015625e+00,4.253414630889892578e+00,4.402939319610595703e+00,4.563360214233398438e+00,4.735941886901855469e+00,4.922090530395507812e+00,5.000000000000000000e+00,5.000000000000000000e+00,5.000000000000000000e+00,5.000000000000000000e+00,5.000000000000000000e+00,5.000000000000000000e+00,5.000000000000000000e+00,5.000000000000000000e+00,5.000000000000000000e+00,5.000000000000000000e+00,5.000000000000000000e+00,5.000000000000000000e+00,5.000000000000000000e+00,5.000000000000000000e+00,5.000000000000000000e+00,5.000000000000000000e+00,5.000000000000000000e+00,5.000000000000000000e+00,5.000000000000000000e+00,5.000000000000000000e+00,5.000000000000000000e+00,5.000000000000000000e+00,5.000000000000000000e+00,5.000000000000000000e+00,5.000000000000000000e+00,5.000000000000000000e+00,5.000000000000000000e+00,5.000000000000000000e+00,5.000000000000000000e+00,5.000000000000000000e+00,5.000000000000000000e+00,5.000000000000000000e+00,4.914028167724609375e+00,4.866286277770996094e+00,4.878206253051757812e+00,4.857558727264404297e+00,4.873724460601806641e+00,4.906088352203369141e+00,5.000000000000000000e+00,5.000000000000000000e+00,5.000000000000000000e+00,5.000000000000000000e+00,5.000000000000000000e+00,5.000000000000000000e+00,5.000000000000000000e+00,5.000000000000000000e+00,5.000000000000000000e+00,5.000000000000000000e+00,5.000000000000000000e+00,5.000000000000000000e+00,5.000000000000000000e+00,5.000000000000000000e+00,5.000000000000000000e+00,5.000000000000000000e+00,4.848021507263183594e+00,4.689349651336669922e+00,4.540734767913818359e+00,4.401250362396240234e+00,4.270080089569091797e+00,4.146502017974853516e+00,4.029875755310058594e+00,3.919631004333496094e+00,3.815256834030151367e+00,3.716297388076782227e+00
3.096566200256347656e+00,3.175065279006958008e+00,3.257647991180419922e+00,3.344640970230102539e+00,3.436408042907714844e+00,3.533352375030517578e+00,3.635925769805908203e+00,3.744632244110107422e+00,3.860039472579956055e+00,3.982786178588867188e+00,4.113595962524414062e+00,4.253290653228759766e+00,4.402805805206298828e+00,4.563216209411621094e+00,4.735758781433105469e+00,4.921892166137695312e+00,5.000000000000000000e+00,5.000000000000000000e+00,5.000000000000000000e+00,5.000000000000000000e+00,5.000000000000000000e+00,5.000000000000000000e+00,5.000000000000000000e+00,5.000000000000000000e+00,5.000000000000000000e+00,5.000000000000000000e+00,5.000000000000000000e+00,5.000000000000000000e+00,5.000000000000000000e+00,5.000000000000000000e+00,5.000000000000000000e+00,5.000000000000000000e+00,5.000000000000000000e+00,5.000000000000000000e+00,5.000000000000000000e+00,5.000000000000000000e+00,5.000000000000000000e+00,5.000000000000000000e+00,5.000000000000000000e+00,5.000000000000000000e+00,5.000000000000000000e+00,5.000000000000000000e+00,5.000000000000000000e+00,5.000000000000000000e+00,5.000000000000000000e+00,5.000000000000000000e+00,5.000000000000000000e+00,5.000000000000000000e+00,4.893290519714355469e+00,4.831220626831054688e+00,4.803707599639892578e+00,4.805738925933837891e+00,4.868454933166503906e+00,4.894342899322509766e+00,5.000000000000000000e+00,5.000000000000000000e+00,5.000000000000000000e+00,5.000000000000000000e+00,5.000000000000000000e+00,5.000000000000000000e+00,5.000000000000000000e+00,5.000000000000000000e+00,5.000000000000000000e+00,5.000000000000000000e+00,5.000000000000000000e+00,5.000000000000000000e+00,5.000000000000000000e+00,5.000000000000000000e+00,5.000000000000000000e+00,5.000000000000000000e+00,4.848147392272949219e+00,4.689467430114746094e+00,4.540845394134521484e+00,4.401354312896728516e+00,4.270177841186523438e+00,4.146594047546386719e+00,4.029962539672851562e+00,3.919712781906127930e+00,3.815335035324096680e+00,3.716371059417724609e+00
3.096552848815917969e+00,3.175021171569824219e+00,3.257575035095214844e+00,3.344563961029052734e+00,3.436326742172241211e+00,3.533266305923461914e+00,3.635834693908691406e+00,3.744535923004150391e+00,3.859936952590942383e+00,3.982677459716796875e+00,4.113479614257812500e+00,4.253166198730468750e+00,4.402672767639160156e+00,4.563073158264160156e+00,4.735602855682373047e+00,4.921694278717041016e+00,5.000000000000000000e+00,5.000000000000000000e+00,5.000000000000000000e+00,5.000000000000000000e+00,5.000000000000000000e+00,5.000000000000000000e+00,5.000000000000000000e+00,5.000000000000000000e+00,5.000000000000000000e+00,5.000000000000000000e+00,5.000000000000000000e+00,5.000000000000000000e+00,5.000000000000000000e+00,5.000000000000000000e+00,5.000000000000000000e+00,5.000000000000000000e+00,5.000000000000000000e+00,5.000000000000000000e+00,5.000000000000000000e+00,5.000000000000000000e+00,5.000000000000000000e+00,5.000000000000000000e+00,5.000000000000000000e+00,5.000000000000000000e+00,5.000000000000000000e+00,5.000000000000000000e+00,5.000000000000000000e+00,5.000000000000000000e+00,5.000000000000000000e+00,5.000000000000000000e+00,5.000000000000000000e+00,5.000000000000000000e+00,4.924818515777587891e+00,4.843702316284179688e+00,4.802682876586914062e+00,4.814419746398925781e+00,5.000000000000000000e+00,4.881351470947265625e+00,5.000000000000000000e+00,5.000000000000000000e+00,5.000000000000000000e+00,5.000000000000000000e+00,5.000000000000000000e+00,5.000000000000000000e+00,5.000000000000000000e+00,5.000000000000000000e+00,5.000000000000000000e+00,5.000000000000000000e+00,5.000000000000000000e+00,5.000000000000000000e+00,5.000000000000000000e+00,5.000000000000000000e+00,5.000000000000000000e+00,5.000000000000000000e+00,4.848273277282714844e+00,4.689584732055664062e+00,4.540955543518066406e+00,4.401457786560058594e+00,4.270275592803955078e+00,4.146686077117919922e+00,4.030049800872802734e+00,3.919795274734497070e+00,3.815412759780883789e+00,3.716445207595825195e+00
3.096552848815917969e+00,3.175021171569824219e+00,3.257569551467895508e+00,3.344525098800659180e+00,3.436250209808349609e+00,3.533180713653564453e+00,3.635743856430053711e+00,3.744439601898193359e+00,3.859834432601928711e+00,3.982568264007568359e+00,4.113363265991210938e+00,4.253041267395019531e+00,4.402539253234863281e+00,4.562929630279541016e+00,4.735448837280273438e+00,4.921525478363037109e+00,5.000000000000000000e+00,5.000000000000000000e+00,5.000000000000000000e+00,5.000000000000000000e+00,5.000000000000000000e+00,5.000000000000000000e+00,5.000000000000000000e+00,5.000000000000000000e+00,5.000000000000000000e+00,5.000000000000000000e+00,5.000000000000000000e+00,5.000000000000000000e+00,5.000000000000000000e+00,5.000000000000000000e+00,5.000000000000000000e+00,5.000000000000000000e+00,5.000000000000000000e+00,5.000000000000000000e+00,5.000000000000000000e+00,5.000000000000000000e+00,5.000000000000000000e+00,5.000000000000000000e+00,5.000000000000000000e+00,5.000000000000000000e+00,5.000000000000000000e+00,5.000000000000000000e+00,5.000000000000000000e+00,5.000000000000000000e+00,5.000000000000000000e+00,5.000000000000000000e+00,5.000000000000000000e+00,5.000000000000000000e+00,4.933387279510498047e+00,4.837493896484375000e+00,4.803938865661621094e+00,4.812920093536376953e+00,5.000000000000000000e+00,4.877689838409423828e+00,5.000000000000000000e+00,5.000000000000000000e+00,5.000000000000000000e+00,5.000000000000000000e+00,5.000000000000000000e+00,5.000000000000000000e+00,5.000000000000000000e+00,5.000000000000000000e+00,5.000000000000000000e+00,5.000000000000000000e+00,5.000000000000000000e+00,5.000000000000000000e+00,5.000000000000000000e+00,5.000000000000000000e+00,5.000000000000000000e+00,5.000000000000000000e+00,4.848398685455322266e+00,4.689702510833740234e+00,4.541065692901611328e+00,4.401561260223388672e+00,4.270372867584228516e+00,4.146778106689453125e+00,4.030136585235595703e+00,3.919877290725708008e+00,3.815490722656250000e+00,3.716518878936767578e+00
3.096535921096801758e+00,3.175021171569824219e+00,3.257569313049316406e+00,3.344524621963500977e+00,3.436249732971191406e+00,3.533147811889648438e+00,3.635669231414794922e+00,3.744343042373657227e+00,3.859731912612915039e+00,3.982459068298339844e+00,4.113246917724609375e+00,4.252916812896728516e+00,4.402406215667724609e+00,4.562786579132080078e+00,4.735294342041015625e+00,4.921359062194824219e+00,5.000000000000000000e+00,5.000000000000000000e+00,5.000000000000000000e+00,5.000000000000000000e+00,5.000000000000000000e+00,5.000000000000000000e+00,5.000000000000000000e+00,5.000000000000000000e+00,5.000000000000000000e+00,5.000000000000000000e+00,5.000000000000000000e+00,5.000000000000000000e+00,5.000000000000000000e+00,5.000000000000000000e+00,5.000000000000000000e+00,5.000000000000000000e+00,5.000000000000000000e+00,5.000000000000000000e+00,5.000000000000000000e+00,5.000000000000000000e+00,5.000000000000000000e+00,5.000000000000000000e+00,5.000000000000000000e+00,5.000000000000000000e+00,5.000000000000000000e+00,5.000000000000000000e+00,5.000000000000000000e+00,5.000000000000000000e+00,5.000000000000000000e+00,5.000000000000000000e+00,5.000000000000000000e+00,5.000000000000000000e+00,4.957989692687988281e+00,4.824405193328857422e+00,4.795655250549316406e+00,4.801062583923339844e+00,5.000000000000000000e+00,4.854514122009277344e+00,5.000000000000000000e+00,5.000000000000000000e+00,5.000000000000000000e+00,5.000000000000000000e+00,5.000000000000000000e+00,5.000000000000000000e+00,5.000000000000000000e+00,5.000000000000000000e+00,5.000000000000000000e+00,5.000000000000000000e+00,5.000000000000000000e+00,5.000000000000000000e+00,5.000000000000000000e+00,5.000000000000000000e+00,5.000000000000000000e+00,5.000000000000000000e+00,4.848524570465087891e+00,4.689820289611816406e+00,4.541176319122314453e+00,4.401665210723876953e+00,4.270470619201660156e+00,4.146870136260986328e+00,4.030223369598388672e+00,3.919959783554077148e+00,3.815568447113037109e+00,3.716593027114868164e+00
3.096469402313232422e+00,3.174963951110839844e+00,3.257541656494140625e+00,3.344524621963500977e+00,3.436249732971191406e+00,3.533147811889648438e+00,3.635669231414794922e+00,3.744318008422851562e+00,3.859660863876342773e+00,3.982349872589111328e+00,4.113130569458007812e+00,4.252792835235595703e+00,4.402272701263427734e+00,4.562643527984619141e+00,4.735140323638916016e+00,4.921192646026611328e+00,5.000000000000000000e+00,5.000000000000000000e+00,5.000000000000000000e+00,5.000000000000000000e+00,5.000000000000000000e+00,5.000000000000000000e+00,5.000000000000000000e+00,5.000000000000000000e+00,5.000000000000000000e+00,5.000000000000000000e+00,5.000000000000000000e+00,5.000000000000000000e+00,5.000000000000000000e+00,5.000000000000000000e+00,5.000000000000000000e+00,5.000000000000000000e+00,5.000000000000000000e+00,5.000000000000000000e+00,5.000000000000000000e+00,5.000000000000000000e+00,5.000000000000000000e+00,5.000000000000000000e+00,5.000000000000000000e+00,5.000000000000000000e+00,5.000000000000000000e+00,5.000000000000000000e+00,5.000000000000000000e+00,5.000000000000000000e+00,5.000000000000000000e+00,5.000000000000000000e+00,5.000000000000000000e+00,5.000000000000000000e+00,4.952268123626708984e+00,4.847527027130126953e+00,4.811367511749267578e+00,4.815984249114990234e+00,5.000000000000000000e+00,4.832396984100341797e+00,5.000000000000000000e+00,5.000000000000000000e+00,5.000000000000000000e+00,5.000000000000000000e+00,5.000000000000000000e+00,5.000000000000000000e+00,5.000000000000000000e+00,5.000000000000000000e+00,5.000000000000000000e+00,5.000000000000000000e+00,5.000000000000000000e+00,5.000000000000000000e+00,5.000000000000000000e+00,5.000000000000000000e+00,5.000000000000000000e+00,5.000000000000000000e+00,4.848650455474853516e+00,4.689938068389892578e+00,4.541286468505859375e+00,4.401768684387207031e+00,4.270567893981933594e+00,4.146962165832519531e+00,4.030310153961181641e+00,3.920041799545288086e+00,3.815646409988403320e+00,3.716666698455810547e+00
3.096403121948242188e+00,3.174894332885742188e+00,3.257468461990356445e+00,3.344452142715454102e+00,3.436208963394165039e+00,3.533142089843750000e+00,3.635668992996215820e+00,3.744318008422851562e+00,3.859660863876342773e+00,3.982335567474365234e+00,4.113064765930175781e+00,4.252668380737304688e+00,4.402139186859130859e+00,4.562500000000000000e+00,4.734985828399658203e+00,4.921025753021240234e+00,5.000000000000000000e+00,5.000000000000000000e+00,5.000000000000000000e+00,5.000000000000000000e+00,5.000000000000000000e+00,5.000000000000000000e+00,5.000000000000000000e+00,5.000000000000000000e+00,5.000000000000000000e+00,5.000000000000000000e+00,5.000000000000000000e+00,5.000000000000000000e+00,5.000000000000000000e+00,5.000000000000000000e+00,5.000000000000000000e+00,5.000000000000000000e+00,5.000000000000000000e+00,5.000000000000000000e+00,5.000000000000000000e+00,5.000000000000000000e+00,5.000000000000000000e+00,5.000000000000000000e+00,5.000000000000000000e+00,5.000000000000000000e+00,5.000000000000000000e+00,5.000000000000000000e+00,5.000000000000000000e+00,5.000000000000000000e+00,5.000000000000000000e+00,5.000000000000000000e+00,5.000000000000000000e+00,5.000000000000000000e+00,4.933857440948486328e+00,4.778637409210205078e+00,4.782917022705078125e+00,4.839393138885498047e+00,4.860738277435302734e+00,5.000000000000000000e+00,4.719656944274902344e+00,5.000000000000000000e+00,5.000000000000000000e+00,5.000000000000000000e+00,5.000000000000000000e+00,5.000000000000000000e+00,5.000000000000000000e+00,5.000000000000000000e+00,5.000000000000000000e+00,5.000000000000000000e+00,5.000000000000000000e+00,5.000000000000000000e+00,5.000000000000000000e+00,5.000000000000000000e+00,5.000000000000000000e+00,5.000000000000000000e+00,4.848776340484619141e+00,4.690055370330810547e+00,4.541396617889404297e+00,4.401872158050537109e+00,4.270665645599365234e+00,4.147054195404052734e+00,4.030397415161132812e+00,3.920124053955078125e+00,3.815724134445190430e+00,3.716740846633911133e+00
3.096336841583251953e+00,3.174824714660644531e+00,3.257394790649414062e+00,3.344374656677246094e+00,3.436127185821533203e+00,3.533055782318115234e+00,3.635612249374389648e+00,3.744299888610839844e+00,3.859660863876342773e+00,3.982335090637207031e+00,4.113064289093017578e+00,4.252667427062988281e+00,4.402080535888671875e+00,4.562374591827392578e+00,4.734831809997558594e+00,4.920859336853027344e+00,5.000000000000000000e+00,5.000000000000000000e+00,5.000000000000000000e+00,5.000000000000000000e+00,5.000000000000000000e+00,5.000000000000000000e+00,5.000000000000000000e+00,5.000000000000000000e+00,5.000000000000000000e+00,5.000000000000000000e+00,5.000000000000000000e+00,5.000000000000000000e+00,5.000000000000000000e+00,5.000000000000000000e+00,5.000000000000000000e+00,5.000000000000000000e+00,5.000000000000000000e+00,5.000000000000000000e+00,5.000000000000000000e+00,5.000000000000000000e+00,5.000000000000000000e+00,5.000000000000000000e+00,5.000000000000000000e+00,5.000000000000000000e+00,5.000000000000000000e+00,5.000000000000000000e+00,5.000000000000000000e+00,5.000000000000000000e+00,5.000000000000000000e+00,5.000000000000000000e+00,5.000000000000000000e+00,5.000000000000000000e+00,4.927503585815429688e+00,4.743083953857421875e+00,4.738100051879882812e+00,4.837849617004394531e+00,4.869338989257812500e+00,5.000000000000000000e+00,5.000000000000000000e+00,5.000000000000000000e+00,5.000000000000000000e+00,5.000000000000000000e+00,5.000000000000000000e+00,5.000000000000000000e+00,5.000000000000000000e+00,5.000000000000000000e+00,5.000000000000000000e+00,5.000000000000000000e+00,5.000000000000000000e+00,5.000000000000000000e+00,5.000000000000000000e+00,5.000000000000000000e+00,5.000000000000000000e+00,5.000000000000000000e+00,4.848901748657226562e+00,4.690173149108886719e+00,4.541507244110107422e+00,4.401976108551025391e+00,4.270763397216796875e+00,4.147146224975585938e+00,4.030484199523925781e+00,3.920206069946289062e+00,3.815804004669189453e+00,3.716820240020751953e+00
3.096270561218261719e+00,3.174754858016967773e+00,3.257321357727050781e+00,3.344297409057617188e+00,3.436045169830322266e+00,3.532969474792480469e+00,3.635520696640014648e+00,3.744203090667724609e+00,3.859583854675292969e+00,3.982302188873291016e+00,4.113063812255859375e+00,4.252667427062988281e+00,4.402080059051513672e+00,4.562374591827392578e+00,4.734783172607421875e+00,4.920733928680419922e+00,5.000000000000000000e+00,5.000000000000000000e+00,5.000000000000000000e+00,5.000000000000000000e+00,5.000000000000000000e+00,5.000000000000000000e+00,5.000000000000000000e+00,5.000000000000000000e+00,5.000000000000000000e+00,5.000000000000000000e+00,5.000000000000000000e+00,5.000000000000000000e+00,5.000000000000000000e+00,5.000000000000000000e+00,5.000000000000000000e+00,5.000000000000000000e+00,5.000000000000000000e+00,5.000000000000000000e+00,5.000000000000000000e+00,5.000000000000000000e+00,5.000000000000000000e+00,5.000000000000000000e+00,5.000000000000000000e+00,5.000000000000000000e+00,5.000000000000000000e+00,5.000000000000000000e+00,5.000000000000000000e+00,5.000000000000000000e+00,5.000000000000000000e+00,5.000000000000000000e+00,5.000000000000000000e+00,5.000000000000000000e+00,4.899481773376464844e+00,4.709837913513183594e+00,4.697967529296875000e+00,4.855543136596679688e+00,5.000000000000000000e+00,5.000000000000000000e+00,5.000000000000000000e+00,5.000000000000000000e+00,5.000000000000000000e+00,5.000000000000000000e+00,5.000000000000000000e+00,5.000000000000000000e+00,5.000000000000000000e+00,5.000000000000000000e+00,5.000000000000000000e+00,5.000000000000000000e+00,5.000000000000000000e+00,5.000000000000000000e+00,5.000000000000000000e+00,5.000000000000000000e+00,5.000000000000000000e+00,5.000000000000000000e+00,4.849027633666992188e+00,4.690290927886962891e+00,4.541617393493652344e+00,4.402079582214355469e+00,4.270860671997070312e+00,4.147238254547119141e+00,4.030575275421142578e+00,3.920296907424926758e+00,3.815891981124877930e+00,3.716903924942016602e+00
3.096204280853271484e+00,3.174685001373291016e+00,3.257247924804687500e+00,3.344220161437988281e+00,3.435963630676269531e+00,3.532883167266845703e+00,3.635429143905639648e+00,3.744106054306030273e+00,3.859480857849121094e+00,3.982192039489746094e+00,4.112962722778320312e+00,4.252614021301269531e+00,4.402080059051513672e+00,4.562374114990234375e+00,4.734783172607421875e+00,4.920733928680419922e+00,5.000000000000000000e+00,5.000000000000000000e+00,5.000000000000000000e+00,5.000000000000000000e+00,5.000000000000000000e+00,5.000000000000000000e+00,5.000000000000000000e+00,5.000000000000000000e+00,5.000000000000000000e+00,5.000000000000000000e+00,5.000000000000000000e+00,5.000000000000000000e+00,5.000000000000000000e+00,5.000000000000000000e+00,5.000000000000000000e+00,5.000000000000000000e+00,5.000000000000000000e+00,5.000000000000000000e+00,5.000000000000000000e+00,5.000000000000000000e+00,5.000000000000000000e+00,5.000000000000000000e+00,5.000000000000000000e+00,5.000000000000000000e+00,5.000000000000000000e+00,5.000000000000000000e+00,5.000000000000000000e+00,5.000000000000000000e+00,5.000000000000000000e+00,5.000000000000000000e+00,5.000000000000000000e+00,5.000000000000000000e+00,5.000000000000000000e+00,4.706192970275878906e+00,4.653236865997314453e+00,4.874664306640625000e+00,5.000000000000000000e+00,5.000000000000000000e+00,5.000000000000000000e+00,5.000000000000000000e+00,5.000000000000000000e+00,5.000000000000000000e+00,5.000000000000000000e+00,5.000000000000000000e+00,5.000000000000000000e+00,5.000000000000000000e+00,5.000000000000000000e+00,5.000000000000000000e+00,5.000000000000000000e+00,5.000000000000000000e+00,5.000000000000000000e+00,5.000000000000000000e+00,5.000000000000000000e+00,5.000000000000000000e+00,4.849153518676757812e+00,4.690408706665039062e+00,4.541728019714355469e+00,4.402186393737792969e+00,4.270966053009033203e+00,4.147342205047607422e+00,4.030673980712890625e+00,3.920390129089355469e+00,3.815980672836303711e+00,3.716987371444702148e+00
3.096138000488281250e+00,3.174615144729614258e+00,3.257174730300903320e+00,3.344142436981201172e+00,3.435882091522216797e+00,3.532796859741210938e+00,3.635337591171264648e+00,3.744009256362915039e+00,3.859377861022949219e+00,3.982082366943359375e+00,4.112845897674560547e+00,4.252488613128662109e+00,4.401947498321533203e+00,4.562294960021972656e+00,4.734765529632568359e+00,4.920733451843261719e+00,5.000000000000000000e+00,5.000000000000000000e+00,5.000000000000000000e+00,5.000000000000000000e+00,5.000000000000000000e+00,5.000000000000000000e+00,5.000000000000000000e+00,5.000000000000000000e+00,5.000000000000000000e+00,5.000000000000000000e+00,5.000000000000000000e+00,5.000000000000000000e+00,5.000000000000000000e+00,5.000000000000000000e+00,5.000000000000000000e+00,5.000000000000000000e+00,5.000000000000000000e+00,5.000000000000000000e+00,5.000000000000000000e+00,5.000000000000000000e+00,5.000000000000000000e+00,5.000000000000000000e+00,5.000000000000000000e+00,5.000000000000000000e+00,5.000000000000000000e+00,5.000000000000000000e+00,5.000000000000000000e+00,5.000000000000000000e+00,5.000000000000000000e+00,5.000000000000000000e+00,5.000000000000000000e+00,5.000000000000000000e+00,5.000000000000000000e+00,4.733717918395996094e+00,4.645573616027832031e+00,4.893202781677246094e+00,5.000000000000000000e+00,5.000000000000000000e+00,5.000000000000000000e+00,5.000000000000000000e+00,5.000000000000000000e+00,5.000000000000000000e+00,5.000000000000000000e+00,5.000000000000000000e+00,5.000000000000000000e+00,5.000000000000000000e+00,5.000000000000000000e+00,5.000000000000000000e+00,5.000000000000000000e+00,5.000000000000000000e+00,5.000000000000000000e+00,5.000000000000000000e+00,5.000000000000000000e+00,5.000000000000000000e+00,4.849279403686523438e+00,4.690532684326171875e+00,4.541850090026855469e+00,4.402303695678710938e+00,4.271076679229736328e+00,4.147446632385253906e+00,4.030772209167480469e+00,3.920483112335205078e+00,3.816068649291992188e+00,3.717071533203125000e+00
3.096071481704711914e+00,3.174545526504516602e+00,3.257101297378540039e+00,3.344065189361572266e+00,3.435800313949584961e+00,3.532710313796997070e+00,3.635246276855468750e+00,3.743912220001220703e+00,3.859274625778198242e+00,3.981972694396972656e+00,4.112728595733642578e+00,4.252363681793212891e+00,4.401813507080078125e+00,4.562150955200195312e+00,4.734610557556152344e+00,4.920621395111083984e+00,5.000000000000000000e+00,5.000000000000000000e+00,5.000000000000000000e+00,5.000000000000000000e+00,5.000000000000000000e+00,5.000000000000000000e+00,5.000000000000000000e+00,5.000000000000000000e+00,5.000000000000000000e+00,5.000000000000000000e+00,5.000000000000000000e+00,5.000000000000000000e+00,5.000000000000000000e+00,5.000000000000000000e+00,5.000000000000000000e+00,5.000000000000000000e+00,5.000000000000000000e+00,5.000000000000000000e+00,5.000000000000000000e+00,5.000000000000000000e+00,5.000000000000000000e+00,5.000000000000000000e+00,5.000000000000000000e+00,5.000000000000000000e+00,5.000000000000000000e+00,5.000000000000000000e+00,5.000000000000000000e+00,5.000000000000000000e+00,5.000000000000000000e+00,5.000000000000000000e+00,5.000000000000000000e+00,5.000000000000000000e+00,5.000000000000000000e+00,4.694995880126953125e+00,4.661145210266113281e+00,4.947916984558105469e+00,5.000000000000000000e+00,5.000000000000000000e+00,5.000000000000000000e+00,5.000000000000000000e+00,5.000000000000000000e+00,5.000000000000000000e+00,5.000000000000000000e+00,5.000000000000000000e+00,5.000000000000000000e+00,5.000000000000000000e+00,5.000000000000000000e+00,5.000000000000000000e+00,5.000000000000000000e+00,5.000000000000000000e+00,5.000000000000000000e+00,5.000000000000000000e+00,5.000000000000000000e+00,5.000000000000000000e+00,4.849421977996826172e+00,4.690665721893310547e+00,4.541975021362304688e+00,4.402420997619628906e+00,4.271187305450439453e+00,4.147550582885742188e+00,4.030870914459228516e+00,3.920576095581054688e+00,3.816156864166259766e+00,3.717154979705810547e+00
3.096005201339721680e+00,3.174475908279418945e+00,3.257027626037597656e+00,3.343987703323364258e+00,3.435718774795532227e+00,3.532624006271362305e+00,3.635154962539672852e+00,3.743815422058105469e+00,3.859171628952026367e+00,3.981863021850585938e+00,4.112611770629882812e+00,4.252238750457763672e+00,4.401679515838623047e+00,4.562006950378417969e+00,4.734455585479736328e+00,4.920454025268554688e+00,5.000000000000000000e+00,5.000000000000000000e+00,5.000000000000000000e+00,5.000000000000000000e+00,5.000000000000000000e+00,5.000000000000000000e+00,5.000000000000000000e+00,5.000000000000000000e+00,5.000000000000000000e+00,5.000000000000000000e+00,5.000000000000000000e+00,5.000000000000000000e+00,5.000000000000000000e+00,5.000000000000000000e+00,5.000000000000000000e+00,5.000000000000000000e+00,5.000000000000000000e+00,5.000000000000000000e+00,5.000000000000000000e+00,5.000000000000000000e+00,5.000000000000000000e+00,5.000000000000000000e+00,5.000000000000000000e+00,5.000000000000000000e+00,5.000000000000000000e+00,5.000000000000000000e+00,5.000000000000000000e+00,5.000000000000000000e+00,5.000000000000000000e+00,5.000000000000000000e+00,5.000000000000000000e+00,5.000000000000000000e+00,5.000000000000000000e+00,4.692619800567626953e+00,4.634478569030761719e+00,5.000000000000000000e+00,5.000000000000000000e+00,5.000000000000000000e+00,5.000000000000000000e+00,5.000000000000000000e+00,5.000000000000000000e+00,5.000000000000000000e+00,5.000000000000000000e+00,5.000000000000000000e+00,5.000000000000000000e+00,5.000000000000000000e+00,5.000000000000000000e+00,5.000000000000000000e+00,5.000000000000000000e+00,5.000000000000000000e+00,5.000000000000000000e+00,5.000000000000000000e+00,5.000000000000000000e+00,5.000000000000000000e+00,4.849564552307128906e+00,4.690799236297607422e+00,4.542099952697753906e+00,4.402538299560546875e+00,4.271297454833984375e+00,4.147655010223388672e+00,4.030969142913818359e+00,3.920669317245483398e+00,3.816244840621948242e+00,3.717238664627075195e+00
3.095938920974731445e+00,3.174406290054321289e+00,3.256954193115234375e+00,3.343910455703735352e+00,3.435636758804321289e+00,3.532537698745727539e+00,3.635063648223876953e+00,3.743717908859252930e+00,3.859068632125854492e+00,3.981753349304199219e+00,4.112494468688964844e+00,4.252113342285156250e+00,4.401545047760009766e+00,4.561862945556640625e+00,4.734300613403320312e+00,4.920286178588867188e+00,5.000000000000000000e+00,5.000000000000000000e+00,5.000000000000000000e+00,5.000000000000000000e+00,5.000000000000000000e+00,5.000000000000000000e+00,5.000000000000000000e+00,5.000000000000000000e+00,5.000000000000000000e+00,5.000000000000000000e+00,5.000000000000000000e+00,5.000000000000000000e+00,5.000000000000000000e+00,5.000000000000000000e+00,5.000000000000000000e+00,5.000000000000000000e+00,5.000000000000000000e+00,5.000000000000000000e+00,5.000000000000000000e+00,5.000000000000000000e+00,5.000000000000000000e+00,5.000000000000000000e+00,5.000000000000000000e+00,5.000000000000000000e+00,5.000000000000000000e+00,5.000000000000000000e+00,5.000000000000000000e+00,5.000000000000000000e+00,5.000000000000000000e+00,5.000000000000000000e+00,5.000000000000000000e+00,5.000000000000000000e+00,5.000000000000000000e+00,5.000000000000000000e+00,4.608385562896728516e+00,5.000000000000000000e+00,5.000000000000000000e+00,5.000000000000000000e+00,5.000000000000000000e+00,5.000000000000000000e+00,5.000000000000000000e+00,5.000000000000000000e+00,5.000000000000000000e+00,5.000000000000000000e+00,5.000000000000000000e+00,5.000000000000000000e+00,5.000000000000000000e+00,5.000000000000000000e+00,5.000000000000000000e+00,5.000000000000000000e+00,5.000000000000000000e+00,5.000000000000000000e+00,5.000000000000000000e+00,5.000000000000000000e+00,4.849706649780273438e+00,4.690932273864746094e+00,4.542224884033203125e+00,4.402655601501464844e+00,4.271408081054687500e+00,4.147758960723876953e+00,4.031067371368408203e+00,3.920762777328491211e+00,3.816333532333374023e+00,3.717322587966918945e+00
3.095872640609741211e+00,3.174336194992065430e+00,3.256880998611450195e+00,3.343833208084106445e+00,3.435555219650268555e+00,3.532451391220092773e+00,3.634971857070922852e+00,3.743621110916137695e+00,3.858965635299682617e+00,3.981643438339233398e+00,4.112377643585205078e+00,4.251988410949707031e+00,4.401411533355712891e+00,4.561718940734863281e+00,4.734145164489746094e+00,4.920118808746337891e+00,5.000000000000000000e+00,5.000000000000000000e+00,5.000000000000000000e+00,5.000000000000000000e+00,5.000000000000000000e+00,5.000000000000000000e+00,5.000000000000000000e+00,5.000000000000000000e+00,5.000000000000000000e+00,5.000000000000000000e+00,5.000000000000000000e+00,5.000000000000000000e+00,5.000000000000000000e+00,5.000000000000000000e+00,5.000000000000000000e+00,5.000000000000000000e+00,5.000000000000000000e+00,5.000000000000000000e+00,5.000000000000000000e+00,5.000000000000000000e+00,5.000000000000000000e+00,5.000000000000000000e+00,5.000000000000000000e+00,5.000000000000000000e+00,5.000000000000000000e+00,5.000000000000000000e+00,5.000000000000000000e+00,5.000000000000000000e+00,5.000000000000000000e+00,5.000000000000000000e+00,5.000000000000000000e+00,5.000000000000000000e+00,5.000000000000000000e+00,5.000000000000000000e+00,4.593686103820800781e+00,5.000000000000000000e+00,5.000000000000000000e+00,5.000000000000000000e+00,5.000000000000000000e+00,5.000000000000000000e+00,5.000000000000000000e+00,5.000000000000000000e+00,5.000000000000000000e+00,5.000000000000000000e+00,5.000000000000000000e+00,5.000000000000000000e+00,5.000000000000000000e+00,5.000000000000000000e+00,5.000000000000000000e+00,5.000000000000000000e+00,5.000000000000000000e+00,5.000000000000000000e+00,5.000000000000000000e+00,5.000000000000000000e+00,4.849849700927734375e+00,4.691065788269042969e+00,4.542349815368652344e+00,4.402772903442382812e+00,4.271518707275390625e+00,4.147863388061523438e+00,4.031166076660156250e+00,3.920855760574340820e+00,3.816421508789062500e+00,3.717406272888183594e+00
3.095806360244750977e+00,3.174266576766967773e+00,3.256807565689086914e+00,3.343755483627319336e+00,3.435473680496215820e+00,3.532365083694458008e+00,3.634880542755126953e+00,3.743524312973022461e+00,3.858862638473510742e+00,3.981533765792846680e+00,4.112260818481445312e+00,4.251863002777099609e+00,4.401277542114257812e+00,4.561574935913085938e+00,4.733990192413330078e+00,4.919950962066650391e+00,5.000000000000000000e+00,5.000000000000000000e+00,5.000000000000000000e+00,5.000000000000000000e+00,5.000000000000000000e+00,5.000000000000000000e+00,5.000000000000000000e+00,5.000000000000000000e+00,5.000000000000000000e+00,5.000000000000000000e+00,5.000000000000000000e+00,5.000000000000000000e+00,5.000000000000000000e+00,5.000000000000000000e+00,5.000000000000000000e+00,5.000000000000000000e+00,5.000000000000000000e+00,5.000000000000000000e+00,5.000000000000000000e+00,5.000000000000000000e+00,5.000000000000000000e+00,5.000000000000000000e+00,5.000000000000000000e+00,5.000000000000000000e+00,5.000000000000000000e+00,5.000000000000000000e+00,5.000000000000000000e+00,5.000000000000000000e+00,5.000000000000000000e+00,5.000000000000000000e+00,5.000000000000000000e+00,5.000000000000000000e+00,5.000000000000000000e+00,5.000000000000000000e+00,4.529760360717773438e+00,5.000000000000000000e+00,5.000000000000000000e+00,5.000000000000000000e+00,5.000000000000000000e+00,5.000000000000000000e+00,5.000000000000000000e+00,5.000000000000000000e+00,5.000000000000000000e+00,5.000000000000000000e+00,5.000000000000000000e+00,5.000000000000000000e+00,5.000000000000000000e+00,5.000000000000000000e+00,5.000000000000000000e+00,5.000000000000000000e+00,5.000000000000000000e+00,5.000000000000000000e+00,5.000000000000000000e+00,5.000000000000000000e+00,4.849992275238037109e+00,4.691199302673339844e+00,4.542474746704101562e+00,4.402890682220458984e+00,4.271629333496093750e+00,4.147967338562011719e+00,4.031264305114746094e+00,3.920948743820190430e+00,3.816509723663330078e+00,3.717489957809448242e+00
3.095739841461181641e+00,3.174196958541870117e+00,3.256734371185302734e+00,3.343678236007690430e+00,3.435391902923583984e+00,3.532278537750244141e+00,3.634788990020751953e+00,3.743427276611328125e+00,3.858759164810180664e+00,3.981424093246459961e+00,4.112143516540527344e+00,4.251738071441650391e+00,4.401143074035644531e+00,4.561430931091308594e+00,4.733835220336914062e+00,4.855106353759765625e+00,4.853901863098144531e+00,4.852698326110839844e+00,4.851495265960693359e+00,4.850292682647705078e+00,4.849090576171875000e+00,4.847888946533203125e+00,4.846688270568847656e+00,4.845488071441650391e+00,4.844288349151611328e+00,4.843089580535888672e+00,4.841890811920166016e+00,4.840692996978759766e+00,4.839495658874511719e+00,4.838299274444580078e+00,4.837102890014648438e+00,4.835907459259033203e+00,4.834712982177734375e+00,4.833518505096435547e+00,4.832324504852294922e+00,4.831131458282470703e+00,4.829938888549804688e+00,4.828747272491455078e+00,4.827555656433105469e+00,4.826364994049072266e+00,4.825174808502197266e+00,4.823985099792480469e+00,4.822795867919921875e+00,4.821608066558837891e+00,4.820419788360595703e+00,4.819232463836669922e+00,4.818046092987060547e+00,4.816860198974609375e+00,4.815674304962158203e+00,4.814489364624023438e+00,4.813305377960205078e+00,4.812121391296386719e+00,4.810938358306884766e+00,4.809755802154541016e+00,4.808573722839355469e+00,4.807392120361328125e+00,4.806211471557617188e+00,4.805031299591064453e+00,4.803851604461669922e+00,4.802672386169433594e+00,4.801494121551513672e+00,4.800315856933593750e+00,4.799138545989990234e+00,4.797961711883544922e+00,4.796785831451416016e+00,4.795609951019287109e+00,4.794434547424316406e+00,4.793260574340820312e+00,4.792086601257324219e+00,4.790913105010986328e+00,4.789740085601806641e+00,4.691332340240478516e+00,4.542600154876708984e+00,4.403007984161376953e+00,4.271739959716796875e+00,4.148071765899658203e+00,4.031363010406494141e+00,3.921042203903198242e+00,3.816597938537597656e+00,3.717573404312133789e+00
3.095673561096191406e+00,3.174127340316772461e+00,3.256660699844360352e+00,3.343600988388061523e+00,3.435310363769531250e+00,3.532192230224609375e+00,3.634697675704956055e+00,3.743330478668212891e+00,3.771248102188110352e+00,3.770521402359008789e+00,3.769794940948486328e+00,3.769068717956542969e+00,3.768342733383178711e+00,3.767616987228393555e+00,3.766892194747924805e+00,3.766166925430297852e+00,3.765442132949829102e+00,3.764717817306518555e+00,3.763993263244628906e+00,3.763269424438476562e+00,3.762545585632324219e+00,3.761822700500488281e+00,3.761099576950073242e+00,3.760376691818237305e+00,3.759654045104980469e+00,3.758931875228881836e+00,3.758209705352783203e+00,3.757488012313842773e+00,3.756767034530639648e+00,3.756045818328857422e+00,3.755324840545654297e+00,3.754604101181030273e+00,3.753883838653564453e+00,3.753163576126098633e+00,3.752443790435791016e+00,3.751724720001220703e+00,3.751005411148071289e+00,3.750286340713500977e+00,3.749567747116088867e+00,3.748849153518676758e+00,3.748131036758422852e+00,3.747413158416748047e+00,3.746695995330810547e+00,3.745978593826293945e+00,3.745261669158935547e+00,3.744544744491577148e+00,3.743828296661376953e+00,3.743112087249755859e+00,3.742396116256713867e+00,3.741680860519409180e+00,3.740965366363525391e+00,3.740250349044799805e+00,3.739535331726074219e+00,3.738820791244506836e+00,3.738106489181518555e+00,3.737392425537109375e+00,3.736679077148437500e+00,3.735965490341186523e+00,3.735252141952514648e+00,3.734539270401000977e+00,3.733826637268066406e+00,3.733114242553710938e+00,3.732402086257934570e+00,3.731690645217895508e+00,3.730978965759277344e+00,3.730267524719238281e+00,3.729556560516357422e+00,3.728845834732055664e+00,3.728135108947753906e+00,3.727424860000610352e+00,3.726715326309204102e+00,3.726005554199218750e+00,3.725296258926391602e+00,3.724586963653564453e+00,3.723878145217895508e+00,3.723169565200805664e+00,3.722460985183715820e+00,3.721753358840942383e+00,3.721045494079589844e+00,3.717657566070556641e+00
3.083483457565307617e+00,3.082997560501098633e+00,3.082511901855468750e+00,3.082026243209838867e+00,3.081540822982788086e+00,3.081055164337158203e+00,3.080570220947265625e+00,3.080085277557373047e+00,3.079600334167480469e+00,3.079116106033325195e+00,3.078631401062011719e+00,3.078147172927856445e+00,3.077662944793701172e+00,3.077178955078125000e+00,3.076694965362548828e+00,3.076211214065551758e+00,3.075727939605712891e+00,3.075244426727294922e+00,3.074761152267456055e+00,3.074278116226196289e+00,3.073795080184936523e+00,3.073312282562255859e+00,3.072829484939575195e+00,3.072347402572631836e+00,3.071864843368530273e+00,3.071382761001586914e+00,3.070900678634643555e+00,3.070418596267700195e+00,3.069936990737915039e+00,3.069455385208129883e+00,3.068974018096923828e+00,3.068492650985717773e+00,3.068011522293090820e+00,3.067530632019042969e+00,3.067049741744995117e+00,3.066569089889526367e+00,3.066088438034057617e+00,3.065608501434326172e+00,3.065128087997436523e+00,3.064647912979125977e+00,3.064167976379394531e+00,3.063688278198242188e+00,3.063208580017089844e+00,3.062729120254516602e+00,3.062249660491943359e+00,3.061770677566528320e+00,3.061291694641113281e+00,3.060812711715698242e+00,3.060333967208862305e+00,3.059855461120605469e+00,3.059376955032348633e+00,3.058898687362670898e+00,3.058420658111572266e+00,3.057942628860473633e+00,3.057464838027954102e+00,3.056987047195434570e+00,3.056509494781494141e+00,3.056032180786132812e+00,3.055554866790771484e+00,3.055078029632568359e+00,3.054600954055786133e+00,3.054124116897583008e+00,3.053647518157958984e+00,3.053170919418334961e+00,3.052694559097290039e+00,3.052218437194824219e+00,3.051742553710937500e+00,3.051266670227050781e+00,3.050790786743164062e+00,3.050315141677856445e+00,3.049839735031127930e+00,3.049364328384399414e+00,3.048889160156250000e+00,3.048414468765258789e+00,3.047939538955688477e+00,3.047464847564697266e+00,3.046990394592285156e+00,3.046515941619873047e+00,3.046041488647460938e+00,3.045567512512207031e+00
2.605104684829711914e+00,2.604757547378540039e+00,2.604410886764526367e+00,2.604064226150512695e+00,2.603717565536499023e+00,2.603371143341064453e+00,2.603024721145629883e+00,2.602678537368774414e+00,2.602332353591918945e+00,2.601986169815063477e+00,2.601639986038208008e+00,2.601294279098510742e+00,2.600948572158813477e+00,2.600602865219116211e+00,2.600257158279418945e+00,2.599911689758300781e+00,2.599566221237182617e+00,2.599220991134643555e+00,2.598875522613525391e+00,2.598530769348144531e+00,2.598185539245605469e+00,2.597840547561645508e+00,2.597495794296264648e+00,2.597151041030883789e+00,2.596806287765502930e+00,2.596461534500122070e+00,2.596117258071899414e+00,2.595772743225097656e+00,2.595428466796875000e+00,2.595084190368652344e+00,2.594740152359008789e+00,2.594396114349365234e+00,2.594052076339721680e+00,2.593708276748657227e+00,2.593364477157592773e+00,2.593020915985107422e+00,2.592677354812622070e+00,2.592333793640136719e+00,2.591990232467651367e+00,2.591646909713745117e+00,2.591303825378417969e+00,2.590960741043090820e+00,2.590617656707763672e+00,2.590274810791015625e+00,2.589931726455688477e+00,2.589589118957519531e+00,2.589246273040771484e+00,2.588903903961181641e+00,2.588561296463012695e+00,2.588218927383422852e+00,2.587876558303833008e+00,2.587534427642822266e+00,2.587192296981811523e+00,2.586850166320800781e+00,2.586508274078369141e+00,2.586166620254516602e+00,2.585824728012084961e+00,2.585483074188232422e+00,2.585141420364379883e+00,2.584800004959106445e+00,2.584458351135253906e+00,2.584117412567138672e+00,2.583775997161865234e+00,2.583434820175170898e+00,2.583093881607055664e+00,2.582752943038940430e+00,2.582412004470825195e+00,2.582071065902709961e+00,2.581730604171752930e+00,2.581389904022216797e+00,2.581049442291259766e+00,2.580708980560302734e+00,2.580368518829345703e+00,2.580028295516967773e+00,2.579688072204589844e+00,2.579348325729370117e+00,2.579008340835571289e+00,2.578668355941772461e+00,2.578328609466552734e+00,2.577988862991333008e+00
2.255223751068115234e+00,2.254963874816894531e+00,2.254703998565673828e+00,2.254444122314453125e+00,2.254184484481811523e+00,2.253924846649169922e+00,2.253665208816528320e+00,2.253405570983886719e+00,2.253146171569824219e+00,2.252886533737182617e+00,2.252627134323120117e+00,2.252367734909057617e+00,2.252108335494995117e+00,2.251849174499511719e+00,2.251590013504028320e+00,2.251331090927124023e+00,2.251072168350219727e+00,2.250813007354736328e+00,2.250554084777832031e+00,2.250295400619506836e+00,2.250036478042602539e+00,2.249777793884277344e+00,2.249519348144531250e+00,2.249260663986206055e+00,2.249002218246459961e+00,2.248743772506713867e+00,2.248485326766967773e+00,2.248226881027221680e+00,2.247968673706054688e+00,2.247710466384887695e+00,2.247452259063720703e+00,2.247194051742553711e+00,2.246936082839965820e+00,2.246678113937377930e+00,2.246420145034790039e+00,2.246162176132202148e+00,2.245904445648193359e+00,2.245646715164184570e+00,2.245388984680175781e+00,2.245131254196166992e+00,2.244873762130737305e+00,2.244616270065307617e+00,2.244358777999877930e+00,2.244101524353027344e+00,2.243844032287597656e+00,2.243586778640747070e+00,2.243329524993896484e+00,2.243072271347045898e+00,2.242815256118774414e+00,2.242558002471923828e+00,2.242301225662231445e+00,2.242044210433959961e+00,2.241787433624267578e+00,2.241530656814575195e+00,2.241273880004882812e+00,2.241017103195190430e+00,2.240760326385498047e+00,2.240504026412963867e+00,2.240247488021850586e+00,2.239990949630737305e+00,2.239734411239624023e+00,2.239478111267089844e+00,2.239221811294555664e+00,2.238965511322021484e+00,2.238709449768066406e+00,2.238453388214111328e+00,2.238197326660156250e+00,2.237941265106201172e+00,2.237685441970825195e+00,2.237429380416870117e+00,2.237173557281494141e+00,2.236917972564697266e+00,2.236662387847900391e+00,2.236406564712524414e+00,2.236150979995727539e+00,2.235895395278930664e+00,2.235640048980712891e+00,2.235384464263916016e+00,2.235129356384277344e+00,2.234874010086059570e+00
1.988197207450866699e+00,1.987995386123657227e+00,1.987793326377868652e+00,1.987591505050659180e+00,1.987389445304870605e+00,1.987187504768371582e+00,1.986985802650451660e+00,1.986783862113952637e+00,1.986582279205322266e+00,1.986380457878112793e+00,1.986178994178771973e+00,1.985977292060852051e+00,1.985775828361511230e+00,1.985574126243591309e+00,1.985372781753540039e+00,1.985171198844909668e+00,1.984969735145568848e+00,1.984768509864807129e+00,1.984567046165466309e+00,1.984365820884704590e+00,1.984164476394653320e+00,1.983963370323181152e+00,1.983762145042419434e+00,1.983561158180236816e+00,1.983360171318054199e+00,1.983159065246582031e+00,1.982958197593688965e+00,1.982757091522216797e+00,1.982556343078613281e+00,1.982355356216430664e+00,1.982154607772827148e+00,1.981953978538513184e+00,1.981753110885620117e+00,1.981552481651306152e+00,1.981351733207702637e+00,1.981151223182678223e+00,1.980950474739074707e+00,1.980750083923339844e+00,1.980549693107604980e+00,1.980349063873291016e+00,1.980148792266845703e+00,1.979948282241821289e+00,1.979748010635375977e+00,1.979547619819641113e+00,1.979347467422485352e+00,1.979147315025329590e+00,1.978947043418884277e+00,1.978747010231018066e+00,1.978546738624572754e+00,1.978346824645996094e+00,1.978146672248840332e+00,1.977946877479553223e+00,1.977746725082397461e+00,1.977547049522399902e+00,1.977347254753112793e+00,1.977147340774536133e+00,1.976947665214538574e+00,1.976747751235961914e+00,1.976548194885253906e+00,1.976348638534545898e+00,1.976148962974548340e+00,1.975949406623840332e+00,1.975749850273132324e+00,1.975550413131713867e+00,1.975350856781005859e+00,1.975151538848876953e+00,1.974952101707458496e+00,1.974752783775329590e+00,1.974553704261779785e+00,1.974354267120361328e+00,1.974155187606811523e+00,1.973955869674682617e+00,1.973756909370422363e+00,1.973557710647583008e+00,1.973358750343322754e+00,1.973159790039062500e+00,1.972960710525512695e+00,1.972761869430541992e+00,1.972562909126281738e+00,1.972364187240600586e+00
1.777710199356079102e+00,1.777548551559448242e+00,1.777387142181396484e+00,1.777225613594055176e+00,1.777064323425292969e+00,1.776902794837951660e+00,1.776741504669189453e+00,1.776580095291137695e+00,1.776418924331665039e+00,1.776257514953613281e+00,1.776096343994140625e+00,1.775935053825378418e+00,1.775773763656616211e+00,1.775612711906433105e+00,1.775451540946960449e+00,1.775290489196777344e+00,1.775129318237304688e+00,1.774968385696411133e+00,1.774807333946228027e+00,1.774646401405334473e+00,1.774485349655151367e+00,1.774324417114257812e+00,1.774163603782653809e+00,1.774002552032470703e+00,1.773841857910156250e+00,1.773680925369262695e+00,1.773520231246948242e+00,1.773359656333923340e+00,1.773198843002319336e+00,1.773038148880004883e+00,1.772877454757690430e+00,1.772716879844665527e+00,1.772556185722351074e+00,1.772395730018615723e+00,1.772235274314880371e+00,1.772074699401855469e+00,1.771914243698120117e+00,1.771753668785095215e+00,1.771593332290649414e+00,1.771432876586914062e+00,1.771272540092468262e+00,1.771112322807312012e+00,1.770951986312866211e+00,1.770791769027709961e+00,1.770631432533264160e+00,1.770471215248107910e+00,1.770310997962951660e+00,1.770150899887084961e+00,1.769990801811218262e+00,1.769830584526062012e+00,1.769670605659484863e+00,1.769510507583618164e+00,1.769350528717041016e+00,1.769190430641174316e+00,1.769030570983886719e+00,1.768870711326599121e+00,1.768710732460021973e+00,1.768550992012023926e+00,1.768391013145446777e+00,1.768231272697448730e+00,1.768071413040161133e+00,1.767911791801452637e+00,1.767752170562744141e+00,1.767592310905456543e+00,1.767432689666748047e+00,1.767272949218750000e+00,1.767113447189331055e+00,1.766953825950622559e+00,1.766794323921203613e+00,1.766634821891784668e+00,1.766475319862365723e+00,1.766315937042236328e+00,1.766156315803527832e+00,1.765997052192687988e+00,1.765837550163269043e+00,1.765678286552429199e+00,1.765519022941589355e+00,1.765359759330749512e+00,1.765200495719909668e+00,1.765041232109069824e+00
1.607524275779724121e+00,1.607392072677612305e+00,1.607260107994079590e+00,1.607128024101257324e+00,1.606996059417724609e+00,1.606864094734191895e+00,1.606732130050659180e+00,1.606600165367126465e+00,1.606468200683593750e+00,1.606336355209350586e+00,1.606204390525817871e+00,1.606072664260864258e+00,1.605940699577331543e+00,1.605808973312377930e+00,1.605677127838134766e+00,1.605545401573181152e+00,1.605413675308227539e+00,1.605281949043273926e+00,1.605150222778320312e+00,1.605018615722656250e+00,1.604886889457702637e+00,1.604755163192749023e+00,1.604623675346374512e+00,1.604491949081420898e+00,1.604360342025756836e+00,1.604228854179382324e+00,1.604097247123718262e+00,1.603965878486633301e+00,1.603834271430969238e+00,1.603702902793884277e+00,1.603571534156799316e+00,1.603440046310424805e+00,1.603308677673339844e+00,1.603177189826965332e+00,1.603045940399169922e+00,1.602914571762084961e+00,1.602783322334289551e+00,1.602652072906494141e+00,1.602520823478698730e+00,1.602389574050903320e+00,1.602258324623107910e+00,1.602127194404602051e+00,1.601995944976806641e+00,1.601864814758300781e+00,1.601733803749084473e+00,1.601602554321289062e+00,1.601471543312072754e+00,1.601340413093566895e+00,1.601209402084350586e+00,1.601078391075134277e+00,1.600947380065917969e+00,1.600816488265991211e+00,1.600685477256774902e+00,1.600554585456848145e+00,1.600423574447631836e+00,1.600292801856994629e+00,1.600161790847778320e+00,1.600031018257141113e+00,1.599900245666503906e+00,1.599769353866577148e+00,1.599638581275939941e+00,1.599507808685302734e+00,1.599377036094665527e+00,1.599246263504028320e+00,1.599115610122680664e+00,1.598985075950622559e+00,1.598854303359985352e+00,1.598723769187927246e+00,1.598592996597290039e+00,1.598462462425231934e+00,1.598331809043884277e+00,1.598201394081115723e+00,1.598070859909057617e+00,1.597940325736999512e+00,1.597809910774230957e+00,1.597679376602172852e+00,1.597548961639404297e+00,1.597418427467346191e+00,1.597288131713867188e+00,1.597157835960388184e+00
1.467076301574707031e+00,1.466966271400451660e+00,1.466856241226196289e+00,1.466746330261230469e+00,1.466636300086975098e+00,1.466526389122009277e+00,1.466416478157043457e+00,1.466306567192077637e+00,1.466196656227111816e+00,1.466086864471435547e+00,1.465976953506469727e+00,1.465867161750793457e+00,1.465757250785827637e+00,1.465647578239440918e+00,1.465537667274475098e+00,1.465427994728088379e+00,1.465318202972412109e+00,1.465208411216735840e+00,1.465098738670349121e+00,1.464988946914672852e+00,1.464879274368286133e+00,1.464769601821899414e+00,1.464660048484802246e+00,1.464550256729125977e+00,1.464440703392028809e+00,1.464331030845642090e+00,1.464221596717834473e+00,1.464111804962158203e+00,1.464002251625061035e+00,1.463892698287963867e+00,1.463783264160156250e+00,1.463673710823059082e+00,1.463564276695251465e+00,1.463454842567443848e+00,1.463345289230346680e+00,1.463235974311828613e+00,1.463126420974731445e+00,1.463017106056213379e+00,1.462907671928405762e+00,1.462798357009887695e+00,1.462689042091369629e+00,1.462579607963562012e+00,1.462470412254333496e+00,1.462360978126525879e+00,1.462251782417297363e+00,1.462142467498779297e+00,1.462033271789550781e+00,1.461924076080322266e+00,1.461814761161804199e+00,1.461705684661865234e+00,1.461596369743347168e+00,1.461487293243408203e+00,1.461378097534179688e+00,1.461269021034240723e+00,1.461159944534301758e+00,1.461050748825073242e+00,1.460941672325134277e+00,1.460832595825195312e+00,1.460723519325256348e+00,1.460614442825317383e+00,1.460505485534667969e+00,1.460396528244018555e+00,1.460287451744079590e+00,1.460178494453430176e+00,1.460069537162780762e+00,1.459960579872131348e+00,1.459851622581481934e+00,1.459742784500122070e+00,1.459633946418762207e+00,1.459524989128112793e+00,1.459416151046752930e+00,1.459307312965393066e+00,1.459198474884033203e+00,1.459089636802673340e+00,1.458980917930603027e+00,1.458872079849243164e+00,1.458763241767883301e+00,1.458654642105102539e+00,1.458545804023742676e+00,1.458437204360961914e+00
1.349197983741760254e+00,1.349105000495910645e+00,1.349011898040771484e+00,1.348918914794921875e+00,1.348825931549072266e+00,1.348732948303222656e+00,1.348639965057373047e+00,1.348547101020812988e+00,1.348453998565673828e+00,1.348361134529113770e+00,1.348268151283264160e+00,1.348175287246704102e+00,1.348082423210144043e+00,1.347989439964294434e+00,1.347896695137023926e+00,1.347803711891174316e+00,1.347710967063903809e+00,1.347618103027343750e+00,1.347525358200073242e+00,1.347432494163513184e+00,1.347339749336242676e+00,1.347247004508972168e+00,1.347154259681701660e+00,1.347061395645141602e+00,1.346968650817871094e+00,1.346876025199890137e+00,1.346783161163330078e+00,1.346690535545349121e+00,1.346597790718078613e+00,1.346505165100097656e+00,1.346412539482116699e+00,1.346319794654846191e+00,1.346227049827575684e+00,1.346134543418884277e+00,1.346041917800903320e+00,1.345949292182922363e+00,1.345856785774230957e+00,1.345764160156250000e+00,1.345671653747558594e+00,1.345579028129577637e+00,1.345486521720886230e+00,1.345394015312194824e+00,1.345301508903503418e+00,1.345209121704101562e+00,1.345116615295410156e+00,1.345024108886718750e+00,1.344931602478027344e+00,1.344839215278625488e+00,1.344746708869934082e+00,1.344654440879821777e+00,1.344562053680419922e+00,1.344469547271728516e+00,1.344377279281616211e+00,1.344284772872924805e+00,1.344192504882812500e+00,1.344100117683410645e+00,1.344007849693298340e+00,1.343915581703186035e+00,1.343823194503784180e+00,1.343730926513671875e+00,1.343638658523559570e+00,1.343546390533447266e+00,1.343454122543334961e+00,1.343361973762512207e+00,1.343269705772399902e+00,1.343177437782287598e+00,1.343085289001464844e+00,1.342993140220642090e+00,1.342900991439819336e+00,1.342808723449707031e+00,1.342716693878173828e+00,1.342624545097351074e+00,1.342532396316528320e+00,1.342440247535705566e+00,1.342348098754882812e+00,1.342256069183349609e+00,1.342163920402526855e+00,1.342072010040283203e+00,1.341979980468750000e+00,1.341887831687927246e+00
1.248853683471679688e+00,1.248774051666259766e+00,1.248694300651550293e+00,1.248614668846130371e+00,1.248534917831420898e+00,1.248455286026000977e+00,1.248375654220581055e+00,1.248295903205871582e+00,1.248216390609741211e+00,1.248136639595031738e+00,1.248057126998901367e+00,1.247977495193481445e+00,1.247897863388061523e+00,1.247818231582641602e+00,1.247738718986511230e+00,1.247659087181091309e+00,1.247579574584960938e+00,1.247500061988830566e+00,1.247420549392700195e+00,1.247340917587280273e+00,1.247261404991149902e+00,1.247181892395019531e+00,1.247102379798889160e+00,1.247022986412048340e+00,1.246943473815917969e+00,1.246863961219787598e+00,1.246784448623657227e+00,1.246705055236816406e+00,1.246625661849975586e+00,1.246546268463134766e+00,1.246466755867004395e+00,1.246387362480163574e+00,1.246307969093322754e+00,1.246228575706481934e+00,1.246149182319641113e+00,1.246069669723510742e+00,1.245990395545959473e+00,1.245911121368408203e+00,1.245831727981567383e+00,1.245752453804016113e+00,1.245673060417175293e+00,1.245593786239624023e+00,1.245514512062072754e+00,1.245435237884521484e+00,1.245355963706970215e+00,1.245276689529418945e+00,1.245197534561157227e+00,1.245118260383605957e+00,1.245038986206054688e+00,1.244959712028503418e+00,1.244880557060241699e+00,1.244801402091979980e+00,1.244722247123718262e+00,1.244643092155456543e+00,1.244563817977905273e+00,1.244484782218933105e+00,1.244405508041381836e+00,1.244326472282409668e+00,1.244247198104858398e+00,1.244168162345886230e+00,1.244089126586914062e+00,1.244009971618652344e+00,1.243930935859680176e+00,1.243851780891418457e+00,1.243772745132446289e+00,1.243693709373474121e+00,1.243614673614501953e+00,1.243535637855529785e+00,1.243456602096557617e+00,1.243377566337585449e+00,1.243298530578613281e+00,1.243219614028930664e+00,1.243140578269958496e+00,1.243061661720275879e+00,1.242982745170593262e+00,1.242903709411621094e+00,1.242824792861938477e+00,1.242745757102966309e+00,1.242666959762573242e+00,1.242587924003601074e+00
1.162402153015136719e+00,1.162333011627197266e+00,1.162263989448547363e+00,1.162194967269897461e+00,1.162125945091247559e+00,1.162056922912597656e+00,1.161987900733947754e+00,1.161918878555297852e+00,1.161849975585937500e+00,1.161780953407287598e+00,1.161711931228637695e+00,1.161642909049987793e+00,1.161574006080627441e+00,1.161504983901977539e+00,1.161436080932617188e+00,1.161367177963256836e+00,1.161298155784606934e+00,1.161229252815246582e+00,1.161160349845886230e+00,1.161091446876525879e+00,1.161022543907165527e+00,1.160953640937805176e+00,1.160884737968444824e+00,1.160815834999084473e+00,1.160746932029724121e+00,1.160678148269653320e+00,1.160609245300292969e+00,1.160540342330932617e+00,1.160471558570861816e+00,1.160402774810791016e+00,1.160333991050720215e+00,1.160265088081359863e+00,1.160196304321289062e+00,1.160127520561218262e+00,1.160058736801147461e+00,1.159989953041076660e+00,1.159921169281005859e+00,1.159852385520935059e+00,1.159783482551574707e+00,1.159714818000793457e+00,1.159646153450012207e+00,1.159577369689941406e+00,1.159508705139160156e+00,1.159439921379089355e+00,1.159371256828308105e+00,1.159302473068237305e+00,1.159233808517456055e+00,1.159165143966674805e+00,1.159096479415893555e+00,1.159027814865112305e+00,1.158959150314331055e+00,1.158890604972839355e+00,1.158821821212768555e+00,1.158753275871276855e+00,1.158684730529785156e+00,1.158616065979003906e+00,1.158547520637512207e+00,1.158478856086730957e+00,1.158410310745239258e+00,1.158341646194458008e+00,1.158273100852966309e+00,1.158204674720764160e+00,1.158136010169982910e+00,1.158067464828491211e+00,1.157998919486999512e+00,1.157930493354797363e+00,1.157861828804016113e+00,1.157793402671813965e+00,1.157724976539611816e+00,1.157656431198120117e+00,1.157587885856628418e+00,1.157519459724426270e+00,1.157451033592224121e+00,1.157382488250732422e+00,1.157314062118530273e+00,1.157245635986328125e+00,1.157177209854125977e+00,1.157108783721923828e+00,1.157040238380432129e+00,1.156971931457519531e+00
1.087144732475280762e+00,1.087084293365478516e+00,1.087023973464965820e+00,1.086963534355163574e+00,1.086903214454650879e+00,1.086842775344848633e+00,1.086782455444335938e+00,1.086722016334533691e+00,1.086661696434020996e+00,1.086601376533508301e+00,1.086540937423706055e+00,1.086480617523193359e+00,1.086420297622680664e+00,1.086359977722167969e+00,1.086299657821655273e+00,1.086239337921142578e+00,1.086179018020629883e+00,1.086118817329406738e+00,1.086058497428894043e+00,1.085998177528381348e+00,1.085937857627868652e+00,1.085877656936645508e+00,1.085817337036132812e+00,1.085757136344909668e+00,1.085696816444396973e+00,1.085636615753173828e+00,1.085576415061950684e+00,1.085516095161437988e+00,1.085455894470214844e+00,1.085395693778991699e+00,1.085335493087768555e+00,1.085275292396545410e+00,1.085215091705322266e+00,1.085154891014099121e+00,1.085094809532165527e+00,1.085034489631652832e+00,1.084974288940429688e+00,1.084914207458496094e+00,1.084854006767272949e+00,1.084793925285339355e+00,1.084733724594116211e+00,1.084673643112182617e+00,1.084613323211669922e+00,1.084553241729736328e+00,1.084493160247802734e+00,1.084433078765869141e+00,1.084372878074645996e+00,1.084312915802001953e+00,1.084252715110778809e+00,1.084192752838134766e+00,1.084132671356201172e+00,1.084072589874267578e+00,1.084012508392333984e+00,1.083952426910400391e+00,1.083892464637756348e+00,1.083832383155822754e+00,1.083772301673889160e+00,1.083712339401245117e+00,1.083652257919311523e+00,1.083592295646667480e+00,1.083532214164733887e+00,1.083472251892089844e+00,1.083412289619445801e+00,1.083352327346801758e+00,1.083292365074157715e+00,1.083232402801513672e+00,1.083172440528869629e+00,1.083112478256225586e+00,1.083052515983581543e+00,1.082992553710937500e+00,1.082932591438293457e+00,1.082872748374938965e+00,1.082812786102294922e+00,1.082752823829650879e+00,1.082692861557006836e+00,1.082633018493652344e+00,1.082573056221008301e+00,1.082513213157653809e+00,1.082453370094299316e+00,1.082393407821655273e+00
1.021039605140686035e+00,1.020986318588256836e+00,1.020933032035827637e+00,1.020879745483398438e+00,1.020826458930969238e+00,1.020773291587829590e+00,1.020720005035400391e+00,1.020666718482971191e+00,1.020613431930541992e+00,1.020560264587402344e+00,1.020506978034973145e+00,1.020453810691833496e+00,1.020400524139404297e+00,1.020347356796264648e+00,1.020294189453125000e+00,1.020241022109985352e+00,1.020187735557556152e+00,1.020134568214416504e+00,1.020081400871276855e+00,1.020028114318847656e+00,1.019975066184997559e+00,1.019921779632568359e+00,1.019868731498718262e+00,1.019815444946289062e+00,1.019762396812438965e+00,1.019709229469299316e+00,1.019656062126159668e+00,1.019602894783020020e+00,1.019549846649169922e+00,1.019496679306030273e+00,1.019443511962890625e+00,1.019390463829040527e+00,1.019337296485900879e+00,1.019284248352050781e+00,1.019231081008911133e+00,1.019178032875061035e+00,1.019124865531921387e+00,1.019071817398071289e+00,1.019018769264221191e+00,1.018965721130371094e+00,1.018912553787231445e+00,1.018859624862670898e+00,1.018806457519531250e+00,1.018753409385681152e+00,1.018700361251831055e+00,1.018647313117980957e+00,1.018594264984130859e+00,1.018541216850280762e+00,1.018488168716430664e+00,1.018435120582580566e+00,1.018382191658020020e+00,1.018329143524169922e+00,1.018276214599609375e+00,1.018223285675048828e+00,1.018170237541198730e+00,1.018117308616638184e+00,1.018064260482788086e+00,1.018011331558227539e+00,1.017958283424377441e+00,1.017905354499816895e+00,1.017852425575256348e+00,1.017799496650695801e+00,1.017746567726135254e+00,1.017693638801574707e+00,1.017640709877014160e+00,1.017587780952453613e+00,1.017534852027893066e+00,1.017481923103332520e+00,1.017428994178771973e+00,1.017376184463500977e+00,1.017323255538940430e+00,1.017270326614379883e+00,1.017217397689819336e+00,1.017164587974548340e+00,1.017111778259277344e+00,1.017058849334716797e+00,1.017006039619445801e+00,1.016953110694885254e+00,1.016900300979614258e+00,1.016847372055053711e+00
9.625129103660583496e-01,9.624655246734619141e-01,9.624181985855102539e-01,9.623709321022033691e-01,9.623235464096069336e-01,9.622761607170104980e-01,9.622288346290588379e-01,9.621815681457519531e-01,9.621342420578002930e-01,9.620869159698486328e-01,9.620395898818969727e-01,9.619923830032348633e-01,9.619450569152832031e-01,9.618977308273315430e-01,9.618504047393798828e-01,9.618030786514282227e-01,9.617559313774108887e-01,9.617086052894592285e-01,9.616612792015075684e-01,9.616140127182006836e-01,9.615668654441833496e-01,9.615195393562316895e-01,9.614722728729248047e-01,9.614250063896179199e-01,9.613778591156005859e-01,9.613305926322937012e-01,9.612833261489868164e-01,9.612360596656799316e-01,9.611887931823730469e-01,9.611417055130004883e-01,9.610944390296936035e-01,9.610472321510314941e-01,9.609999656677246094e-01,9.609528779983520508e-01,9.609056115150451660e-01,9.608584046363830566e-01,9.608111977577209473e-01,9.607641100883483887e-01,9.607169032096862793e-01,9.606696963310241699e-01,9.606224894523620605e-01,9.605753421783447266e-01,9.605282545089721680e-01,9.604810476303100586e-01,9.604339003562927246e-01,9.603866934776306152e-01,9.603396654129028320e-01,9.602925181388854980e-01,9.602453112602233887e-01,9.601981639862060547e-01,9.601510167121887207e-01,9.601038694381713867e-01,9.600567817687988281e-01,9.600097537040710449e-01,9.599626064300537109e-01,9.599154591560363770e-01,9.598684906959533691e-01,9.598213434219360352e-01,9.597742557525634766e-01,9.597271084785461426e-01,9.596801400184631348e-01,9.596330523490905762e-01,9.595859646797180176e-01,9.595389366149902344e-01,9.594918489456176758e-01,9.594448208808898926e-01,9.593977332115173340e-01,9.593507647514343262e-01,9.593036770820617676e-01,9.592566490173339844e-01,9.592096805572509766e-01,9.591626524925231934e-01,9.591155648231506348e-01,9.590685367584228516e-01,9.590216279029846191e-01,9.589745998382568359e-01,9.589275717735290527e-01,9.588806629180908203e-01,9.588336348533630371e-01,9.587866067886352539e-01
9.103319644927978516e-01,9.102897047996520996e-01,9.102473258972167969e-01,9.102049469947814941e-01,9.101625680923461914e-01,9.101203083992004395e-01,9.100779294967651367e-01,9.100356101989746094e-01,9.099932312965393066e-01,9.099509119987487793e-01,9.099086523056030273e-01,9.098663330078125000e-01,9.098239541053771973e-01,9.097816348075866699e-01,9.097394347190856934e-01,9.096971154212951660e-01,9.096547961235046387e-01,9.096124768257141113e-01,9.095702171325683594e-01,9.095279574394226074e-01,9.094856381416320801e-01,9.094433188438415527e-01,9.094010591506958008e-01,9.093588590621948242e-01,9.093165397644042969e-01,9.092742800712585449e-01,9.092319607734680176e-01,9.091898202896118164e-01,9.091475605964660645e-01,9.091052412986755371e-01,9.090629816055297852e-01,9.090208411216735840e-01,9.089785814285278320e-01,9.089363217353820801e-01,9.088940620422363281e-01,9.088518619537353516e-01,9.088097214698791504e-01,9.087674617767333984e-01,9.087252020835876465e-01,9.086830019950866699e-01,9.086408615112304688e-01,9.085986614227294922e-01,9.085564613342285156e-01,9.085142016410827637e-01,9.084721207618713379e-01,9.084299206733703613e-01,9.083877205848693848e-01,9.083455204963684082e-01,9.083033204078674316e-01,9.082612395286560059e-01,9.082190394401550293e-01,9.081768393516540527e-01,9.081346988677978516e-01,9.080924987792968750e-01,9.080503582954406738e-01,9.080081582069396973e-01,9.079661369323730469e-01,9.079239368438720703e-01,9.078817963600158691e-01,9.078397750854492188e-01,9.077975749969482422e-01,9.077554345130920410e-01,9.077132940292358398e-01,9.076712727546691895e-01,9.076291322708129883e-01,9.075869917869567871e-01,9.075449705123901367e-01,9.075028896331787109e-01,9.074607491493225098e-01,9.074186682701110840e-01,9.073766469955444336e-01,9.073345661163330078e-01,9.072924256324768066e-01,9.072504639625549316e-01,9.072083234786987305e-01,9.071662425994873047e-01,9.071241617202758789e-01,9.070822000503540039e-01,9.070401191711425781e-01,9.069980382919311523e-01
8.635179400444030762e-01,8.634797930717468262e-01,8.634417057037353516e-01,8.634035587310791016e-01,8.633655309677124023e-01,8.633273839950561523e-01,8.632892966270446777e-01,8.632512092590332031e-01,8.632131814956665039e-01,8.631750345230102539e-01,8.631369471549987793e-01,8.630988597869873047e-01,8.630608320236206055e-01,8.630227446556091309e-01,8.629846572875976562e-01,8.629465699195861816e-01,8.629084825515747070e-01,8.628705143928527832e-01,8.628324270248413086e-01,8.627943396568298340e-01,8.627563118934631348e-01,8.627183437347412109e-01,8.626802563667297363e-01,8.626422286033630371e-01,8.626041412353515625e-01,8.625661730766296387e-01,8.625281453132629395e-01,8.624901175498962402e-01,8.624520301818847656e-01,8.624140024185180664e-01,8.623760938644409180e-01,8.623380661010742188e-01,8.623000383377075195e-01,8.622620105743408203e-01,8.622240424156188965e-01,8.621860146522521973e-01,8.621479868888854980e-01,8.621100187301635742e-01,8.620721101760864258e-01,8.620340824127197266e-01,8.619960546493530273e-01,8.619580864906311035e-01,8.619201183319091797e-01,8.618822097778320312e-01,8.618441820144653320e-01,8.618062138557434082e-01,8.617682456970214844e-01,8.617303371429443359e-01,8.616923689842224121e-01,8.616544008255004883e-01,8.616164326667785645e-01,8.615785837173461914e-01,8.615406155586242676e-01,8.615026473999023438e-01,8.614646792411804199e-01,8.614267110824584961e-01,8.613888621330261230e-01,8.613508343696594238e-01,8.613128662109375000e-01,8.612750172615051270e-01,8.612371087074279785e-01,8.611992001533508301e-01,8.611613512039184570e-01,8.611234426498413086e-01,8.610854744911193848e-01,8.610475659370422363e-01,8.610097765922546387e-01,8.609718680381774902e-01,8.609339594841003418e-01,8.608961105346679688e-01,8.608582019805908203e-01,8.608202934265136719e-01,8.607824444770812988e-01,8.607445955276489258e-01,8.607067465782165527e-01,8.606688380241394043e-01,8.606310486793518066e-01,8.605931997299194336e-01,8.605552911758422852e-01,8.605174422264099121e-01
8.212832212448120117e-01,8.212487101554870605e-01,8.212143182754516602e-01,8.211798071861267090e-01,8.211452960968017578e-01,8.211108446121215820e-01,8.210764527320861816e-01,8.210419416427612305e-01,8.210074901580810547e-01,8.209730386734008789e-01,8.209385871887207031e-01,8.209041953086853027e-01,8.208697438240051270e-01,8.208352327346801758e-01,8.208007812500000000e-01,8.207664489746093750e-01,8.207319974899291992e-01,8.206975460052490234e-01,8.206630945205688477e-01,8.206287622451782227e-01,8.205943107604980469e-01,8.205598592758178711e-01,8.205254077911376953e-01,8.204910755157470703e-01,8.204566836357116699e-01,8.204222321510314941e-01,8.203878402709960938e-01,8.203533887863159180e-01,8.203190565109252930e-01,8.202846646308898926e-01,8.202502131462097168e-01,8.202158212661743164e-01,8.201814889907836914e-01,8.201470971107482910e-01,8.201127052307128906e-01,8.200783133506774902e-01,8.200439214706420898e-01,8.200095891952514648e-01,8.199752569198608398e-01,8.199408650398254395e-01,8.199064731597900391e-01,8.198721408843994141e-01,8.198378086090087891e-01,8.198034167289733887e-01,8.197690248489379883e-01,8.197347521781921387e-01,8.197004199028015137e-01,8.196660280227661133e-01,8.196316957473754883e-01,8.195974230766296387e-01,8.195630311965942383e-01,8.195286989212036133e-01,8.194943666458129883e-01,8.194600343704223633e-01,8.194257616996765137e-01,8.193914294242858887e-01,8.193570971488952637e-01,8.193227648735046387e-01,8.192884922027587891e-01,8.192541599273681641e-01,8.192197680473327637e-01,8.191854357719421387e-01,8.191512227058410645e-01,8.191168904304504395e-01,8.190826177597045898e-01,8.190483450889587402e-01,8.190140724182128906e-01,8.189797401428222656e-01,8.189454674720764160e-01,8.189112544059753418e-01,8.188769221305847168e-01,8.188426494598388672e-01,8.188084363937377930e-01,8.187741637229919434e-01,8.187398910522460938e-01,8.187056183815002441e-01,8.186714053153991699e-01,8.186371326446533203e-01,8.186028599739074707e-01,8.185686469078063965e-01
