3.099641799926757812e+00,3.178027391433715820e+00,3.260475635528564453e+00,3.347316265106201172e+00,3.438909292221069336e+00,3.535655498504638672e+00,3.638003349304199219e+00,3.746453046798706055e+00,3.861566781997680664e+00,3.983979225158691406e+00,4.114406585693359375e+00,4.253663063049316406e+00,4.402675628662109375e+00,4.562508106231689453e+00,4.734383106231689453e+00,4.919713497161865234e+00,5.000000000000000000e+00,5.000000000000000000e+00,5.000000000000000000e+00,5.000000000000000000e+00,5.000000000000000000e+00,5.000000000000000000e+00,5.000000000000000000e+00,5.000000000000000000e+00,5.000000000000000000e+00,5.000000000000000000e+00,5.000000000000000000e+00,5.000000000000000000e+00,5.000000000000000000e+00,5.000000000000000000e+00,5.000000000000000000e+00,5.000000000000000000e+00,5.000000000000000000e+00,5.000000000000000000e+00,5.000000000000000000e+00,5.000000000000000000e+00,5.000000000000000000e+00,5.000000000000000000e+00,5.000000000000000000e+00,5.000000000000000000e+00,5.000000000000000000e+00,5.000000000000000000e+00,5.000000000000000000e+00,5.000000000000000000e+00,5.000000000000000000e+00,5.000000000000000000e+00,5.000000000000000000e+00,5.000000000000000000e+00,5.000000000000000000e+00,5.000000000000000000e+00,5.000000000000000000e+00,5.000000000000000000e+00,5.000000000000000000e+00,5.000000000000000000e+00,5.000000000000000000e+00,5.000000000000000000e+00,5.000000000000000000e+00,5.000000000000000000e+00,5.000000000000000000e+00,5.000000000000000000e+00,5.000000000000000000e+00,5.000000000000000000e+00,5.000000000000000000e+00,5.000000000000000000e+00,5.000000000000000000e+00,5.000000000000000000e+00,5.000000000000000000e+00,5.000000000000000000e+00,5.000000000000000000e+00,5.000000000000000000e+00,4.850175857543945312e+00,4.690991878509521484e+00,4.541924953460693359e+00,4.402025222778320312e+00,4.270448684692382812e+00,4.146508693695068359e+00,4.029560565948486328e+00,3.919028520584106445e+00,3.814398050308227539e+00,3.715209245681762695e+00
3.099575757980346680e+00,3.177959918975830078e+00,3.260408878326416016e+00,3.347245693206787109e+00,3.438834905624389648e+00,3.535576820373535156e+00,3.637920141220092773e+00,3.746364593505859375e+00,3.861473083496093750e+00,3.983879327774047852e+00,4.114300251007080078e+00,4.253549098968505859e+00,4.402554035186767578e+00,4.562377452850341797e+00,4.734241962432861328e+00,4.919561386108398438e+00,5.000000000000000000e+00,5.000000000000000000e+00,5.000000000000000000e+00,5.000000000000000000e+00,5.000000000000000000e+00,5.000000000000000000e+00,5.000000000000000000e+00,5.000000000000000000e+00,5.000000000000000000e+00,5.000000000000000000e+00,5.000000000000000000e+00,5.000000000000000000e+00,5.000000000000000000e+00,5.000000000000000000e+00,5.000000000000000000e+00,5.000000000000000000e+00,5.000000000000000000e+00,5.000000000000000000e+00,5.000000000000000000e+00,5.000000000000000000e+00,5.000000000000000000e+00,5.000000000000000000e+00,5.000000000000000000e+00,5.000000000000000000e+00,5.000000000000000000e+00,5.000000000000000000e+00,5.000000000000000000e+00,5.000000000000000000e+00,5.000000000000000000e+00,5.000000000000000000e+00,5.000000000000000000e+00,5.000000000000000000e+00,5.000000000000000000e+00,5.000000000000000000e+00,5.000000000000000000e+00,5.000000000000000000e+00,5.000000000000000000e+00,5.000000000000000000e+00,5.000000000000000000e+00,5.000000000000000000e+00,5.000000000000000000e+00,5.000000000000000000e+00,5.000000000000000000e+00,5.000000000000000000e+00,5.000000000000000000e+00,5.000000000000000000e+00,5.000000000000000000e+00,5.000000000000000000e+00,5.000000000000000000e+00,5.000000000000000000e+00,5.000000000000000000e+00,5.000000000000000000e+00,5.000000000000000000e+00,5.000000000000000000e+00,4.850394725799560547e+00,4.691196918487548828e+00,4.542093753814697266e+00,4.402143478393554688e+00,4.270559787750244141e+00,4.146613597869873047e+00,4.029659748077392578e+00,3.919121742248535156e+00,3.814486503601074219e+00,3.715293169021606445e+00
3.099509239196777344e+00,3.177890300750732422e+00,3.260338068008422852e+00,3.347175359725952148e+00,3.438760519027709961e+00,3.535498380661010742e+00,3.637836933135986328e+00,3.746276378631591797e+00,3.861379146575927734e+00,3.983779668807983398e+00,4.114193916320800781e+00,4.253435134887695312e+00,4.402431964874267578e+00,4.562246799468994141e+00,4.734100818634033203e+00,4.919409275054931641e+00,5.000000000000000000e+00,5.000000000000000000e+00,5.000000000000000000e+00,5.000000000000000000e+00,5.000000000000000000e+00,5.000000000000000000e+00,5.000000000000000000e+00,5.000000000000000000e+00,5.000000000000000000e+00,5.000000000000000000e+00,5.000000000000000000e+00,5.000000000000000000e+00,5.000000000000000000e+00,5.000000000000000000e+00,5.000000000000000000e+00,5.000000000000000000e+00,5.000000000000000000e+00,5.000000000000000000e+00,5.000000000000000000e+00,5.000000000000000000e+00,5.000000000000000000e+00,5.000000000000000000e+00,5.000000000000000000e+00,5.000000000000000000e+00,5.000000000000000000e+00,5.000000000000000000e+00,5.000000000000000000e+00,5.000000000000000000e+00,5.000000000000000000e+00,5.000000000000000000e+00,5.000000000000000000e+00,5.000000000000000000e+00,5.000000000000000000e+00,5.000000000000000000e+00,5.000000000000000000e+00,5.000000000000000000e+00,5.000000000000000000e+00,5.000000000000000000e+00,5.000000000000000000e+00,5.000000000000000000e+00,5.000000000000000000e+00,5.000000000000000000e+00,5.000000000000000000e+00,5.000000000000000000e+00,5.000000000000000000e+00,5.000000000000000000e+00,5.000000000000000000e+00,5.000000000000000000e+00,5.000000000000000000e+00,5.000000000000000000e+00,5.000000000000000000e+00,5.000000000000000000e+00,5.000000000000000000e+00,5.000000000000000000e+00,4.850613594055175781e+00,4.691369056701660156e+00,4.542219638824462891e+00,4.402261734008789062e+00,4.270670890808105469e+00,4.146718502044677734e+00,4.029758453369140625e+00,3.919215679168701172e+00,3.814575433731079102e+00,3.715377330780029297e+00
3.099442958831787109e+00,3.177820444107055664e+00,3.260265111923217773e+00,3.347100734710693359e+00,3.438686132431030273e+00,3.535419702529907227e+00,3.637753486633300781e+00,3.746188163757324219e+00,3.861285448074340820e+00,3.983679771423339844e+00,4.114087104797363281e+00,4.253321647644042969e+00,4.402309894561767578e+00,4.562115669250488281e+00,4.733960151672363281e+00,4.919257164001464844e+00,5.000000000000000000e+00,5.000000000000000000e+00,5.000000000000000000e+00,5.000000000000000000e+00,5.000000000000000000e+00,5.000000000000000000e+00,5.000000000000000000e+00,5.000000000000000000e+00,5.000000000000000000e+00,5.000000000000000000e+00,5.000000000000000000e+00,5.000000000000000000e+00,5.000000000000000000e+00,5.000000000000000000e+00,5.000000000000000000e+00,5.000000000000000000e+00,5.000000000000000000e+00,5.000000000000000000e+00,5.000000000000000000e+00,5.000000000000000000e+00,5.000000000000000000e+00,5.000000000000000000e+00,5.000000000000000000e+00,5.000000000000000000e+00,5.000000000000000000e+00,5.000000000000000000e+00,5.000000000000000000e+00,5.000000000000000000e+00,5.000000000000000000e+00,5.000000000000000000e+00,5.000000000000000000e+00,5.000000000000000000e+00,5.000000000000000000e+00,5.000000000000000000e+00,5.000000000000000000e+00,5.000000000000000000e+00,5.000000000000000000e+00,5.000000000000000000e+00,5.000000000000000000e+00,5.000000000000000000e+00,5.000000000000000000e+00,5.000000000000000000e+00,5.000000000000000000e+00,5.000000000000000000e+00,5.000000000000000000e+00,5.000000000000000000e+00,5.000000000000000000e+00,5.000000000000000000e+00,5.000000000000000000e+00,5.000000000000000000e+00,5.000000000000000000e+00,5.000000000000000000e+00,5.000000000000000000e+00,5.000000000000000000e+00,4.850789546966552734e+00,4.691503047943115234e+00,4.542345523834228516e+00,4.402379512786865234e+00,4.270781993865966797e+00,4.146823406219482422e+00,4.029857635498046875e+00,3.919309139251708984e+00,3.814663887023925781e+00,3.715461254119873047e+00
3.099376440048217773e+00,3.177750825881958008e+00,3.260191440582275391e+00,3.347023725509643555e+00,3.438607692718505859e+00,3.535341024398803711e+00,3.637670278549194336e+00,3.746099948883056641e+00,3.861191749572753906e+00,3.983580112457275391e+00,4.113980770111083984e+00,4.253207683563232422e+00,4.402188301086425781e+00,4.561985015869140625e+00,4.733819007873535156e+00,4.919105052947998047e+00,5.000000000000000000e+00,5.000000000000000000e+00,5.000000000000000000e+00,5.000000000000000000e+00,5.000000000000000000e+00,5.000000000000000000e+00,5.000000000000000000e+00,5.000000000000000000e+00,5.000000000000000000e+00,5.000000000000000000e+00,5.000000000000000000e+00,5.000000000000000000e+00,5.000000000000000000e+00,5.000000000000000000e+00,5.000000000000000000e+00,5.000000000000000000e+00,5.000000000000000000e+00,5.000000000000000000e+00,5.000000000000000000e+00,5.000000000000000000e+00,5.000000000000000000e+00,5.000000000000000000e+00,5.000000000000000000e+00,5.000000000000000000e+00,5.000000000000000000e+00,5.000000000000000000e+00,5.000000000000000000e+00,5.000000000000000000e+00,5.000000000000000000e+00,5.000000000000000000e+00,5.000000000000000000e+00,5.000000000000000000e+00,5.000000000000000000e+00,5.000000000000000000e+00,5.000000000000000000e+00,5.000000000000000000e+00,5.000000000000000000e+00,5.000000000000000000e+00,5.000000000000000000e+00,5.000000000000000000e+00,5.000000000000000000e+00,5.000000000000000000e+00,5.000000000000000000e+00,5.000000000000000000e+00,5.000000000000000000e+00,5.000000000000000000e+00,5.000000000000000000e+00,5.000000000000000000e+00,5.000000000000000000e+00,5.000000000000000000e+00,5.000000000000000000e+00,5.000000000000000000e+00,5.000000000000000000e+00,5.000000000000000000e+00,4.850933074951171875e+00,4.691637516021728516e+00,4.542471408843994141e+00,4.402497768402099609e+00,4.270893096923828125e+00,4.146928310394287109e+00,4.029956340789794922e+00,3.919402837753295898e+00,3.814752817153930664e+00,3.715545654296875000e+00
3.099310159683227539e+00,3.177680969238281250e+00,3.260118007659912109e+00,3.346946239471435547e+00,3.438526153564453125e+00,3.535258293151855469e+00,3.637587308883666992e+00,3.746011734008789062e+00,3.861098051071166992e+00,3.983480215072631836e+00,4.113874435424804688e+00,4.253094196319580078e+00,4.402066230773925781e+00,4.561853885650634766e+00,4.733678340911865234e+00,4.918952941894531250e+00,5.000000000000000000e+00,5.000000000000000000e+00,5.000000000000000000e+00,5.000000000000000000e+00,5.000000000000000000e+00,5.000000000000000000e+00,5.000000000000000000e+00,5.000000000000000000e+00,5.000000000000000000e+00,5.000000000000000000e+00,5.000000000000000000e+00,5.000000000000000000e+00,5.000000000000000000e+00,5.000000000000000000e+00,5.000000000000000000e+00,5.000000000000000000e+00,5.000000000000000000e+00,5.000000000000000000e+00,5.000000000000000000e+00,5.000000000000000000e+00,5.000000000000000000e+00,5.000000000000000000e+00,5.000000000000000000e+00,5.000000000000000000e+00,5.000000000000000000e+00,5.000000000000000000e+00,5.000000000000000000e+00,5.000000000000000000e+00,5.000000000000000000e+00,5.000000000000000000e+00,5.000000000000000000e+00,5.000000000000000000e+00,5.000000000000000000e+00,5.000000000000000000e+00,5.000000000000000000e+00,5.000000000000000000e+00,5.000000000000000000e+00,5.000000000000000000e+00,5.000000000000000000e+00,5.000000000000000000e+00,5.000000000000000000e+00,5.000000000000000000e+00,5.000000000000000000e+00,5.000000000000000000e+00,5.000000000000000000e+00,5.000000000000000000e+00,5.000000000000000000e+00,5.000000000000000000e+00,5.000000000000000000e+00,5.000000000000000000e+00,5.000000000000000000e+00,5.000000000000000000e+00,5.000000000000000000e+00,5.000000000000000000e+00,4.851076602935791016e+00,4.691771507263183594e+00,4.542597293853759766e+00,4.402616024017333984e+00,4.271004199981689453e+00,4.147032737731933594e+00,4.030055522918701172e+00,3.919496297836303711e+00,3.814841270446777344e+00,3.715629577636718750e+00
3.099243640899658203e+00,3.177611112594604492e+00,3.260044574737548828e+00,3.346868753433227539e+00,3.438444614410400391e+00,3.535172224044799805e+00,3.637499570846557617e+00,3.745923519134521484e+00,3.861004114151000977e+00,3.983380556106567383e+00,4.113768100738525391e+00,4.252980232238769531e+00,4.401944637298583984e+00,4.561723232269287109e+00,4.733537197113037109e+00,4.918800830841064453e+00,5.000000000000000000e+00,5.000000000000000000e+00,5.000000000000000000e+00,5.000000000000000000e+00,5.000000000000000000e+00,5.000000000000000000e+00,5.000000000000000000e+00,5.000000000000000000e+00,5.000000000000000000e+00,5.000000000000000000e+00,5.000000000000000000e+00,5.000000000000000000e+00,5.000000000000000000e+00,5.000000000000000000e+00,5.000000000000000000e+00,5.000000000000000000e+00,5.000000000000000000e+00,5.000000000000000000e+00,5.000000000000000000e+00,5.000000000000000000e+00,5.000000000000000000e+00,5.000000000000000000e+00,5.000000000000000000e+00,5.000000000000000000e+00,5.000000000000000000e+00,5.000000000000000000e+00,5.000000000000000000e+00,5.000000000000000000e+00,5.000000000000000000e+00,5.000000000000000000e+00,5.000000000000000000e+00,5.000000000000000000e+00,5.000000000000000000e+00,5.000000000000000000e+00,5.000000000000000000e+00,5.000000000000000000e+00,5.000000000000000000e+00,5.000000000000000000e+00,5.000000000000000000e+00,5.000000000000000000e+00,5.000000000000000000e+00,5.000000000000000000e+00,5.000000000000000000e+00,5.000000000000000000e+00,5.000000000000000000e+00,5.000000000000000000e+00,5.000000000000000000e+00,5.000000000000000000e+00,5.000000000000000000e+00,5.000000000000000000e+00,5.000000000000000000e+00,5.000000000000000000e+00,5.000000000000000000e+00,5.000000000000000000e+00,4.851220130920410156e+00,4.691905975341796875e+00,4.542723178863525391e+00,4.402734279632568359e+00,4.271115779876708984e+00,4.147138118743896484e+00,4.030154228210449219e+00,3.919589281082153320e+00,3.814926385879516602e+00,3.715707302093505859e+00
3.099177360534667969e+00,3.177541255950927734e+00,3.259971141815185547e+00,3.346791267395019531e+00,3.438362836837768555e+00,3.535085916519165039e+00,3.637408494949340820e+00,3.745830535888671875e+00,3.860910415649414062e+00,3.983280658721923828e+00,4.113661766052246094e+00,4.252866744995117188e+00,4.401823043823242188e+00,4.561592102050781250e+00,4.733396530151367188e+00,4.918648719787597656e+00,5.000000000000000000e+00,5.000000000000000000e+00,5.000000000000000000e+00,5.000000000000000000e+00,5.000000000000000000e+00,5.000000000000000000e+00,5.000000000000000000e+00,5.000000000000000000e+00,5.000000000000000000e+00,5.000000000000000000e+00,5.000000000000000000e+00,5.000000000000000000e+00,5.000000000000000000e+00,5.000000000000000000e+00,5.000000000000000000e+00,5.000000000000000000e+00,5.000000000000000000e+00,5.000000000000000000e+00,5.000000000000000000e+00,5.000000000000000000e+00,5.000000000000000000e+00,5.000000000000000000e+00,5.000000000000000000e+00,5.000000000000000000e+00,5.000000000000000000e+00,5.000000000000000000e+00,5.000000000000000000e+00,5.000000000000000000e+00,5.000000000000000000e+00,5.000000000000000000e+00,5.000000000000000000e+00,5.000000000000000000e+00,5.000000000000000000e+00,5.000000000000000000e+00,5.000000000000000000e+00,5.000000000000000000e+00,5.000000000000000000e+00,5.000000000000000000e+00,5.000000000000000000e+00,5.000000000000000000e+00,5.000000000000000000e+00,5.000000000000000000e+00,5.000000000000000000e+00,5.000000000000000000e+00,5.000000000000000000e+00,5.000000000000000000e+00,5.000000000000000000e+00,5.000000000000000000e+00,5.000000000000000000e+00,5.000000000000000000e+00,5.000000000000000000e+00,5.000000000000000000e+00,5.000000000000000000e+00,5.000000000000000000e+00,4.851363182067871094e+00,4.692039966583251953e+00,4.542848587036132812e+00,4.402852535247802734e+00,4.271226882934570312e+00,4.147239208221435547e+00,4.030246257781982422e+00,3.919673919677734375e+00,3.815006256103515625e+00,3.715783119201660156e+00
3.099110841751098633e+00,3.177471399307250977e+00,3.259897470474243164e+00,3.346714019775390625e+00,3.438281059265136719e+00,3.534999608993530273e+00,3.637317180633544922e+00,3.745733976364135742e+00,3.860812425613403320e+00,3.983180999755859375e+00,4.113554954528808594e+00,4.252752780914306641e+00,4.401700973510742188e+00,4.561461448669433594e+00,4.733255386352539062e+00,4.918496608734130859e+00,5.000000000000000000e+00,5.000000000000000000e+00,5.000000000000000000e+00,5.000000000000000000e+00,5.000000000000000000e+00,5.000000000000000000e+00,5.000000000000000000e+00,5.000000000000000000e+00,5.000000000000000000e+00,5.000000000000000000e+00,5.000000000000000000e+00,5.000000000000000000e+00,5.000000000000000000e+00,5.000000000000000000e+00,5.000000000000000000e+00,5.000000000000000000e+00,5.000000000000000000e+00,5.000000000000000000e+00,5.000000000000000000e+00,5.000000000000000000e+00,5.000000000000000000e+00,5.000000000000000000e+00,5.000000000000000000e+00,5.000000000000000000e+00,5.000000000000000000e+00,5.000000000000000000e+00,5.000000000000000000e+00,5.000000000000000000e+00,5.000000000000000000e+00,5.000000000000000000e+00,5.000000000000000000e+00,5.000000000000000000e+00,5.000000000000000000e+00,4.331122875213623047e+00,5.000000000000000000e+00,5.000000000000000000e+00,5.000000000000000000e+00,5.000000000000000000e+00,5.000000000000000000e+00,5.000000000000000000e+00,5.000000000000000000e+00,5.000000000000000000e+00,5.000000000000000000e+00,5.000000000000000000e+00,5.000000000000000000e+00,5.000000000000000000e+00,5.000000000000000000e+00,5.000000000000000000e+00,5.000000000000000000e+00,5.000000000000000000e+00,5.000000000000000000e+00,5.000000000000000000e+00,5.000000000000000000e+00,5.000000000000000000e+00,4.851506710052490234e+00,4.692174434661865234e+00,4.542971134185791016e+00,4.402963161468505859e+00,4.271327495574951172e+00,4.147333621978759766e+00,4.030335903167724609e+00,3.919758319854736328e+00,3.815086364746093750e+00,3.715858697891235352e+00
3.099044799804687500e+00,3.177401542663574219e+00,3.259824037551879883e+00,3.346636533737182617e+00,3.438199281692504883e+00,3.534913063049316406e+00,3.637225627899169922e+00,3.745636940002441406e+00,3.860709667205810547e+00,3.983076333999633789e+00,4.113448619842529297e+00,4.252639293670654297e+00,4.401579380035400391e+00,4.561330795288085938e+00,4.733114719390869141e+00,4.918344497680664062e+00,5.000000000000000000e+00,5.000000000000000000e+00,5.000000000000000000e+00,5.000000000000000000e+00,5.000000000000000000e+00,5.000000000000000000e+00,5.000000000000000000e+00,5.000000000000000000e+00,5.000000000000000000e+00,5.000000000000000000e+00,5.000000000000000000e+00,5.000000000000000000e+00,5.000000000000000000e+00,5.000000000000000000e+00,5.000000000000000000e+00,5.000000000000000000e+00,5.000000000000000000e+00,5.000000000000000000e+00,5.000000000000000000e+00,5.000000000000000000e+00,5.000000000000000000e+00,5.000000000000000000e+00,5.000000000000000000e+00,5.000000000000000000e+00,5.000000000000000000e+00,5.000000000000000000e+00,5.000000000000000000e+00,5.000000000000000000e+00,5.000000000000000000e+00,5.000000000000000000e+00,5.000000000000000000e+00,5.000000000000000000e+00,4.408839225769042969e+00,4.313940525054931641e+00,5.000000000000000000e+00,5.000000000000000000e+00,5.000000000000000000e+00,5.000000000000000000e+00,5.000000000000000000e+00,5.000000000000000000e+00,5.000000000000000000e+00,5.000000000000000000e+00,5.000000000000000000e+00,5.000000000000000000e+00,5.000000000000000000e+00,5.000000000000000000e+00,5.000000000000000000e+00,5.000000000000000000e+00,5.000000000000000000e+00,5.000000000000000000e+00,5.000000000000000000e+00,5.000000000000000000e+00,5.000000000000000000e+00,5.000000000000000000e+00,4.851642608642578125e+00,4.692296028137207031e+00,4.543084621429443359e+00,4.403069972991943359e+00,4.271427154541015625e+00,4.147428035736083984e+00,4.030425071716308594e+00,3.919842481613159180e+00,3.815166234970092773e+00,3.715934991836547852e+00
3.098978281021118164e+00,3.177332162857055664e+00,3.259750604629516602e+00,3.346559047698974609e+00,3.438117504119873047e+00,3.534826755523681641e+00,3.637134075164794922e+00,3.745539903640747070e+00,3.860606670379638672e+00,3.982967138290405273e+00,4.113337516784667969e+00,4.252525329589843750e+00,4.401457309722900391e+00,4.561199665069580078e+00,4.732974052429199219e+00,4.918192386627197266e+00,5.000000000000000000e+00,5.000000000000000000e+00,5.000000000000000000e+00,5.000000000000000000e+00,5.000000000000000000e+00,5.000000000000000000e+00,5.000000000000000000e+00,5.000000000000000000e+00,5.000000000000000000e+00,5.000000000000000000e+00,5.000000000000000000e+00,5.000000000000000000e+00,5.000000000000000000e+00,5.000000000000000000e+00,5.000000000000000000e+00,5.000000000000000000e+00,5.000000000000000000e+00,5.000000000000000000e+00,5.000000000000000000e+00,5.000000000000000000e+00,5.000000000000000000e+00,5.000000000000000000e+00,5.000000000000000000e+00,5.000000000000000000e+00,5.000000000000000000e+00,5.000000000000000000e+00,5.000000000000000000e+00,5.000000000000000000e+00,5.000000000000000000e+00,5.000000000000000000e+00,5.000000000000000000e+00,5.000000000000000000e+00,5.000000000000000000e+00,4.335356235504150391e+00,5.000000000000000000e+00,5.000000000000000000e+00,5.000000000000000000e+00,5.000000000000000000e+00,5.000000000000000000e+00,5.000000000000000000e+00,5.000000000000000000e+00,5.000000000000000000e+00,5.000000000000000000e+00,5.000000000000000000e+00,5.000000000000000000e+00,5.000000000000000000e+00,5.000000000000000000e+00,5.000000000000000000e+00,5.000000000000000000e+00,5.000000000000000000e+00,5.000000000000000000e+00,5.000000000000000000e+00,5.000000000000000000e+00,5.000000000000000000e+00,4.851771831512451172e+00,4.692417144775390625e+00,4.543197631835937500e+00,4.403176307678222656e+00,4.271527767181396484e+00,4.147522449493408203e+00,4.030514240264892578e+00,3.919927120208740234e+00,3.815246105194091797e+00,3.716010570526123047e+00
3.098912000656127930e+00,3.177262306213378906e+00,3.259677410125732422e+00,3.346481561660766602e+00,3.438035964965820312e+00,3.534740447998046875e+00,3.637042760848999023e+00,3.745443105697631836e+00,3.860503673553466797e+00,3.982857465744018555e+00,4.113220691680908203e+00,4.252406597137451172e+00,4.401335716247558594e+00,4.561069011688232422e+00,4.732832908630371094e+00,4.918040275573730469e+00,5.000000000000000000e+00,5.000000000000000000e+00,5.000000000000000000e+00,5.000000000000000000e+00,5.000000000000000000e+00,5.000000000000000000e+00,5.000000000000000000e+00,5.000000000000000000e+00,5.000000000000000000e+00,5.000000000000000000e+00,5.000000000000000000e+00,5.000000000000000000e+00,5.000000000000000000e+00,5.000000000000000000e+00,5.000000000000000000e+00,5.000000000000000000e+00,5.000000000000000000e+00,5.000000000000000000e+00,5.000000000000000000e+00,5.000000000000000000e+00,5.000000000000000000e+00,5.000000000000000000e+00,5.000000000000000000e+00,5.000000000000000000e+00,5.000000000000000000e+00,5.000000000000000000e+00,5.000000000000000000e+00,5.000000000000000000e+00,5.000000000000000000e+00,5.000000000000000000e+00,5.000000000000000000e+00,5.000000000000000000e+00,4.469627857208251953e+00,4.406736373901367188e+00,4.410627841949462891e+00,5.000000000000000000e+00,5.000000000000000000e+00,5.000000000000000000e+00,5.000000000000000000e+00,5.000000000000000000e+00,5.000000000000000000e+00,5.000000000000000000e+00,5.000000000000000000e+00,5.000000000000000000e+00,5.000000000000000000e+00,5.000000000000000000e+00,5.000000000000000000e+00,5.000000000000000000e+00,5.000000000000000000e+00,5.000000000000000000e+00,5.000000000000000000e+00,5.000000000000000000e+00,5.000000000000000000e+00,5.000000000000000000e+00,4.851901531219482422e+00,4.692538261413574219e+00,4.543311119079589844e+00,4.403282642364501953e+00,4.271627902984619141e+00,4.147616863250732422e+00,4.030603408813476562e+00,3.920011520385742188e+00,3.815326213836669922e+00,3.716086387634277344e+00
3.098845481872558594e+00,3.177192449569702148e+00,3.259603977203369141e+00,3.346404552459716797e+00,3.437954187393188477e+00,3.534653902053833008e+00,3.636951208114624023e+00,3.745346069335937500e+00,3.860400676727294922e+00,3.982747793197631836e+00,4.113103866577148438e+00,4.252282142639160156e+00,4.401208877563476562e+00,4.560938358306884766e+00,4.732692241668701172e+00,4.917888164520263672e+00,5.000000000000000000e+00,5.000000000000000000e+00,5.000000000000000000e+00,5.000000000000000000e+00,5.000000000000000000e+00,5.000000000000000000e+00,5.000000000000000000e+00,5.000000000000000000e+00,5.000000000000000000e+00,5.000000000000000000e+00,5.000000000000000000e+00,5.000000000000000000e+00,5.000000000000000000e+00,5.000000000000000000e+00,5.000000000000000000e+00,5.000000000000000000e+00,5.000000000000000000e+00,5.000000000000000000e+00,5.000000000000000000e+00,5.000000000000000000e+00,5.000000000000000000e+00,5.000000000000000000e+00,5.000000000000000000e+00,5.000000000000000000e+00,5.000000000000000000e+00,5.000000000000000000e+00,5.000000000000000000e+00,5.000000000000000000e+00,5.000000000000000000e+00,5.000000000000000000e+00,4.364215850830078125e+00,4.345831394195556641e+00,4.331959724426269531e+00,4.335371971130371094e+00,4.357186317443847656e+00,4.391783237457275391e+00,4.439224243164062500e+00,5.000000000000000000e+00,5.000000000000000000e+00,5.000000000000000000e+00,5.000000000000000000e+00,5.000000000000000000e+00,5.000000000000000000e+00,5.000000000000000000e+00,5.000000000000000000e+00,5.000000000000000000e+00,5.000000000000000000e+00,5.000000000000000000e+00,5.000000000000000000e+00,5.000000000000000000e+00,5.000000000000000000e+00,5.000000000000000000e+00,5.000000000000000000e+00,5.000000000000000000e+00,4.852030277252197266e+00,4.692659378051757812e+00,4.543425083160400391e+00,4.403389453887939453e+00,4.271728038787841797e+00,4.147711753845214844e+00,4.030692577362060547e+00,3.920095682144165039e+00,3.815406084060668945e+00,3.716162443161010742e+00
3.098779201507568359e+00,3.177122831344604492e+00,3.259530544281005859e+00,3.346327304840087891e+00,3.437872648239135742e+00,3.534567594528198242e+00,3.636859655380249023e+00,3.745249032974243164e+00,3.860297441482543945e+00,3.982638120651245117e+00,4.112987041473388672e+00,4.252157211303710938e+00,4.401074886322021484e+00,4.560801982879638672e+00,4.732551574707031250e+00,4.917736053466796875e+00,5.000000000000000000e+00,5.000000000000000000e+00,5.000000000000000000e+00,5.000000000000000000e+00,5.000000000000000000e+00,5.000000000000000000e+00,5.000000000000000000e+00,5.000000000000000000e+00,5.000000000000000000e+00,5.000000000000000000e+00,5.000000000000000000e+00,5.000000000000000000e+00,5.000000000000000000e+00,5.000000000000000000e+00,5.000000000000000000e+00,5.000000000000000000e+00,5.000000000000000000e+00,5.000000000000000000e+00,5.000000000000000000e+00,5.000000000000000000e+00,5.000000000000000000e+00,5.000000000000000000e+00,5.000000000000000000e+00,5.000000000000000000e+00,5.000000000000000000e+00,5.000000000000000000e+00,5.000000000000000000e+00,5.000000000000000000e+00,5.000000000000000000e+00,5.000000000000000000e+00,4.368515491485595703e+00,4.353623390197753906e+00,4.305588245391845703e+00,4.297753810882568359e+00,4.319970130920410156e+00,4.384831428527832031e+00,4.452676773071289062e+00,5.000000000000000000e+00,5.000000000000000000e+00,5.000000000000000000e+00,5.000000000000000000e+00,5.000000000000000000e+00,5.000000000000000000e+00,5.000000000000000000e+00,5.000000000000000000e+00,5.000000000000000000e+00,5.000000000000000000e+00,5.000000000000000000e+00,5.000000000000000000e+00,5.000000000000000000e+00,5.000000000000000000e+00,5.000000000000000000e+00,5.000000000000000000e+00,5.000000000000000000e+00,4.852159976959228516e+00,4.692780017852783203e+00,4.543538570404052734e+00,4.403495788574218750e+00,4.271828174591064453e+00,4.147806167602539062e+00,4.030782222747802734e+00,3.920180559158325195e+00,3.815485954284667969e+00,3.716238260269165039e+00
3.098685503005981445e+00,3.177040338516235352e+00,3.259457111358642578e+00,3.346249818801879883e+00,3.437791109085083008e+00,3.534481287002563477e+00,3.636768341064453125e+00,3.745151996612548828e+00,3.860194444656372070e+00,3.982528448104858398e+00,4.112869739532470703e+00,4.252031803131103516e+00,4.400940895080566406e+00,4.560658454895019531e+00,4.732405185699462891e+00,4.917583942413330078e+00,5.000000000000000000e+00,5.000000000000000000e+00,5.000000000000000000e+00,5.000000000000000000e+00,5.000000000000000000e+00,5.000000000000000000e+00,5.000000000000000000e+00,5.000000000000000000e+00,5.000000000000000000e+00,5.000000000000000000e+00,5.000000000000000000e+00,5.000000000000000000e+00,5.000000000000000000e+00,5.000000000000000000e+00,5.000000000000000000e+00,5.000000000000000000e+00,5.000000000000000000e+00,5.000000000000000000e+00,5.000000000000000000e+00,5.000000000000000000e+00,5.000000000000000000e+00,5.000000000000000000e+00,5.000000000000000000e+00,5.000000000000000000e+00,5.000000000000000000e+00,5.000000000000000000e+00,5.000000000000000000e+00,5.000000000000000000e+00,5.000000000000000000e+00,5.000000000000000000e+00,4.412277698516845703e+00,4.379950046539306641e+00,4.320270061492919922e+00,4.298323631286621094e+00,4.309071540832519531e+00,4.458786010742187500e+00,4.442305564880371094e+00,5.000000000000000000e+00,5.000000000000000000e+00,5.000000000000000000e+00,5.000000000000000000e+00,5.000000000000000000e+00,5.000000000000000000e+00,5.000000000000000000e+00,5.000000000000000000e+00,5.000000000000000000e+00,5.000000000000000000e+00,5.000000000000000000e+00,5.000000000000000000e+00,5.000000000000000000e+00,5.000000000000000000e+00,5.000000000000000000e+00,5.000000000000000000e+00,5.000000000000000000e+00,4.852289199829101562e+00,4.692901134490966797e+00,4.543651580810546875e+00,4.403602600097656250e+00,4.271928787231445312e+00,4.147900581359863281e+00,4.030871391296386719e+00,3.920264720916748047e+00,3.815566301345825195e+00,3.716313838958740234e+00
3.098586559295654297e+00,3.176935911178588867e+00,3.259350776672363281e+00,3.346155405044555664e+00,3.437709331512451172e+00,3.534395217895507812e+00,3.636676788330078125e+00,3.745054960250854492e+00,3.860091447830200195e+00,3.982418775558471680e+00,4.112752914428710938e+00,4.251906871795654297e+00,4.400807380676269531e+00,4.560514926910400391e+00,4.732250213623046875e+00,4.917426109313964844e+00,5.000000000000000000e+00,5.000000000000000000e+00,5.000000000000000000e+00,5.000000000000000000e+00,5.000000000000000000e+00,5.000000000000000000e+00,5.000000000000000000e+00,5.000000000000000000e+00,5.000000000000000000e+00,5.000000000000000000e+00,5.000000000000000000e+00,5.000000000000000000e+00,5.000000000000000000e+00,5.000000000000000000e+00,5.000000000000000000e+00,5.000000000000000000e+00,5.000000000000000000e+00,5.000000000000000000e+00,5.000000000000000000e+00,5.000000000000000000e+00,5.000000000000000000e+00,5.000000000000000000e+00,5.000000000000000000e+00,5.000000000000000000e+00,5.000000000000000000e+00,5.000000000000000000e+00,5.000000000000000000e+00,5.000000000000000000e+00,5.000000000000000000e+00,5.000000000000000000e+00,4.438624382019042969e+00,4.380305767059326172e+00,4.323670387268066406e+00,4.297738075256347656e+00,4.314692497253417969e+00,5.000000000000000000e+00,4.440865039825439453e+00,5.000000000000000000e+00,5.000000000000000000e+00,5.000000000000000000e+00,5.000000000000000000e+00,5.000000000000000000e+00,5.000000000000000000e+00,5.000000000000000000e+00,5.000000000000000000e+00,5.000000000000000000e+00,5.000000000000000000e+00,5.000000000000000000e+00,5.000000000000000000e+00,5.000000000000000000e+00,5.000000000000000000e+00,5.000000000000000000e+00,5.000000000000000000e+00,5.000000000000000000e+00,4.852418422698974609e+00,4.693022251129150391e+00,4.543765068054199219e+00,4.403708934783935547e+00,4.272028923034667969e+00,4.147994995117187500e+00,4.030960559844970703e+00,3.920349121093750000e+00,3.815646171569824219e+00,3.716390132904052734e+00
3.098487138748168945e+00,3.176831960678100586e+00,3.259241104125976562e+00,3.346039533615112305e+00,3.437587738037109375e+00,3.534286499023437500e+00,3.636582612991333008e+00,3.744958162307739258e+00,3.859988451004028320e+00,3.982309103012084961e+00,4.112636089324951172e+00,4.251781940460205078e+00,4.400673389434814453e+00,4.560370922088623047e+00,4.732095718383789062e+00,4.917259216308593750e+00,5.000000000000000000e+00,5.000000000000000000e+00,5.000000000000000000e+00,5.000000000000000000e+00,5.000000000000000000e+00,5.000000000000000000e+00,5.000000000000000000e+00,5.000000000000000000e+00,5.000000000000000000e+00,5.000000000000000000e+00,5.000000000000000000e+00,5.000000000000000000e+00,5.000000000000000000e+00,5.000000000000000000e+00,5.000000000000000000e+00,5.000000000000000000e+00,5.000000000000000000e+00,5.000000000000000000e+00,5.000000000000000000e+00,5.000000000000000000e+00,5.000000000000000000e+00,5.000000000000000000e+00,5.000000000000000000e+00,5.000000000000000000e+00,5.000000000000000000e+00,5.000000000000000000e+00,5.000000000000000000e+00,5.000000000000000000e+00,5.000000000000000000e+00,5.000000000000000000e+00,5.000000000000000000e+00,4.410391807556152344e+00,4.307802200317382812e+00,4.285052776336669922e+00,4.307242870330810547e+00,5.000000000000000000e+00,4.433406352996826172e+00,5.000000000000000000e+00,5.000000000000000000e+00,5.000000000000000000e+00,5.000000000000000000e+00,5.000000000000000000e+00,5.000000000000000000e+00,5.000000000000000000e+00,5.000000000000000000e+00,5.000000000000000000e+00,5.000000000000000000e+00,5.000000000000000000e+00,5.000000000000000000e+00,5.000000000000000000e+00,5.000000000000000000e+00,5.000000000000000000e+00,5.000000000000000000e+00,5.000000000000000000e+00,4.852548122406005859e+00,4.693143367767333984e+00,4.543878555297851562e+00,4.403815746307373047e+00,4.272129058837890625e+00,4.148089885711669922e+00,4.031049728393554688e+00,3.920433759689331055e+00,3.815725803375244141e+00,3.716465950012207031e+00
3.098417758941650391e+00,3.176742553710937500e+00,3.259131431579589844e+00,3.345924139022827148e+00,3.437465906143188477e+00,3.534157276153564453e+00,3.636446237564086914e+00,3.744832754135131836e+00,3.859878301620483398e+00,3.982199430465698242e+00,4.112519264221191406e+00,4.251657485961914062e+00,4.400539398193359375e+00,4.560227394104003906e+00,4.731940746307373047e+00,4.917092323303222656e+00,5.000000000000000000e+00,5.000000000000000000e+00,5.000000000000000000e+00,5.000000000000000000e+00,5.000000000000000000e+00,5.000000000000000000e+00,5.000000000000000000e+00,5.000000000000000000e+00,5.000000000000000000e+00,5.000000000000000000e+00,5.000000000000000000e+00,5.000000000000000000e+00,5.000000000000000000e+00,5.000000000000000000e+00,5.000000000000000000e+00,5.000000000000000000e+00,5.000000000000000000e+00,5.000000000000000000e+00,5.000000000000000000e+00,5.000000000000000000e+00,5.000000000000000000e+00,5.000000000000000000e+00,5.000000000000000000e+00,5.000000000000000000e+00,5.000000000000000000e+00,5.000000000000000000e+00,5.000000000000000000e+00,5.000000000000000000e+00,5.000000000000000000e+00,5.000000000000000000e+00,5.000000000000000000e+00,4.414781570434570312e+00,4.318449020385742188e+00,4.303002357482910156e+00,4.318871974945068359e+00,5.000000000000000000e+00,4.411399841308593750e+00,4.378423690795898438e+00,5.000000000000000000e+00,5.000000000000000000e+00,5.000000000000000000e+00,5.000000000000000000e+00,5.000000000000000000e+00,5.000000000000000000e+00,5.000000000000000000e+00,5.000000000000000000e+00,5.000000000000000000e+00,5.000000000000000000e+00,5.000000000000000000e+00,5.000000000000000000e+00,5.000000000000000000e+00,5.000000000000000000e+00,5.000000000000000000e+00,5.000000000000000000e+00,4.852677345275878906e+00,4.693264484405517578e+00,4.543992042541503906e+00,4.403922080993652344e+00,4.272229671478271484e+00,4.148184299468994141e+00,4.031139373779296875e+00,3.920518159866333008e+00,3.815806150436401367e+00,3.716541528701782227e+00
3.098351240158081055e+00,3.176672697067260742e+00,3.259057044982910156e+00,3.345827579498291016e+00,3.437345504760742188e+00,3.534028530120849609e+00,3.636309862136840820e+00,3.744687795639038086e+00,3.859724760055541992e+00,3.982053518295288086e+00,4.112390041351318359e+00,4.251532077789306641e+00,4.400405883789062500e+00,4.560083389282226562e+00,4.731786251068115234e+00,4.916924953460693359e+00,5.000000000000000000e+00,5.000000000000000000e+00,5.000000000000000000e+00,5.000000000000000000e+00,5.000000000000000000e+00,5.000000000000000000e+00,5.000000000000000000e+00,5.000000000000000000e+00,5.000000000000000000e+00,5.000000000000000000e+00,5.000000000000000000e+00,5.000000000000000000e+00,5.000000000000000000e+00,5.000000000000000000e+00,5.000000000000000000e+00,5.000000000000000000e+00,5.000000000000000000e+00,5.000000000000000000e+00,5.000000000000000000e+00,5.000000000000000000e+00,5.000000000000000000e+00,5.000000000000000000e+00,5.000000000000000000e+00,5.000000000000000000e+00,5.000000000000000000e+00,5.000000000000000000e+00,5.000000000000000000e+00,5.000000000000000000e+00,5.000000000000000000e+00,5.000000000000000000e+00,5.000000000000000000e+00,4.402816772460937500e+00,4.265447616577148438e+00,4.246285438537597656e+00,4.362379550933837891e+00,4.405171871185302734e+00,5.000000000000000000e+00,4.336343765258789062e+00,5.000000000000000000e+00,5.000000000000000000e+00,5.000000000000000000e+00,5.000000000000000000e+00,5.000000000000000000e+00,5.000000000000000000e+00,5.000000000000000000e+00,5.000000000000000000e+00,5.000000000000000000e+00,5.000000000000000000e+00,5.000000000000000000e+00,5.000000000000000000e+00,5.000000000000000000e+00,5.000000000000000000e+00,5.000000000000000000e+00,5.000000000000000000e+00,4.852807044982910156e+00,4.693385601043701172e+00,4.544105529785156250e+00,4.404028415679931641e+00,4.272329807281494141e+00,4.148278713226318359e+00,4.031228542327880859e+00,3.920602798461914062e+00,3.815886020660400391e+00,3.716617822647094727e+00
3.098284959793090820e+00,3.176603078842163086e+00,3.258983612060546875e+00,3.345750331878662109e+00,3.437263965606689453e+00,3.533924341201782227e+00,3.636178255081176758e+00,3.744543075561523438e+00,3.859571218490600586e+00,3.981889486312866211e+00,4.112215518951416016e+00,4.251360416412353516e+00,4.400252342224121094e+00,4.559939861297607422e+00,4.731631278991699219e+00,4.916758060455322266e+00,5.000000000000000000e+00,5.000000000000000000e+00,5.000000000000000000e+00,5.000000000000000000e+00,5.000000000000000000e+00,5.000000000000000000e+00,5.000000000000000000e+00,5.000000000000000000e+00,5.000000000000000000e+00,5.000000000000000000e+00,5.000000000000000000e+00,5.000000000000000000e+00,5.000000000000000000e+00,5.000000000000000000e+00,5.000000000000000000e+00,5.000000000000000000e+00,5.000000000000000000e+00,5.000000000000000000e+00,5.000000000000000000e+00,5.000000000000000000e+00,5.000000000000000000e+00,5.000000000000000000e+00,5.000000000000000000e+00,5.000000000000000000e+00,5.000000000000000000e+00,5.000000000000000000e+00,5.000000000000000000e+00,5.000000000000000000e+00,5.000000000000000000e+00,5.000000000000000000e+00,5.000000000000000000e+00,4.397225379943847656e+00,4.237539291381835938e+00,4.216688632965087891e+00,4.368902206420898438e+00,4.409938812255859375e+00,5.000000000000000000e+00,5.000000000000000000e+00,4.287676334381103516e+00,5.000000000000000000e+00,5.000000000000000000e+00,5.000000000000000000e+00,5.000000000000000000e+00,5.000000000000000000e+00,5.000000000000000000e+00,5.000000000000000000e+00,5.000000000000000000e+00,5.000000000000000000e+00,5.000000000000000000e+00,5.000000000000000000e+00,5.000000000000000000e+00,5.000000000000000000e+00,5.000000000000000000e+00,5.000000000000000000e+00,4.852936267852783203e+00,4.693506717681884766e+00,4.544219017028808594e+00,4.404135227203369141e+00,4.272429943084716797e+00,4.148373603820800781e+00,4.031317710876464844e+00,3.920687198638916016e+00,3.815966367721557617e+00,3.716693401336669922e+00
3.098218679428100586e+00,3.176533460617065430e+00,3.258910179138183594e+00,3.345673322677612305e+00,3.437182188034057617e+00,3.533838033676147461e+00,3.636086940765380859e+00,3.744429349899291992e+00,3.859426259994506836e+00,3.981725931167602539e+00,4.112040519714355469e+00,4.251173973083496094e+00,4.400052547454833984e+00,4.559736728668212891e+00,4.731448173522949219e+00,4.916590690612792969e+00,5.000000000000000000e+00,5.000000000000000000e+00,5.000000000000000000e+00,5.000000000000000000e+00,5.000000000000000000e+00,5.000000000000000000e+00,5.000000000000000000e+00,5.000000000000000000e+00,5.000000000000000000e+00,5.000000000000000000e+00,5.000000000000000000e+00,5.000000000000000000e+00,5.000000000000000000e+00,5.000000000000000000e+00,5.000000000000000000e+00,5.000000000000000000e+00,5.000000000000000000e+00,5.000000000000000000e+00,5.000000000000000000e+00,5.000000000000000000e+00,5.000000000000000000e+00,5.000000000000000000e+00,5.000000000000000000e+00,5.000000000000000000e+00,5.000000000000000000e+00,5.000000000000000000e+00,5.000000000000000000e+00,5.000000000000000000e+00,5.000000000000000000e+00,5.000000000000000000e+00,5.000000000000000000e+00,4.367698192596435547e+00,4.250697135925292969e+00,4.192912101745605469e+00,4.381710052490234375e+00,5.000000000000000000e+00,5.000000000000000000e+00,5.000000000000000000e+00,5.000000000000000000e+00,5.000000000000000000e+00,5.000000000000000000e+00,5.000000000000000000e+00,5.000000000000000000e+00,5.000000000000000000e+00,5.000000000000000000e+00,5.000000000000000000e+00,5.000000000000000000e+00,5.000000000000000000e+00,5.000000000000000000e+00,5.000000000000000000e+00,5.000000000000000000e+00,5.000000000000000000e+00,5.000000000000000000e+00,5.000000000000000000e+00,4.853065490722656250e+00,4.693627357482910156e+00,4.544332504272460938e+00,4.404242038726806641e+00,4.272530555725097656e+00,4.148467540740966797e+00,4.031406879425048828e+00,3.920771360397338867e+00,3.816046237945556641e+00,3.716770410537719727e+00
3.098152160644531250e+00,3.176463842391967773e+00,3.258836746215820312e+00,3.345595836639404297e+00,3.437100410461425781e+00,3.533751726150512695e+00,3.635995626449584961e+00,3.744332551956176758e+00,3.859323501586914062e+00,3.981601238250732422e+00,4.111881256103515625e+00,4.250987529754638672e+00,4.399852275848388672e+00,4.559522151947021484e+00,4.731216907501220703e+00,4.916348457336425781e+00,5.000000000000000000e+00,5.000000000000000000e+00,5.000000000000000000e+00,5.000000000000000000e+00,5.000000000000000000e+00,5.000000000000000000e+00,5.000000000000000000e+00,5.000000000000000000e+00,5.000000000000000000e+00,5.000000000000000000e+00,5.000000000000000000e+00,5.000000000000000000e+00,5.000000000000000000e+00,5.000000000000000000e+00,5.000000000000000000e+00,5.000000000000000000e+00,5.000000000000000000e+00,5.000000000000000000e+00,5.000000000000000000e+00,5.000000000000000000e+00,5.000000000000000000e+00,5.000000000000000000e+00,5.000000000000000000e+00,5.000000000000000000e+00,5.000000000000000000e+00,5.000000000000000000e+00,5.000000000000000000e+00,5.000000000000000000e+00,5.000000000000000000e+00,5.000000000000000000e+00,5.000000000000000000e+00,5.000000000000000000e+00,4.279191017150878906e+00,4.166067123413085938e+00,4.182282924652099609e+00,5.000000000000000000e+00,5.000000000000000000e+00,5.000000000000000000e+00,5.000000000000000000e+00,5.000000000000000000e+00,5.000000000000000000e+00,5.000000000000000000e+00,5.000000000000000000e+00,5.000000000000000000e+00,5.000000000000000000e+00,5.000000000000000000e+00,5.000000000000000000e+00,5.000000000000000000e+00,5.000000000000000000e+00,5.000000000000000000e+00,5.000000000000000000e+00,5.000000000000000000e+00,5.000000000000000000e+00,5.000000000000000000e+00,4.853195190429687500e+00,4.693748474121093750e+00,4.544445514678955078e+00,4.404348373413085938e+00,4.272630691528320312e+00,4.148562431335449219e+00,4.031496047973632812e+00,3.920858860015869141e+00,3.816132068634033203e+00,3.716853618621826172e+00
3.098085880279541016e+00,3.176393985748291016e+00,3.258763313293457031e+00,3.345518350601196289e+00,3.437018871307373047e+00,3.533665180206298828e+00,3.635904550552368164e+00,3.744235515594482422e+00,3.859220743179321289e+00,3.981491804122924805e+00,4.111764430999755859e+00,4.250849723815917969e+00,4.399674415588378906e+00,4.559307575225830078e+00,4.730985641479492188e+00,4.916099071502685547e+00,5.000000000000000000e+00,5.000000000000000000e+00,5.000000000000000000e+00,5.000000000000000000e+00,5.000000000000000000e+00,5.000000000000000000e+00,5.000000000000000000e+00,5.000000000000000000e+00,5.000000000000000000e+00,5.000000000000000000e+00,5.000000000000000000e+00,5.000000000000000000e+00,5.000000000000000000e+00,5.000000000000000000e+00,5.000000000000000000e+00,5.000000000000000000e+00,5.000000000000000000e+00,5.000000000000000000e+00,5.000000000000000000e+00,5.000000000000000000e+00,5.000000000000000000e+00,5.000000000000000000e+00,5.000000000000000000e+00,5.000000000000000000e+00,5.000000000000000000e+00,5.000000000000000000e+00,5.000000000000000000e+00,5.000000000000000000e+00,5.000000000000000000e+00,5.000000000000000000e+00,5.000000000000000000e+00,5.000000000000000000e+00,5.000000000000000000e+00,4.164609432220458984e+00,4.136672496795654297e+00,5.000000000000000000e+00,5.000000000000000000e+00,5.000000000000000000e+00,5.000000000000000000e+00,5.000000000000000000e+00,5.000000000000000000e+00,5.000000000000000000e+00,5.000000000000000000e+00,5.000000000000000000e+00,5.000000000000000000e+00,5.000000000000000000e+00,5.000000000000000000e+00,5.000000000000000000e+00,5.000000000000000000e+00,5.000000000000000000e+00,5.000000000000000000e+00,5.000000000000000000e+00,5.000000000000000000e+00,5.000000000000000000e+00,4.853324413299560547e+00,4.693869590759277344e+00,4.544559478759765625e+00,4.404454708099365234e+00,4.272733211517333984e+00,4.148662567138671875e+00,4.031594276428222656e+00,3.920951843261718750e+00,3.816219806671142578e+00,3.716937303543090820e+00
3.098019838333129883e+00,3.176324367523193359e+00,3.258690118789672852e+00,3.345441102981567383e+00,3.436937570571899414e+00,3.533578872680664062e+00,3.635812997817993164e+00,3.744138717651367188e+00,3.859117984771728516e+00,3.981382131576538086e+00,4.111647605895996094e+00,4.250724792480468750e+00,4.399540424346923828e+00,4.559154510498046875e+00,4.730785369873046875e+00,4.915849685668945312e+00,5.000000000000000000e+00,5.000000000000000000e+00,5.000000000000000000e+00,5.000000000000000000e+00,5.000000000000000000e+00,5.000000000000000000e+00,5.000000000000000000e+00,5.000000000000000000e+00,5.000000000000000000e+00,5.000000000000000000e+00,5.000000000000000000e+00,5.000000000000000000e+00,5.000000000000000000e+00,5.000000000000000000e+00,5.000000000000000000e+00,5.000000000000000000e+00,5.000000000000000000e+00,5.000000000000000000e+00,5.000000000000000000e+00,5.000000000000000000e+00,5.000000000000000000e+00,5.000000000000000000e+00,5.000000000000000000e+00,5.000000000000000000e+00,5.000000000000000000e+00,5.000000000000000000e+00,5.000000000000000000e+00,5.000000000000000000e+00,5.000000000000000000e+00,5.000000000000000000e+00,5.000000000000000000e+00,5.000000000000000000e+00,5.000000000000000000e+00,4.167922496795654297e+00,4.146656513214111328e+00,5.000000000000000000e+00,5.000000000000000000e+00,5.000000000000000000e+00,5.000000000000000000e+00,5.000000000000000000e+00,5.000000000000000000e+00,5.000000000000000000e+00,5.000000000000000000e+00,5.000000000000000000e+00,5.000000000000000000e+00,5.000000000000000000e+00,5.000000000000000000e+00,5.000000000000000000e+00,5.000000000000000000e+00,5.000000000000000000e+00,5.000000000000000000e+00,5.000000000000000000e+00,5.000000000000000000e+00,5.000000000000000000e+00,4.853453636169433594e+00,4.693992137908935547e+00,4.544678211212158203e+00,4.404570579528808594e+00,4.272843837738037109e+00,4.148766994476318359e+00,4.031692504882812500e+00,3.921044826507568359e+00,3.816307783126831055e+00,3.717020750045776367e+00
3.097953557968139648e+00,3.176254510879516602e+00,3.258616685867309570e+00,3.345363616943359375e+00,3.436855792999267578e+00,3.533492565155029297e+00,3.635721683502197266e+00,3.744041681289672852e+00,3.859014987945556641e+00,3.981272459030151367e+00,4.111530780792236328e+00,4.250600337982177734e+00,4.399406909942626953e+00,4.559010982513427734e+00,4.730630874633789062e+00,4.915677547454833984e+00,5.000000000000000000e+00,5.000000000000000000e+00,5.000000000000000000e+00,5.000000000000000000e+00,5.000000000000000000e+00,5.000000000000000000e+00,5.000000000000000000e+00,5.000000000000000000e+00,5.000000000000000000e+00,5.000000000000000000e+00,5.000000000000000000e+00,5.000000000000000000e+00,5.000000000000000000e+00,5.000000000000000000e+00,5.000000000000000000e+00,5.000000000000000000e+00,5.000000000000000000e+00,5.000000000000000000e+00,5.000000000000000000e+00,5.000000000000000000e+00,5.000000000000000000e+00,5.000000000000000000e+00,5.000000000000000000e+00,5.000000000000000000e+00,5.000000000000000000e+00,5.000000000000000000e+00,5.000000000000000000e+00,5.000000000000000000e+00,5.000000000000000000e+00,5.000000000000000000e+00,5.000000000000000000e+00,5.000000000000000000e+00,4.602651119232177734e+00,4.172743320465087891e+00,4.177982330322265625e+00,5.000000000000000000e+00,5.000000000000000000e+00,5.000000000000000000e+00,5.000000000000000000e+00,5.000000000000000000e+00,5.000000000000000000e+00,5.000000000000000000e+00,5.000000000000000000e+00,5.000000000000000000e+00,5.000000000000000000e+00,5.000000000000000000e+00,5.000000000000000000e+00,5.000000000000000000e+00,5.000000000000000000e+00,5.000000000000000000e+00,5.000000000000000000e+00,5.000000000000000000e+00,5.000000000000000000e+00,5.000000000000000000e+00,4.853592872619628906e+00,4.694125175476074219e+00,4.544803142547607422e+00,4.404687881469726562e+00,4.272953987121582031e+00,4.148870468139648438e+00,4.031790733337402344e+00,3.921137571334838867e+00,3.816395998001098633e+00,3.717103958129882812e+00
3.097887039184570312e+00,3.176184654235839844e+00,3.258543252944946289e+00,3.345286369323730469e+00,3.436774253845214844e+00,3.533406734466552734e+00,3.635630369186401367e+00,3.743945121765136719e+00,3.858911991119384766e+00,3.981163263320922852e+00,4.111413955688476562e+00,4.250475406646728516e+00,4.399273395538330078e+00,4.558867454528808594e+00,4.730476379394531250e+00,4.915510654449462891e+00,5.000000000000000000e+00,5.000000000000000000e+00,5.000000000000000000e+00,5.000000000000000000e+00,5.000000000000000000e+00,5.000000000000000000e+00,5.000000000000000000e+00,5.000000000000000000e+00,5.000000000000000000e+00,5.000000000000000000e+00,5.000000000000000000e+00,5.000000000000000000e+00,5.000000000000000000e+00,5.000000000000000000e+00,5.000000000000000000e+00,5.000000000000000000e+00,5.000000000000000000e+00,5.000000000000000000e+00,5.000000000000000000e+00,5.000000000000000000e+00,5.000000000000000000e+00,5.000000000000000000e+00,5.000000000000000000e+00,5.000000000000000000e+00,5.000000000000000000e+00,5.000000000000000000e+00,5.000000000000000000e+00,5.000000000000000000e+00,5.000000000000000000e+00,5.000000000000000000e+00,5.000000000000000000e+00,5.000000000000000000e+00,4.616301536560058594e+00,4.178137779235839844e+00,4.160050392150878906e+00,5.000000000000000000e+00,5.000000000000000000e+00,5.000000000000000000e+00,5.000000000000000000e+00,5.000000000000000000e+00,5.000000000000000000e+00,5.000000000000000000e+00,5.000000000000000000e+00,5.000000000000000000e+00,5.000000000000000000e+00,5.000000000000000000e+00,5.000000000000000000e+00,5.000000000000000000e+00,5.000000000000000000e+00,5.000000000000000000e+00,5.000000000000000000e+00,5.000000000000000000e+00,5.000000000000000000e+00,5.000000000000000000e+00,4.853735446929931641e+00,4.694258213043212891e+00,4.544928073883056641e+00,4.404805183410644531e+00,4.273064613342285156e+00,4.148974895477294922e+00,4.031888961791992188e+00,3.921230554580688477e+00,3.816484212875366211e+00,3.717187643051147461e+00
3.097820758819580078e+00,3.176115274429321289e+00,3.258469820022583008e+00,3.345209360122680664e+00,3.436692476272583008e+00,3.533320426940917969e+00,3.635538816452026367e+00,3.743848323822021484e+00,3.858808994293212891e+00,3.981053829193115234e+00,4.111297130584716797e+00,4.250350475311279297e+00,4.399139404296875000e+00,4.558723449707031250e+00,4.730321407318115234e+00,4.915343761444091797e+00,5.000000000000000000e+00,5.000000000000000000e+00,5.000000000000000000e+00,5.000000000000000000e+00,5.000000000000000000e+00,5.000000000000000000e+00,5.000000000000000000e+00,5.000000000000000000e+00,5.000000000000000000e+00,5.000000000000000000e+00,5.000000000000000000e+00,5.000000000000000000e+00,5.000000000000000000e+00,5.000000000000000000e+00,5.000000000000000000e+00,5.000000000000000000e+00,5.000000000000000000e+00,5.000000000000000000e+00,5.000000000000000000e+00,5.000000000000000000e+00,5.000000000000000000e+00,5.000000000000000000e+00,5.000000000000000000e+00,5.000000000000000000e+00,5.000000000000000000e+00,5.000000000000000000e+00,5.000000000000000000e+00,5.000000000000000000e+00,5.000000000000000000e+00,5.000000000000000000e+00,5.000000000000000000e+00,5.000000000000000000e+00,4.648582458496093750e+00,4.183508872985839844e+00,4.141894340515136719e+00,5.000000000000000000e+00,5.000000000000000000e+00,5.000000000000000000e+00,5.000000000000000000e+00,5.000000000000000000e+00,5.000000000000000000e+00,5.000000000000000000e+00,5.000000000000000000e+00,5.000000000000000000e+00,5.000000000000000000e+00,5.000000000000000000e+00,5.000000000000000000e+00,5.000000000000000000e+00,5.000000000000000000e+00,5.000000000000000000e+00,5.000000000000000000e+00,5.000000000000000000e+00,5.000000000000000000e+00,5.000000000000000000e+00,4.853877544403076172e+00,4.694391250610351562e+00,4.545052528381347656e+00,4.404922485351562500e+00,4.273174762725830078e+00,4.149078845977783203e+00,4.031987190246582031e+00,3.921323537826538086e+00,3.816571712493896484e+00,3.717271089553833008e+00
3.097754478454589844e+00,3.176045656204223633e+00,3.258396387100219727e+00,3.345131874084472656e+00,3.436610937118530273e+00,3.533234119415283203e+00,3.635447502136230469e+00,3.743751525878906250e+00,3.858705997467041016e+00,3.980944156646728516e+00,4.111180305480957031e+00,4.250226020812988281e+00,4.399005889892578125e+00,4.558579921722412109e+00,4.730167388916015625e+00,4.915176868438720703e+00,5.000000000000000000e+00,5.000000000000000000e+00,5.000000000000000000e+00,5.000000000000000000e+00,5.000000000000000000e+00,5.000000000000000000e+00,5.000000000000000000e+00,5.000000000000000000e+00,5.000000000000000000e+00,5.000000000000000000e+00,5.000000000000000000e+00,5.000000000000000000e+00,5.000000000000000000e+00,5.000000000000000000e+00,5.000000000000000000e+00,5.000000000000000000e+00,5.000000000000000000e+00,5.000000000000000000e+00,5.000000000000000000e+00,5.000000000000000000e+00,5.000000000000000000e+00,5.000000000000000000e+00,5.000000000000000000e+00,5.000000000000000000e+00,5.000000000000000000e+00,5.000000000000000000e+00,5.000000000000000000e+00,5.000000000000000000e+00,5.000000000000000000e+00,5.000000000000000000e+00,5.000000000000000000e+00,5.000000000000000000e+00,4.700211524963378906e+00,4.209141731262207031e+00,4.143427848815917969e+00,5.000000000000000000e+00,5.000000000000000000e+00,5.000000000000000000e+00,5.000000000000000000e+00,5.000000000000000000e+00,5.000000000000000000e+00,5.000000000000000000e+00,5.000000000000000000e+00,5.000000000000000000e+00,5.000000000000000000e+00,5.000000000000000000e+00,5.000000000000000000e+00,5.000000000000000000e+00,5.000000000000000000e+00,5.000000000000000000e+00,5.000000000000000000e+00,5.000000000000000000e+00,5.000000000000000000e+00,5.000000000000000000e+00,4.854019641876220703e+00,4.694524288177490234e+00,4.545177459716796875e+00,4.405039310455322266e+00,4.273284912109375000e+00,4.149182796478271484e+00,4.032085418701171875e+00,3.921416044235229492e+00,3.816659927368164062e+00,3.717354297637939453e+00
3.097687959671020508e+00,3.175975799560546875e+00,3.258323192596435547e+00,3.345054626464843750e+00,3.436529636383056641e+00,3.533147811889648438e+00,3.635356664657592773e+00,3.743654489517211914e+00,3.858603477478027344e+00,3.980834722518920898e+00,4.111063480377197266e+00,4.250101089477539062e+00,4.398872375488281250e+00,4.558436393737792969e+00,4.730012416839599609e+00,4.915009498596191406e+00,5.000000000000000000e+00,5.000000000000000000e+00,5.000000000000000000e+00,5.000000000000000000e+00,5.000000000000000000e+00,5.000000000000000000e+00,5.000000000000000000e+00,5.000000000000000000e+00,5.000000000000000000e+00,5.000000000000000000e+00,5.000000000000000000e+00,5.000000000000000000e+00,5.000000000000000000e+00,5.000000000000000000e+00,5.000000000000000000e+00,5.000000000000000000e+00,5.000000000000000000e+00,5.000000000000000000e+00,5.000000000000000000e+00,5.000000000000000000e+00,5.000000000000000000e+00,5.000000000000000000e+00,5.000000000000000000e+00,5.000000000000000000e+00,5.000000000000000000e+00,5.000000000000000000e+00,5.000000000000000000e+00,5.000000000000000000e+00,5.000000000000000000e+00,5.000000000000000000e+00,5.000000000000000000e+00,4.791485786437988281e+00,5.000000000000000000e+00,5.000000000000000000e+00,4.151192665100097656e+00,5.000000000000000000e+00,5.000000000000000000e+00,5.000000000000000000e+00,5.000000000000000000e+00,5.000000000000000000e+00,5.000000000000000000e+00,5.000000000000000000e+00,5.000000000000000000e+00,5.000000000000000000e+00,5.000000000000000000e+00,5.000000000000000000e+00,5.000000000000000000e+00,5.000000000000000000e+00,5.000000000000000000e+00,5.000000000000000000e+00,5.000000000000000000e+00,5.000000000000000000e+00,5.000000000000000000e+00,5.000000000000000000e+00,4.854162216186523438e+00,4.694657802581787109e+00,4.545302391052246094e+00,4.405156612396240234e+00,4.273395061492919922e+00,4.149286746978759766e+00,4.032183647155761719e+00,3.921509027481079102e+00,3.816748142242431641e+00,3.717437982559204102e+00
3.097621917724609375e+00,3.175906181335449219e+00,3.258249998092651367e+00,3.344977140426635742e+00,3.436447858810424805e+00,3.533061504364013672e+00,3.635265111923217773e+00,3.743557691574096680e+00,3.858500480651855469e+00,3.980725049972534180e+00,4.110946655273437500e+00,4.249976158142089844e+00,4.398738384246826172e+00,4.558292865753173828e+00,4.729857921600341797e+00,4.854124069213867188e+00,4.852916240692138672e+00,4.851709365844726562e+00,4.850502967834472656e+00,4.849297046661376953e+00,4.848091602325439453e+00,4.846887111663818359e+00,4.845683097839355469e+00,4.844479560852050781e+00,4.843276977539062500e+00,4.842074871063232422e+00,4.840872764587402344e+00,4.839672088623046875e+00,4.838471412658691406e+00,4.837271690368652344e+00,4.836072444915771484e+00,4.834873199462890625e+00,4.833675384521484375e+00,4.832478046417236328e+00,4.831280708312988281e+00,4.830084800720214844e+00,4.828888893127441406e+00,4.827693939208984375e+00,4.826499462127685547e+00,4.825305461883544922e+00,4.824111938476562500e+00,4.822919368743896484e+00,4.821727275848388672e+00,4.820535659790039062e+00,4.819344520568847656e+00,4.818154335021972656e+00,4.816964626312255859e+00,4.815774917602539062e+00,4.814586639404296875e+00,4.813398361206054688e+00,4.094921112060546875e+00,4.028282642364501953e+00,4.809837341308593750e+00,4.808651924133300781e+00,4.807466983795166016e+00,4.806282043457031250e+00,4.805098533630371094e+00,4.803915023803710938e+00,4.802731990814208984e+00,4.801549911499023438e+00,4.800368309020996094e+00,4.799187183380126953e+00,4.798007011413574219e+00,4.796826839447021484e+00,4.795647621154785156e+00,4.794468879699707031e+00,4.793290615081787109e+00,4.792113304138183594e+00,4.790936470031738281e+00,4.789759635925292969e+00,4.788584232330322266e+00,4.694790840148925781e+00,4.545426845550537109e+00,4.405273914337158203e+00,4.273505687713623047e+00,4.149390697479248047e+00,4.032281875610351562e+00,3.921602249145507812e+00,3.816835641860961914e+00,3.717521667480468750e+00
3.097555637359619141e+00,3.175836324691772461e+00,3.258176565170288086e+00,3.344899892807006836e+00,3.436366319656372070e+00,3.532975196838378906e+00,3.635173797607421875e+00,3.743460655212402344e+00,3.770684003829956055e+00,3.769955396652221680e+00,3.769227027893066406e+00,3.768498897552490234e+00,3.767770528793334961e+00,3.767043113708496094e+00,3.766315937042236328e+00,3.765588760375976562e+00,3.764862060546875000e+00,3.764135599136352539e+00,3.763409137725830078e+00,3.762683153152465820e+00,3.761957645416259766e+00,3.761232376098632812e+00,3.760507345199584961e+00,3.759782075881958008e+00,3.759057760238647461e+00,3.758333444595336914e+00,3.757609605789184570e+00,3.756886005401611328e+00,3.756162166595458984e+00,3.755439043045043945e+00,3.754716396331787109e+00,3.753993749618530273e+00,3.753271579742431641e+00,3.752549648284912109e+00,3.751827478408813477e+00,3.751106023788452148e+00,3.750385046005249023e+00,3.749664068222045898e+00,3.748943567276000977e+00,3.748222827911376953e+00,3.747502803802490234e+00,3.746783018112182617e+00,3.746063470840454102e+00,3.745344400405883789e+00,3.744625091552734375e+00,3.743906497955322266e+00,3.743188142776489258e+00,3.742470026016235352e+00,3.741752147674560547e+00,3.741034507751464844e+00,3.740316867828369141e+00,3.739599943161010742e+00,3.738883256912231445e+00,3.738166809082031250e+00,3.737450599670410156e+00,3.736734390258789062e+00,3.736018657684326172e+00,3.735303401947021484e+00,3.734588384628295898e+00,3.733873605728149414e+00,3.733158588409423828e+00,3.732444286346435547e+00,3.731730461120605469e+00,3.731016635894775391e+00,3.730303287506103516e+00,3.729590177536010742e+00,3.728876829147338867e+00,3.728164196014404297e+00,3.727451801300048828e+00,3.726739883422851562e+00,3.726027965545654297e+00,3.725316047668457031e+00,3.724604845046997070e+00,3.723893880844116211e+00,3.723183155059814453e+00,3.722472667694091797e+00,3.721762418746948242e+00,3.721052169799804688e+00,3.720342636108398438e+00,3.717604875564575195e+00
3.083127260208129883e+00,3.082640171051025391e+00,3.082153081893920898e+00,3.081665992736816406e+00,3.081179141998291016e+00,3.080692529678344727e+00,3.080205917358398438e+00,3.079719543457031250e+00,3.079233646392822266e+00,3.078747272491455078e+00,3.078261613845825195e+00,3.077775955200195312e+00,3.077290058135986328e+00,3.076804637908935547e+00,3.076319456100463867e+00,3.075834274291992188e+00,3.075349330902099609e+00,3.074864625930786133e+00,3.074379920959472656e+00,3.073895692825317383e+00,3.073410987854003906e+00,3.072926998138427734e+00,3.072443008422851562e+00,3.071959018707275391e+00,3.071475505828857422e+00,3.070991992950439453e+00,3.070508241653442383e+00,3.070025205612182617e+00,3.069541931152343750e+00,3.069059133529663086e+00,3.068576335906982422e+00,3.068093538284301758e+00,3.067610979080200195e+00,3.067128896713256836e+00,3.066646575927734375e+00,3.066164731979370117e+00,3.065682649612426758e+00,3.065201044082641602e+00,3.064719438552856445e+00,3.064238071441650391e+00,3.063756704330444336e+00,3.063275814056396484e+00,3.062794446945190430e+00,3.062313795089721680e+00,3.061833143234252930e+00,3.061352729797363281e+00,3.060872316360473633e+00,3.060391902923583984e+00,3.059911727905273438e+00,3.059431791305541992e+00,3.058952093124389648e+00,3.058472633361816406e+00,3.057992935180664062e+00,3.057513713836669922e+00,3.057034492492675781e+00,3.056555509567260742e+00,3.056076765060424805e+00,3.055598020553588867e+00,3.055119276046752930e+00,3.054640769958496094e+00,3.054162502288818359e+00,3.053684473037719727e+00,3.053206682205200195e+00,3.052728414535522461e+00,3.052250862121582031e+00,3.051773309707641602e+00,3.051295995712280273e+00,3.050818920135498047e+00,3.050341844558715820e+00,3.049864768981933594e+00,3.049387931823730469e+00,3.048911333084106445e+00,3.048434972763061523e+00,3.047958612442016602e+00,3.047482252120971680e+00,3.047006368637084961e+00,3.046530485153198242e+00,3.046054840087890625e+00,3.045579195022583008e+00,3.045103549957275391e+00
2.604856729507446289e+00,2.604508638381958008e+00,2.604161024093627930e+00,2.603813409805297852e+00,2.603465795516967773e+00,2.603118419647216797e+00,2.602771043777465820e+00,2.602423667907714844e+00,2.602076530456542969e+00,2.601729393005371094e+00,2.601382255554199219e+00,2.601035594940185547e+00,2.600688695907592773e+00,2.600341796875000000e+00,2.599995374679565430e+00,2.599648952484130859e+00,2.599302291870117188e+00,2.598955869674682617e+00,2.598609685897827148e+00,2.598263502120971680e+00,2.597917556762695312e+00,2.597571611404418945e+00,2.597225666046142578e+00,2.596879720687866211e+00,2.596534252166748047e+00,2.596188545227050781e+00,2.595843076705932617e+00,2.595497846603393555e+00,2.595152378082275391e+00,2.594807147979736328e+00,2.594461917877197266e+00,2.594116926193237305e+00,2.593772172927856445e+00,2.593427419662475586e+00,2.593082427978515625e+00,2.592737674713134766e+00,2.592393159866333008e+00,2.592048883438110352e+00,2.591704368591308594e+00,2.591359853744506836e+00,2.591015815734863281e+00,2.590671777725219727e+00,2.590327739715576172e+00,2.589983701705932617e+00,2.589639902114868164e+00,2.589296102523803711e+00,2.588952541351318359e+00,2.588608980178833008e+00,2.588265419006347656e+00,2.587922096252441406e+00,2.587578773498535156e+00,2.587235450744628906e+00,2.586892366409301758e+00,2.586549520492553711e+00,2.586206674575805664e+00,2.585863590240478516e+00,2.585520982742309570e+00,2.585178136825561523e+00,2.584835767745971680e+00,2.584493398666381836e+00,2.584150791168212891e+00,2.583808422088623047e+00,2.583466291427612305e+00,2.583124160766601562e+00,2.582782268524169922e+00,2.582440376281738281e+00,2.582098245620727539e+00,2.581756591796875000e+00,2.581414937973022461e+00,2.581073522567749023e+00,2.580732107162475586e+00,2.580390453338623047e+00,2.580049276351928711e+00,2.579708099365234375e+00,2.579366922378540039e+00,2.579025983810424805e+00,2.578685045242309570e+00,2.578344106674194336e+00,2.578003168106079102e+00,2.577662706375122070e+00
2.255042552947998047e+00,2.254781961441040039e+00,2.254521369934082031e+00,2.254260778427124023e+00,2.254000186920166016e+00,2.253739833831787109e+00,2.253479480743408203e+00,2.253219127655029297e+00,2.252958774566650391e+00,2.252698659896850586e+00,2.252438545227050781e+00,2.252178430557250977e+00,2.251918315887451172e+00,2.251658439636230469e+00,2.251398563385009766e+00,2.251138687133789062e+00,2.250878810882568359e+00,2.250619173049926758e+00,2.250359535217285156e+00,2.250099897384643555e+00,2.249840259552001953e+00,2.249580860137939453e+00,2.249321460723876953e+00,2.249062061309814453e+00,2.248802661895751953e+00,2.248543500900268555e+00,2.248284339904785156e+00,2.248025178909301758e+00,2.247766256332397461e+00,2.247507095336914062e+00,2.247248411178588867e+00,2.246989250183105469e+00,2.246730566024780273e+00,2.246471881866455078e+00,2.246213197708129883e+00,2.245954513549804688e+00,2.245695829391479492e+00,2.245437383651733398e+00,2.245178937911987305e+00,2.244920492172241211e+00,2.244662284851074219e+00,2.244404077529907227e+00,2.244145631790161133e+00,2.243887662887573242e+00,2.243629455566406250e+00,2.243371486663818359e+00,2.243113517761230469e+00,2.242855548858642578e+00,2.242597579956054688e+00,2.242339849472045898e+00,2.242082118988037109e+00,2.241824626922607422e+00,2.241566896438598633e+00,2.241309165954589844e+00,2.241051673889160156e+00,2.240794420242309570e+00,2.240536928176879883e+00,2.240279674530029297e+00,2.240022420883178711e+00,2.239765167236328125e+00,2.239508152008056641e+00,2.239250898361206055e+00,2.238993883132934570e+00,2.238736867904663086e+00,2.238480091094970703e+00,2.238223075866699219e+00,2.237966299057006836e+00,2.237709760665893555e+00,2.237452983856201172e+00,2.237196445465087891e+00,2.236939907073974609e+00,2.236683368682861328e+00,2.236426830291748047e+00,2.236170530319213867e+00,2.235914230346679688e+00,2.235657930374145508e+00,2.235401630401611328e+00,2.235145568847656250e+00,2.234889507293701172e+00,2.234633445739746094e+00
1.988060116767883301e+00,1.987857580184936523e+00,1.987655043601989746e+00,1.987452268600463867e+00,1.987249851226806641e+00,1.987047433853149414e+00,1.986845016479492188e+00,1.986642718315124512e+00,1.986440420150756836e+00,1.986238002777099609e+00,1.986035823822021484e+00,1.985833644866943359e+00,1.985631465911865234e+00,1.985429406166076660e+00,1.985227346420288086e+00,1.985025167465209961e+00,1.984823226928710938e+00,1.984621286392211914e+00,1.984419345855712891e+00,1.984217524528503418e+00,1.984015703201293945e+00,1.983813762664794922e+00,1.983612060546875000e+00,1.983410358428955078e+00,1.983208775520324707e+00,1.983007192611694336e+00,1.982805609703063965e+00,1.982603907585144043e+00,1.982402443885803223e+00,1.982200980186462402e+00,1.981999635696411133e+00,1.981798291206359863e+00,1.981596946716308594e+00,1.981395721435546875e+00,1.981194257736206055e+00,1.980993032455444336e+00,1.980791926383972168e+00,1.980590820312500000e+00,1.980389714241027832e+00,1.980188727378845215e+00,1.979987740516662598e+00,1.979786753654479980e+00,1.979585886001586914e+00,1.979385018348693848e+00,1.979184031486511230e+00,1.978983163833618164e+00,1.978782534599304199e+00,1.978581786155700684e+00,1.978381156921386719e+00,1.978180527687072754e+00,1.977979898452758789e+00,1.977779388427734375e+00,1.977578878402709961e+00,1.977378487586975098e+00,1.977178096771240234e+00,1.976977467536926270e+00,1.976777195930480957e+00,1.976576805114746094e+00,1.976376652717590332e+00,1.976176381111145020e+00,1.975976228713989258e+00,1.975776076316833496e+00,1.975576043128967285e+00,1.975376009941101074e+00,1.975175976753234863e+00,1.974975943565368652e+00,1.974775791168212891e+00,1.974575996398925781e+00,1.974376082420349121e+00,1.974176287651062012e+00,1.973976492881774902e+00,1.973776817321777344e+00,1.973577141761779785e+00,1.973377466201782227e+00,1.973177909851074219e+00,1.972978353500366211e+00,1.972778797149658203e+00,1.972579121589660645e+00,1.972379684448242188e+00,1.972180247306823730e+00
1.777603387832641602e+00,1.777441382408142090e+00,1.777279496192932129e+00,1.777117609977722168e+00,1.776955723762512207e+00,1.776793718338012695e+00,1.776631832122802734e+00,1.776470065116882324e+00,1.776308298110961914e+00,1.776146650314331055e+00,1.775984764099121094e+00,1.775823116302490234e+00,1.775661468505859375e+00,1.775499820709228516e+00,1.775338292121887207e+00,1.775176644325256348e+00,1.775014996528625488e+00,1.774853467941284180e+00,1.774692058563232422e+00,1.774530649185180664e+00,1.774369239807128906e+00,1.774207830429077148e+00,1.774046301841735840e+00,1.773885011672973633e+00,1.773723721504211426e+00,1.773562431335449219e+00,1.773401260375976562e+00,1.773239970207214355e+00,1.773078680038452148e+00,1.772917509078979492e+00,1.772756457328796387e+00,1.772595286369323730e+00,1.772434234619140625e+00,1.772273063659667969e+00,1.772112131118774414e+00,1.771951079368591309e+00,1.771790146827697754e+00,1.771629333496093750e+00,1.771468400955200195e+00,1.771307587623596191e+00,1.771146774291992188e+00,1.770985960960388184e+00,1.770825028419494629e+00,1.770664334297180176e+00,1.770503520965576172e+00,1.770342946052551270e+00,1.770182251930236816e+00,1.770021677017211914e+00,1.769861102104187012e+00,1.769700527191162109e+00,1.769539952278137207e+00,1.769379496574401855e+00,1.769218802452087402e+00,1.769058346748352051e+00,1.768898010253906250e+00,1.768737673759460449e+00,1.768577218055725098e+00,1.768417000770568848e+00,1.768256664276123047e+00,1.768096446990966797e+00,1.767936110496520996e+00,1.767776012420654297e+00,1.767615795135498047e+00,1.767455458641052246e+00,1.767295360565185547e+00,1.767135262489318848e+00,1.766975164413452148e+00,1.766815185546875000e+00,1.766655206680297852e+00,1.766495227813720703e+00,1.766335248947143555e+00,1.766175270080566406e+00,1.766015410423278809e+00,1.765855550765991211e+00,1.765695571899414062e+00,1.765535831451416016e+00,1.765376091003417969e+00,1.765216350555419922e+00,1.765056610107421875e+00,1.764896988868713379e+00
1.607439279556274414e+00,1.607306838035583496e+00,1.607174396514892578e+00,1.607041954994201660e+00,1.606909632682800293e+00,1.606777310371398926e+00,1.606644749641418457e+00,1.606512427330017090e+00,1.606380224227905273e+00,1.606247901916503906e+00,1.606115698814392090e+00,1.605983257293701172e+00,1.605851173400878906e+00,1.605718970298767090e+00,1.605586767196655273e+00,1.605454683303833008e+00,1.605322599411010742e+00,1.605190277099609375e+00,1.605058193206787109e+00,1.604926228523254395e+00,1.604794144630432129e+00,1.604662179946899414e+00,1.604530215263366699e+00,1.604398012161254883e+00,1.604266166687011719e+00,1.604134202003479004e+00,1.604002356529235840e+00,1.603870391845703125e+00,1.603738546371459961e+00,1.603606581687927246e+00,1.603474855422973633e+00,1.603343009948730469e+00,1.603211283683776855e+00,1.603079557418823242e+00,1.602947831153869629e+00,1.602815985679626465e+00,1.602684259414672852e+00,1.602552652359008789e+00,1.602420926094055176e+00,1.602289319038391113e+00,1.602157592773437500e+00,1.602026104927062988e+00,1.601894497871398926e+00,1.601763010025024414e+00,1.601631522178649902e+00,1.601500034332275391e+00,1.601368546485900879e+00,1.601237058639526367e+00,1.601105690002441406e+00,1.600974321365356445e+00,1.600842714309692383e+00,1.600711464881896973e+00,1.600580096244812012e+00,1.600448727607727051e+00,1.600317478179931641e+00,1.600186228752136230e+00,1.600054979324340820e+00,1.599923729896545410e+00,1.599792480468750000e+00,1.599661350250244141e+00,1.599529981613159180e+00,1.599398851394653320e+00,1.599267721176147461e+00,1.599136710166931152e+00,1.599005579948425293e+00,1.598874568939208984e+00,1.598743557929992676e+00,1.598612546920776367e+00,1.598481535911560059e+00,1.598350524902343750e+00,1.598219633102416992e+00,1.598088502883911133e+00,1.597957611083984375e+00,1.597826719284057617e+00,1.597695946693420410e+00,1.597565054893493652e+00,1.597434282302856445e+00,1.597303509712219238e+00,1.597172737121582031e+00,1.597041964530944824e+00
1.467007517814636230e+00,1.466897130012512207e+00,1.466786861419677734e+00,1.466676592826843262e+00,1.466566324234008789e+00,1.466456055641174316e+00,1.466345787048339844e+00,1.466235518455505371e+00,1.466125249862670898e+00,1.466015100479125977e+00,1.465904951095581055e+00,1.465794801712036133e+00,1.465684533119201660e+00,1.465574383735656738e+00,1.465464353561401367e+00,1.465354323387145996e+00,1.465244174003601074e+00,1.465134143829345703e+00,1.465023994445800781e+00,1.464913964271545410e+00,1.464803934097290039e+00,1.464694023132324219e+00,1.464583992958068848e+00,1.464474081993103027e+00,1.464364051818847656e+00,1.464254140853881836e+00,1.464144229888916016e+00,1.464034318923950195e+00,1.463924527168273926e+00,1.463814616203308105e+00,1.463704705238342285e+00,1.463594913482666016e+00,1.463485121726989746e+00,1.463375329971313477e+00,1.463265538215637207e+00,1.463155746459960938e+00,1.463045954704284668e+00,1.462936162948608398e+00,1.462826490402221680e+00,1.462716817855834961e+00,1.462607145309448242e+00,1.462497353553771973e+00,1.462387800216674805e+00,1.462278127670288086e+00,1.462168574333190918e+00,1.462059020996093750e+00,1.461949467658996582e+00,1.461839795112609863e+00,1.461730241775512695e+00,1.461620688438415527e+00,1.461511254310607910e+00,1.461401700973510742e+00,1.461292266845703125e+00,1.461182832717895508e+00,1.461073398590087891e+00,1.460963964462280273e+00,1.460854530334472656e+00,1.460745215415954590e+00,1.460635662078857422e+00,1.460526347160339355e+00,1.460417032241821289e+00,1.460307717323303223e+00,1.460198402404785156e+00,1.460089087486267090e+00,1.459979772567749023e+00,1.459870576858520508e+00,1.459761261940002441e+00,1.459652066230773926e+00,1.459542870521545410e+00,1.459433555603027344e+00,1.459324359893798828e+00,1.459215283393859863e+00,1.459106087684631348e+00,1.458997011184692383e+00,1.458887815475463867e+00,1.458778738975524902e+00,1.458669662475585938e+00,1.458560585975646973e+00,1.458451628684997559e+00,1.458342432975769043e+00
1.349141597747802734e+00,1.349048256874084473e+00,1.348954796791076660e+00,1.348861575126647949e+00,1.348768353462219238e+00,1.348675131797790527e+00,1.348581790924072266e+00,1.348488569259643555e+00,1.348395347595214844e+00,1.348302125930786133e+00,1.348208904266357422e+00,1.348115801811218262e+00,1.348022580146789551e+00,1.347929477691650391e+00,1.347836256027221680e+00,1.347743153572082520e+00,1.347650051116943359e+00,1.347556948661804199e+00,1.347463846206665039e+00,1.347370743751525879e+00,1.347277641296386719e+00,1.347184658050537109e+00,1.347091555595397949e+00,1.346998572349548340e+00,1.346905589103698730e+00,1.346812486648559570e+00,1.346719503402709961e+00,1.346626520156860352e+00,1.346533656120300293e+00,1.346440672874450684e+00,1.346347808837890625e+00,1.346254706382751465e+00,1.346161842346191406e+00,1.346068978309631348e+00,1.345976114273071289e+00,1.345883250236511230e+00,1.345790386199951172e+00,1.345697402954101562e+00,1.345604658126831055e+00,1.345511794090270996e+00,1.345419049263000488e+00,1.345326304435729980e+00,1.345233321189880371e+00,1.345140576362609863e+00,1.345047831535339355e+00,1.344955086708068848e+00,1.344862461090087891e+00,1.344769716262817383e+00,1.344676971435546875e+00,1.344584226608276367e+00,1.344491600990295410e+00,1.344398856163024902e+00,1.344306230545043945e+00,1.344213604927062988e+00,1.344120979309082031e+00,1.344028353691101074e+00,1.343935728073120117e+00,1.343843102455139160e+00,1.343750596046447754e+00,1.343657970428466797e+00,1.343565464019775391e+00,1.343472957611083984e+00,1.343380451202392578e+00,1.343287944793701172e+00,1.343195438385009766e+00,1.343102931976318359e+00,1.343010425567626953e+00,1.342917919158935547e+00,1.342825531959533691e+00,1.342733025550842285e+00,1.342640638351440430e+00,1.342548251152038574e+00,1.342455863952636719e+00,1.342363476753234863e+00,1.342271089553833008e+00,1.342178821563720703e+00,1.342086434364318848e+00,1.341994047164916992e+00,1.341901659965515137e+00,1.341809391975402832e+00
1.248806715011596680e+00,1.248726844787597656e+00,1.248646974563598633e+00,1.248566985130310059e+00,1.248486995697021484e+00,1.248407125473022461e+00,1.248327255249023438e+00,1.248247385025024414e+00,1.248167514801025391e+00,1.248087525367736816e+00,1.248007774353027344e+00,1.247927904129028320e+00,1.247848033905029297e+00,1.247768282890319824e+00,1.247688412666320801e+00,1.247608542442321777e+00,1.247528791427612305e+00,1.247449040412902832e+00,1.247369289398193359e+00,1.247289538383483887e+00,1.247209668159484863e+00,1.247129917144775391e+00,1.247050166130065918e+00,1.246970534324645996e+00,1.246890783309936523e+00,1.246811151504516602e+00,1.246731281280517578e+00,1.246651649475097656e+00,1.246572017669677734e+00,1.246492385864257812e+00,1.246412754058837891e+00,1.246333122253417969e+00,1.246253371238708496e+00,1.246173739433288574e+00,1.246094107627868652e+00,1.246014595031738281e+00,1.245934963226318359e+00,1.245855450630187988e+00,1.245775699615478516e+00,1.245696187019348145e+00,1.245616674423217773e+00,1.245537161827087402e+00,1.245457649230957031e+00,1.245378136634826660e+00,1.245298504829406738e+00,1.245218992233276367e+00,1.245139598846435547e+00,1.245060086250305176e+00,1.244980692863464355e+00,1.244901061058044434e+00,1.244821667671203613e+00,1.244742274284362793e+00,1.244662761688232422e+00,1.244583368301391602e+00,1.244503974914550781e+00,1.244424581527709961e+00,1.244345188140869141e+00,1.244265794754028320e+00,1.244186401367187500e+00,1.244107127189636230e+00,1.244027733802795410e+00,1.243948459625244141e+00,1.243869066238403320e+00,1.243789672851562500e+00,1.243710398674011230e+00,1.243631124496459961e+00,1.243551850318908691e+00,1.243472576141357422e+00,1.243393421173095703e+00,1.243314146995544434e+00,1.243234872817993164e+00,1.243155717849731445e+00,1.243076443672180176e+00,1.242997288703918457e+00,1.242918014526367188e+00,1.242838740348815918e+00,1.242759585380554199e+00,1.242680430412292480e+00,1.242601275444030762e+00,1.242522120475769043e+00
1.162362694740295410e+00,1.162293434143066406e+00,1.162224173545837402e+00,1.162154912948608398e+00,1.162085652351379395e+00,1.162016391754150391e+00,1.161947250366210938e+00,1.161877989768981934e+00,1.161808848381042480e+00,1.161739587783813477e+00,1.161670327186584473e+00,1.161601185798645020e+00,1.161532044410705566e+00,1.161462903022766113e+00,1.161393761634826660e+00,1.161324620246887207e+00,1.161255359649658203e+00,1.161186218261718750e+00,1.161117196083068848e+00,1.161048054695129395e+00,1.160978913307189941e+00,1.160909891128540039e+00,1.160840749740600586e+00,1.160771608352661133e+00,1.160702586174011230e+00,1.160633563995361328e+00,1.160564422607421875e+00,1.160495400428771973e+00,1.160426259040832520e+00,1.160357236862182617e+00,1.160288333892822266e+00,1.160219311714172363e+00,1.160150289535522461e+00,1.160081148147583008e+00,1.160012245178222656e+00,1.159943222999572754e+00,1.159874320030212402e+00,1.159805297851562500e+00,1.159736394882202148e+00,1.159667372703552246e+00,1.159598469734191895e+00,1.159529447555541992e+00,1.159460544586181641e+00,1.159391641616821289e+00,1.159322738647460938e+00,1.159253835678100586e+00,1.159184932708740234e+00,1.159116029739379883e+00,1.159047126770019531e+00,1.158978343009948730e+00,1.158909320831298828e+00,1.158840537071228027e+00,1.158771634101867676e+00,1.158702850341796875e+00,1.158634066581726074e+00,1.158565282821655273e+00,1.158496379852294922e+00,1.158427596092224121e+00,1.158358812332153320e+00,1.158290028572082520e+00,1.158221244812011719e+00,1.158152461051940918e+00,1.158083677291870117e+00,1.158014893531799316e+00,1.157946228981018066e+00,1.157877445220947266e+00,1.157808780670166016e+00,1.157739996910095215e+00,1.157671332359313965e+00,1.157602667808532715e+00,1.157534003257751465e+00,1.157465219497680664e+00,1.157396554946899414e+00,1.157327890396118164e+00,1.157259225845336914e+00,1.157190561294555664e+00,1.157121896743774414e+00,1.157053351402282715e+00,1.156984686851501465e+00,1.156916022300720215e+00
1.087111353874206543e+00,1.087050676345825195e+00,1.086990118026733398e+00,1.086929559707641602e+00,1.086869001388549805e+00,1.086808443069458008e+00,1.086747884750366211e+00,1.086687326431274414e+00,1.086626768112182617e+00,1.086566329002380371e+00,1.086505770683288574e+00,1.086445212364196777e+00,1.086384654045104980e+00,1.086324214935302734e+00,1.086263775825500488e+00,1.086203217506408691e+00,1.086142778396606445e+00,1.086082220077514648e+00,1.086021780967712402e+00,1.085961341857910156e+00,1.085900902748107910e+00,1.085840463638305664e+00,1.085780024528503418e+00,1.085719466209411621e+00,1.085659027099609375e+00,1.085598707199096680e+00,1.085538268089294434e+00,1.085477828979492188e+00,1.085417389869689941e+00,1.085356950759887695e+00,1.085296630859375000e+00,1.085236310958862305e+00,1.085175871849060059e+00,1.085115551948547363e+00,1.085055112838745117e+00,1.084994792938232422e+00,1.084934473037719727e+00,1.084874033927917480e+00,1.084813714027404785e+00,1.084753394126892090e+00,1.084693074226379395e+00,1.084632754325866699e+00,1.084572434425354004e+00,1.084512114524841309e+00,1.084451794624328613e+00,1.084391593933105469e+00,1.084331274032592773e+00,1.084270954132080078e+00,1.084210753440856934e+00,1.084150433540344238e+00,1.084090232849121094e+00,1.084029912948608398e+00,1.083969712257385254e+00,1.083909392356872559e+00,1.083849191665649414e+00,1.083788990974426270e+00,1.083728790283203125e+00,1.083668589591979980e+00,1.083608388900756836e+00,1.083548188209533691e+00,1.083487987518310547e+00,1.083427786827087402e+00,1.083367586135864258e+00,1.083307385444641113e+00,1.083247303962707520e+00,1.083187103271484375e+00,1.083127021789550781e+00,1.083066821098327637e+00,1.083006739616394043e+00,1.082946538925170898e+00,1.082886457443237305e+00,1.082826256752014160e+00,1.082766175270080566e+00,1.082706093788146973e+00,1.082646012306213379e+00,1.082585930824279785e+00,1.082525849342346191e+00,1.082465767860412598e+00,1.082405686378479004e+00,1.082345604896545410e+00
1.021011114120483398e+00,1.020957589149475098e+00,1.020904183387756348e+00,1.020850777626037598e+00,1.020797371864318848e+00,1.020743966102600098e+00,1.020690441131591797e+00,1.020637035369873047e+00,1.020583629608154297e+00,1.020530343055725098e+00,1.020476937294006348e+00,1.020423531532287598e+00,1.020370125770568848e+00,1.020316720008850098e+00,1.020263433456420898e+00,1.020210027694702148e+00,1.020156621932983398e+00,1.020103335380554199e+00,1.020049929618835449e+00,1.019996643066406250e+00,1.019943237304687500e+00,1.019889950752258301e+00,1.019836664199829102e+00,1.019783377647399902e+00,1.019729971885681152e+00,1.019676685333251953e+00,1.019623398780822754e+00,1.019570112228393555e+00,1.019516825675964355e+00,1.019463419914245605e+00,1.019410133361816406e+00,1.019356966018676758e+00,1.019303679466247559e+00,1.019250392913818359e+00,1.019197106361389160e+00,1.019143819808959961e+00,1.019090652465820312e+00,1.019037365913391113e+00,1.018984198570251465e+00,1.018930912017822266e+00,1.018877744674682617e+00,1.018824458122253418e+00,1.018771171569824219e+00,1.018718004226684570e+00,1.018664836883544922e+00,1.018611669540405273e+00,1.018558502197265625e+00,1.018505215644836426e+00,1.018452048301696777e+00,1.018398880958557129e+00,1.018345713615417480e+00,1.018292546272277832e+00,1.018239378929138184e+00,1.018186211585998535e+00,1.018133044242858887e+00,1.018079996109008789e+00,1.018026828765869141e+00,1.017973661422729492e+00,1.017920494079589844e+00,1.017867445945739746e+00,1.017814278602600098e+00,1.017761230468750000e+00,1.017708063125610352e+00,1.017655014991760254e+00,1.017601847648620605e+00,1.017548799514770508e+00,1.017495751380920410e+00,1.017442703247070312e+00,1.017389655113220215e+00,1.017336487770080566e+00,1.017283439636230469e+00,1.017230391502380371e+00,1.017177343368530273e+00,1.017124295234680176e+00,1.017071247100830078e+00,1.017018318176269531e+00,1.016965270042419434e+00,1.016912221908569336e+00,1.016859173774719238e+00,1.016806125640869141e+00
9.624884128570556641e-01,9.624409079551696777e-01,9.623934030532836914e-01,9.623459577560424805e-01,9.622984528541564941e-01,9.622510075569152832e-01,9.622035622596740723e-01,9.621559977531433105e-01,9.621085524559020996e-01,9.620611071586608887e-01,9.620136618614196777e-01,9.619662165641784668e-01,9.619187712669372559e-01,9.618713855743408203e-01,9.618239402770996094e-01,9.617764949798583984e-01,9.617291092872619629e-01,9.616817235946655273e-01,9.616342782974243164e-01,9.615867733955383301e-01,9.615393877029418945e-01,9.614920020103454590e-01,9.614446163177490234e-01,9.613972306251525879e-01,9.613498449325561523e-01,9.613025188446044922e-01,9.612551331520080566e-01,9.612077474594116211e-01,9.611604213714599609e-01,9.611130356788635254e-01,9.610657095909118652e-01,9.610182642936706543e-01,9.609709382057189941e-01,9.609235525131225586e-01,9.608762264251708984e-01,9.608289003372192383e-01,9.607815742492675781e-01,9.607343077659606934e-01,9.606869816780090332e-01,9.606396555900573730e-01,9.605923891067504883e-01,9.605450630187988281e-01,9.604976773262023926e-01,9.604504108428955078e-01,9.604030847549438477e-01,9.603558182716369629e-01,9.603085517883300781e-01,9.602612853050231934e-01,9.602140188217163086e-01,9.601667523384094238e-01,9.601194858551025391e-01,9.600722193717956543e-01,9.600250124931335449e-01,9.599777460098266602e-01,9.599304199218750000e-01,9.598831534385681152e-01,9.598359465599060059e-01,9.597887396812438965e-01,9.597415328025817871e-01,9.596943259239196777e-01,9.596470594406127930e-01,9.595998525619506836e-01,9.595527052879333496e-01,9.595054984092712402e-01,9.594582915306091309e-01,9.594110250473022461e-01,9.593638181686401367e-01,9.593166112899780273e-01,9.592694640159606934e-01,9.592223167419433594e-01,9.591751694679260254e-01,9.591279625892639160e-01,9.590808153152465820e-01,9.590336680412292480e-01,9.589865207672119141e-01,9.589393734931945801e-01,9.588922858238220215e-01,9.588450193405151367e-01,9.587978720664978027e-01,9.587507843971252441e-01
9.103108048439025879e-01,9.102683663368225098e-01,9.102258682250976562e-01,9.101834297180175781e-01,9.101409316062927246e-01,9.100984930992126465e-01,9.100560545921325684e-01,9.100135564804077148e-01,9.099710583686828613e-01,9.099285602569580078e-01,9.098861217498779297e-01,9.098436832427978516e-01,9.098013043403625488e-01,9.097588658332824707e-01,9.097164273262023926e-01,9.096739888191223145e-01,9.096316099166870117e-01,9.095891714096069336e-01,9.095467925071716309e-01,9.095043540000915527e-01,9.094618558883666992e-01,9.094194769859313965e-01,9.093770980834960938e-01,9.093347191810607910e-01,9.092922806739807129e-01,9.092499017715454102e-01,9.092075228691101074e-01,9.091652035713195801e-01,9.091228246688842773e-01,9.090804457664489746e-01,9.090380668640136719e-01,9.089957475662231445e-01,9.089532494544982910e-01,9.089109301567077637e-01,9.088686108589172363e-01,9.088262319564819336e-01,9.087839126586914062e-01,9.087415933609008789e-01,9.086992740631103516e-01,9.086568951606750488e-01,9.086145758628845215e-01,9.085722565650939941e-01,9.085299968719482422e-01,9.084875583648681641e-01,9.084452390670776367e-01,9.084029793739318848e-01,9.083606600761413574e-01,9.083183407783508301e-01,9.082760810852050781e-01,9.082338213920593262e-01,9.081915020942687988e-01,9.081492424011230469e-01,9.081069827079772949e-01,9.080646634101867676e-01,9.080224037170410156e-01,9.079800844192504883e-01,9.079378247261047363e-01,9.078955650329589844e-01,9.078533053398132324e-01,9.078110456466674805e-01,9.077687859535217285e-01,9.077265858650207520e-01,9.076843261718750000e-01,9.076421260833740234e-01,9.075998663902282715e-01,9.075576663017272949e-01,9.075153470039367676e-01,9.074731469154357910e-01,9.074308872222900391e-01,9.073886871337890625e-01,9.073464870452880859e-01,9.073042869567871094e-01,9.072620868682861328e-01,9.072199463844299316e-01,9.071777462959289551e-01,9.071355462074279785e-01,9.070934057235717773e-01,9.070512056350708008e-01,9.070089459419250488e-01,9.069667458534240723e-01
8.634995222091674805e-01,8.634613156318664551e-01,8.634231090545654297e-01,8.633849024772644043e-01,8.633466958999633789e-01,8.633084893226623535e-01,8.632702827453613281e-01,8.632320761680603027e-01,8.631938695907592773e-01,8.631557226181030273e-01,8.631173968315124512e-01,8.630792498588562012e-01,8.630410432815551758e-01,8.630028963088989258e-01,8.629646897315979004e-01,8.629265427589416504e-01,8.628883361816406250e-01,8.628501892089843750e-01,8.628120422363281250e-01,8.627738952636718750e-01,8.627356886863708496e-01,8.626974821090698242e-01,8.626593351364135742e-01,8.626211881637573242e-01,8.625830411911010742e-01,8.625448942184448242e-01,8.625067472457885742e-01,8.624686598777770996e-01,8.624305129051208496e-01,8.623923659324645996e-01,8.623542785644531250e-01,8.623161315917968750e-01,8.622780442237854004e-01,8.622398376464843750e-01,8.622016906738281250e-01,8.621636033058166504e-01,8.621255159378051758e-01,8.620874285697937012e-01,8.620493412017822266e-01,8.620112538337707520e-01,8.619731664657592773e-01,8.619350790977478027e-01,8.618969917297363281e-01,8.618589043617248535e-01,8.618207573890686035e-01,8.617826700210571289e-01,8.617445826530456543e-01,8.617065548896789551e-01,8.616684675216674805e-01,8.616304397583007812e-01,8.615923523902893066e-01,8.615543246269226074e-01,8.615162372589111328e-01,8.614782094955444336e-01,8.614401817321777344e-01,8.614021539688110352e-01,8.613640069961547852e-01,8.613259792327880859e-01,8.612879514694213867e-01,8.612499237060546875e-01,8.612118959426879883e-01,8.611738681793212891e-01,8.611359000205993652e-01,8.610978722572326660e-01,8.610598444938659668e-01,8.610218763351440430e-01,8.609838485717773438e-01,8.609457612037658691e-01,8.609077930450439453e-01,8.608697652816772461e-01,8.608317971229553223e-01,8.607938289642333984e-01,8.607558608055114746e-01,8.607178926467895508e-01,8.606798648834228516e-01,8.606418967247009277e-01,8.606039285659790039e-01,8.605660200119018555e-01,8.605280518531799316e-01,8.604899644851684570e-01
8.212671875953674316e-01,8.212326169013977051e-01,8.211980462074279785e-01,8.211634755134582520e-01,8.211289048194885254e-01,8.210943937301635742e-01,8.210598230361938477e-01,8.210252523422241211e-01,8.209906816482543945e-01,8.209561705589294434e-01,8.209215998649597168e-01,8.208869695663452148e-01,8.208524584770202637e-01,8.208178877830505371e-01,8.207833766937255859e-01,8.207488656044006348e-01,8.207142949104309082e-01,8.206797838211059570e-01,8.206452727317810059e-01,8.206107616424560547e-01,8.205762505531311035e-01,8.205417394638061523e-01,8.205071091651916504e-01,8.204725980758666992e-01,8.204381465911865234e-01,8.204036355018615723e-01,8.203691244125366211e-01,8.203346133232116699e-01,8.203001022338867188e-01,8.202656507492065430e-01,8.202311396598815918e-01,8.201966881752014160e-01,8.201621770858764648e-01,8.201277256011962891e-01,8.200931549072265625e-01,8.200587034225463867e-01,8.200241923332214355e-01,8.199897408485412598e-01,8.199552893638610840e-01,8.199208378791809082e-01,8.198863267898559570e-01,8.198518753051757812e-01,8.198174238204956055e-01,8.197829723358154297e-01,8.197485208511352539e-01,8.197140097618103027e-01,8.196795582771301270e-01,8.196451663970947266e-01,8.196107149124145508e-01,8.195762634277343750e-01,8.195418119430541992e-01,8.195074200630187988e-01,8.194729685783386230e-01,8.194385766983032227e-01,8.194041252136230469e-01,8.193697333335876465e-01,8.193353414535522461e-01,8.193008303642272949e-01,8.192664384841918945e-01,8.192319869995117188e-01,8.191975951194763184e-01,8.191632032394409180e-01,8.191288113594055176e-01,8.190944194793701172e-01,8.190600275993347168e-01,8.190256357192993164e-01,8.189912438392639160e-01,8.189569115638732910e-01,8.189224004745483398e-01,8.188880681991577148e-01,8.188536763191223145e-01,8.188192844390869141e-01,8.187849521636962891e-01,8.187505602836608887e-01,8.187162280082702637e-01,8.186818361282348633e-01,8.186475038528442383e-01,8.186131715774536133e-01,8.185787796974182129e-01,8.185444474220275879e-01
