4.896189212799072266e+00,5.000000000000000000e+00,5.000000000000000000e+00,5.000000000000000000e+00,5.000000000000000000e+00,5.000000000000000000e+00,5.000000000000000000e+00,5.000000000000000000e+00,5.000000000000000000e+00,5.000000000000000000e+00,5.000000000000000000e+00,5.000000000000000000e+00,5.000000000000000000e+00,5.000000000000000000e+00,5.000000000000000000e+00,5.000000000000000000e+00,5.000000000000000000e+00,5.000000000000000000e+00,5.000000000000000000e+00,5.000000000000000000e+00,5.000000000000000000e+00,5.000000000000000000e+00,5.000000000000000000e+00,5.000000000000000000e+00,5.000000000000000000e+00,5.000000000000000000e+00,5.000000000000000000e+00,5.000000000000000000e+00,5.000000000000000000e+00,5.000000000000000000e+00,5.000000000000000000e+00,5.000000000000000000e+00,5.000000000000000000e+00,5.000000000000000000e+00,5.000000000000000000e+00,5.000000000000000000e+00,5.000000000000000000e+00,5.000000000000000000e+00,5.000000000000000000e+00,5.000000000000000000e+00,5.000000000000000000e+00,5.000000000000000000e+00,5.000000000000000000e+00,5.000000000000000000e+00,5.000000000000000000e+00,5.000000000000000000e+00,5.000000000000000000e+00,5.000000000000000000e+00,5.000000000000000000e+00,5.000000000000000000e+00,5.000000000000000000e+00,5.000000000000000000e+00,5.000000000000000000e+00,5.000000000000000000e+00,5.000000000000000000e+00,5.000000000000000000e+00,4.783237934112548828e+00,4.598618984222412109e+00,4.427721977233886719e+00,4.269072055816650391e+00,4.121397972106933594e+00,3.983598470687866211e+00,3.854716062545776367e+00,3.733911752700805664e+00,3.620449304580688477e+00,3.513678550720214844e+00,3.413025379180908203e+00,3.318006753921508789e+00,3.228149890899658203e+00,3.143031358718872070e+00,3.062286615371704102e+00,2.985579729080200195e+00,2.912594318389892578e+00,2.843092203140258789e+00,2.776829957962036133e+00,2.713585853576660156e+00,2.653158426284790039e+00,2.595363378524780273e+00,2.540032863616943359e+00,2.487012624740600586e+00
4.896062374114990234e+00,5.000000000000000000e+00,5.000000000000000000e+00,5.000000000000000000e+00,5.000000000000000000e+00,5.000000000000000000e+00,5.000000000000000000e+00,5.000000000000000000e+00,5.000000000000000000e+00,5.000000000000000000e+00,5.000000000000000000e+00,5.000000000000000000e+00,5.000000000000000000e+00,5.000000000000000000e+00,5.000000000000000000e+00,5.000000000000000000e+00,5.000000000000000000e+00,5.000000000000000000e+00,5.000000000000000000e+00,5.000000000000000000e+00,5.000000000000000000e+00,5.000000000000000000e+00,5.000000000000000000e+00,5.000000000000000000e+00,5.000000000000000000e+00,5.000000000000000000e+00,5.000000000000000000e+00,5.000000000000000000e+00,5.000000000000000000e+00,5.000000000000000000e+00,5.000000000000000000e+00,5.000000000000000000e+00,5.000000000000000000e+00,5.000000000000000000e+00,5.000000000000000000e+00,5.000000000000000000e+00,5.000000000000000000e+00,5.000000000000000000e+00,5.000000000000000000e+00,5.000000000000000000e+00,5.000000000000000000e+00,5.000000000000000000e+00,5.000000000000000000e+00,5.000000000000000000e+00,5.000000000000000000e+00,5.000000000000000000e+00,5.000000000000000000e+00,5.000000000000000000e+00,5.000000000000000000e+00,5.000000000000000000e+00,5.000000000000000000e+00,5.000000000000000000e+00,5.000000000000000000e+00,5.000000000000000000e+00,5.000000000000000000e+00,4.983468055725097656e+00,4.783392429351806641e+00,4.598762035369873047e+00,4.427854537963867188e+00,4.269195079803466797e+00,4.121512889862060547e+00,3.983705759048461914e+00,3.854816675186157227e+00,3.734006166458129883e+00,3.620537519454956055e+00,3.513798475265502930e+00,3.413184642791748047e+00,3.318172454833984375e+00,3.228306770324707031e+00,3.143169641494750977e+00,3.062380552291870117e+00,2.985640048980712891e+00,2.912651777267456055e+00,2.843146800994873047e+00,2.776881933212280273e+00,2.713635444641113281e+00,2.653205871582031250e+00,2.595408916473388672e+00,2.540076494216918945e+00,2.487054347991943359e+00
4.895935058593750000e+00,5.000000000000000000e+00,5.000000000000000000e+00,5.000000000000000000e+00,5.000000000000000000e+00,5.000000000000000000e+00,5.000000000000000000e+00,5.000000000000000000e+00,5.000000000000000000e+00,5.000000000000000000e+00,5.000000000000000000e+00,5.000000000000000000e+00,5.000000000000000000e+00,5.000000000000000000e+00,5.000000000000000000e+00,5.000000000000000000e+00,5.000000000000000000e+00,5.000000000000000000e+00,5.000000000000000000e+00,5.000000000000000000e+00,5.000000000000000000e+00,5.000000000000000000e+00,5.000000000000000000e+00,5.000000000000000000e+00,5.000000000000000000e+00,5.000000000000000000e+00,5.000000000000000000e+00,5.000000000000000000e+00,5.000000000000000000e+00,5.000000000000000000e+00,5.000000000000000000e+00,5.000000000000000000e+00,5.000000000000000000e+00,5.000000000000000000e+00,5.000000000000000000e+00,5.000000000000000000e+00,5.000000000000000000e+00,5.000000000000000000e+00,5.000000000000000000e+00,5.000000000000000000e+00,5.000000000000000000e+00,5.000000000000000000e+00,5.000000000000000000e+00,5.000000000000000000e+00,5.000000000000000000e+00,5.000000000000000000e+00,5.000000000000000000e+00,5.000000000000000000e+00,5.000000000000000000e+00,5.000000000000000000e+00,5.000000000000000000e+00,5.000000000000000000e+00,5.000000000000000000e+00,5.000000000000000000e+00,5.000000000000000000e+00,4.983635425567626953e+00,4.783546924591064453e+00,4.598904609680175781e+00,4.427987098693847656e+00,4.269318103790283203e+00,4.121627330780029297e+00,3.983813285827636719e+00,3.854917049407958984e+00,3.734146118164062500e+00,3.620721578598022461e+00,3.513984441757202148e+00,3.413360118865966797e+00,3.318323135375976562e+00,3.228407621383666992e+00,3.143236398696899414e+00,3.062443733215332031e+00,2.985700368881225586e+00,2.912709236145019531e+00,2.843201637268066406e+00,2.776934146881103516e+00,2.713685274124145508e+00,2.653253555297851562e+00,2.595454692840576172e+00,2.540120124816894531e+00,2.487096071243286133e+00
4.895807743072509766e+00,5.000000000000000000e+00,5.000000000000000000e+00,5.000000000000000000e+00,5.000000000000000000e+00,5.000000000000000000e+00,5.000000000000000000e+00,5.000000000000000000e+00,5.000000000000000000e+00,5.000000000000000000e+00,5.000000000000000000e+00,5.000000000000000000e+00,5.000000000000000000e+00,5.000000000000000000e+00,5.000000000000000000e+00,5.000000000000000000e+00,5.000000000000000000e+00,5.000000000000000000e+00,5.000000000000000000e+00,5.000000000000000000e+00,5.000000000000000000e+00,5.000000000000000000e+00,5.000000000000000000e+00,5.000000000000000000e+00,5.000000000000000000e+00,5.000000000000000000e+00,5.000000000000000000e+00,5.000000000000000000e+00,5.000000000000000000e+00,5.000000000000000000e+00,5.000000000000000000e+00,5.000000000000000000e+00,5.000000000000000000e+00,5.000000000000000000e+00,5.000000000000000000e+00,5.000000000000000000e+00,5.000000000000000000e+00,5.000000000000000000e+00,5.000000000000000000e+00,5.000000000000000000e+00,5.000000000000000000e+00,5.000000000000000000e+00,5.000000000000000000e+00,5.000000000000000000e+00,5.000000000000000000e+00,5.000000000000000000e+00,5.000000000000000000e+00,5.000000000000000000e+00,5.000000000000000000e+00,5.000000000000000000e+00,5.000000000000000000e+00,5.000000000000000000e+00,5.000000000000000000e+00,5.000000000000000000e+00,5.000000000000000000e+00,4.983803749084472656e+00,4.783701419830322266e+00,4.599047660827636719e+00,4.428119659423828125e+00,4.269441127777099609e+00,4.121742248535156250e+00,3.983977794647216797e+00,3.855130195617675781e+00,3.734355688095092773e+00,3.620918512344360352e+00,3.514149188995361328e+00,3.413469076156616211e+00,3.318397760391235352e+00,3.228478193283081055e+00,3.143303155899047852e+00,3.062507152557373047e+00,2.985760450363159180e+00,2.912766456604003906e+00,2.843256235122680664e+00,2.776986122131347656e+00,2.713734865188598633e+00,2.653301239013671875e+00,2.595500230789184570e+00,2.540163755416870117e+00,2.487137794494628906e+00
4.895680904388427734e+00,5.000000000000000000e+00,5.000000000000000000e+00,5.000000000000000000e+00,5.000000000000000000e+00,5.000000000000000000e+00,5.000000000000000000e+00,5.000000000000000000e+00,5.000000000000000000e+00,5.000000000000000000e+00,5.000000000000000000e+00,5.000000000000000000e+00,5.000000000000000000e+00,5.000000000000000000e+00,5.000000000000000000e+00,5.000000000000000000e+00,5.000000000000000000e+00,5.000000000000000000e+00,5.000000000000000000e+00,5.000000000000000000e+00,5.000000000000000000e+00,5.000000000000000000e+00,5.000000000000000000e+00,5.000000000000000000e+00,5.000000000000000000e+00,5.000000000000000000e+00,5.000000000000000000e+00,5.000000000000000000e+00,5.000000000000000000e+00,5.000000000000000000e+00,5.000000000000000000e+00,5.000000000000000000e+00,5.000000000000000000e+00,5.000000000000000000e+00,5.000000000000000000e+00,5.000000000000000000e+00,5.000000000000000000e+00,5.000000000000000000e+00,5.000000000000000000e+00,5.000000000000000000e+00,5.000000000000000000e+00,5.000000000000000000e+00,5.000000000000000000e+00,5.000000000000000000e+00,5.000000000000000000e+00,3.516981363296508789e+00,3.487789392471313477e+00,5.000000000000000000e+00,5.000000000000000000e+00,5.000000000000000000e+00,5.000000000000000000e+00,5.000000000000000000e+00,5.000000000000000000e+00,5.000000000000000000e+00,5.000000000000000000e+00,4.983971118927001953e+00,4.783856391906738281e+00,4.599190711975097656e+00,4.428252220153808594e+00,4.269637107849121094e+00,4.121992111206054688e+00,3.984216690063476562e+00,3.855353832244873047e+00,3.734538078308105469e+00,3.621037721633911133e+00,3.514232635498046875e+00,3.413547992706298828e+00,3.318471908569335938e+00,3.228548526763916016e+00,3.143370151519775391e+00,3.062570571899414062e+00,2.985820770263671875e+00,2.912823915481567383e+00,2.843310832977294922e+00,2.777038335800170898e+00,2.713784694671630859e+00,2.653348684310913086e+00,2.595545768737792969e+00,2.540207624435424805e+00,2.487179756164550781e+00
4.895554065704345703e+00,5.000000000000000000e+00,5.000000000000000000e+00,5.000000000000000000e+00,5.000000000000000000e+00,5.000000000000000000e+00,5.000000000000000000e+00,5.000000000000000000e+00,5.000000000000000000e+00,5.000000000000000000e+00,5.000000000000000000e+00,5.000000000000000000e+00,5.000000000000000000e+00,5.000000000000000000e+00,5.000000000000000000e+00,5.000000000000000000e+00,5.000000000000000000e+00,5.000000000000000000e+00,5.000000000000000000e+00,5.000000000000000000e+00,5.000000000000000000e+00,5.000000000000000000e+00,5.000000000000000000e+00,5.000000000000000000e+00,5.000000000000000000e+00,5.000000000000000000e+00,5.000000000000000000e+00,5.000000000000000000e+00,5.000000000000000000e+00,5.000000000000000000e+00,5.000000000000000000e+00,5.000000000000000000e+00,5.000000000000000000e+00,5.000000000000000000e+00,5.000000000000000000e+00,5.000000000000000000e+00,5.000000000000000000e+00,5.000000000000000000e+00,5.000000000000000000e+00,5.000000000000000000e+00,5.000000000000000000e+00,5.000000000000000000e+00,5.000000000000000000e+00,5.000000000000000000e+00,5.000000000000000000e+00,3.499888896942138672e+00,3.481819152832031250e+00,3.526776075363159180e+00,5.000000000000000000e+00,5.000000000000000000e+00,5.000000000000000000e+00,5.000000000000000000e+00,5.000000000000000000e+00,5.000000000000000000e+00,5.000000000000000000e+00,4.984139442443847656e+00,4.784018039703369141e+00,4.599424362182617188e+00,4.428546905517578125e+00,4.269910812377929688e+00,4.122247219085693359e+00,3.984419107437133789e+00,3.855484008789062500e+00,3.734632015228271484e+00,3.621126413345336914e+00,3.514316320419311523e+00,3.413626670837402344e+00,3.318546295166015625e+00,3.228619098663330078e+00,3.143436908721923828e+00,3.062633991241455078e+00,2.985881090164184570e+00,2.912881135940551758e+00,2.843365669250488281e+00,2.777090549468994141e+00,2.713834524154663086e+00,2.653396368026733398e+00,2.595591306686401367e+00,2.540251255035400391e+00,2.487221479415893555e+00
4.895426750183105469e+00,5.000000000000000000e+00,5.000000000000000000e+00,5.000000000000000000e+00,5.000000000000000000e+00,5.000000000000000000e+00,5.000000000000000000e+00,5.000000000000000000e+00,5.000000000000000000e+00,5.000000000000000000e+00,5.000000000000000000e+00,5.000000000000000000e+00,5.000000000000000000e+00,5.000000000000000000e+00,5.000000000000000000e+00,5.000000000000000000e+00,5.000000000000000000e+00,5.000000000000000000e+00,5.000000000000000000e+00,5.000000000000000000e+00,5.000000000000000000e+00,5.000000000000000000e+00,5.000000000000000000e+00,5.000000000000000000e+00,5.000000000000000000e+00,5.000000000000000000e+00,5.000000000000000000e+00,5.000000000000000000e+00,5.000000000000000000e+00,5.000000000000000000e+00,5.000000000000000000e+00,5.000000000000000000e+00,5.000000000000000000e+00,5.000000000000000000e+00,5.000000000000000000e+00,5.000000000000000000e+00,5.000000000000000000e+00,5.000000000000000000e+00,5.000000000000000000e+00,5.000000000000000000e+00,5.000000000000000000e+00,5.000000000000000000e+00,5.000000000000000000e+00,5.000000000000000000e+00,5.000000000000000000e+00,3.485807895660400391e+00,3.476848363876342773e+00,5.000000000000000000e+00,5.000000000000000000e+00,5.000000000000000000e+00,5.000000000000000000e+00,5.000000000000000000e+00,5.000000000000000000e+00,5.000000000000000000e+00,5.000000000000000000e+00,4.984422206878662109e+00,4.784362316131591797e+00,4.599742412567138672e+00,4.428841590881347656e+00,4.270137786865234375e+00,4.122391223907470703e+00,3.984526634216308594e+00,3.855584621429443359e+00,3.734726428985595703e+00,3.621215105056762695e+00,3.514399766921997070e+00,3.413705587387084961e+00,3.318620920181274414e+00,3.228689432144165039e+00,3.143503665924072266e+00,3.062697410583496094e+00,2.985941410064697266e+00,2.912938594818115234e+00,2.843420267105102539e+00,2.777142763137817383e+00,2.713884353637695312e+00,2.653443813323974609e+00,2.595636606216430664e+00,2.540294885635375977e+00,2.487263441085815430e+00
4.895278930664062500e+00,5.000000000000000000e+00,5.000000000000000000e+00,5.000000000000000000e+00,5.000000000000000000e+00,5.000000000000000000e+00,5.000000000000000000e+00,5.000000000000000000e+00,5.000000000000000000e+00,5.000000000000000000e+00,5.000000000000000000e+00,5.000000000000000000e+00,5.000000000000000000e+00,5.000000000000000000e+00,5.000000000000000000e+00,5.000000000000000000e+00,5.000000000000000000e+00,5.000000000000000000e+00,5.000000000000000000e+00,5.000000000000000000e+00,5.000000000000000000e+00,5.000000000000000000e+00,5.000000000000000000e+00,5.000000000000000000e+00,5.000000000000000000e+00,5.000000000000000000e+00,5.000000000000000000e+00,5.000000000000000000e+00,5.000000000000000000e+00,5.000000000000000000e+00,5.000000000000000000e+00,5.000000000000000000e+00,5.000000000000000000e+00,5.000000000000000000e+00,5.000000000000000000e+00,5.000000000000000000e+00,5.000000000000000000e+00,5.000000000000000000e+00,5.000000000000000000e+00,5.000000000000000000e+00,5.000000000000000000e+00,5.000000000000000000e+00,5.000000000000000000e+00,5.000000000000000000e+00,5.000000000000000000e+00,3.467272281646728516e+00,3.455265760421752930e+00,3.465805292129516602e+00,5.000000000000000000e+00,5.000000000000000000e+00,5.000000000000000000e+00,5.000000000000000000e+00,5.000000000000000000e+00,5.000000000000000000e+00,5.000000000000000000e+00,4.984796047210693359e+00,4.784707069396972656e+00,4.599999427795410156e+00,4.429001808166503906e+00,4.270261287689208984e+00,4.122506141662597656e+00,3.984633922576904297e+00,3.855685234069824219e+00,3.734820604324340820e+00,3.621303319931030273e+00,3.514483451843261719e+00,3.413784503936767578e+00,3.318695306777954102e+00,3.228760004043579102e+00,3.143570661544799805e+00,3.062761068344116211e+00,2.986001729965209961e+00,2.912995815277099609e+00,2.843474626541137695e+00,2.777194976806640625e+00,2.713934183120727539e+00,2.653491497039794922e+00,2.595682382583618164e+00,2.540338277816772461e+00,2.487305164337158203e+00
4.895127296447753906e+00,5.000000000000000000e+00,5.000000000000000000e+00,5.000000000000000000e+00,5.000000000000000000e+00,5.000000000000000000e+00,5.000000000000000000e+00,5.000000000000000000e+00,5.000000000000000000e+00,5.000000000000000000e+00,5.000000000000000000e+00,5.000000000000000000e+00,5.000000000000000000e+00,5.000000000000000000e+00,5.000000000000000000e+00,5.000000000000000000e+00,5.000000000000000000e+00,5.000000000000000000e+00,5.000000000000000000e+00,5.000000000000000000e+00,5.000000000000000000e+00,5.000000000000000000e+00,5.000000000000000000e+00,5.000000000000000000e+00,5.000000000000000000e+00,5.000000000000000000e+00,5.000000000000000000e+00,5.000000000000000000e+00,5.000000000000000000e+00,5.000000000000000000e+00,5.000000000000000000e+00,5.000000000000000000e+00,5.000000000000000000e+00,5.000000000000000000e+00,5.000000000000000000e+00,5.000000000000000000e+00,5.000000000000000000e+00,5.000000000000000000e+00,5.000000000000000000e+00,5.000000000000000000e+00,5.000000000000000000e+00,5.000000000000000000e+00,3.525962829589843750e+00,3.486441850662231445e+00,3.463703155517578125e+00,3.446132421493530273e+00,3.431834936141967773e+00,3.421369552612304688e+00,3.418629407882690430e+00,3.423367977142333984e+00,5.000000000000000000e+00,5.000000000000000000e+00,5.000000000000000000e+00,5.000000000000000000e+00,5.000000000000000000e+00,4.985090255737304688e+00,4.784886837005615234e+00,4.600142478942871094e+00,4.429134368896484375e+00,4.270384788513183594e+00,4.122621059417724609e+00,3.984741449356079102e+00,3.855785846710205078e+00,3.734915018081665039e+00,3.621392250061035156e+00,3.514566659927368164e+00,3.413863182067871094e+00,3.318769931793212891e+00,3.228830337524414062e+00,3.143637180328369141e+00,3.062824487686157227e+00,2.986062049865722656e+00,2.913053274154663086e+00,2.843529462814331055e+00,2.777246952056884766e+00,2.713984012603759766e+00,2.653539180755615234e+00,2.595727920532226562e+00,2.540381908416748047e+00,2.487347126007080078e+00
4.894975662231445312e+00,5.000000000000000000e+00,5.000000000000000000e+00,5.000000000000000000e+00,5.000000000000000000e+00,5.000000000000000000e+00,5.000000000000000000e+00,5.000000000000000000e+00,5.000000000000000000e+00,5.000000000000000000e+00,5.000000000000000000e+00,5.000000000000000000e+00,5.000000000000000000e+00,5.000000000000000000e+00,5.000000000000000000e+00,5.000000000000000000e+00,5.000000000000000000e+00,5.000000000000000000e+00,5.000000000000000000e+00,5.000000000000000000e+00,5.000000000000000000e+00,5.000000000000000000e+00,5.000000000000000000e+00,5.000000000000000000e+00,5.000000000000000000e+00,5.000000000000000000e+00,5.000000000000000000e+00,5.000000000000000000e+00,5.000000000000000000e+00,5.000000000000000000e+00,5.000000000000000000e+00,5.000000000000000000e+00,5.000000000000000000e+00,5.000000000000000000e+00,5.000000000000000000e+00,5.000000000000000000e+00,5.000000000000000000e+00,5.000000000000000000e+00,5.000000000000000000e+00,5.000000000000000000e+00,5.000000000000000000e+00,5.000000000000000000e+00,3.534516811370849609e+00,3.480322122573852539e+00,3.452165365219116211e+00,3.434348344802856445e+00,3.418938398361206055e+00,3.408931016921997070e+00,3.412295103073120117e+00,3.411756753921508789e+00,5.000000000000000000e+00,5.000000000000000000e+00,5.000000000000000000e+00,5.000000000000000000e+00,5.000000000000000000e+00,4.985258102416992188e+00,4.785041332244873047e+00,4.600286006927490234e+00,4.429266929626464844e+00,4.270507812500000000e+00,4.122735977172851562e+00,3.984848260879516602e+00,3.855886220932006836e+00,3.735009431838989258e+00,3.621480941772460938e+00,3.514650106430053711e+00,3.413942098617553711e+00,3.318844318389892578e+00,3.228900909423828125e+00,3.143703937530517578e+00,3.062887668609619141e+00,2.986122369766235352e+00,2.913110733032226562e+00,2.843584060668945312e+00,2.777299165725708008e+00,2.714033842086791992e+00,2.653586864471435547e+00,2.595773458480834961e+00,2.540425539016723633e+00,2.487388849258422852e+00
4.894824028015136719e+00,5.000000000000000000e+00,5.000000000000000000e+00,5.000000000000000000e+00,5.000000000000000000e+00,5.000000000000000000e+00,5.000000000000000000e+00,5.000000000000000000e+00,5.000000000000000000e+00,5.000000000000000000e+00,5.000000000000000000e+00,5.000000000000000000e+00,5.000000000000000000e+00,5.000000000000000000e+00,5.000000000000000000e+00,5.000000000000000000e+00,5.000000000000000000e+00,5.000000000000000000e+00,5.000000000000000000e+00,5.000000000000000000e+00,5.000000000000000000e+00,5.000000000000000000e+00,5.000000000000000000e+00,5.000000000000000000e+00,5.000000000000000000e+00,5.000000000000000000e+00,5.000000000000000000e+00,5.000000000000000000e+00,5.000000000000000000e+00,5.000000000000000000e+00,5.000000000000000000e+00,5.000000000000000000e+00,5.000000000000000000e+00,5.000000000000000000e+00,5.000000000000000000e+00,5.000000000000000000e+00,5.000000000000000000e+00,5.000000000000000000e+00,5.000000000000000000e+00,5.000000000000000000e+00,5.000000000000000000e+00,5.000000000000000000e+00,3.535569906234741211e+00,3.499876260757446289e+00,3.459795475006103516e+00,3.444467782974243164e+00,3.425943136215209961e+00,3.420176029205322266e+00,3.419344663619995117e+00,3.419611930847167969e+00,5.000000000000000000e+00,5.000000000000000000e+00,5.000000000000000000e+00,5.000000000000000000e+00,5.000000000000000000e+00,4.985426425933837891e+00,4.785196304321289062e+00,4.600428581237792969e+00,4.429399490356445312e+00,4.270631313323974609e+00,4.122850894927978516e+00,3.984955787658691406e+00,3.855986833572387695e+00,3.735103845596313477e+00,3.621569633483886719e+00,3.514733791351318359e+00,3.414020538330078125e+00,3.318918943405151367e+00,3.228971481323242188e+00,3.143770933151245117e+00,3.062951087951660156e+00,2.986182689666748047e+00,2.913168191909790039e+00,2.843638896942138672e+00,2.777351140975952148e+00,2.714083671569824219e+00,2.653634309768676758e+00,2.595818996429443359e+00,2.540469169616699219e+00,2.487430572509765625e+00
4.894672393798828125e+00,5.000000000000000000e+00,5.000000000000000000e+00,5.000000000000000000e+00,5.000000000000000000e+00,5.000000000000000000e+00,5.000000000000000000e+00,5.000000000000000000e+00,5.000000000000000000e+00,5.000000000000000000e+00,5.000000000000000000e+00,5.000000000000000000e+00,5.000000000000000000e+00,5.000000000000000000e+00,5.000000000000000000e+00,5.000000000000000000e+00,5.000000000000000000e+00,5.000000000000000000e+00,5.000000000000000000e+00,5.000000000000000000e+00,5.000000000000000000e+00,5.000000000000000000e+00,5.000000000000000000e+00,5.000000000000000000e+00,5.000000000000000000e+00,5.000000000000000000e+00,5.000000000000000000e+00,5.000000000000000000e+00,5.000000000000000000e+00,5.000000000000000000e+00,5.000000000000000000e+00,5.000000000000000000e+00,5.000000000000000000e+00,5.000000000000000000e+00,5.000000000000000000e+00,5.000000000000000000e+00,5.000000000000000000e+00,5.000000000000000000e+00,5.000000000000000000e+00,5.000000000000000000e+00,5.000000000000000000e+00,5.000000000000000000e+00,3.539862155914306641e+00,3.519187450408935547e+00,3.473289728164672852e+00,3.458832502365112305e+00,3.447105169296264648e+00,3.437967777252197266e+00,3.412488222122192383e+00,3.424595832824707031e+00,5.000000000000000000e+00,5.000000000000000000e+00,5.000000000000000000e+00,5.000000000000000000e+00,5.000000000000000000e+00,4.985594272613525391e+00,4.785351276397705078e+00,4.600571632385253906e+00,4.429532527923583984e+00,4.270754337310791016e+00,4.122965812683105469e+00,3.985063314437866211e+00,3.856086969375610352e+00,3.735198259353637695e+00,3.621658325195312500e+00,3.514817237854003906e+00,3.414099454879760742e+00,3.318993330001831055e+00,3.229042053222656250e+00,3.143837690353393555e+00,3.063014507293701172e+00,2.986242771148681641e+00,2.913225650787353516e+00,2.843693494796752930e+00,2.777403354644775391e+00,2.714133501052856445e+00,2.653681755065917969e+00,2.595864534378051758e+00,2.540513038635253906e+00,2.487472534179687500e+00
4.894520759582519531e+00,5.000000000000000000e+00,5.000000000000000000e+00,5.000000000000000000e+00,5.000000000000000000e+00,5.000000000000000000e+00,5.000000000000000000e+00,5.000000000000000000e+00,5.000000000000000000e+00,5.000000000000000000e+00,5.000000000000000000e+00,5.000000000000000000e+00,5.000000000000000000e+00,5.000000000000000000e+00,5.000000000000000000e+00,5.000000000000000000e+00,5.000000000000000000e+00,5.000000000000000000e+00,5.000000000000000000e+00,5.000000000000000000e+00,5.000000000000000000e+00,5.000000000000000000e+00,5.000000000000000000e+00,5.000000000000000000e+00,5.000000000000000000e+00,5.000000000000000000e+00,5.000000000000000000e+00,5.000000000000000000e+00,5.000000000000000000e+00,5.000000000000000000e+00,5.000000000000000000e+00,5.000000000000000000e+00,5.000000000000000000e+00,5.000000000000000000e+00,5.000000000000000000e+00,5.000000000000000000e+00,5.000000000000000000e+00,5.000000000000000000e+00,5.000000000000000000e+00,5.000000000000000000e+00,5.000000000000000000e+00,5.000000000000000000e+00,3.543784379959106445e+00,5.000000000000000000e+00,3.496906757354736328e+00,3.482163429260253906e+00,3.471570968627929688e+00,3.466791152954101562e+00,3.405246734619140625e+00,3.434382200241088867e+00,5.000000000000000000e+00,5.000000000000000000e+00,5.000000000000000000e+00,5.000000000000000000e+00,5.000000000000000000e+00,4.985762119293212891e+00,4.785505771636962891e+00,4.600715160369873047e+00,4.429665088653564453e+00,4.270877838134765625e+00,4.123080730438232422e+00,3.985170602798461914e+00,3.856187582015991211e+00,3.735292673110961914e+00,3.621747016906738281e+00,3.514900922775268555e+00,3.414178371429443359e+00,3.319067716598510742e+00,3.229112625122070312e+00,3.143904685974121094e+00,3.063077926635742188e+00,2.986303091049194336e+00,2.913282632827758789e+00,2.843748331069946289e+00,2.777455568313598633e+00,2.714183330535888672e+00,2.653729438781738281e+00,2.595910310745239258e+00,2.540556669235229492e+00,2.487514257431030273e+00
4.894369125366210938e+00,5.000000000000000000e+00,5.000000000000000000e+00,5.000000000000000000e+00,5.000000000000000000e+00,5.000000000000000000e+00,5.000000000000000000e+00,5.000000000000000000e+00,5.000000000000000000e+00,5.000000000000000000e+00,5.000000000000000000e+00,5.000000000000000000e+00,5.000000000000000000e+00,5.000000000000000000e+00,5.000000000000000000e+00,5.000000000000000000e+00,5.000000000000000000e+00,5.000000000000000000e+00,5.000000000000000000e+00,5.000000000000000000e+00,5.000000000000000000e+00,5.000000000000000000e+00,5.000000000000000000e+00,5.000000000000000000e+00,5.000000000000000000e+00,5.000000000000000000e+00,5.000000000000000000e+00,5.000000000000000000e+00,5.000000000000000000e+00,5.000000000000000000e+00,5.000000000000000000e+00,5.000000000000000000e+00,5.000000000000000000e+00,5.000000000000000000e+00,5.000000000000000000e+00,5.000000000000000000e+00,5.000000000000000000e+00,5.000000000000000000e+00,5.000000000000000000e+00,5.000000000000000000e+00,5.000000000000000000e+00,5.000000000000000000e+00,3.552302122116088867e+00,5.000000000000000000e+00,3.507555961608886719e+00,3.482449054718017578e+00,3.472501516342163086e+00,3.470335245132446289e+00,3.399741411209106445e+00,5.000000000000000000e+00,5.000000000000000000e+00,5.000000000000000000e+00,5.000000000000000000e+00,5.000000000000000000e+00,5.000000000000000000e+00,4.985930442810058594e+00,4.785660743713378906e+00,4.600858211517333984e+00,4.429797649383544922e+00,4.271000862121582031e+00,4.123195648193359375e+00,3.985278129577636719e+00,3.856288194656372070e+00,3.735386610031127930e+00,3.621835708618164062e+00,3.514984369277954102e+00,3.414257287979125977e+00,3.319142103195190430e+00,3.229182720184326172e+00,3.143971443176269531e+00,3.063141584396362305e+00,2.986363410949707031e+00,2.913340091705322266e+00,2.843802928924560547e+00,2.777507781982421875e+00,2.714233160018920898e+00,2.653777122497558594e+00,2.595955610275268555e+00,2.540600299835205078e+00,2.487556219100952148e+00
4.894217491149902344e+00,5.000000000000000000e+00,5.000000000000000000e+00,5.000000000000000000e+00,5.000000000000000000e+00,5.000000000000000000e+00,5.000000000000000000e+00,5.000000000000000000e+00,5.000000000000000000e+00,5.000000000000000000e+00,5.000000000000000000e+00,5.000000000000000000e+00,5.000000000000000000e+00,5.000000000000000000e+00,5.000000000000000000e+00,5.000000000000000000e+00,5.000000000000000000e+00,5.000000000000000000e+00,5.000000000000000000e+00,5.000000000000000000e+00,5.000000000000000000e+00,5.000000000000000000e+00,5.000000000000000000e+00,5.000000000000000000e+00,5.000000000000000000e+00,5.000000000000000000e+00,5.000000000000000000e+00,5.000000000000000000e+00,5.000000000000000000e+00,5.000000000000000000e+00,5.000000000000000000e+00,5.000000000000000000e+00,5.000000000000000000e+00,5.000000000000000000e+00,5.000000000000000000e+00,5.000000000000000000e+00,5.000000000000000000e+00,5.000000000000000000e+00,5.000000000000000000e+00,5.000000000000000000e+00,5.000000000000000000e+00,5.000000000000000000e+00,3.567912340164184570e+00,5.000000000000000000e+00,3.492210865020751953e+00,3.466220378875732422e+00,3.456242799758911133e+00,3.455692529678344727e+00,3.401322364807128906e+00,5.000000000000000000e+00,5.000000000000000000e+00,5.000000000000000000e+00,5.000000000000000000e+00,5.000000000000000000e+00,5.000000000000000000e+00,4.986089229583740234e+00,4.785809040069580078e+00,4.600996494293212891e+00,4.429927349090576172e+00,4.271123409271240234e+00,4.123310565948486328e+00,3.985385656356811523e+00,3.856388807296752930e+00,3.735481023788452148e+00,3.621924161911010742e+00,3.515068054199218750e+00,3.414335966110229492e+00,3.319216728210449219e+00,3.229253292083740234e+00,3.144038438796997070e+00,3.063205003738403320e+00,2.986423730850219727e+00,2.913397550582885742e+00,2.843857526779174805e+00,2.777559995651245117e+00,2.714282989501953125e+00,2.653824806213378906e+00,2.596001148223876953e+00,2.540643930435180664e+00,2.487598180770874023e+00
4.894065856933593750e+00,5.000000000000000000e+00,5.000000000000000000e+00,5.000000000000000000e+00,5.000000000000000000e+00,5.000000000000000000e+00,5.000000000000000000e+00,5.000000000000000000e+00,5.000000000000000000e+00,5.000000000000000000e+00,5.000000000000000000e+00,5.000000000000000000e+00,5.000000000000000000e+00,5.000000000000000000e+00,5.000000000000000000e+00,5.000000000000000000e+00,5.000000000000000000e+00,5.000000000000000000e+00,5.000000000000000000e+00,5.000000000000000000e+00,5.000000000000000000e+00,5.000000000000000000e+00,5.000000000000000000e+00,5.000000000000000000e+00,5.000000000000000000e+00,5.000000000000000000e+00,5.000000000000000000e+00,5.000000000000000000e+00,5.000000000000000000e+00,5.000000000000000000e+00,5.000000000000000000e+00,5.000000000000000000e+00,5.000000000000000000e+00,5.000000000000000000e+00,5.000000000000000000e+00,5.000000000000000000e+00,5.000000000000000000e+00,5.000000000000000000e+00,5.000000000000000000e+00,5.000000000000000000e+00,5.000000000000000000e+00,5.000000000000000000e+00,3.608200550079345703e+00,5.000000000000000000e+00,3.461560249328613281e+00,3.449235439300537109e+00,3.439846038818359375e+00,3.441790342330932617e+00,3.410833597183227539e+00,5.000000000000000000e+00,5.000000000000000000e+00,5.000000000000000000e+00,5.000000000000000000e+00,5.000000000000000000e+00,5.000000000000000000e+00,4.986245155334472656e+00,4.785952568054199219e+00,4.601129055023193359e+00,4.430050373077392578e+00,4.271237373352050781e+00,4.123417377471923828e+00,3.985486268997192383e+00,3.856484651565551758e+00,3.735571622848510742e+00,3.622010469436645508e+00,3.515150070190429688e+00,3.414414882659912109e+00,3.319291114807128906e+00,3.229323863983154297e+00,3.144104957580566406e+00,3.063268423080444336e+00,2.986484050750732422e+00,2.913455009460449219e+00,2.843912124633789062e+00,2.777612209320068359e+00,2.714332818984985352e+00,2.653872489929199219e+00,2.596046686172485352e+00,2.540687322616577148e+00,2.487639904022216797e+00
4.893914699554443359e+00,5.000000000000000000e+00,5.000000000000000000e+00,5.000000000000000000e+00,5.000000000000000000e+00,5.000000000000000000e+00,5.000000000000000000e+00,5.000000000000000000e+00,5.000000000000000000e+00,5.000000000000000000e+00,5.000000000000000000e+00,5.000000000000000000e+00,5.000000000000000000e+00,5.000000000000000000e+00,5.000000000000000000e+00,5.000000000000000000e+00,5.000000000000000000e+00,5.000000000000000000e+00,5.000000000000000000e+00,5.000000000000000000e+00,5.000000000000000000e+00,5.000000000000000000e+00,5.000000000000000000e+00,5.000000000000000000e+00,5.000000000000000000e+00,5.000000000000000000e+00,5.000000000000000000e+00,5.000000000000000000e+00,5.000000000000000000e+00,5.000000000000000000e+00,5.000000000000000000e+00,5.000000000000000000e+00,5.000000000000000000e+00,5.000000000000000000e+00,5.000000000000000000e+00,5.000000000000000000e+00,5.000000000000000000e+00,5.000000000000000000e+00,5.000000000000000000e+00,5.000000000000000000e+00,5.000000000000000000e+00,5.000000000000000000e+00,3.652462244033813477e+00,5.000000000000000000e+00,3.450202226638793945e+00,3.449027299880981445e+00,3.448270320892333984e+00,3.442923784255981445e+00,3.431869745254516602e+00,5.000000000000000000e+00,5.000000000000000000e+00,5.000000000000000000e+00,5.000000000000000000e+00,5.000000000000000000e+00,5.000000000000000000e+00,4.986401081085205078e+00,4.786096096038818359e+00,4.601262092590332031e+00,4.430173873901367188e+00,4.271351814270019531e+00,4.123523712158203125e+00,3.985585689544677734e+00,3.856577634811401367e+00,3.735659360885620117e+00,3.622092723846435547e+00,3.515227556228637695e+00,3.414487600326538086e+00,3.319360494613647461e+00,3.229390382766723633e+00,3.144168853759765625e+00,3.063329696655273438e+00,2.986542701721191406e+00,2.913511514663696289e+00,2.843966960906982422e+00,2.777664184570312500e+00,2.714382648468017578e+00,2.653920173645019531e+00,2.596092462539672852e+00,2.540731191635131836e+00,2.487681627273559570e+00
4.893763065338134766e+00,5.000000000000000000e+00,5.000000000000000000e+00,5.000000000000000000e+00,5.000000000000000000e+00,5.000000000000000000e+00,5.000000000000000000e+00,5.000000000000000000e+00,5.000000000000000000e+00,5.000000000000000000e+00,5.000000000000000000e+00,5.000000000000000000e+00,5.000000000000000000e+00,5.000000000000000000e+00,5.000000000000000000e+00,5.000000000000000000e+00,5.000000000000000000e+00,5.000000000000000000e+00,5.000000000000000000e+00,5.000000000000000000e+00,5.000000000000000000e+00,5.000000000000000000e+00,5.000000000000000000e+00,5.000000000000000000e+00,5.000000000000000000e+00,5.000000000000000000e+00,5.000000000000000000e+00,5.000000000000000000e+00,5.000000000000000000e+00,5.000000000000000000e+00,5.000000000000000000e+00,5.000000000000000000e+00,5.000000000000000000e+00,5.000000000000000000e+00,5.000000000000000000e+00,5.000000000000000000e+00,5.000000000000000000e+00,5.000000000000000000e+00,5.000000000000000000e+00,5.000000000000000000e+00,5.000000000000000000e+00,5.000000000000000000e+00,3.728023290634155273e+00,5.000000000000000000e+00,3.464122056961059570e+00,3.466271877288818359e+00,3.478099822998046875e+00,3.463584184646606445e+00,3.446983098983764648e+00,3.453291893005371094e+00,5.000000000000000000e+00,5.000000000000000000e+00,5.000000000000000000e+00,5.000000000000000000e+00,5.000000000000000000e+00,4.986557006835937500e+00,4.786239624023437500e+00,4.601394653320312500e+00,4.430296421051025391e+00,4.271466255187988281e+00,4.123630523681640625e+00,3.985685586929321289e+00,3.856670856475830078e+00,3.735746622085571289e+00,3.622175216674804688e+00,3.515304803848266602e+00,3.414560556411743164e+00,3.319429874420166016e+00,3.229455947875976562e+00,3.144230842590332031e+00,3.063388347625732422e+00,2.986598730087280273e+00,2.913564682006835938e+00,2.844017505645751953e+00,2.777713060379028320e+00,2.714429855346679688e+00,2.653965711593627930e+00,2.596136569976806641e+00,2.540774106979370117e+00,2.487723588943481445e+00
4.893611431121826172e+00,5.000000000000000000e+00,5.000000000000000000e+00,5.000000000000000000e+00,5.000000000000000000e+00,5.000000000000000000e+00,5.000000000000000000e+00,5.000000000000000000e+00,5.000000000000000000e+00,5.000000000000000000e+00,5.000000000000000000e+00,5.000000000000000000e+00,5.000000000000000000e+00,5.000000000000000000e+00,5.000000000000000000e+00,5.000000000000000000e+00,5.000000000000000000e+00,5.000000000000000000e+00,5.000000000000000000e+00,5.000000000000000000e+00,5.000000000000000000e+00,5.000000000000000000e+00,5.000000000000000000e+00,5.000000000000000000e+00,5.000000000000000000e+00,5.000000000000000000e+00,5.000000000000000000e+00,5.000000000000000000e+00,5.000000000000000000e+00,5.000000000000000000e+00,5.000000000000000000e+00,5.000000000000000000e+00,5.000000000000000000e+00,5.000000000000000000e+00,5.000000000000000000e+00,5.000000000000000000e+00,5.000000000000000000e+00,5.000000000000000000e+00,5.000000000000000000e+00,5.000000000000000000e+00,5.000000000000000000e+00,3.744657278060913086e+00,5.000000000000000000e+00,5.000000000000000000e+00,3.478187084197998047e+00,3.483776807785034180e+00,3.548371791839599609e+00,3.517395257949829102e+00,3.547089576721191406e+00,3.458107709884643555e+00,5.000000000000000000e+00,5.000000000000000000e+00,5.000000000000000000e+00,5.000000000000000000e+00,5.000000000000000000e+00,4.986712932586669922e+00,4.786383152008056641e+00,4.601527214050292969e+00,4.430419445037841797e+00,4.271580696105957031e+00,4.123736858367919922e+00,3.985785007476806641e+00,3.856764316558837891e+00,3.735834121704101562e+00,3.622257232666015625e+00,3.515382528305053711e+00,3.414633512496948242e+00,3.319498777389526367e+00,3.229521274566650391e+00,3.144292831420898438e+00,3.063447237014770508e+00,2.986654758453369141e+00,2.913618087768554688e+00,2.844068050384521484e+00,2.777761459350585938e+00,2.714475870132446289e+00,2.654009819030761719e+00,2.596178770065307617e+00,2.540814399719238281e+00,2.487761974334716797e+00
4.893459796905517578e+00,5.000000000000000000e+00,5.000000000000000000e+00,5.000000000000000000e+00,5.000000000000000000e+00,5.000000000000000000e+00,5.000000000000000000e+00,5.000000000000000000e+00,5.000000000000000000e+00,5.000000000000000000e+00,5.000000000000000000e+00,5.000000000000000000e+00,5.000000000000000000e+00,5.000000000000000000e+00,5.000000000000000000e+00,5.000000000000000000e+00,5.000000000000000000e+00,5.000000000000000000e+00,5.000000000000000000e+00,5.000000000000000000e+00,5.000000000000000000e+00,5.000000000000000000e+00,5.000000000000000000e+00,5.000000000000000000e+00,5.000000000000000000e+00,5.000000000000000000e+00,5.000000000000000000e+00,5.000000000000000000e+00,5.000000000000000000e+00,5.000000000000000000e+00,5.000000000000000000e+00,5.000000000000000000e+00,5.000000000000000000e+00,5.000000000000000000e+00,5.000000000000000000e+00,5.000000000000000000e+00,5.000000000000000000e+00,5.000000000000000000e+00,5.000000000000000000e+00,5.000000000000000000e+00,5.000000000000000000e+00,3.774674177169799805e+00,3.847440481185913086e+00,5.000000000000000000e+00,3.473317384719848633e+00,3.476784229278564453e+00,3.599434137344360352e+00,3.564038753509521484e+00,3.584485769271850586e+00,3.440501928329467773e+00,5.000000000000000000e+00,5.000000000000000000e+00,5.000000000000000000e+00,5.000000000000000000e+00,5.000000000000000000e+00,4.986868381500244141e+00,4.786527156829833984e+00,4.601660251617431641e+00,4.430542945861816406e+00,4.271695137023925781e+00,4.123843669891357422e+00,3.985884428024291992e+00,3.856857299804687500e+00,3.735921859741210938e+00,3.622339487075805664e+00,3.515460014343261719e+00,3.414706707000732422e+00,3.319567918777465820e+00,3.229586601257324219e+00,3.144354820251464844e+00,3.063506126403808594e+00,2.986710548400878906e+00,2.913671255111694336e+00,2.844119071960449219e+00,2.777809858322143555e+00,2.714522123336791992e+00,2.654053926467895508e+00,2.596221208572387695e+00,2.540854692459106445e+00,2.487800836563110352e+00
4.893308162689208984e+00,5.000000000000000000e+00,5.000000000000000000e+00,5.000000000000000000e+00,5.000000000000000000e+00,5.000000000000000000e+00,5.000000000000000000e+00,5.000000000000000000e+00,5.000000000000000000e+00,5.000000000000000000e+00,5.000000000000000000e+00,5.000000000000000000e+00,5.000000000000000000e+00,5.000000000000000000e+00,5.000000000000000000e+00,5.000000000000000000e+00,5.000000000000000000e+00,5.000000000000000000e+00,5.000000000000000000e+00,5.000000000000000000e+00,5.000000000000000000e+00,5.000000000000000000e+00,5.000000000000000000e+00,5.000000000000000000e+00,5.000000000000000000e+00,5.000000000000000000e+00,5.000000000000000000e+00,5.000000000000000000e+00,5.000000000000000000e+00,5.000000000000000000e+00,5.000000000000000000e+00,5.000000000000000000e+00,5.000000000000000000e+00,5.000000000000000000e+00,5.000000000000000000e+00,5.000000000000000000e+00,5.000000000000000000e+00,5.000000000000000000e+00,5.000000000000000000e+00,5.000000000000000000e+00,5.000000000000000000e+00,5.000000000000000000e+00,5.000000000000000000e+00,5.000000000000000000e+00,3.469826459884643555e+00,3.468411684036254883e+00,3.628986835479736328e+00,3.595305204391479492e+00,5.000000000000000000e+00,3.442676544189453125e+00,5.000000000000000000e+00,5.000000000000000000e+00,5.000000000000000000e+00,5.000000000000000000e+00,5.000000000000000000e+00,4.987024784088134766e+00,4.786670684814453125e+00,4.601792812347412109e+00,4.430665493011474609e+00,4.271809577941894531e+00,4.123950004577636719e+00,3.985984563827514648e+00,3.856950521469116211e+00,3.736009120941162109e+00,3.622421979904174805e+00,3.515537261962890625e+00,3.414779663085937500e+00,3.319637060165405273e+00,3.229652166366577148e+00,3.144416570663452148e+00,3.063565015792846680e+00,2.986766576766967773e+00,2.913724422454833984e+00,2.844169616699218750e+00,2.777858257293701172e+00,2.714568376541137695e+00,2.654098033905029297e+00,2.596263408660888672e+00,2.540895462036132812e+00,2.487839698791503906e+00
4.893156528472900391e+00,5.000000000000000000e+00,5.000000000000000000e+00,5.000000000000000000e+00,5.000000000000000000e+00,5.000000000000000000e+00,5.000000000000000000e+00,5.000000000000000000e+00,5.000000000000000000e+00,5.000000000000000000e+00,5.000000000000000000e+00,5.000000000000000000e+00,5.000000000000000000e+00,5.000000000000000000e+00,5.000000000000000000e+00,5.000000000000000000e+00,5.000000000000000000e+00,5.000000000000000000e+00,5.000000000000000000e+00,5.000000000000000000e+00,5.000000000000000000e+00,5.000000000000000000e+00,5.000000000000000000e+00,5.000000000000000000e+00,5.000000000000000000e+00,5.000000000000000000e+00,5.000000000000000000e+00,5.000000000000000000e+00,5.000000000000000000e+00,5.000000000000000000e+00,5.000000000000000000e+00,5.000000000000000000e+00,5.000000000000000000e+00,5.000000000000000000e+00,5.000000000000000000e+00,5.000000000000000000e+00,5.000000000000000000e+00,5.000000000000000000e+00,5.000000000000000000e+00,5.000000000000000000e+00,5.000000000000000000e+00,5.000000000000000000e+00,5.000000000000000000e+00,5.000000000000000000e+00,3.466475963592529297e+00,3.462694168090820312e+00,3.660637617111206055e+00,3.628123998641967773e+00,5.000000000000000000e+00,5.000000000000000000e+00,5.000000000000000000e+00,5.000000000000000000e+00,5.000000000000000000e+00,5.000000000000000000e+00,5.000000000000000000e+00,4.987180709838867188e+00,4.786814212799072266e+00,4.601925849914550781e+00,4.430788993835449219e+00,4.271924018859863281e+00,4.124056816101074219e+00,3.986083984375000000e+00,3.857043981552124023e+00,3.736096620559692383e+00,3.622503995895385742e+00,3.515614986419677734e+00,3.414853096008300781e+00,3.319705963134765625e+00,3.229717493057250977e+00,3.144478797912597656e+00,3.063623666763305664e+00,2.986822366714477539e+00,2.913777828216552734e+00,2.844220399856567383e+00,2.777906417846679688e+00,2.714614391326904297e+00,2.654142379760742188e+00,2.596305608749389648e+00,2.540935754776000977e+00,2.487878322601318359e+00
4.893004894256591797e+00,5.000000000000000000e+00,5.000000000000000000e+00,5.000000000000000000e+00,5.000000000000000000e+00,5.000000000000000000e+00,5.000000000000000000e+00,5.000000000000000000e+00,5.000000000000000000e+00,5.000000000000000000e+00,5.000000000000000000e+00,5.000000000000000000e+00,5.000000000000000000e+00,5.000000000000000000e+00,5.000000000000000000e+00,5.000000000000000000e+00,5.000000000000000000e+00,5.000000000000000000e+00,5.000000000000000000e+00,5.000000000000000000e+00,5.000000000000000000e+00,5.000000000000000000e+00,5.000000000000000000e+00,5.000000000000000000e+00,5.000000000000000000e+00,5.000000000000000000e+00,5.000000000000000000e+00,5.000000000000000000e+00,5.000000000000000000e+00,5.000000000000000000e+00,5.000000000000000000e+00,5.000000000000000000e+00,5.000000000000000000e+00,5.000000000000000000e+00,5.000000000000000000e+00,5.000000000000000000e+00,5.000000000000000000e+00,5.000000000000000000e+00,5.000000000000000000e+00,5.000000000000000000e+00,5.000000000000000000e+00,5.000000000000000000e+00,5.000000000000000000e+00,5.000000000000000000e+00,3.432719945907592773e+00,3.448492050170898438e+00,3.718297719955444336e+00,3.659679651260375977e+00,5.000000000000000000e+00,5.000000000000000000e+00,5.000000000000000000e+00,5.000000000000000000e+00,5.000000000000000000e+00,5.000000000000000000e+00,5.000000000000000000e+00,4.987336158752441406e+00,4.786957740783691406e+00,4.602058410644531250e+00,4.430912017822265625e+00,4.272038459777832031e+00,4.124163627624511719e+00,3.986183404922485352e+00,3.857137203216552734e+00,3.736184358596801758e+00,3.622586250305175781e+00,3.515692234039306641e+00,3.414926052093505859e+00,3.319775342941284180e+00,3.229782819747924805e+00,3.144540786743164062e+00,3.063682556152343750e+00,2.986878156661987305e+00,2.913830995559692383e+00,2.844271183013916016e+00,2.777955055236816406e+00,2.714660644531250000e+00,2.654186487197875977e+00,2.596347808837890625e+00,2.540976285934448242e+00,2.487917184829711914e+00
4.892872333526611328e+00,5.000000000000000000e+00,5.000000000000000000e+00,5.000000000000000000e+00,5.000000000000000000e+00,5.000000000000000000e+00,5.000000000000000000e+00,5.000000000000000000e+00,5.000000000000000000e+00,5.000000000000000000e+00,5.000000000000000000e+00,5.000000000000000000e+00,5.000000000000000000e+00,5.000000000000000000e+00,5.000000000000000000e+00,5.000000000000000000e+00,5.000000000000000000e+00,5.000000000000000000e+00,5.000000000000000000e+00,5.000000000000000000e+00,5.000000000000000000e+00,5.000000000000000000e+00,5.000000000000000000e+00,5.000000000000000000e+00,5.000000000000000000e+00,5.000000000000000000e+00,5.000000000000000000e+00,5.000000000000000000e+00,5.000000000000000000e+00,5.000000000000000000e+00,5.000000000000000000e+00,5.000000000000000000e+00,5.000000000000000000e+00,5.000000000000000000e+00,5.000000000000000000e+00,5.000000000000000000e+00,5.000000000000000000e+00,5.000000000000000000e+00,5.000000000000000000e+00,5.000000000000000000e+00,5.000000000000000000e+00,5.000000000000000000e+00,5.000000000000000000e+00,5.000000000000000000e+00,3.338602066040039062e+00,3.368843555450439453e+00,3.692786455154418945e+00,3.653191566467285156e+00,5.000000000000000000e+00,5.000000000000000000e+00,5.000000000000000000e+00,5.000000000000000000e+00,5.000000000000000000e+00,5.000000000000000000e+00,5.000000000000000000e+00,4.987492561340332031e+00,4.787101745605468750e+00,4.602191448211669922e+00,4.431035041809082031e+00,4.272152900695800781e+00,4.124269962310791016e+00,3.986283302307128906e+00,3.857230186462402344e+00,3.736271619796752930e+00,3.622668743133544922e+00,3.515769958496093750e+00,3.414999008178710938e+00,3.319844245910644531e+00,3.229848384857177734e+00,3.144602537155151367e+00,3.063741445541381836e+00,2.986934423446655273e+00,2.913884401321411133e+00,2.844321727752685547e+00,2.778003454208374023e+00,2.714706897735595703e+00,2.654230594635009766e+00,2.596390008926391602e+00,2.541016817092895508e+00,2.487956047058105469e+00
4.892745018005371094e+00,5.000000000000000000e+00,5.000000000000000000e+00,5.000000000000000000e+00,5.000000000000000000e+00,5.000000000000000000e+00,5.000000000000000000e+00,5.000000000000000000e+00,5.000000000000000000e+00,5.000000000000000000e+00,5.000000000000000000e+00,5.000000000000000000e+00,5.000000000000000000e+00,5.000000000000000000e+00,5.000000000000000000e+00,5.000000000000000000e+00,5.000000000000000000e+00,5.000000000000000000e+00,5.000000000000000000e+00,5.000000000000000000e+00,5.000000000000000000e+00,5.000000000000000000e+00,5.000000000000000000e+00,5.000000000000000000e+00,5.000000000000000000e+00,5.000000000000000000e+00,5.000000000000000000e+00,5.000000000000000000e+00,5.000000000000000000e+00,5.000000000000000000e+00,5.000000000000000000e+00,5.000000000000000000e+00,5.000000000000000000e+00,5.000000000000000000e+00,5.000000000000000000e+00,5.000000000000000000e+00,5.000000000000000000e+00,5.000000000000000000e+00,5.000000000000000000e+00,5.000000000000000000e+00,5.000000000000000000e+00,5.000000000000000000e+00,5.000000000000000000e+00,5.000000000000000000e+00,3.281856298446655273e+00,3.331681728363037109e+00,3.663983106613159180e+00,3.642485141754150391e+00,5.000000000000000000e+00,5.000000000000000000e+00,5.000000000000000000e+00,5.000000000000000000e+00,5.000000000000000000e+00,5.000000000000000000e+00,5.000000000000000000e+00,4.987648487091064453e+00,4.787245273590087891e+00,4.602324008941650391e+00,4.431158065795898438e+00,4.272267341613769531e+00,4.124376773834228516e+00,3.986382722854614258e+00,3.857323884963989258e+00,3.736359119415283203e+00,3.622750759124755859e+00,3.515847444534301758e+00,3.415072441101074219e+00,3.319913148880004883e+00,3.229913473129272461e+00,3.144664764404296875e+00,3.063800096511840820e+00,2.986990213394165039e+00,2.913937330245971680e+00,2.844372510910034180e+00,2.778051614761352539e+00,2.714753150939941406e+00,2.654274940490722656e+00,2.596432209014892578e+00,2.541057109832763672e+00,2.487994909286499023e+00
4.892618179321289062e+00,5.000000000000000000e+00,5.000000000000000000e+00,5.000000000000000000e+00,5.000000000000000000e+00,5.000000000000000000e+00,5.000000000000000000e+00,5.000000000000000000e+00,5.000000000000000000e+00,5.000000000000000000e+00,5.000000000000000000e+00,5.000000000000000000e+00,5.000000000000000000e+00,5.000000000000000000e+00,5.000000000000000000e+00,5.000000000000000000e+00,5.000000000000000000e+00,5.000000000000000000e+00,5.000000000000000000e+00,5.000000000000000000e+00,5.000000000000000000e+00,5.000000000000000000e+00,5.000000000000000000e+00,5.000000000000000000e+00,5.000000000000000000e+00,5.000000000000000000e+00,5.000000000000000000e+00,5.000000000000000000e+00,5.000000000000000000e+00,5.000000000000000000e+00,5.000000000000000000e+00,5.000000000000000000e+00,5.000000000000000000e+00,5.000000000000000000e+00,5.000000000000000000e+00,5.000000000000000000e+00,5.000000000000000000e+00,5.000000000000000000e+00,5.000000000000000000e+00,5.000000000000000000e+00,5.000000000000000000e+00,5.000000000000000000e+00,5.000000000000000000e+00,5.000000000000000000e+00,3.235551834106445312e+00,3.295948266983032227e+00,3.665059804916381836e+00,3.646436452865600586e+00,5.000000000000000000e+00,5.000000000000000000e+00,5.000000000000000000e+00,5.000000000000000000e+00,5.000000000000000000e+00,5.000000000000000000e+00,5.000000000000000000e+00,4.987804412841796875e+00,4.787388801574707031e+00,4.602456569671630859e+00,4.431281089782714844e+00,4.272381782531738281e+00,4.124483585357666016e+00,3.986482143402099609e+00,3.857416868209838867e+00,3.736446857452392578e+00,3.622833251953125000e+00,3.515924692153930664e+00,3.415145397186279297e+00,3.319982528686523438e+00,3.229978799819946289e+00,3.144726753234863281e+00,3.063859224319458008e+00,2.987046241760253906e+00,2.913990497589111328e+00,2.844423294067382812e+00,2.778100252151489258e+00,2.714799165725708008e+00,2.654319047927856445e+00,2.596474647521972656e+00,2.541097879409790039e+00,2.488033533096313477e+00
4.892490863800048828e+00,5.000000000000000000e+00,5.000000000000000000e+00,5.000000000000000000e+00,5.000000000000000000e+00,5.000000000000000000e+00,5.000000000000000000e+00,5.000000000000000000e+00,5.000000000000000000e+00,5.000000000000000000e+00,5.000000000000000000e+00,5.000000000000000000e+00,5.000000000000000000e+00,5.000000000000000000e+00,5.000000000000000000e+00,5.000000000000000000e+00,5.000000000000000000e+00,5.000000000000000000e+00,5.000000000000000000e+00,5.000000000000000000e+00,5.000000000000000000e+00,5.000000000000000000e+00,5.000000000000000000e+00,5.000000000000000000e+00,5.000000000000000000e+00,5.000000000000000000e+00,5.000000000000000000e+00,5.000000000000000000e+00,5.000000000000000000e+00,5.000000000000000000e+00,5.000000000000000000e+00,5.000000000000000000e+00,5.000000000000000000e+00,5.000000000000000000e+00,5.000000000000000000e+00,5.000000000000000000e+00,5.000000000000000000e+00,5.000000000000000000e+00,5.000000000000000000e+00,5.000000000000000000e+00,5.000000000000000000e+00,5.000000000000000000e+00,5.000000000000000000e+00,5.000000000000000000e+00,3.193257808685302734e+00,5.000000000000000000e+00,3.667404174804687500e+00,3.650283575057983398e+00,5.000000000000000000e+00,5.000000000000000000e+00,5.000000000000000000e+00,5.000000000000000000e+00,5.000000000000000000e+00,5.000000000000000000e+00,5.000000000000000000e+00,4.987960338592529297e+00,4.787532806396484375e+00,4.602589607238769531e+00,4.431404590606689453e+00,4.272496223449707031e+00,4.124589920043945312e+00,3.986582040786743164e+00,3.857510089874267578e+00,3.736534118652343750e+00,3.622915506362915039e+00,3.516002416610717773e+00,3.415218353271484375e+00,3.320051431655883789e+00,3.230044603347778320e+00,3.144788503646850586e+00,3.063917875289916992e+00,2.987102270126342773e+00,2.914043903350830078e+00,2.844473838806152344e+00,2.778148412704467773e+00,2.714845657348632812e+00,2.654362916946411133e+00,2.596516847610473633e+00,2.541138172149658203e+00,2.488072395324707031e+00
4.892363548278808594e+00,5.000000000000000000e+00,5.000000000000000000e+00,5.000000000000000000e+00,5.000000000000000000e+00,5.000000000000000000e+00,5.000000000000000000e+00,5.000000000000000000e+00,5.000000000000000000e+00,5.000000000000000000e+00,5.000000000000000000e+00,5.000000000000000000e+00,5.000000000000000000e+00,5.000000000000000000e+00,5.000000000000000000e+00,5.000000000000000000e+00,5.000000000000000000e+00,5.000000000000000000e+00,5.000000000000000000e+00,5.000000000000000000e+00,5.000000000000000000e+00,5.000000000000000000e+00,5.000000000000000000e+00,5.000000000000000000e+00,5.000000000000000000e+00,5.000000000000000000e+00,5.000000000000000000e+00,5.000000000000000000e+00,5.000000000000000000e+00,5.000000000000000000e+00,5.000000000000000000e+00,5.000000000000000000e+00,5.000000000000000000e+00,5.000000000000000000e+00,5.000000000000000000e+00,5.000000000000000000e+00,5.000000000000000000e+00,5.000000000000000000e+00,5.000000000000000000e+00,5.000000000000000000e+00,5.000000000000000000e+00,5.000000000000000000e+00,5.000000000000000000e+00,5.000000000000000000e+00,3.143310546875000000e+00,5.000000000000000000e+00,3.671694278717041016e+00,3.656714677810668945e+00,5.000000000000000000e+00,5.000000000000000000e+00,5.000000000000000000e+00,5.000000000000000000e+00,5.000000000000000000e+00,5.000000000000000000e+00,5.000000000000000000e+00,4.988116264343261719e+00,4.787676334381103516e+00,4.602722644805908203e+00,4.431527137756347656e+00,4.272610664367675781e+00,4.124696731567382812e+00,3.986681461334228516e+00,3.857603549957275391e+00,3.736621618270874023e+00,3.622997760772705078e+00,3.516079902648925781e+00,3.415291786193847656e+00,3.320120573043823242e+00,3.230109691619873047e+00,3.144850730895996094e+00,3.063977003097534180e+00,2.987158060073852539e+00,2.914097070693969727e+00,2.844524621963500977e+00,2.778196811676025391e+00,2.714891672134399414e+00,2.654407262802124023e+00,2.596559286117553711e+00,2.541178703308105469e+00,2.488111257553100586e+00
4.892316818237304688e+00,5.000000000000000000e+00,5.000000000000000000e+00,5.000000000000000000e+00,5.000000000000000000e+00,5.000000000000000000e+00,5.000000000000000000e+00,5.000000000000000000e+00,5.000000000000000000e+00,5.000000000000000000e+00,5.000000000000000000e+00,5.000000000000000000e+00,5.000000000000000000e+00,5.000000000000000000e+00,5.000000000000000000e+00,5.000000000000000000e+00,5.000000000000000000e+00,5.000000000000000000e+00,5.000000000000000000e+00,5.000000000000000000e+00,5.000000000000000000e+00,5.000000000000000000e+00,5.000000000000000000e+00,5.000000000000000000e+00,5.000000000000000000e+00,5.000000000000000000e+00,5.000000000000000000e+00,5.000000000000000000e+00,5.000000000000000000e+00,5.000000000000000000e+00,5.000000000000000000e+00,5.000000000000000000e+00,5.000000000000000000e+00,5.000000000000000000e+00,5.000000000000000000e+00,5.000000000000000000e+00,5.000000000000000000e+00,5.000000000000000000e+00,5.000000000000000000e+00,5.000000000000000000e+00,5.000000000000000000e+00,5.000000000000000000e+00,5.000000000000000000e+00,5.000000000000000000e+00,3.125177860260009766e+00,5.000000000000000000e+00,3.680552721023559570e+00,3.680434465408325195e+00,5.000000000000000000e+00,5.000000000000000000e+00,5.000000000000000000e+00,5.000000000000000000e+00,5.000000000000000000e+00,5.000000000000000000e+00,5.000000000000000000e+00,4.988272190093994141e+00,4.787819862365722656e+00,4.602855205535888672e+00,4.431650638580322266e+00,4.272724628448486328e+00,4.124803543090820312e+00,3.986781120300292969e+00,3.857696771621704102e+00,3.736709356307983398e+00,3.623080253601074219e+00,3.516157388687133789e+00,3.415364742279052734e+00,3.320189714431762695e+00,3.230175018310546875e+00,3.144912719726562500e+00,3.064035654067993164e+00,2.987214088439941406e+00,2.914150238037109375e+00,2.844575405120849609e+00,2.778245210647583008e+00,2.714937925338745117e+00,2.654451370239257812e+00,2.596601486206054688e+00,2.541219234466552734e+00,2.488149881362915039e+00
4.872837066650390625e+00,4.871621608734130859e+00,4.870406627655029297e+00,4.869192123413085938e+00,4.867978572845458984e+00,4.866765499114990234e+00,4.865553379058837891e+00,4.864341735839843750e+00,4.863130092620849609e+00,4.861919879913330078e+00,4.860709667205810547e+00,4.859500408172607422e+00,4.858291625976562500e+00,4.857083320617675781e+00,4.855875968933105469e+00,4.854669094085693359e+00,4.853462696075439453e+00,4.852257251739501953e+00,4.851051807403564453e+00,4.849847316741943359e+00,4.848643302917480469e+00,4.847440242767333984e+00,4.846237182617187500e+00,4.845035076141357422e+00,4.843833446502685547e+00,4.842632293701171875e+00,4.841432094573974609e+00,4.840232372283935547e+00,4.839033126831054688e+00,4.837834358215332031e+00,4.836636066436767578e+00,4.835438728332519531e+00,4.834241867065429688e+00,4.833045482635498047e+00,4.831850528717041016e+00,4.830655097961425781e+00,4.829460620880126953e+00,4.828267097473144531e+00,4.827073574066162109e+00,4.825881004333496094e+00,4.824688911437988281e+00,4.823497295379638672e+00,4.822306632995605469e+00,4.821115970611572266e+00,3.179979085922241211e+00,3.197672128677368164e+00,3.671494245529174805e+00,4.816360473632812500e+00,4.815173149108886719e+00,4.813986301422119141e+00,4.812799930572509766e+00,4.811614036560058594e+00,4.810429573059082031e+00,4.809245109558105469e+00,4.808061122894287109e+00,4.806877613067626953e+00,4.787963867187500000e+00,4.602988243103027344e+00,4.431773662567138672e+00,4.272839546203613281e+00,4.124910354614257812e+00,3.986881017684936523e+00,3.857789993286132812e+00,3.736796855926513672e+00,3.623162269592285156e+00,3.516235113143920898e+00,3.415437698364257812e+00,3.320258855819702148e+00,3.230240583419799805e+00,3.144974946975708008e+00,3.064094543457031250e+00,2.987269878387451172e+00,2.914203643798828125e+00,2.844625949859619141e+00,2.778293609619140625e+00,2.714984178543090820e+00,2.654495716094970703e+00,2.596643686294555664e+00,2.541259765625000000e+00,2.488188982009887695e+00
3.776834011077880859e+00,3.776103734970092773e+00,3.775374174118041992e+00,3.774644613265991211e+00,3.773915290832519531e+00,3.773186206817626953e+00,3.772457361221313477e+00,3.771728754043579102e+00,3.771000623703002930e+00,3.770272731781005859e+00,3.769545078277587891e+00,3.768817663192749023e+00,3.768090486526489258e+00,3.767363786697387695e+00,3.766637086868286133e+00,3.765910863876342773e+00,3.765184879302978516e+00,3.764459133148193359e+00,3.763733625411987305e+00,3.763008594512939453e+00,3.762283802032470703e+00,3.761559247970581055e+00,3.760834932327270508e+00,3.760110855102539062e+00,3.759387016296386719e+00,3.758663654327392578e+00,3.757940292358398438e+00,3.757217407226562500e+00,3.756494760513305664e+00,3.755772590637207031e+00,3.755050420761108398e+00,3.754328489303588867e+00,3.753607034683227539e+00,3.752885818481445312e+00,3.752164840698242188e+00,3.751444101333618164e+00,3.750723600387573242e+00,3.750003576278686523e+00,3.749283552169799805e+00,3.748564481735229492e+00,3.747845172882080078e+00,3.747126102447509766e+00,3.746407270431518555e+00,3.745688915252685547e+00,3.226624727249145508e+00,3.210875988006591797e+00,3.743535041809082031e+00,3.742817640304565430e+00,3.742100477218627930e+00,3.741383790969848633e+00,3.740667104721069336e+00,3.739950895309448242e+00,3.739234924316406250e+00,3.738519191741943359e+00,3.737803697586059570e+00,3.737088441848754883e+00,3.736373662948608398e+00,3.735658884048461914e+00,3.734944581985473633e+00,3.734230518341064453e+00,3.733516693115234375e+00,3.732803106307983398e+00,3.732089757919311523e+00,3.731376886367797852e+00,3.623244524002075195e+00,3.516312360763549805e+00,3.415511131286621094e+00,3.320327758789062500e+00,3.230305910110473633e+00,3.145036697387695312e+00,3.064153432846069336e+00,2.987325906753540039e+00,2.914256811141967773e+00,2.844676971435546875e+00,2.778342008590698242e+00,2.715030193328857422e+00,2.654539823532104492e+00,2.596686124801635742e+00,2.541300058364868164e+00,2.488227605819702148e+00
3.083329200744628906e+00,3.082842588424682617e+00,3.082355976104736328e+00,3.081869602203369141e+00,3.081383466720581055e+00,3.080897331237792969e+00,3.080411434173583984e+00,3.079925775527954102e+00,3.079440116882324219e+00,3.078954696655273438e+00,3.078469276428222656e+00,3.077984094619750977e+00,3.077499151229858398e+00,3.077014446258544922e+00,3.076529741287231445e+00,3.076045036315917969e+00,3.075560808181762695e+00,3.075076580047607422e+00,3.074592351913452148e+00,3.074108600616455078e+00,3.073624610900878906e+00,3.073141098022460938e+00,3.072657585144042969e+00,3.072174310684204102e+00,3.071691036224365234e+00,3.071208477020263672e+00,3.070725440979003906e+00,3.070242881774902344e+00,3.069760322570800781e+00,3.069277763366699219e+00,3.068795680999755859e+00,3.068313360214233398e+00,3.067831516265869141e+00,3.067349672317504883e+00,3.066868066787719727e+00,3.066386699676513672e+00,3.065905332565307617e+00,3.065424203872680664e+00,3.064943075180053711e+00,3.064462184906005859e+00,3.063981533050537109e+00,3.063500881195068359e+00,3.063020467758178711e+00,3.062540054321289062e+00,3.062059879302978516e+00,3.061579942703247070e+00,3.061100244522094727e+00,3.060620546340942383e+00,3.060140848159790039e+00,3.059661388397216797e+00,3.059182167053222656e+00,3.058703184127807617e+00,3.058224201202392578e+00,3.057745456695556641e+00,3.057266712188720703e+00,3.056788206100463867e+00,3.056309938430786133e+00,3.055831670761108398e+00,3.055353641510009766e+00,3.054875850677490234e+00,3.054398059844970703e+00,3.053920745849609375e+00,3.053443193435668945e+00,3.052966117858886719e+00,3.052488803863525391e+00,3.052011966705322266e+00,3.051535129547119141e+00,3.051058292388916016e+00,3.050581693649291992e+00,3.050105333328247070e+00,3.049629211425781250e+00,2.987381935119628906e+00,2.914309978485107422e+00,2.844727516174316406e+00,2.778390407562255859e+00,2.715076684951782227e+00,2.654583930969238281e+00,2.596728324890136719e+00,2.541340589523315430e+00,2.488266468048095703e+00
2.604997634887695312e+00,2.604650259017944336e+00,2.604302883148193359e+00,2.603955745697021484e+00,2.603608608245849609e+00,2.603261470794677734e+00,2.602914571762084961e+00,2.602567672729492188e+00,2.602221012115478516e+00,2.601874351501464844e+00,2.601527690887451172e+00,2.601181507110595703e+00,2.600835084915161133e+00,2.600488901138305664e+00,2.600142717361450195e+00,2.599796533584594727e+00,2.599450588226318359e+00,2.599104642868041992e+00,2.598758697509765625e+00,2.598412990570068359e+00,2.598067283630371094e+00,2.597721815109252930e+00,2.597376346588134766e+00,2.597030878067016602e+00,2.596685647964477539e+00,2.596340417861938477e+00,2.595995426177978516e+00,2.595650434494018555e+00,2.595305442810058594e+00,2.594960689544677734e+00,2.594615936279296875e+00,2.594271183013916016e+00,2.593926668167114258e+00,2.593582153320312500e+00,2.593237876892089844e+00,2.592893600463867188e+00,2.592549324035644531e+00,2.592205286026000977e+00,2.591861248016357422e+00,2.591517448425292969e+00,2.591173648834228516e+00,2.590829849243164062e+00,2.590486288070678711e+00,2.590142726898193359e+00,2.589799404144287109e+00,2.589455842971801758e+00,2.589112758636474609e+00,2.588769435882568359e+00,2.588426589965820312e+00,2.588083505630493164e+00,2.587740659713745117e+00,2.587397813796997070e+00,2.587055206298828125e+00,2.586712598800659180e+00,2.586369991302490234e+00,2.586027622222900391e+00,2.585685253143310547e+00,2.585342884063720703e+00,2.585000753402709961e+00,2.584658622741699219e+00,2.584316730499267578e+00,2.583974838256835938e+00,2.583632946014404297e+00,2.583291292190551758e+00,2.582949638366699219e+00,2.582608222961425781e+00,2.582266569137573242e+00,2.581925392150878906e+00,2.581583976745605469e+00,2.581242799758911133e+00,2.580901622772216797e+00,2.580560684204101562e+00,2.580219745635986328e+00,2.579879045486450195e+00,2.579538345336914062e+00,2.579197645187377930e+00,2.578856945037841797e+00,2.578516483306884766e+00,2.541381120681762695e+00,2.488305330276489258e+00
2.255146026611328125e+00,2.254885673522949219e+00,2.254625558853149414e+00,2.254365205764770508e+00,2.254105091094970703e+00,2.253844976425170898e+00,2.253584861755371094e+00,2.253324985504150391e+00,2.253064870834350586e+00,2.252804994583129883e+00,2.252545356750488281e+00,2.252285480499267578e+00,2.252025842666625977e+00,2.251766204833984375e+00,2.251506567001342773e+00,2.251247167587280273e+00,2.250987529754638672e+00,2.250728130340576172e+00,2.250468969345092773e+00,2.250209569931030273e+00,2.249950408935546875e+00,2.249691247940063477e+00,2.249432086944580078e+00,2.249173164367675781e+00,2.248914241790771484e+00,2.248655319213867188e+00,2.248396396636962891e+00,2.248137474060058594e+00,2.247878789901733398e+00,2.247620105743408203e+00,2.247361421585083008e+00,2.247102975845336914e+00,2.246844530105590820e+00,2.246586084365844727e+00,2.246327638626098633e+00,2.246069431304931641e+00,2.245811223983764648e+00,2.245553016662597656e+00,2.245294809341430664e+00,2.245036602020263672e+00,2.244778633117675781e+00,2.244520664215087891e+00,2.244262695312500000e+00,2.244004964828491211e+00,2.243747234344482422e+00,2.243489265441894531e+00,2.243231773376464844e+00,2.242974042892456055e+00,2.242716550827026367e+00,2.242459058761596680e+00,2.242201566696166992e+00,2.241944313049316406e+00,2.241686820983886719e+00,2.241429567337036133e+00,2.241172552108764648e+00,2.240915298461914062e+00,2.240658283233642578e+00,2.240401268005371094e+00,2.240144252777099609e+00,2.239887237548828125e+00,2.239630460739135742e+00,2.239373683929443359e+00,2.239116907119750977e+00,2.238860368728637695e+00,2.238603591918945312e+00,2.238347053527832031e+00,2.238090515136718750e+00,2.237834215164184570e+00,2.237577915191650391e+00,2.237321376800537109e+00,2.237065315246582031e+00,2.236809253692626953e+00,2.236552953720092773e+00,2.236296892166137695e+00,2.236040830612182617e+00,2.235785007476806641e+00,2.235528945922851562e+00,2.235273122787475586e+00,2.235017299652099609e+00,2.234761714935302734e+00
1.988138794898986816e+00,1.987936496734619141e+00,1.987734198570251465e+00,1.987531900405883789e+00,1.987329602241516113e+00,1.987127423286437988e+00,1.986925363540649414e+00,1.986723184585571289e+00,1.986521124839782715e+00,1.986319065093994141e+00,1.986117124557495117e+00,1.985915184020996094e+00,1.985713243484497070e+00,1.985511422157287598e+00,1.985309600830078125e+00,1.985107779502868652e+00,1.984906077384948730e+00,1.984704375267028809e+00,1.984502792358398438e+00,1.984301090240478516e+00,1.984099507331848145e+00,1.983897924423217773e+00,1.983696460723876953e+00,1.983494997024536133e+00,1.983293652534484863e+00,1.983092188835144043e+00,1.982890963554382324e+00,1.982689619064331055e+00,1.982488393783569336e+00,1.982287168502807617e+00,1.982086062431335449e+00,1.981884837150573730e+00,1.981683731079101562e+00,1.981482744216918945e+00,1.981281757354736328e+00,1.981080770492553711e+00,1.980879783630371094e+00,1.980678915977478027e+00,1.980478167533874512e+00,1.980277299880981445e+00,1.980076551437377930e+00,1.979875802993774414e+00,1.979675173759460449e+00,1.979474544525146484e+00,1.979273915290832520e+00,1.979073286056518555e+00,1.978872776031494141e+00,1.978672385215759277e+00,1.978471875190734863e+00,1.978271484375000000e+00,1.978071093559265137e+00,1.977870821952819824e+00,1.977670550346374512e+00,1.977470278739929199e+00,1.977270126342773438e+00,1.977069973945617676e+00,1.976869821548461914e+00,1.976670026779174805e+00,1.976469993591308594e+00,1.976269960403442383e+00,1.976070046424865723e+00,1.975870132446289062e+00,1.975670218467712402e+00,1.975470423698425293e+00,1.975270628929138184e+00,1.975070834159851074e+00,1.974871158599853516e+00,1.974671483039855957e+00,1.974471807479858398e+00,1.974272251129150391e+00,1.974072694778442383e+00,1.973873257637023926e+00,1.973673701286315918e+00,1.973474264144897461e+00,1.973274946212768555e+00,1.973075628280639648e+00,1.972876310348510742e+00,1.972676992416381836e+00,1.972477793693542480e+00,1.972278594970703125e+00
1.777664780616760254e+00,1.777503013610839844e+00,1.777341246604919434e+00,1.777179479598999023e+00,1.777017831802368164e+00,1.776856184005737305e+00,1.776694536209106445e+00,1.776533126831054688e+00,1.776371479034423828e+00,1.776209950447082520e+00,1.776048421859741211e+00,1.775887012481689453e+00,1.775725483894348145e+00,1.775564074516296387e+00,1.775402665138244629e+00,1.775241255760192871e+00,1.775079965591430664e+00,1.774918675422668457e+00,1.774757385253906250e+00,1.774596095085144043e+00,1.774434924125671387e+00,1.774273753166198730e+00,1.774112582206726074e+00,1.773951411247253418e+00,1.773790240287780762e+00,1.773629188537597656e+00,1.773468136787414551e+00,1.773307085037231445e+00,1.773146152496337891e+00,1.772985219955444336e+00,1.772824287414550781e+00,1.772663354873657227e+00,1.772502422332763672e+00,1.772341609001159668e+00,1.772180795669555664e+00,1.772019982337951660e+00,1.771859288215637207e+00,1.771698474884033203e+00,1.771537780761718750e+00,1.771377086639404297e+00,1.771216511726379395e+00,1.771055936813354492e+00,1.770895242691040039e+00,1.770734786987304688e+00,1.770574212074279785e+00,1.770413756370544434e+00,1.770253300666809082e+00,1.770092844963073730e+00,1.769932389259338379e+00,1.769772052764892578e+00,1.769611716270446777e+00,1.769451379776000977e+00,1.769291043281555176e+00,1.769130825996398926e+00,1.768970489501953125e+00,1.768810391426086426e+00,1.768650174140930176e+00,1.768490076065063477e+00,1.768329858779907227e+00,1.768169760704040527e+00,1.768009781837463379e+00,1.767849683761596680e+00,1.767689704895019531e+00,1.767529726028442383e+00,1.767369747161865234e+00,1.767209887504577637e+00,1.767050027847290039e+00,1.766890168190002441e+00,1.766730308532714844e+00,1.766570568084716797e+00,1.766410708427429199e+00,1.766250967979431152e+00,1.766091227531433105e+00,1.765931606292724609e+00,1.765771985054016113e+00,1.765612363815307617e+00,1.765452742576599121e+00,1.765293240547180176e+00,1.765133619308471680e+00,1.764974355697631836e+00
1.607488393783569336e+00,1.607356071472167969e+00,1.607223749160766602e+00,1.607091546058654785e+00,1.606959342956542969e+00,1.606827139854431152e+00,1.606694936752319336e+00,1.606562733650207520e+00,1.606430649757385254e+00,1.606298565864562988e+00,1.606166481971740723e+00,1.606034398078918457e+00,1.605902314186096191e+00,1.605770230293273926e+00,1.605638265609741211e+00,1.605506300926208496e+00,1.605374336242675781e+00,1.605242371559143066e+00,1.605110406875610352e+00,1.604978561401367188e+00,1.604846715927124023e+00,1.604714751243591309e+00,1.604583024978637695e+00,1.604451179504394531e+00,1.604319334030151367e+00,1.604187607765197754e+00,1.604055881500244141e+00,1.603924155235290527e+00,1.603792428970336914e+00,1.603660821914672852e+00,1.603529214859008789e+00,1.603397607803344727e+00,1.603266000747680664e+00,1.603134393692016602e+00,1.603002786636352539e+00,1.602871179580688477e+00,1.602739691734313965e+00,1.602608203887939453e+00,1.602476716041564941e+00,1.602345228195190430e+00,1.602213740348815918e+00,1.602082371711730957e+00,1.601951003074645996e+00,1.601819515228271484e+00,1.601688265800476074e+00,1.601556897163391113e+00,1.601425528526306152e+00,1.601294279098510742e+00,1.601163029670715332e+00,1.601031780242919922e+00,1.600900530815124512e+00,1.600769281387329102e+00,1.600638151168823242e+00,1.600506901741027832e+00,1.600375771522521973e+00,1.600244641304016113e+00,1.600113630294799805e+00,1.599982500076293945e+00,1.599851369857788086e+00,1.599720358848571777e+00,1.599589347839355469e+00,1.599458336830139160e+00,1.599327325820922852e+00,1.599196434020996094e+00,1.599065542221069336e+00,1.598934650421142578e+00,1.598803758621215820e+00,1.598672866821289062e+00,1.598541975021362305e+00,1.598411202430725098e+00,1.598280429840087891e+00,1.598149538040161133e+00,1.598018884658813477e+00,1.597888112068176270e+00,1.597757339477539062e+00,1.597626686096191406e+00,1.597496032714843750e+00,1.597365379333496094e+00,1.597234725952148438e+00,1.597104072570800781e+00
1.467047452926635742e+00,1.466937303543090820e+00,1.466827154159545898e+00,1.466716885566711426e+00,1.466606855392456055e+00,1.466496706008911133e+00,1.466386556625366211e+00,1.466276526451110840e+00,1.466166377067565918e+00,1.466056346893310547e+00,1.465946316719055176e+00,1.465836286544799805e+00,1.465726256370544434e+00,1.465616345405578613e+00,1.465506315231323242e+00,1.465396404266357422e+00,1.465286374092102051e+00,1.465176463127136230e+00,1.465066552162170410e+00,1.464956760406494141e+00,1.464846849441528320e+00,1.464736938476562500e+00,1.464627146720886230e+00,1.464517354965209961e+00,1.464407563209533691e+00,1.464297771453857422e+00,1.464187979698181152e+00,1.464078187942504883e+00,1.463968396186828613e+00,1.463858723640441895e+00,1.463749051094055176e+00,1.463639259338378906e+00,1.463529586791992188e+00,1.463420033454895020e+00,1.463310360908508301e+00,1.463200688362121582e+00,1.463091135025024414e+00,1.462981462478637695e+00,1.462871909141540527e+00,1.462762355804443359e+00,1.462652802467346191e+00,1.462543249130249023e+00,1.462433815002441406e+00,1.462324261665344238e+00,1.462214827537536621e+00,1.462105393409729004e+00,1.461995959281921387e+00,1.461886525154113770e+00,1.461777091026306152e+00,1.461667656898498535e+00,1.461558341979980469e+00,1.461448907852172852e+00,1.461339712142944336e+00,1.461230397224426270e+00,1.461121082305908203e+00,1.461011767387390137e+00,1.460902452468872070e+00,1.460793256759643555e+00,1.460683941841125488e+00,1.460574746131896973e+00,1.460465550422668457e+00,1.460356354713439941e+00,1.460247159004211426e+00,1.460137963294982910e+00,1.460028886795043945e+00,1.459919691085815430e+00,1.459810614585876465e+00,1.459701538085937500e+00,1.459592461585998535e+00,1.459483385086059570e+00,1.459374308586120605e+00,1.459265232086181641e+00,1.459156274795532227e+00,1.459047198295593262e+00,1.458938241004943848e+00,1.458829283714294434e+00,1.458720326423645020e+00,1.458611369132995605e+00,1.458502411842346191e+00,1.458393573760986328e+00
1.349174380302429199e+00,1.349081277847290039e+00,1.348988175392150879e+00,1.348894953727722168e+00,1.348801851272583008e+00,1.348708629608154297e+00,1.348615527153015137e+00,1.348522424697875977e+00,1.348429322242736816e+00,1.348336219787597656e+00,1.348243236541748047e+00,1.348150134086608887e+00,1.348057031631469727e+00,1.347964048385620117e+00,1.347870945930480957e+00,1.347777962684631348e+00,1.347684979438781738e+00,1.347591996192932129e+00,1.347499012947082520e+00,1.347406029701232910e+00,1.347313165664672852e+00,1.347220182418823242e+00,1.347127318382263184e+00,1.347034454345703125e+00,1.346941471099853516e+00,1.346848607063293457e+00,1.346755743026733398e+00,1.346662878990173340e+00,1.346570014953613281e+00,1.346477270126342773e+00,1.346384406089782715e+00,1.346291542053222656e+00,1.346198797225952148e+00,1.346106052398681641e+00,1.346013307571411133e+00,1.345920443534851074e+00,1.345827698707580566e+00,1.345735073089599609e+00,1.345642328262329102e+00,1.345549583435058594e+00,1.345456957817077637e+00,1.345364212989807129e+00,1.345271587371826172e+00,1.345178842544555664e+00,1.345086216926574707e+00,1.344993591308593750e+00,1.344900965690612793e+00,1.344808459281921387e+00,1.344715833663940430e+00,1.344623208045959473e+00,1.344530701637268066e+00,1.344438076019287109e+00,1.344345569610595703e+00,1.344253063201904297e+00,1.344160556793212891e+00,1.344068050384521484e+00,1.343975543975830078e+00,1.343883037567138672e+00,1.343790650367736816e+00,1.343698143959045410e+00,1.343605756759643555e+00,1.343513250350952148e+00,1.343420863151550293e+00,1.343328475952148438e+00,1.343236088752746582e+00,1.343143701553344727e+00,1.343051314353942871e+00,1.342959046363830566e+00,1.342866659164428711e+00,1.342774391174316406e+00,1.342682003974914551e+00,1.342589735984802246e+00,1.342497467994689941e+00,1.342405200004577637e+00,1.342312932014465332e+00,1.342220783233642578e+00,1.342128515243530273e+00,1.342036366462707520e+00,1.341944098472595215e+00,1.341851949691772461e+00
1.248834252357482910e+00,1.248754501342773438e+00,1.248674631118774414e+00,1.248594760894775391e+00,1.248515009880065918e+00,1.248435139656066895e+00,1.248355388641357422e+00,1.248275637626647949e+00,1.248195886611938477e+00,1.248116016387939453e+00,1.248036265373229980e+00,1.247956514358520508e+00,1.247876882553100586e+00,1.247797131538391113e+00,1.247717380523681641e+00,1.247637748718261719e+00,1.247557997703552246e+00,1.247478365898132324e+00,1.247398614883422852e+00,1.247318983078002930e+00,1.247239351272583008e+00,1.247159719467163086e+00,1.247080087661743164e+00,1.247000455856323242e+00,1.246920824050903320e+00,1.246841311454772949e+00,1.246761679649353027e+00,1.246682167053222656e+00,1.246602535247802734e+00,1.246523022651672363e+00,1.246443390846252441e+00,1.246363878250122070e+00,1.246284365653991699e+00,1.246204853057861328e+00,1.246125340461730957e+00,1.246045827865600586e+00,1.245966315269470215e+00,1.245886921882629395e+00,1.245807409286499023e+00,1.245727896690368652e+00,1.245648503303527832e+00,1.245568990707397461e+00,1.245489597320556641e+00,1.245410203933715820e+00,1.245330810546875000e+00,1.245251417160034180e+00,1.245172023773193359e+00,1.245092630386352539e+00,1.245013236999511719e+00,1.244933843612670898e+00,1.244854569435119629e+00,1.244775176048278809e+00,1.244695901870727539e+00,1.244616508483886719e+00,1.244537234306335449e+00,1.244457960128784180e+00,1.244378685951232910e+00,1.244299411773681641e+00,1.244220137596130371e+00,1.244140863418579102e+00,1.244061589241027832e+00,1.243982434272766113e+00,1.243903160095214844e+00,1.243823885917663574e+00,1.243744730949401855e+00,1.243665575981140137e+00,1.243586301803588867e+00,1.243507146835327148e+00,1.243427991867065430e+00,1.243348836898803711e+00,1.243269681930541992e+00,1.243190526962280273e+00,1.243111491203308105e+00,1.243032336235046387e+00,1.242953181266784668e+00,1.242874145507812500e+00,1.242795109748840332e+00,1.242715954780578613e+00,1.242636919021606445e+00,1.242557883262634277e+00
1.162385940551757812e+00,1.162316799163818359e+00,1.162247657775878906e+00,1.162178516387939453e+00,1.162109255790710449e+00,1.162040114402770996e+00,1.161971092224121094e+00,1.161901950836181641e+00,1.161832809448242188e+00,1.161763668060302734e+00,1.161694526672363281e+00,1.161625504493713379e+00,1.161556363105773926e+00,1.161487340927124023e+00,1.161418318748474121e+00,1.161349177360534668e+00,1.161280155181884766e+00,1.161211133003234863e+00,1.161142110824584961e+00,1.161073088645935059e+00,1.161004066467285156e+00,1.160935044288635254e+00,1.160866022109985352e+00,1.160796999931335449e+00,1.160727977752685547e+00,1.160659074783325195e+00,1.160590052604675293e+00,1.160521149635314941e+00,1.160452127456665039e+00,1.160383224487304688e+00,1.160314321517944336e+00,1.160245299339294434e+00,1.160176396369934082e+00,1.160107493400573730e+00,1.160038590431213379e+00,1.159969687461853027e+00,1.159900784492492676e+00,1.159831881523132324e+00,1.159763097763061523e+00,1.159694194793701172e+00,1.159625291824340820e+00,1.159556508064270020e+00,1.159487605094909668e+00,1.159418821334838867e+00,1.159350037574768066e+00,1.159281134605407715e+00,1.159212350845336914e+00,1.159143567085266113e+00,1.159074902534484863e+00,1.159006118774414062e+00,1.158937335014343262e+00,1.158868551254272461e+00,1.158799767494201660e+00,1.158730983734130859e+00,1.158662319183349609e+00,1.158593535423278809e+00,1.158524870872497559e+00,1.158456087112426758e+00,1.158387422561645508e+00,1.158318758010864258e+00,1.158250093460083008e+00,1.158181309700012207e+00,1.158112645149230957e+00,1.158043980598449707e+00,1.157975316047668457e+00,1.157906770706176758e+00,1.157838106155395508e+00,1.157769441604614258e+00,1.157700777053833008e+00,1.157632231712341309e+00,1.157563567161560059e+00,1.157495021820068359e+00,1.157426357269287109e+00,1.157357811927795410e+00,1.157289266586303711e+00,1.157220602035522461e+00,1.157152056694030762e+00,1.157083511352539062e+00,1.157014966011047363e+00,1.156946420669555664e+00
1.087131142616271973e+00,1.087070703506469727e+00,1.087010145187377930e+00,1.086949706077575684e+00,1.086889147758483887e+00,1.086828708648681641e+00,1.086768269538879395e+00,1.086707711219787598e+00,1.086647272109985352e+00,1.086586833000183105e+00,1.086526393890380859e+00,1.086465954780578613e+00,1.086405515670776367e+00,1.086345076560974121e+00,1.086284637451171875e+00,1.086224317550659180e+00,1.086163878440856934e+00,1.086103439331054688e+00,1.086043119430541992e+00,1.085982680320739746e+00,1.085922360420227051e+00,1.085861921310424805e+00,1.085801601409912109e+00,1.085741162300109863e+00,1.085680842399597168e+00,1.085620522499084473e+00,1.085560202598571777e+00,1.085499882698059082e+00,1.085439562797546387e+00,1.085379242897033691e+00,1.085318922996520996e+00,1.085258603096008301e+00,1.085198283195495605e+00,1.085137963294982910e+00,1.085077643394470215e+00,1.085017442703247070e+00,1.084957122802734375e+00,1.084896922111511230e+00,1.084836602210998535e+00,1.084776401519775391e+00,1.084716081619262695e+00,1.084655880928039551e+00,1.084595680236816406e+00,1.084535360336303711e+00,1.084475159645080566e+00,1.084414958953857422e+00,1.084354758262634277e+00,1.084294557571411133e+00,1.084234356880187988e+00,1.084174156188964844e+00,1.084114074707031250e+00,1.084053874015808105e+00,1.083993673324584961e+00,1.083933472633361816e+00,1.083873391151428223e+00,1.083813190460205078e+00,1.083753108978271484e+00,1.083692908287048340e+00,1.083632826805114746e+00,1.083572745323181152e+00,1.083512663841247559e+00,1.083452463150024414e+00,1.083392381668090820e+00,1.083332300186157227e+00,1.083272218704223633e+00,1.083212137222290039e+00,1.083152055740356445e+00,1.083091974258422852e+00,1.083031892776489258e+00,1.082971930503845215e+00,1.082911968231201172e+00,1.082851886749267578e+00,1.082791805267333984e+00,1.082731842994689941e+00,1.082671761512756348e+00,1.082611799240112305e+00,1.082551717758178711e+00,1.082491755485534668e+00,1.082431793212890625e+00,1.082371830940246582e+00
1.021028041839599609e+00,1.020974755287170410e+00,1.020921349525451660e+00,1.020867943763732910e+00,1.020814657211303711e+00,1.020761251449584961e+00,1.020707964897155762e+00,1.020654559135437012e+00,1.020601272583007812e+00,1.020547986030578613e+00,1.020494580268859863e+00,1.020441293716430664e+00,1.020388007164001465e+00,1.020334720611572266e+00,1.020281314849853516e+00,1.020228028297424316e+00,1.020174741744995117e+00,1.020121455192565918e+00,1.020068168640136719e+00,1.020015001296997070e+00,1.019961714744567871e+00,1.019908428192138672e+00,1.019855260848999023e+00,1.019801974296569824e+00,1.019748687744140625e+00,1.019695520401000977e+00,1.019642233848571777e+00,1.019589066505432129e+00,1.019535779953002930e+00,1.019482612609863281e+00,1.019429326057434082e+00,1.019376158714294434e+00,1.019322991371154785e+00,1.019269824028015137e+00,1.019216537475585938e+00,1.019163370132446289e+00,1.019110202789306641e+00,1.019057035446166992e+00,1.019003868103027344e+00,1.018950700759887695e+00,1.018897533416748047e+00,1.018844366073608398e+00,1.018791317939758301e+00,1.018738150596618652e+00,1.018684983253479004e+00,1.018631815910339355e+00,1.018578767776489258e+00,1.018525600433349609e+00,1.018472552299499512e+00,1.018419384956359863e+00,1.018366336822509766e+00,1.018313169479370117e+00,1.018260121345520020e+00,1.018207073211669922e+00,1.018153905868530273e+00,1.018100857734680176e+00,1.018047809600830078e+00,1.017994761466979980e+00,1.017941713333129883e+00,1.017888665199279785e+00,1.017835617065429688e+00,1.017782568931579590e+00,1.017729520797729492e+00,1.017676472663879395e+00,1.017623424530029297e+00,1.017570495605468750e+00,1.017517447471618652e+00,1.017464399337768555e+00,1.017411470413208008e+00,1.017358422279357910e+00,1.017305493354797363e+00,1.017252445220947266e+00,1.017199516296386719e+00,1.017146468162536621e+00,1.017093539237976074e+00,1.017040610313415527e+00,1.016987681388854980e+00,1.016934633255004883e+00,1.016881704330444336e+00,1.016828775405883789e+00
9.625030755996704102e-01,9.624557495117187500e-01,9.624082446098327637e-01,9.623608589172363281e-01,9.623134136199951172e-01,9.622660279273986816e-01,9.622185826301574707e-01,9.621711969375610352e-01,9.621237516403198242e-01,9.620764255523681641e-01,9.620289802551269531e-01,9.619816541671752930e-01,9.619342088699340820e-01,9.618869423866271973e-01,9.618394970893859863e-01,9.617921710014343262e-01,9.617447853088378906e-01,9.616974592208862305e-01,9.616500735282897949e-01,9.616027474403381348e-01,9.615553617477416992e-01,9.615080952644348145e-01,9.614607095718383789e-01,9.614134430885314941e-01,9.613660573959350586e-01,9.613187909126281738e-01,9.612714052200317383e-01,9.612241983413696289e-01,9.611768126487731934e-01,9.611295461654663086e-01,9.610822200775146484e-01,9.610350131988525391e-01,9.609876275062561035e-01,9.609404206275939941e-01,9.608930945396423340e-01,9.608458876609802246e-01,9.607985615730285645e-01,9.607513546943664551e-01,9.607040286064147949e-01,9.606568217277526855e-01,9.606094956398010254e-01,9.605623483657836914e-01,9.605150222778320312e-01,9.604678750038146973e-01,9.604206681251525879e-01,9.603734016418457031e-01,9.603262543678283691e-01,9.602789878845214844e-01,9.602318406105041504e-01,9.601845741271972656e-01,9.601374268531799316e-01,9.600901603698730469e-01,9.600430130958557129e-01,9.599957466125488281e-01,9.599486589431762695e-01,9.599013924598693848e-01,9.598543047904968262e-01,9.598070383071899414e-01,9.597599506378173828e-01,9.597127437591552734e-01,9.596656560897827148e-01,9.596184492111206055e-01,9.595713615417480469e-01,9.595241546630859375e-01,9.594770669937133789e-01,9.594298601150512695e-01,9.593827724456787109e-01,9.593356251716613770e-01,9.592885375022888184e-01,9.592413902282714844e-01,9.591943621635437012e-01,9.591471552848815918e-01,9.591001272201538086e-01,9.590529799461364746e-01,9.590059518814086914e-01,9.589588046073913574e-01,9.589117765426635742e-01,9.588646292686462402e-01,9.588176012039184570e-01,9.587705135345458984e-01
9.103236794471740723e-01,9.102811813354492188e-01,9.102388024330139160e-01,9.101963639259338379e-01,9.101539850234985352e-01,9.101115465164184570e-01,9.100691676139831543e-01,9.100267291069030762e-01,9.099843502044677734e-01,9.099419116973876953e-01,9.098995923995971680e-01,9.098571538925170898e-01,9.098147749900817871e-01,9.097723960876464844e-01,9.097300171852111816e-01,9.096876382827758789e-01,9.096453189849853516e-01,9.096028804779052734e-01,9.095605611801147461e-01,9.095181822776794434e-01,9.094758629798889160e-01,9.094334840774536133e-01,9.093911647796630859e-01,9.093487858772277832e-01,9.093065261840820312e-01,9.092640876770019531e-01,9.092218279838562012e-01,9.091794490814208984e-01,9.091371893882751465e-01,9.090948104858398438e-01,9.090525507926940918e-01,9.090102314949035645e-01,9.089679718017578125e-01,9.089255928993225098e-01,9.088833332061767578e-01,9.088410139083862305e-01,9.087987542152404785e-01,9.087564349174499512e-01,9.087141752243041992e-01,9.086718559265136719e-01,9.086296558380126953e-01,9.085873365402221680e-01,9.085451364517211914e-01,9.085028171539306641e-01,9.084606170654296875e-01,9.084182977676391602e-01,9.083760976791381836e-01,9.083338379859924316e-01,9.082916378974914551e-01,9.082493185997009277e-01,9.082071185111999512e-01,9.081648588180541992e-01,9.081226587295532227e-01,9.080803990364074707e-01,9.080382585525512695e-01,9.079959988594055176e-01,9.079537987709045410e-01,9.079115390777587891e-01,9.078693985939025879e-01,9.078271985054016113e-01,9.077849984169006348e-01,9.077427983283996582e-01,9.077006578445434570e-01,9.076583981513977051e-01,9.076162576675415039e-01,9.075740575790405273e-01,9.075319170951843262e-01,9.074898362159729004e-01,9.074475765228271484e-01,9.074054956436157227e-01,9.073632955551147461e-01,9.073212146759033203e-01,9.072790145874023438e-01,9.072368741035461426e-01,9.071947336196899414e-01,9.071526527404785156e-01,9.071104526519775391e-01,9.070683717727661133e-01,9.070261716842651367e-01,9.069841504096984863e-01
8.635107278823852539e-01,8.634725213050842285e-01,8.634343743324279785e-01,8.633961677551269531e-01,8.633580803871154785e-01,8.633198738098144531e-01,8.632817268371582031e-01,8.632435202598571777e-01,8.632054328918457031e-01,8.631672263145446777e-01,8.631291389465332031e-01,8.630909323692321777e-01,8.630528450012207031e-01,8.630146980285644531e-01,8.629766106605529785e-01,8.629384040832519531e-01,8.629003167152404785e-01,8.628622293472290039e-01,8.628240823745727539e-01,8.627860546112060547e-01,8.627478480339050293e-01,8.627098202705383301e-01,8.626716732978820801e-01,8.626335859298706055e-01,8.625954389572143555e-01,8.625574111938476562e-01,8.625192642211914062e-01,8.624812364578247070e-01,8.624430894851684570e-01,8.624050617218017578e-01,8.623669147491455078e-01,8.623288869857788086e-01,8.622907996177673340e-01,8.622527718544006348e-01,8.622146844863891602e-01,8.621766567230224609e-01,8.621385097503662109e-01,8.621005415916442871e-01,8.620624542236328125e-01,8.620244264602661133e-01,8.619863390922546387e-01,8.619483709335327148e-01,8.619102835655212402e-01,8.618722558021545410e-01,8.618341684341430664e-01,8.617962002754211426e-01,8.617581129074096680e-01,8.617201447486877441e-01,8.616821169853210449e-01,8.616441488265991211e-01,8.616060614585876465e-01,8.615680932998657227e-01,8.615300655364990234e-01,8.614920973777770996e-01,8.614540696144104004e-01,8.614161014556884766e-01,8.613780736923217773e-01,8.613401055335998535e-01,8.613020777702331543e-01,8.612641692161560059e-01,8.612261414527893066e-01,8.611882328987121582e-01,8.611502051353454590e-01,8.611122965812683105e-01,8.610742688179016113e-01,8.610363602638244629e-01,8.609983325004577637e-01,8.609604239463806152e-01,8.609224557876586914e-01,8.608845472335815430e-01,8.608465790748596191e-01,8.608086705207824707e-01,8.607707023620605469e-01,8.607327938079833984e-01,8.606948256492614746e-01,8.606569170951843262e-01,8.606189489364624023e-01,8.605810999870300293e-01,8.605431318283081055e-01,8.605052232742309570e-01
8.212770223617553711e-01,8.212425112724304199e-01,8.212079405784606934e-01,8.211734294891357422e-01,8.211389183998107910e-01,8.211044073104858398e-01,8.210698366165161133e-01,8.210353851318359375e-01,8.210008144378662109e-01,8.209663629531860352e-01,8.209317922592163086e-01,8.208973407745361328e-01,8.208628296852111816e-01,8.208283782005310059e-01,8.207938075065612793e-01,8.207593560218811035e-01,8.207248449325561523e-01,8.206903934478759766e-01,8.206558823585510254e-01,8.206214308738708496e-01,8.205869197845458984e-01,8.205524682998657227e-01,8.205179572105407715e-01,8.204835653305053711e-01,8.204490542411804199e-01,8.204146027565002441e-01,8.203800916671752930e-01,8.203456997871398926e-01,8.203111886978149414e-01,8.202767968177795410e-01,8.202422857284545898e-01,8.202078938484191895e-01,8.201733827590942383e-01,8.201389908790588379e-01,8.201045393943786621e-01,8.200701475143432617e-01,8.200356960296630859e-01,8.200013041496276855e-01,8.199667930603027344e-01,8.199324607849121094e-01,8.198980689048767090e-01,8.198636174201965332e-01,8.198292255401611328e-01,8.197947740554809570e-01,8.197603821754455566e-01,8.197259306907653809e-01,8.196915984153747559e-01,8.196571469306945801e-01,8.196228146553039551e-01,8.195883631706237793e-01,8.195540308952331543e-01,8.195195794105529785e-01,8.194852471351623535e-01,8.194507956504821777e-01,8.194164633750915527e-01,8.193820714950561523e-01,8.193477392196655273e-01,8.193132877349853516e-01,8.192789554595947266e-01,8.192445635795593262e-01,8.192102313041687012e-01,8.191758394241333008e-01,8.191415667533874512e-01,8.191071748733520508e-01,8.190728425979614258e-01,8.190384507179260254e-01,8.190041184425354004e-01,8.189697861671447754e-01,8.189354538917541504e-01,8.189010620117187500e-01,8.188667893409729004e-01,8.188323974609375000e-01,8.187981247901916504e-01,8.187637925148010254e-01,8.187294602394104004e-01,8.186951279640197754e-01,8.186608552932739258e-01,8.186264634132385254e-01,8.185921907424926758e-01,8.185578584671020508e-01
