5.000000000000000000e+00,5.000000000000000000e+00,5.000000000000000000e+00,5.000000000000000000e+00,5.000000000000000000e+00,5.000000000000000000e+00,5.000000000000000000e+00,5.000000000000000000e+00,5.000000000000000000e+00,5.000000000000000000e+00,5.000000000000000000e+00,5.000000000000000000e+00,5.000000000000000000e+00,5.000000000000000000e+00,5.000000000000000000e+00,5.000000000000000000e+00,5.000000000000000000e+00,5.000000000000000000e+00,5.000000000000000000e+00,5.000000000000000000e+00,5.000000000000000000e+00,5.000000000000000000e+00,5.000000000000000000e+00,5.000000000000000000e+00,5.000000000000000000e+00,5.000000000000000000e+00,5.000000000000000000e+00,5.000000000000000000e+00,5.000000000000000000e+00,5.000000000000000000e+00,5.000000000000000000e+00,5.000000000000000000e+00,5.000000000000000000e+00,5.000000000000000000e+00,5.000000000000000000e+00,5.000000000000000000e+00,5.000000000000000000e+00,5.000000000000000000e+00,5.000000000000000000e+00,5.000000000000000000e+00,5.000000000000000000e+00,5.000000000000000000e+00,5.000000000000000000e+00,5.000000000000000000e+00,5.000000000000000000e+00,5.000000000000000000e+00,5.000000000000000000e+00,5.000000000000000000e+00,5.000000000000000000e+00,5.000000000000000000e+00,5.000000000000000000e+00,5.000000000000000000e+00,5.000000000000000000e+00,5.000000000000000000e+00,5.000000000000000000e+00,5.000000000000000000e+00,1.565429329872131348e+00,1.540638446807861328e+00,1.537404417991638184e+00,1.546497821807861328e+00,1.654870152473449707e+00,1.579470515251159668e+00,1.552309274673461914e+00,1.536539554595947266e+00,1.532171249389648438e+00,1.526399850845336914e+00,1.528156399726867676e+00,1.536902666091918945e+00,1.537171721458435059e+00,1.538887143135070801e+00,1.552233219146728516e+00,1.548368334770202637e+00,1.523736834526062012e+00,1.511917114257812500e+00,1.509957790374755859e+00,2.716689825057983398e+00,2.656147003173828125e+00,2.598243951797485352e+00,2.542811393737792969e+00,2.489694833755493164e+00
5.000000000000000000e+00,5.000000000000000000e+00,5.000000000000000000e+00,5.000000000000000000e+00,5.000000000000000000e+00,5.000000000000000000e+00,5.000000000000000000e+00,5.000000000000000000e+00,5.000000000000000000e+00,5.000000000000000000e+00,5.000000000000000000e+00,5.000000000000000000e+00,5.000000000000000000e+00,5.000000000000000000e+00,5.000000000000000000e+00,5.000000000000000000e+00,5.000000000000000000e+00,5.000000000000000000e+00,5.000000000000000000e+00,5.000000000000000000e+00,5.000000000000000000e+00,5.000000000000000000e+00,5.000000000000000000e+00,5.000000000000000000e+00,5.000000000000000000e+00,5.000000000000000000e+00,5.000000000000000000e+00,5.000000000000000000e+00,5.000000000000000000e+00,5.000000000000000000e+00,5.000000000000000000e+00,5.000000000000000000e+00,5.000000000000000000e+00,5.000000000000000000e+00,5.000000000000000000e+00,5.000000000000000000e+00,5.000000000000000000e+00,5.000000000000000000e+00,5.000000000000000000e+00,5.000000000000000000e+00,5.000000000000000000e+00,5.000000000000000000e+00,5.000000000000000000e+00,5.000000000000000000e+00,5.000000000000000000e+00,5.000000000000000000e+00,5.000000000000000000e+00,5.000000000000000000e+00,5.000000000000000000e+00,5.000000000000000000e+00,5.000000000000000000e+00,5.000000000000000000e+00,5.000000000000000000e+00,5.000000000000000000e+00,5.000000000000000000e+00,5.000000000000000000e+00,1.563768386840820312e+00,1.542286157608032227e+00,1.539137363433837891e+00,1.553824424743652344e+00,4.129196166992187500e+00,1.583433985710144043e+00,1.546601176261901855e+00,1.534382343292236328e+00,1.528530836105346680e+00,1.521252870559692383e+00,1.523240923881530762e+00,1.529683947563171387e+00,1.533084988594055176e+00,1.535356879234313965e+00,1.548667311668395996e+00,1.543876528739929199e+00,1.521171092987060547e+00,1.509201407432556152e+00,1.508498787879943848e+00,2.716800689697265625e+00,2.656252861022949219e+00,2.598345041275024414e+00,2.542884588241577148e+00,2.489740371704101562e+00
5.000000000000000000e+00,5.000000000000000000e+00,5.000000000000000000e+00,5.000000000000000000e+00,5.000000000000000000e+00,5.000000000000000000e+00,5.000000000000000000e+00,5.000000000000000000e+00,5.000000000000000000e+00,5.000000000000000000e+00,5.000000000000000000e+00,5.000000000000000000e+00,5.000000000000000000e+00,5.000000000000000000e+00,5.000000000000000000e+00,5.000000000000000000e+00,5.000000000000000000e+00,5.000000000000000000e+00,5.000000000000000000e+00,5.000000000000000000e+00,5.000000000000000000e+00,5.000000000000000000e+00,5.000000000000000000e+00,5.000000000000000000e+00,5.000000000000000000e+00,5.000000000000000000e+00,5.000000000000000000e+00,5.000000000000000000e+00,5.000000000000000000e+00,5.000000000000000000e+00,5.000000000000000000e+00,5.000000000000000000e+00,5.000000000000000000e+00,5.000000000000000000e+00,5.000000000000000000e+00,5.000000000000000000e+00,5.000000000000000000e+00,5.000000000000000000e+00,5.000000000000000000e+00,5.000000000000000000e+00,5.000000000000000000e+00,5.000000000000000000e+00,5.000000000000000000e+00,5.000000000000000000e+00,5.000000000000000000e+00,5.000000000000000000e+00,5.000000000000000000e+00,5.000000000000000000e+00,5.000000000000000000e+00,5.000000000000000000e+00,5.000000000000000000e+00,5.000000000000000000e+00,5.000000000000000000e+00,5.000000000000000000e+00,5.000000000000000000e+00,5.000000000000000000e+00,1.564935684204101562e+00,1.545782327651977539e+00,1.541748404502868652e+00,1.553774356842041016e+00,4.129312038421630859e+00,1.574282646179199219e+00,1.540196180343627930e+00,1.529358983039855957e+00,1.522762298583984375e+00,1.514206171035766602e+00,1.515209317207336426e+00,1.518167257308959961e+00,1.522359490394592285e+00,1.527632594108581543e+00,1.538930296897888184e+00,1.540029644966125488e+00,1.517686128616333008e+00,1.507439017295837402e+00,1.507139444351196289e+00,2.716911077499389648e+00,2.656330347061157227e+00,2.598392724990844727e+00,2.542928218841552734e+00,2.489782333374023438e+00
5.000000000000000000e+00,5.000000000000000000e+00,5.000000000000000000e+00,5.000000000000000000e+00,5.000000000000000000e+00,5.000000000000000000e+00,5.000000000000000000e+00,5.000000000000000000e+00,5.000000000000000000e+00,5.000000000000000000e+00,5.000000000000000000e+00,5.000000000000000000e+00,5.000000000000000000e+00,5.000000000000000000e+00,5.000000000000000000e+00,5.000000000000000000e+00,5.000000000000000000e+00,5.000000000000000000e+00,5.000000000000000000e+00,5.000000000000000000e+00,5.000000000000000000e+00,5.000000000000000000e+00,5.000000000000000000e+00,5.000000000000000000e+00,5.000000000000000000e+00,5.000000000000000000e+00,5.000000000000000000e+00,5.000000000000000000e+00,5.000000000000000000e+00,5.000000000000000000e+00,5.000000000000000000e+00,5.000000000000000000e+00,5.000000000000000000e+00,5.000000000000000000e+00,5.000000000000000000e+00,5.000000000000000000e+00,5.000000000000000000e+00,5.000000000000000000e+00,5.000000000000000000e+00,5.000000000000000000e+00,5.000000000000000000e+00,5.000000000000000000e+00,5.000000000000000000e+00,5.000000000000000000e+00,5.000000000000000000e+00,5.000000000000000000e+00,5.000000000000000000e+00,5.000000000000000000e+00,5.000000000000000000e+00,5.000000000000000000e+00,5.000000000000000000e+00,5.000000000000000000e+00,5.000000000000000000e+00,5.000000000000000000e+00,5.000000000000000000e+00,5.000000000000000000e+00,1.569605946540832520e+00,1.554678678512573242e+00,1.550721168518066406e+00,1.568567395210266113e+00,4.129427909851074219e+00,1.567497730255126953e+00,1.534819722175598145e+00,1.523047566413879395e+00,1.515432476997375488e+00,1.505275249481201172e+00,1.508023858070373535e+00,1.510087966918945312e+00,1.514495491981506348e+00,1.520419001579284668e+00,1.526813745498657227e+00,1.533363461494445801e+00,1.515607833862304688e+00,1.508471608161926270e+00,1.508425235748291016e+00,2.716960906982421875e+00,2.656378269195556641e+00,2.598438262939453125e+00,2.542972087860107422e+00,2.489824295043945312e+00
4.885398864746093750e+00,5.000000000000000000e+00,5.000000000000000000e+00,5.000000000000000000e+00,5.000000000000000000e+00,5.000000000000000000e+00,5.000000000000000000e+00,5.000000000000000000e+00,5.000000000000000000e+00,5.000000000000000000e+00,5.000000000000000000e+00,5.000000000000000000e+00,5.000000000000000000e+00,5.000000000000000000e+00,5.000000000000000000e+00,5.000000000000000000e+00,5.000000000000000000e+00,5.000000000000000000e+00,5.000000000000000000e+00,5.000000000000000000e+00,5.000000000000000000e+00,5.000000000000000000e+00,5.000000000000000000e+00,5.000000000000000000e+00,5.000000000000000000e+00,5.000000000000000000e+00,5.000000000000000000e+00,5.000000000000000000e+00,5.000000000000000000e+00,5.000000000000000000e+00,5.000000000000000000e+00,5.000000000000000000e+00,5.000000000000000000e+00,5.000000000000000000e+00,5.000000000000000000e+00,5.000000000000000000e+00,5.000000000000000000e+00,5.000000000000000000e+00,5.000000000000000000e+00,5.000000000000000000e+00,5.000000000000000000e+00,5.000000000000000000e+00,5.000000000000000000e+00,5.000000000000000000e+00,5.000000000000000000e+00,5.000000000000000000e+00,5.000000000000000000e+00,5.000000000000000000e+00,5.000000000000000000e+00,5.000000000000000000e+00,5.000000000000000000e+00,5.000000000000000000e+00,5.000000000000000000e+00,5.000000000000000000e+00,5.000000000000000000e+00,1.608510136604309082e+00,1.574141025543212891e+00,1.564617991447448730e+00,1.564831495285034180e+00,4.277829170227050781e+00,1.628310441970825195e+00,1.571017980575561523e+00,1.532664895057678223e+00,1.517299056053161621e+00,1.504098534584045410e+00,1.493693470954895020e+00,1.493416786193847656e+00,1.499944448471069336e+00,1.505757927894592285e+00,1.510294318199157715e+00,1.514195442199707031e+00,1.537711143493652344e+00,1.520402431488037109e+00,1.514561891555786133e+00,1.517162680625915527e+00,2.717010974884033203e+00,2.656425952911376953e+00,2.598483800888061523e+00,2.543015480041503906e+00,2.489866018295288086e+00
4.885272979736328125e+00,5.000000000000000000e+00,5.000000000000000000e+00,5.000000000000000000e+00,5.000000000000000000e+00,5.000000000000000000e+00,5.000000000000000000e+00,5.000000000000000000e+00,5.000000000000000000e+00,5.000000000000000000e+00,5.000000000000000000e+00,5.000000000000000000e+00,5.000000000000000000e+00,5.000000000000000000e+00,5.000000000000000000e+00,5.000000000000000000e+00,5.000000000000000000e+00,5.000000000000000000e+00,5.000000000000000000e+00,5.000000000000000000e+00,5.000000000000000000e+00,5.000000000000000000e+00,5.000000000000000000e+00,5.000000000000000000e+00,5.000000000000000000e+00,5.000000000000000000e+00,5.000000000000000000e+00,5.000000000000000000e+00,5.000000000000000000e+00,5.000000000000000000e+00,5.000000000000000000e+00,5.000000000000000000e+00,5.000000000000000000e+00,5.000000000000000000e+00,5.000000000000000000e+00,5.000000000000000000e+00,5.000000000000000000e+00,5.000000000000000000e+00,5.000000000000000000e+00,5.000000000000000000e+00,5.000000000000000000e+00,5.000000000000000000e+00,5.000000000000000000e+00,5.000000000000000000e+00,5.000000000000000000e+00,5.000000000000000000e+00,5.000000000000000000e+00,5.000000000000000000e+00,5.000000000000000000e+00,5.000000000000000000e+00,5.000000000000000000e+00,5.000000000000000000e+00,5.000000000000000000e+00,5.000000000000000000e+00,5.000000000000000000e+00,1.606757760047912598e+00,1.581242322921752930e+00,1.576911568641662598e+00,1.583866596221923828e+00,4.277953147888183594e+00,1.669795989990234375e+00,1.562399029731750488e+00,1.525012493133544922e+00,1.511033296585083008e+00,1.497308135032653809e+00,1.483829855918884277e+00,1.483435034751892090e+00,1.498971104621887207e+00,1.503507375717163086e+00,1.505788445472717285e+00,1.509666442871093750e+00,1.543526291847229004e+00,1.526618003845214844e+00,1.521966457366943359e+00,1.531284928321838379e+00,2.717060565948486328e+00,2.656473398208618164e+00,2.598529577255249023e+00,2.543059349060058594e+00,2.489907979965209961e+00
4.885146617889404297e+00,5.000000000000000000e+00,5.000000000000000000e+00,5.000000000000000000e+00,5.000000000000000000e+00,5.000000000000000000e+00,5.000000000000000000e+00,5.000000000000000000e+00,5.000000000000000000e+00,5.000000000000000000e+00,5.000000000000000000e+00,5.000000000000000000e+00,5.000000000000000000e+00,5.000000000000000000e+00,5.000000000000000000e+00,5.000000000000000000e+00,5.000000000000000000e+00,5.000000000000000000e+00,5.000000000000000000e+00,5.000000000000000000e+00,5.000000000000000000e+00,5.000000000000000000e+00,5.000000000000000000e+00,5.000000000000000000e+00,5.000000000000000000e+00,5.000000000000000000e+00,5.000000000000000000e+00,5.000000000000000000e+00,5.000000000000000000e+00,5.000000000000000000e+00,5.000000000000000000e+00,5.000000000000000000e+00,5.000000000000000000e+00,5.000000000000000000e+00,5.000000000000000000e+00,5.000000000000000000e+00,5.000000000000000000e+00,5.000000000000000000e+00,5.000000000000000000e+00,5.000000000000000000e+00,5.000000000000000000e+00,5.000000000000000000e+00,5.000000000000000000e+00,5.000000000000000000e+00,5.000000000000000000e+00,5.000000000000000000e+00,5.000000000000000000e+00,5.000000000000000000e+00,5.000000000000000000e+00,5.000000000000000000e+00,5.000000000000000000e+00,5.000000000000000000e+00,5.000000000000000000e+00,5.000000000000000000e+00,5.000000000000000000e+00,1.614449024200439453e+00,1.593880295753479004e+00,1.590466260910034180e+00,4.437428474426269531e+00,4.278077602386474609e+00,1.594974637031555176e+00,1.550621509552001953e+00,1.520734667778015137e+00,1.506833434104919434e+00,1.494035720825195312e+00,1.483195066452026367e+00,1.486915946006774902e+00,1.500014543533325195e+00,1.503552794456481934e+00,1.501704812049865723e+00,1.505164504051208496e+00,1.540785431861877441e+00,1.533166050910949707e+00,1.530462861061096191e+00,1.546373367309570312e+00,2.717110633850097656e+00,2.656521320343017578e+00,2.598575115203857422e+00,2.543102979660034180e+00,2.489949941635131836e+00
4.885020732879638672e+00,5.000000000000000000e+00,5.000000000000000000e+00,5.000000000000000000e+00,5.000000000000000000e+00,5.000000000000000000e+00,5.000000000000000000e+00,5.000000000000000000e+00,5.000000000000000000e+00,5.000000000000000000e+00,5.000000000000000000e+00,5.000000000000000000e+00,5.000000000000000000e+00,5.000000000000000000e+00,5.000000000000000000e+00,5.000000000000000000e+00,5.000000000000000000e+00,5.000000000000000000e+00,5.000000000000000000e+00,5.000000000000000000e+00,5.000000000000000000e+00,5.000000000000000000e+00,5.000000000000000000e+00,5.000000000000000000e+00,5.000000000000000000e+00,5.000000000000000000e+00,5.000000000000000000e+00,5.000000000000000000e+00,5.000000000000000000e+00,5.000000000000000000e+00,5.000000000000000000e+00,5.000000000000000000e+00,5.000000000000000000e+00,5.000000000000000000e+00,5.000000000000000000e+00,5.000000000000000000e+00,5.000000000000000000e+00,5.000000000000000000e+00,5.000000000000000000e+00,5.000000000000000000e+00,5.000000000000000000e+00,5.000000000000000000e+00,5.000000000000000000e+00,5.000000000000000000e+00,5.000000000000000000e+00,5.000000000000000000e+00,5.000000000000000000e+00,5.000000000000000000e+00,5.000000000000000000e+00,5.000000000000000000e+00,5.000000000000000000e+00,5.000000000000000000e+00,5.000000000000000000e+00,5.000000000000000000e+00,5.000000000000000000e+00,1.622704505920410156e+00,1.607734203338623047e+00,1.609695076942443848e+00,4.437561988830566406e+00,4.278202056884765625e+00,1.591149687767028809e+00,1.542051553726196289e+00,1.516685843467712402e+00,1.505515217781066895e+00,1.494507908821105957e+00,1.483660459518432617e+00,1.490406513214111328e+00,1.501492261886596680e+00,1.506827235221862793e+00,1.503011703491210938e+00,1.501251935958862305e+00,1.536209464073181152e+00,1.542829990386962891e+00,1.540508389472961426e+00,2.780580520629882812e+00,2.717160463333129883e+00,2.656569004058837891e+00,2.598620891571044922e+00,2.543146610260009766e+00,2.489991664886474609e+00
4.884894371032714844e+00,5.000000000000000000e+00,5.000000000000000000e+00,5.000000000000000000e+00,5.000000000000000000e+00,5.000000000000000000e+00,5.000000000000000000e+00,5.000000000000000000e+00,5.000000000000000000e+00,5.000000000000000000e+00,5.000000000000000000e+00,5.000000000000000000e+00,5.000000000000000000e+00,5.000000000000000000e+00,5.000000000000000000e+00,5.000000000000000000e+00,5.000000000000000000e+00,5.000000000000000000e+00,5.000000000000000000e+00,5.000000000000000000e+00,5.000000000000000000e+00,5.000000000000000000e+00,5.000000000000000000e+00,5.000000000000000000e+00,5.000000000000000000e+00,5.000000000000000000e+00,5.000000000000000000e+00,5.000000000000000000e+00,5.000000000000000000e+00,5.000000000000000000e+00,5.000000000000000000e+00,5.000000000000000000e+00,5.000000000000000000e+00,5.000000000000000000e+00,5.000000000000000000e+00,5.000000000000000000e+00,5.000000000000000000e+00,5.000000000000000000e+00,5.000000000000000000e+00,5.000000000000000000e+00,5.000000000000000000e+00,5.000000000000000000e+00,5.000000000000000000e+00,5.000000000000000000e+00,5.000000000000000000e+00,5.000000000000000000e+00,5.000000000000000000e+00,5.000000000000000000e+00,5.000000000000000000e+00,5.000000000000000000e+00,5.000000000000000000e+00,5.000000000000000000e+00,5.000000000000000000e+00,5.000000000000000000e+00,1.663168907165527344e+00,1.628076314926147461e+00,1.621818542480468750e+00,4.609397888183593750e+00,4.437695980072021484e+00,4.278394222259521484e+00,1.588582158088684082e+00,1.540559887886047363e+00,1.521634221076965332e+00,1.509015917778015137e+00,1.496350526809692383e+00,1.484126091003417969e+00,1.493913650512695312e+00,1.507919430732727051e+00,1.513524889945983887e+00,1.511720776557922363e+00,1.513342142105102539e+00,1.544723629951477051e+00,1.553010225296020508e+00,1.550686955451965332e+00,2.780632734298706055e+00,2.717210531234741211e+00,2.656616449356079102e+00,2.598666191101074219e+00,2.543190479278564453e+00,2.490033626556396484e+00
4.884768009185791016e+00,5.000000000000000000e+00,5.000000000000000000e+00,5.000000000000000000e+00,5.000000000000000000e+00,5.000000000000000000e+00,5.000000000000000000e+00,5.000000000000000000e+00,5.000000000000000000e+00,5.000000000000000000e+00,5.000000000000000000e+00,5.000000000000000000e+00,5.000000000000000000e+00,5.000000000000000000e+00,5.000000000000000000e+00,5.000000000000000000e+00,5.000000000000000000e+00,5.000000000000000000e+00,5.000000000000000000e+00,5.000000000000000000e+00,5.000000000000000000e+00,5.000000000000000000e+00,5.000000000000000000e+00,5.000000000000000000e+00,5.000000000000000000e+00,5.000000000000000000e+00,5.000000000000000000e+00,5.000000000000000000e+00,5.000000000000000000e+00,5.000000000000000000e+00,5.000000000000000000e+00,5.000000000000000000e+00,5.000000000000000000e+00,5.000000000000000000e+00,5.000000000000000000e+00,5.000000000000000000e+00,5.000000000000000000e+00,5.000000000000000000e+00,5.000000000000000000e+00,5.000000000000000000e+00,5.000000000000000000e+00,5.000000000000000000e+00,5.000000000000000000e+00,5.000000000000000000e+00,5.000000000000000000e+00,5.000000000000000000e+00,5.000000000000000000e+00,5.000000000000000000e+00,5.000000000000000000e+00,5.000000000000000000e+00,5.000000000000000000e+00,5.000000000000000000e+00,5.000000000000000000e+00,5.000000000000000000e+00,1.655756235122680664e+00,1.633648037910461426e+00,1.640900492668151855e+00,4.609628200531005859e+00,4.437986850738525391e+00,4.278668880462646484e+00,1.586758255958557129e+00,1.543883800506591797e+00,1.527450323104858398e+00,1.517478585243225098e+00,1.505120277404785156e+00,1.497318506240844727e+00,1.509654879570007324e+00,1.537229537963867188e+00,1.525919914245605469e+00,1.521896839141845703e+00,1.529186010360717773e+00,1.554311752319335938e+00,1.563325643539428711e+00,1.564794182777404785e+00,2.780684947967529297e+00,2.717260122299194336e+00,2.656664133071899414e+00,2.598711967468261719e+00,2.543234109878540039e+00,2.490075588226318359e+00
4.884642124176025391e+00,5.000000000000000000e+00,5.000000000000000000e+00,5.000000000000000000e+00,5.000000000000000000e+00,5.000000000000000000e+00,5.000000000000000000e+00,5.000000000000000000e+00,5.000000000000000000e+00,5.000000000000000000e+00,5.000000000000000000e+00,5.000000000000000000e+00,5.000000000000000000e+00,5.000000000000000000e+00,5.000000000000000000e+00,5.000000000000000000e+00,5.000000000000000000e+00,5.000000000000000000e+00,5.000000000000000000e+00,5.000000000000000000e+00,5.000000000000000000e+00,5.000000000000000000e+00,5.000000000000000000e+00,5.000000000000000000e+00,5.000000000000000000e+00,5.000000000000000000e+00,5.000000000000000000e+00,5.000000000000000000e+00,5.000000000000000000e+00,5.000000000000000000e+00,5.000000000000000000e+00,5.000000000000000000e+00,5.000000000000000000e+00,5.000000000000000000e+00,5.000000000000000000e+00,5.000000000000000000e+00,5.000000000000000000e+00,5.000000000000000000e+00,5.000000000000000000e+00,5.000000000000000000e+00,5.000000000000000000e+00,5.000000000000000000e+00,5.000000000000000000e+00,5.000000000000000000e+00,5.000000000000000000e+00,5.000000000000000000e+00,5.000000000000000000e+00,5.000000000000000000e+00,5.000000000000000000e+00,5.000000000000000000e+00,5.000000000000000000e+00,5.000000000000000000e+00,5.000000000000000000e+00,5.000000000000000000e+00,1.660371303558349609e+00,1.647167205810546875e+00,4.795424938201904297e+00,4.609946727752685547e+00,4.438282489776611328e+00,1.673616647720336914e+00,1.588388442993164062e+00,1.547210693359375000e+00,1.533316373825073242e+00,1.523262977600097656e+00,1.513345479965209961e+00,1.516311526298522949e+00,1.527612447738647461e+00,1.542796730995178223e+00,1.536123275756835938e+00,1.532024264335632324e+00,1.545365095138549805e+00,1.576618790626525879e+00,1.570284724235534668e+00,1.572415113449096680e+00,2.780737161636352539e+00,2.717310190200805664e+00,2.656712055206298828e+00,2.598757743835449219e+00,2.543277978897094727e+00,2.490117311477661133e+00
4.884527206420898438e+00,5.000000000000000000e+00,5.000000000000000000e+00,5.000000000000000000e+00,5.000000000000000000e+00,5.000000000000000000e+00,5.000000000000000000e+00,5.000000000000000000e+00,5.000000000000000000e+00,5.000000000000000000e+00,5.000000000000000000e+00,5.000000000000000000e+00,5.000000000000000000e+00,5.000000000000000000e+00,5.000000000000000000e+00,5.000000000000000000e+00,5.000000000000000000e+00,5.000000000000000000e+00,5.000000000000000000e+00,5.000000000000000000e+00,5.000000000000000000e+00,5.000000000000000000e+00,5.000000000000000000e+00,5.000000000000000000e+00,5.000000000000000000e+00,5.000000000000000000e+00,5.000000000000000000e+00,5.000000000000000000e+00,5.000000000000000000e+00,5.000000000000000000e+00,5.000000000000000000e+00,5.000000000000000000e+00,5.000000000000000000e+00,5.000000000000000000e+00,5.000000000000000000e+00,5.000000000000000000e+00,5.000000000000000000e+00,5.000000000000000000e+00,5.000000000000000000e+00,5.000000000000000000e+00,5.000000000000000000e+00,5.000000000000000000e+00,5.000000000000000000e+00,5.000000000000000000e+00,5.000000000000000000e+00,5.000000000000000000e+00,5.000000000000000000e+00,5.000000000000000000e+00,5.000000000000000000e+00,5.000000000000000000e+00,5.000000000000000000e+00,5.000000000000000000e+00,5.000000000000000000e+00,5.000000000000000000e+00,1.673184752464294434e+00,1.684643626213073730e+00,4.795770168304443359e+00,4.610207080841064453e+00,4.438445568084716797e+00,1.656319618225097656e+00,1.589673638343811035e+00,1.549051284790039062e+00,1.541369318962097168e+00,1.531865715980529785e+00,1.521713852882385254e+00,1.532559990882873535e+00,1.546604514122009277e+00,1.562170863151550293e+00,1.552718877792358398e+00,1.543380498886108398e+00,1.579327225685119629e+00,1.598782658576965332e+00,1.579271316528320312e+00,1.581201076507568359e+00,2.780789375305175781e+00,2.717360019683837891e+00,2.656759738922119141e+00,2.598803281784057617e+00,2.543321371078491211e+00,2.490159273147583008e+00
4.884413719177246094e+00,5.000000000000000000e+00,5.000000000000000000e+00,5.000000000000000000e+00,5.000000000000000000e+00,5.000000000000000000e+00,5.000000000000000000e+00,5.000000000000000000e+00,5.000000000000000000e+00,5.000000000000000000e+00,5.000000000000000000e+00,5.000000000000000000e+00,5.000000000000000000e+00,5.000000000000000000e+00,5.000000000000000000e+00,5.000000000000000000e+00,5.000000000000000000e+00,5.000000000000000000e+00,5.000000000000000000e+00,5.000000000000000000e+00,5.000000000000000000e+00,5.000000000000000000e+00,5.000000000000000000e+00,5.000000000000000000e+00,5.000000000000000000e+00,5.000000000000000000e+00,5.000000000000000000e+00,5.000000000000000000e+00,5.000000000000000000e+00,5.000000000000000000e+00,5.000000000000000000e+00,5.000000000000000000e+00,5.000000000000000000e+00,5.000000000000000000e+00,5.000000000000000000e+00,5.000000000000000000e+00,5.000000000000000000e+00,5.000000000000000000e+00,5.000000000000000000e+00,5.000000000000000000e+00,5.000000000000000000e+00,5.000000000000000000e+00,5.000000000000000000e+00,5.000000000000000000e+00,5.000000000000000000e+00,5.000000000000000000e+00,5.000000000000000000e+00,5.000000000000000000e+00,5.000000000000000000e+00,5.000000000000000000e+00,5.000000000000000000e+00,5.000000000000000000e+00,5.000000000000000000e+00,5.000000000000000000e+00,1.674103617668151855e+00,1.696483373641967773e+00,4.795953750610351562e+00,4.610351085662841797e+00,4.438578605651855469e+00,1.654082775115966797e+00,1.590687513351440430e+00,1.554991245269775391e+00,1.547250390052795410e+00,1.539586305618286133e+00,1.532340764999389648e+00,1.546623229980468750e+00,1.561028003692626953e+00,1.587221145629882812e+00,1.578609108924865723e+00,1.582044959068298340e+00,1.617433428764343262e+00,1.612299084663391113e+00,1.588608503341674805e+00,1.599876523017883301e+00,2.780841827392578125e+00,2.717409849166870117e+00,2.656807184219360352e+00,2.598848819732666016e+00,2.543365240097045898e+00,2.490201234817504883e+00
4.884300708770751953e+00,5.000000000000000000e+00,5.000000000000000000e+00,5.000000000000000000e+00,5.000000000000000000e+00,5.000000000000000000e+00,5.000000000000000000e+00,5.000000000000000000e+00,5.000000000000000000e+00,5.000000000000000000e+00,5.000000000000000000e+00,5.000000000000000000e+00,5.000000000000000000e+00,5.000000000000000000e+00,5.000000000000000000e+00,5.000000000000000000e+00,5.000000000000000000e+00,5.000000000000000000e+00,5.000000000000000000e+00,5.000000000000000000e+00,5.000000000000000000e+00,5.000000000000000000e+00,5.000000000000000000e+00,5.000000000000000000e+00,5.000000000000000000e+00,5.000000000000000000e+00,5.000000000000000000e+00,5.000000000000000000e+00,5.000000000000000000e+00,5.000000000000000000e+00,5.000000000000000000e+00,5.000000000000000000e+00,5.000000000000000000e+00,5.000000000000000000e+00,5.000000000000000000e+00,5.000000000000000000e+00,5.000000000000000000e+00,5.000000000000000000e+00,5.000000000000000000e+00,5.000000000000000000e+00,5.000000000000000000e+00,5.000000000000000000e+00,5.000000000000000000e+00,5.000000000000000000e+00,5.000000000000000000e+00,5.000000000000000000e+00,5.000000000000000000e+00,5.000000000000000000e+00,5.000000000000000000e+00,5.000000000000000000e+00,5.000000000000000000e+00,5.000000000000000000e+00,5.000000000000000000e+00,1.692447423934936523e+00,1.716794848442077637e+00,1.726041913032531738e+00,4.796108722686767578e+00,4.610494613647460938e+00,4.438711643218994141e+00,1.649601697921752930e+00,1.596819996833801270e+00,1.558168053627014160e+00,1.550223827362060547e+00,1.542929291725158691e+00,1.538786172866821289e+00,1.557391166687011719e+00,1.624561429023742676e+00,1.615691781044006348e+00,1.606918454170227051e+00,1.626763582229614258e+00,3.067295551300048828e+00,1.626345276832580566e+00,1.603069543838500977e+00,2.847360134124755859e+00,2.780893802642822266e+00,2.717459678649902344e+00,2.656855106353759766e+00,2.598894596099853516e+00,2.543409109115600586e+00,2.490243196487426758e+00
4.884187221527099609e+00,5.000000000000000000e+00,5.000000000000000000e+00,5.000000000000000000e+00,5.000000000000000000e+00,5.000000000000000000e+00,5.000000000000000000e+00,5.000000000000000000e+00,5.000000000000000000e+00,5.000000000000000000e+00,5.000000000000000000e+00,5.000000000000000000e+00,5.000000000000000000e+00,5.000000000000000000e+00,5.000000000000000000e+00,5.000000000000000000e+00,5.000000000000000000e+00,5.000000000000000000e+00,5.000000000000000000e+00,5.000000000000000000e+00,5.000000000000000000e+00,5.000000000000000000e+00,5.000000000000000000e+00,5.000000000000000000e+00,5.000000000000000000e+00,5.000000000000000000e+00,5.000000000000000000e+00,5.000000000000000000e+00,5.000000000000000000e+00,5.000000000000000000e+00,5.000000000000000000e+00,5.000000000000000000e+00,5.000000000000000000e+00,5.000000000000000000e+00,5.000000000000000000e+00,5.000000000000000000e+00,5.000000000000000000e+00,5.000000000000000000e+00,5.000000000000000000e+00,5.000000000000000000e+00,5.000000000000000000e+00,5.000000000000000000e+00,5.000000000000000000e+00,5.000000000000000000e+00,5.000000000000000000e+00,5.000000000000000000e+00,5.000000000000000000e+00,5.000000000000000000e+00,5.000000000000000000e+00,5.000000000000000000e+00,5.000000000000000000e+00,5.000000000000000000e+00,5.000000000000000000e+00,1.695503115653991699e+00,1.752187609672546387e+00,1.755241870880126953e+00,4.796264648437500000e+00,4.610638141632080078e+00,4.438844680786132812e+00,1.664668202400207520e+00,1.604934811592102051e+00,1.564559936523437500e+00,1.552852392196655273e+00,1.545239806175231934e+00,1.538170814514160156e+00,1.559066653251647949e+00,1.653077006340026855e+00,1.642805933952331543e+00,1.639228940010070801e+00,1.663236737251281738e+00,1.644656538963317871e+00,1.631263971328735352e+00,1.603141665458679199e+00,1.608408331871032715e+00,2.780946254730224609e+00,2.717509746551513672e+00,2.656902790069580078e+00,2.598940134048461914e+00,2.543452501296997070e+00,2.490284919738769531e+00
4.884073734283447266e+00,5.000000000000000000e+00,5.000000000000000000e+00,5.000000000000000000e+00,5.000000000000000000e+00,5.000000000000000000e+00,5.000000000000000000e+00,5.000000000000000000e+00,5.000000000000000000e+00,5.000000000000000000e+00,5.000000000000000000e+00,5.000000000000000000e+00,5.000000000000000000e+00,5.000000000000000000e+00,5.000000000000000000e+00,5.000000000000000000e+00,5.000000000000000000e+00,5.000000000000000000e+00,5.000000000000000000e+00,5.000000000000000000e+00,5.000000000000000000e+00,5.000000000000000000e+00,5.000000000000000000e+00,5.000000000000000000e+00,5.000000000000000000e+00,5.000000000000000000e+00,5.000000000000000000e+00,5.000000000000000000e+00,5.000000000000000000e+00,5.000000000000000000e+00,5.000000000000000000e+00,5.000000000000000000e+00,5.000000000000000000e+00,5.000000000000000000e+00,5.000000000000000000e+00,5.000000000000000000e+00,5.000000000000000000e+00,5.000000000000000000e+00,5.000000000000000000e+00,5.000000000000000000e+00,5.000000000000000000e+00,5.000000000000000000e+00,5.000000000000000000e+00,5.000000000000000000e+00,5.000000000000000000e+00,5.000000000000000000e+00,5.000000000000000000e+00,5.000000000000000000e+00,5.000000000000000000e+00,5.000000000000000000e+00,5.000000000000000000e+00,5.000000000000000000e+00,5.000000000000000000e+00,1.732607126235961914e+00,5.000000000000000000e+00,4.997633457183837891e+00,4.796419620513916016e+00,4.610781669616699219e+00,4.438978195190429688e+00,4.279517650604248047e+00,1.613132596015930176e+00,1.572071671485900879e+00,1.555983185768127441e+00,1.547572851181030273e+00,1.540287971496582031e+00,1.560745596885681152e+00,1.674218416213989258e+00,1.663988471031188965e+00,1.669602870941162109e+00,1.687965154647827148e+00,1.661154747009277344e+00,1.652384757995605469e+00,1.618677377700805664e+00,1.602868556976318359e+00,2.780998468399047852e+00,2.717559576034545898e+00,2.656950235366821289e+00,2.598985671997070312e+00,2.543496370315551758e+00,2.490326881408691406e+00
4.883960723876953125e+00,5.000000000000000000e+00,5.000000000000000000e+00,5.000000000000000000e+00,5.000000000000000000e+00,5.000000000000000000e+00,5.000000000000000000e+00,5.000000000000000000e+00,5.000000000000000000e+00,5.000000000000000000e+00,5.000000000000000000e+00,5.000000000000000000e+00,5.000000000000000000e+00,5.000000000000000000e+00,5.000000000000000000e+00,5.000000000000000000e+00,5.000000000000000000e+00,5.000000000000000000e+00,5.000000000000000000e+00,5.000000000000000000e+00,5.000000000000000000e+00,5.000000000000000000e+00,5.000000000000000000e+00,5.000000000000000000e+00,5.000000000000000000e+00,5.000000000000000000e+00,5.000000000000000000e+00,5.000000000000000000e+00,5.000000000000000000e+00,5.000000000000000000e+00,5.000000000000000000e+00,5.000000000000000000e+00,5.000000000000000000e+00,5.000000000000000000e+00,5.000000000000000000e+00,5.000000000000000000e+00,5.000000000000000000e+00,5.000000000000000000e+00,5.000000000000000000e+00,5.000000000000000000e+00,5.000000000000000000e+00,5.000000000000000000e+00,5.000000000000000000e+00,5.000000000000000000e+00,5.000000000000000000e+00,5.000000000000000000e+00,5.000000000000000000e+00,5.000000000000000000e+00,5.000000000000000000e+00,5.000000000000000000e+00,5.000000000000000000e+00,5.000000000000000000e+00,5.000000000000000000e+00,1.796069025993347168e+00,5.000000000000000000e+00,4.997802257537841797e+00,4.796575546264648438e+00,4.610925197601318359e+00,4.439111232757568359e+00,4.279641151428222656e+00,1.622476935386657715e+00,1.579655647277832031e+00,1.559126615524291992e+00,1.550682425498962402e+00,1.542590498924255371e+00,1.560453891754150391e+00,1.688458323478698730e+00,1.676981568336486816e+00,1.693393230438232422e+00,1.689840912818908691e+00,3.067486286163330078e+00,1.660828709602355957e+00,1.628831148147583008e+00,1.608862757682800293e+00,2.781050682067871094e+00,2.717609405517578125e+00,2.656998157501220703e+00,2.599031448364257812e+00,2.543540000915527344e+00,2.490368843078613281e+00
4.883847236633300781e+00,5.000000000000000000e+00,5.000000000000000000e+00,5.000000000000000000e+00,5.000000000000000000e+00,5.000000000000000000e+00,5.000000000000000000e+00,5.000000000000000000e+00,5.000000000000000000e+00,5.000000000000000000e+00,5.000000000000000000e+00,5.000000000000000000e+00,5.000000000000000000e+00,5.000000000000000000e+00,5.000000000000000000e+00,5.000000000000000000e+00,5.000000000000000000e+00,5.000000000000000000e+00,5.000000000000000000e+00,5.000000000000000000e+00,5.000000000000000000e+00,5.000000000000000000e+00,5.000000000000000000e+00,5.000000000000000000e+00,5.000000000000000000e+00,5.000000000000000000e+00,5.000000000000000000e+00,5.000000000000000000e+00,5.000000000000000000e+00,5.000000000000000000e+00,5.000000000000000000e+00,5.000000000000000000e+00,5.000000000000000000e+00,5.000000000000000000e+00,5.000000000000000000e+00,5.000000000000000000e+00,5.000000000000000000e+00,5.000000000000000000e+00,5.000000000000000000e+00,5.000000000000000000e+00,5.000000000000000000e+00,5.000000000000000000e+00,5.000000000000000000e+00,5.000000000000000000e+00,5.000000000000000000e+00,5.000000000000000000e+00,5.000000000000000000e+00,5.000000000000000000e+00,5.000000000000000000e+00,5.000000000000000000e+00,5.000000000000000000e+00,5.000000000000000000e+00,5.000000000000000000e+00,5.000000000000000000e+00,5.000000000000000000e+00,4.997970581054687500e+00,4.796730995178222656e+00,4.611069202423095703e+00,4.439244270324707031e+00,4.279764652252197266e+00,1.635273814201354980e+00,1.587908267974853516e+00,1.561839938163757324e+00,1.553415417671203613e+00,1.545081496238708496e+00,1.560149073600769043e+00,1.701733350753784180e+00,1.699686646461486816e+00,1.721276402473449707e+00,1.699221014976501465e+00,3.067549943923950195e+00,2.990545034408569336e+00,1.642554759979248047e+00,2.847579479217529297e+00,2.781102895736694336e+00,2.717659473419189453e+00,2.657045841217041016e+00,2.599077224731445312e+00,2.543583869934082031e+00,2.490410566329956055e+00
4.883734226226806641e+00,5.000000000000000000e+00,5.000000000000000000e+00,5.000000000000000000e+00,5.000000000000000000e+00,5.000000000000000000e+00,5.000000000000000000e+00,5.000000000000000000e+00,5.000000000000000000e+00,5.000000000000000000e+00,5.000000000000000000e+00,5.000000000000000000e+00,5.000000000000000000e+00,5.000000000000000000e+00,5.000000000000000000e+00,5.000000000000000000e+00,5.000000000000000000e+00,5.000000000000000000e+00,5.000000000000000000e+00,5.000000000000000000e+00,5.000000000000000000e+00,5.000000000000000000e+00,5.000000000000000000e+00,5.000000000000000000e+00,5.000000000000000000e+00,5.000000000000000000e+00,5.000000000000000000e+00,5.000000000000000000e+00,5.000000000000000000e+00,5.000000000000000000e+00,5.000000000000000000e+00,5.000000000000000000e+00,5.000000000000000000e+00,5.000000000000000000e+00,5.000000000000000000e+00,5.000000000000000000e+00,5.000000000000000000e+00,5.000000000000000000e+00,5.000000000000000000e+00,5.000000000000000000e+00,5.000000000000000000e+00,5.000000000000000000e+00,5.000000000000000000e+00,5.000000000000000000e+00,5.000000000000000000e+00,5.000000000000000000e+00,5.000000000000000000e+00,5.000000000000000000e+00,5.000000000000000000e+00,5.000000000000000000e+00,5.000000000000000000e+00,5.000000000000000000e+00,5.000000000000000000e+00,5.000000000000000000e+00,5.000000000000000000e+00,4.998131275177001953e+00,4.796879768371582031e+00,4.611208438873291016e+00,4.439374923706054688e+00,4.279887676239013672e+00,1.648787140846252441e+00,1.597470164299011230e+00,1.564814805984497070e+00,1.555535674095153809e+00,1.547178983688354492e+00,1.561900973320007324e+00,1.715185523033142090e+00,1.726939678192138672e+00,3.234173059463500977e+00,3.148691892623901367e+00,1.710628986358642578e+00,1.683047294616699219e+00,1.650217890739440918e+00,2.847634315490722656e+00,2.781155347824096680e+00,2.717709302902221680e+00,2.657093524932861328e+00,2.599122762680053711e+00,2.543627500534057617e+00,2.490452527999877930e+00
4.883621215820312500e+00,5.000000000000000000e+00,5.000000000000000000e+00,5.000000000000000000e+00,5.000000000000000000e+00,5.000000000000000000e+00,5.000000000000000000e+00,5.000000000000000000e+00,5.000000000000000000e+00,5.000000000000000000e+00,5.000000000000000000e+00,5.000000000000000000e+00,5.000000000000000000e+00,5.000000000000000000e+00,5.000000000000000000e+00,5.000000000000000000e+00,5.000000000000000000e+00,5.000000000000000000e+00,5.000000000000000000e+00,5.000000000000000000e+00,5.000000000000000000e+00,5.000000000000000000e+00,5.000000000000000000e+00,5.000000000000000000e+00,5.000000000000000000e+00,5.000000000000000000e+00,5.000000000000000000e+00,5.000000000000000000e+00,5.000000000000000000e+00,5.000000000000000000e+00,5.000000000000000000e+00,5.000000000000000000e+00,5.000000000000000000e+00,5.000000000000000000e+00,5.000000000000000000e+00,5.000000000000000000e+00,5.000000000000000000e+00,5.000000000000000000e+00,5.000000000000000000e+00,5.000000000000000000e+00,5.000000000000000000e+00,5.000000000000000000e+00,5.000000000000000000e+00,5.000000000000000000e+00,5.000000000000000000e+00,5.000000000000000000e+00,5.000000000000000000e+00,5.000000000000000000e+00,5.000000000000000000e+00,5.000000000000000000e+00,5.000000000000000000e+00,5.000000000000000000e+00,5.000000000000000000e+00,5.000000000000000000e+00,5.000000000000000000e+00,4.998287677764892578e+00,4.797024726867675781e+00,4.611342430114746094e+00,4.439498901367187500e+00,4.280003070831298828e+00,1.662025809288024902e+00,1.607148051261901855e+00,1.568401694297790527e+00,1.557672977447509766e+00,1.549282073974609375e+00,1.563656926155090332e+00,1.732903718948364258e+00,1.756621360778808594e+00,3.234243631362915039e+00,3.148758888244628906e+00,3.067677021026611328e+00,1.691657662391662598e+00,2.917426824569702148e+00,2.847689151763916016e+00,2.781207323074340820e+00,2.717759132385253906e+00,2.657141208648681641e+00,2.599168300628662109e+00,2.543671131134033203e+00,2.490494489669799805e+00
4.883507728576660156e+00,5.000000000000000000e+00,5.000000000000000000e+00,5.000000000000000000e+00,5.000000000000000000e+00,5.000000000000000000e+00,5.000000000000000000e+00,5.000000000000000000e+00,5.000000000000000000e+00,5.000000000000000000e+00,5.000000000000000000e+00,5.000000000000000000e+00,5.000000000000000000e+00,5.000000000000000000e+00,5.000000000000000000e+00,5.000000000000000000e+00,5.000000000000000000e+00,5.000000000000000000e+00,5.000000000000000000e+00,5.000000000000000000e+00,5.000000000000000000e+00,5.000000000000000000e+00,5.000000000000000000e+00,5.000000000000000000e+00,5.000000000000000000e+00,5.000000000000000000e+00,5.000000000000000000e+00,5.000000000000000000e+00,5.000000000000000000e+00,5.000000000000000000e+00,5.000000000000000000e+00,5.000000000000000000e+00,5.000000000000000000e+00,5.000000000000000000e+00,5.000000000000000000e+00,5.000000000000000000e+00,5.000000000000000000e+00,5.000000000000000000e+00,5.000000000000000000e+00,5.000000000000000000e+00,5.000000000000000000e+00,5.000000000000000000e+00,5.000000000000000000e+00,5.000000000000000000e+00,5.000000000000000000e+00,5.000000000000000000e+00,5.000000000000000000e+00,5.000000000000000000e+00,5.000000000000000000e+00,5.000000000000000000e+00,5.000000000000000000e+00,5.000000000000000000e+00,5.000000000000000000e+00,5.000000000000000000e+00,5.000000000000000000e+00,4.998445034027099609e+00,4.797169208526611328e+00,4.611475467681884766e+00,4.439622879028320312e+00,4.280117988586425781e+00,1.672288179397583008e+00,1.616943836212158203e+00,1.572004795074462891e+00,1.561227083206176758e+00,1.551390886306762695e+00,1.565852165222167969e+00,1.762603402137756348e+00,3.324569225311279297e+00,3.234310626983642578e+00,3.148823261260986328e+00,3.067738771438598633e+00,2.990725278854370117e+00,2.917484045028686523e+00,2.847743749618530273e+00,2.781259775161743164e+00,2.717809200286865234e+00,2.657188892364501953e+00,2.599214076995849609e+00,2.543715000152587891e+00,2.490536451339721680e+00
4.883394718170166016e+00,5.000000000000000000e+00,5.000000000000000000e+00,5.000000000000000000e+00,5.000000000000000000e+00,5.000000000000000000e+00,5.000000000000000000e+00,5.000000000000000000e+00,5.000000000000000000e+00,5.000000000000000000e+00,5.000000000000000000e+00,5.000000000000000000e+00,5.000000000000000000e+00,5.000000000000000000e+00,5.000000000000000000e+00,5.000000000000000000e+00,5.000000000000000000e+00,5.000000000000000000e+00,5.000000000000000000e+00,5.000000000000000000e+00,5.000000000000000000e+00,5.000000000000000000e+00,5.000000000000000000e+00,5.000000000000000000e+00,5.000000000000000000e+00,5.000000000000000000e+00,5.000000000000000000e+00,5.000000000000000000e+00,5.000000000000000000e+00,5.000000000000000000e+00,5.000000000000000000e+00,5.000000000000000000e+00,5.000000000000000000e+00,5.000000000000000000e+00,5.000000000000000000e+00,5.000000000000000000e+00,5.000000000000000000e+00,5.000000000000000000e+00,5.000000000000000000e+00,5.000000000000000000e+00,5.000000000000000000e+00,5.000000000000000000e+00,5.000000000000000000e+00,5.000000000000000000e+00,5.000000000000000000e+00,5.000000000000000000e+00,5.000000000000000000e+00,5.000000000000000000e+00,5.000000000000000000e+00,5.000000000000000000e+00,5.000000000000000000e+00,5.000000000000000000e+00,5.000000000000000000e+00,5.000000000000000000e+00,5.000000000000000000e+00,4.998601913452148438e+00,4.797313690185546875e+00,4.611609458923339844e+00,4.439746379852294922e+00,4.280232906341552734e+00,4.131783962249755859e+00,1.626859784126281738e+00,1.575624585151672363e+00,1.564347147941589355e+00,1.552520155906677246e+00,1.569209575653076172e+00,1.795067191123962402e+00,3.324638843536376953e+00,3.234376430511474609e+00,3.148885488510131836e+00,3.067797899246215820e+00,2.990781545639038086e+00,2.917537212371826172e+00,2.847795009613037109e+00,2.781309127807617188e+00,2.717856645584106445e+00,2.657234907150268555e+00,2.599258661270141602e+00,2.543757915496826172e+00,2.490578174591064453e+00
4.883281230926513672e+00,5.000000000000000000e+00,5.000000000000000000e+00,5.000000000000000000e+00,5.000000000000000000e+00,5.000000000000000000e+00,5.000000000000000000e+00,5.000000000000000000e+00,5.000000000000000000e+00,5.000000000000000000e+00,5.000000000000000000e+00,5.000000000000000000e+00,5.000000000000000000e+00,5.000000000000000000e+00,5.000000000000000000e+00,5.000000000000000000e+00,5.000000000000000000e+00,5.000000000000000000e+00,5.000000000000000000e+00,5.000000000000000000e+00,5.000000000000000000e+00,5.000000000000000000e+00,5.000000000000000000e+00,5.000000000000000000e+00,5.000000000000000000e+00,5.000000000000000000e+00,5.000000000000000000e+00,5.000000000000000000e+00,5.000000000000000000e+00,5.000000000000000000e+00,5.000000000000000000e+00,5.000000000000000000e+00,5.000000000000000000e+00,5.000000000000000000e+00,5.000000000000000000e+00,5.000000000000000000e+00,5.000000000000000000e+00,5.000000000000000000e+00,5.000000000000000000e+00,5.000000000000000000e+00,5.000000000000000000e+00,5.000000000000000000e+00,5.000000000000000000e+00,5.000000000000000000e+00,5.000000000000000000e+00,5.000000000000000000e+00,5.000000000000000000e+00,5.000000000000000000e+00,5.000000000000000000e+00,5.000000000000000000e+00,5.000000000000000000e+00,5.000000000000000000e+00,5.000000000000000000e+00,5.000000000000000000e+00,5.000000000000000000e+00,4.998758792877197266e+00,4.797458171844482422e+00,4.611742973327636719e+00,4.439870357513427734e+00,4.280348300933837891e+00,4.131891250610351562e+00,1.637998938560485840e+00,1.586012363433837891e+00,1.561125874519348145e+00,1.543468117713928223e+00,1.558741807937622070e+00,3.420156955718994141e+00,3.324708223342895508e+00,3.234441995620727539e+00,3.148947715759277344e+00,3.067857027053833008e+00,2.990837812423706055e+00,2.917590856552124023e+00,2.847845792770385742e+00,2.781357765197753906e+00,2.717903137207031250e+00,2.657279253005981445e+00,2.599301099777221680e+00,2.543798685073852539e+00,2.490617036819458008e+00
4.883168220520019531e+00,5.000000000000000000e+00,5.000000000000000000e+00,5.000000000000000000e+00,5.000000000000000000e+00,5.000000000000000000e+00,5.000000000000000000e+00,5.000000000000000000e+00,5.000000000000000000e+00,5.000000000000000000e+00,5.000000000000000000e+00,5.000000000000000000e+00,5.000000000000000000e+00,5.000000000000000000e+00,5.000000000000000000e+00,5.000000000000000000e+00,5.000000000000000000e+00,5.000000000000000000e+00,5.000000000000000000e+00,5.000000000000000000e+00,5.000000000000000000e+00,5.000000000000000000e+00,5.000000000000000000e+00,5.000000000000000000e+00,5.000000000000000000e+00,5.000000000000000000e+00,5.000000000000000000e+00,5.000000000000000000e+00,5.000000000000000000e+00,5.000000000000000000e+00,5.000000000000000000e+00,5.000000000000000000e+00,5.000000000000000000e+00,5.000000000000000000e+00,5.000000000000000000e+00,5.000000000000000000e+00,5.000000000000000000e+00,5.000000000000000000e+00,5.000000000000000000e+00,5.000000000000000000e+00,5.000000000000000000e+00,5.000000000000000000e+00,5.000000000000000000e+00,5.000000000000000000e+00,5.000000000000000000e+00,5.000000000000000000e+00,5.000000000000000000e+00,5.000000000000000000e+00,5.000000000000000000e+00,5.000000000000000000e+00,5.000000000000000000e+00,5.000000000000000000e+00,5.000000000000000000e+00,5.000000000000000000e+00,5.000000000000000000e+00,4.998916149139404297e+00,4.797602653503417969e+00,4.611876487731933594e+00,4.439994335174560547e+00,4.280463218688964844e+00,4.131998538970947266e+00,1.648381590843200684e+00,1.587218523025512695e+00,1.546195983886718750e+00,1.531457662582397461e+00,1.523468852043151855e+00,1.545333504676818848e+00,3.324777364730834961e+00,3.234507799148559570e+00,3.149010181427001953e+00,3.067915916442871094e+00,2.990893840789794922e+00,2.917644262313842773e+00,2.847896814346313477e+00,2.781406402587890625e+00,2.717949628829956055e+00,2.657323598861694336e+00,2.599343299865722656e+00,2.543839454650878906e+00,2.490656137466430664e+00
4.883054733276367188e+00,5.000000000000000000e+00,5.000000000000000000e+00,5.000000000000000000e+00,5.000000000000000000e+00,5.000000000000000000e+00,5.000000000000000000e+00,5.000000000000000000e+00,5.000000000000000000e+00,5.000000000000000000e+00,5.000000000000000000e+00,5.000000000000000000e+00,5.000000000000000000e+00,5.000000000000000000e+00,5.000000000000000000e+00,5.000000000000000000e+00,5.000000000000000000e+00,5.000000000000000000e+00,5.000000000000000000e+00,5.000000000000000000e+00,5.000000000000000000e+00,5.000000000000000000e+00,5.000000000000000000e+00,5.000000000000000000e+00,5.000000000000000000e+00,5.000000000000000000e+00,5.000000000000000000e+00,5.000000000000000000e+00,5.000000000000000000e+00,5.000000000000000000e+00,5.000000000000000000e+00,5.000000000000000000e+00,5.000000000000000000e+00,5.000000000000000000e+00,5.000000000000000000e+00,5.000000000000000000e+00,5.000000000000000000e+00,5.000000000000000000e+00,5.000000000000000000e+00,5.000000000000000000e+00,5.000000000000000000e+00,5.000000000000000000e+00,5.000000000000000000e+00,5.000000000000000000e+00,5.000000000000000000e+00,5.000000000000000000e+00,5.000000000000000000e+00,5.000000000000000000e+00,5.000000000000000000e+00,5.000000000000000000e+00,5.000000000000000000e+00,5.000000000000000000e+00,5.000000000000000000e+00,5.000000000000000000e+00,5.000000000000000000e+00,4.999073028564453125e+00,4.797747611999511719e+00,4.612010478973388672e+00,4.440117835998535156e+00,4.280578613281250000e+00,4.132105827331542969e+00,3.993587732315063477e+00,1.580590486526489258e+00,1.535987973213195801e+00,1.517909646034240723e+00,1.505110740661621094e+00,1.511031389236450195e+00,3.324846982955932617e+00,3.234573364257812500e+00,3.149072408676147461e+00,3.067975044250488281e+00,2.990949869155883789e+00,2.917697906494140625e+00,2.847947597503662109e+00,2.781454801559448242e+00,2.717995882034301758e+00,2.657367944717407227e+00,2.599385738372802734e+00,2.543879985809326172e+00,2.490694999694824219e+00
4.882941722869873047e+00,5.000000000000000000e+00,5.000000000000000000e+00,5.000000000000000000e+00,5.000000000000000000e+00,5.000000000000000000e+00,5.000000000000000000e+00,5.000000000000000000e+00,5.000000000000000000e+00,5.000000000000000000e+00,5.000000000000000000e+00,5.000000000000000000e+00,5.000000000000000000e+00,5.000000000000000000e+00,5.000000000000000000e+00,5.000000000000000000e+00,5.000000000000000000e+00,5.000000000000000000e+00,5.000000000000000000e+00,5.000000000000000000e+00,5.000000000000000000e+00,5.000000000000000000e+00,5.000000000000000000e+00,5.000000000000000000e+00,5.000000000000000000e+00,5.000000000000000000e+00,5.000000000000000000e+00,5.000000000000000000e+00,5.000000000000000000e+00,5.000000000000000000e+00,5.000000000000000000e+00,5.000000000000000000e+00,5.000000000000000000e+00,5.000000000000000000e+00,5.000000000000000000e+00,5.000000000000000000e+00,5.000000000000000000e+00,5.000000000000000000e+00,5.000000000000000000e+00,5.000000000000000000e+00,5.000000000000000000e+00,5.000000000000000000e+00,5.000000000000000000e+00,5.000000000000000000e+00,5.000000000000000000e+00,5.000000000000000000e+00,5.000000000000000000e+00,5.000000000000000000e+00,5.000000000000000000e+00,5.000000000000000000e+00,5.000000000000000000e+00,5.000000000000000000e+00,5.000000000000000000e+00,5.000000000000000000e+00,5.000000000000000000e+00,4.999229907989501953e+00,4.797892093658447266e+00,4.612143993377685547e+00,4.440241813659667969e+00,4.280693531036376953e+00,4.132213115692138672e+00,3.993688106536865234e+00,1.576383113861083984e+00,1.529906868934631348e+00,1.502406716346740723e+00,1.491597175598144531e+00,1.486557602882385254e+00,1.502049565315246582e+00,3.234639167785644531e+00,3.149134874343872070e+00,3.068034410476684570e+00,2.991006135940551758e+00,2.917751312255859375e+00,2.847998619079589844e+00,2.781503438949584961e+00,2.718042135238647461e+00,2.657412290573120117e+00,2.599428415298461914e+00,2.543920516967773438e+00,2.490734100341796875e+00
4.882828712463378906e+00,5.000000000000000000e+00,5.000000000000000000e+00,5.000000000000000000e+00,5.000000000000000000e+00,5.000000000000000000e+00,5.000000000000000000e+00,5.000000000000000000e+00,5.000000000000000000e+00,5.000000000000000000e+00,5.000000000000000000e+00,5.000000000000000000e+00,5.000000000000000000e+00,5.000000000000000000e+00,5.000000000000000000e+00,5.000000000000000000e+00,5.000000000000000000e+00,5.000000000000000000e+00,5.000000000000000000e+00,5.000000000000000000e+00,5.000000000000000000e+00,5.000000000000000000e+00,5.000000000000000000e+00,5.000000000000000000e+00,5.000000000000000000e+00,5.000000000000000000e+00,5.000000000000000000e+00,5.000000000000000000e+00,5.000000000000000000e+00,5.000000000000000000e+00,5.000000000000000000e+00,5.000000000000000000e+00,5.000000000000000000e+00,5.000000000000000000e+00,5.000000000000000000e+00,5.000000000000000000e+00,5.000000000000000000e+00,5.000000000000000000e+00,5.000000000000000000e+00,5.000000000000000000e+00,5.000000000000000000e+00,5.000000000000000000e+00,5.000000000000000000e+00,5.000000000000000000e+00,5.000000000000000000e+00,5.000000000000000000e+00,5.000000000000000000e+00,5.000000000000000000e+00,5.000000000000000000e+00,5.000000000000000000e+00,5.000000000000000000e+00,5.000000000000000000e+00,5.000000000000000000e+00,5.000000000000000000e+00,5.000000000000000000e+00,4.999387264251708984e+00,4.798036575317382812e+00,4.612277507781982422e+00,4.440365791320800781e+00,4.280808448791503906e+00,4.132320404052734375e+00,3.993788242340087891e+00,3.864243030548095703e+00,1.524874925613403320e+00,1.497555971145629883e+00,1.484806299209594727e+00,1.475391149520874023e+00,1.489820599555969238e+00,3.234704971313476562e+00,3.149196863174438477e+00,3.068093538284301758e+00,2.991062402725219727e+00,2.917804718017578125e+00,2.848049640655517578e+00,2.781552076339721680e+00,2.718088626861572266e+00,2.657456874847412109e+00,2.599470853805541992e+00,2.543961286544799805e+00,2.490772962570190430e+00
4.882705211639404297e+00,5.000000000000000000e+00,5.000000000000000000e+00,5.000000000000000000e+00,5.000000000000000000e+00,5.000000000000000000e+00,5.000000000000000000e+00,5.000000000000000000e+00,5.000000000000000000e+00,5.000000000000000000e+00,5.000000000000000000e+00,5.000000000000000000e+00,5.000000000000000000e+00,5.000000000000000000e+00,5.000000000000000000e+00,5.000000000000000000e+00,5.000000000000000000e+00,5.000000000000000000e+00,5.000000000000000000e+00,5.000000000000000000e+00,5.000000000000000000e+00,5.000000000000000000e+00,5.000000000000000000e+00,5.000000000000000000e+00,5.000000000000000000e+00,5.000000000000000000e+00,5.000000000000000000e+00,5.000000000000000000e+00,5.000000000000000000e+00,5.000000000000000000e+00,5.000000000000000000e+00,5.000000000000000000e+00,5.000000000000000000e+00,5.000000000000000000e+00,5.000000000000000000e+00,5.000000000000000000e+00,5.000000000000000000e+00,5.000000000000000000e+00,5.000000000000000000e+00,5.000000000000000000e+00,5.000000000000000000e+00,5.000000000000000000e+00,5.000000000000000000e+00,5.000000000000000000e+00,5.000000000000000000e+00,5.000000000000000000e+00,5.000000000000000000e+00,5.000000000000000000e+00,5.000000000000000000e+00,5.000000000000000000e+00,5.000000000000000000e+00,5.000000000000000000e+00,5.000000000000000000e+00,5.000000000000000000e+00,5.000000000000000000e+00,4.999544143676757812e+00,4.798181533813476562e+00,4.612411022186279297e+00,4.440489768981933594e+00,4.280923843383789062e+00,4.132427692413330078e+00,3.993888616561889648e+00,3.864336967468261719e+00,1.524677753448486328e+00,1.497633099555969238e+00,1.478117823600769043e+00,1.468746662139892578e+00,1.477789163589477539e+00,3.234770774841308594e+00,3.149259328842163086e+00,3.068152666091918945e+00,2.991118669509887695e+00,2.917858123779296875e+00,2.848100423812866211e+00,2.781600713729858398e+00,2.718135118484497070e+00,2.657500982284545898e+00,2.599513292312622070e+00,2.544002056121826172e+00,2.490811824798583984e+00
4.882579803466796875e+00,5.000000000000000000e+00,5.000000000000000000e+00,5.000000000000000000e+00,5.000000000000000000e+00,5.000000000000000000e+00,5.000000000000000000e+00,5.000000000000000000e+00,5.000000000000000000e+00,5.000000000000000000e+00,5.000000000000000000e+00,5.000000000000000000e+00,5.000000000000000000e+00,5.000000000000000000e+00,5.000000000000000000e+00,5.000000000000000000e+00,5.000000000000000000e+00,5.000000000000000000e+00,5.000000000000000000e+00,5.000000000000000000e+00,5.000000000000000000e+00,5.000000000000000000e+00,5.000000000000000000e+00,5.000000000000000000e+00,5.000000000000000000e+00,5.000000000000000000e+00,5.000000000000000000e+00,5.000000000000000000e+00,5.000000000000000000e+00,5.000000000000000000e+00,5.000000000000000000e+00,5.000000000000000000e+00,5.000000000000000000e+00,5.000000000000000000e+00,5.000000000000000000e+00,5.000000000000000000e+00,5.000000000000000000e+00,5.000000000000000000e+00,5.000000000000000000e+00,5.000000000000000000e+00,5.000000000000000000e+00,5.000000000000000000e+00,5.000000000000000000e+00,5.000000000000000000e+00,5.000000000000000000e+00,5.000000000000000000e+00,5.000000000000000000e+00,5.000000000000000000e+00,5.000000000000000000e+00,5.000000000000000000e+00,5.000000000000000000e+00,5.000000000000000000e+00,5.000000000000000000e+00,5.000000000000000000e+00,5.000000000000000000e+00,4.999701023101806641e+00,4.798326015472412109e+00,4.612545013427734375e+00,4.440613746643066406e+00,4.281038761138916016e+00,4.132534980773925781e+00,3.993988990783691406e+00,3.864430904388427734e+00,1.549795866012573242e+00,1.497442960739135742e+00,1.471534013748168945e+00,1.462184071540832520e+00,1.455489873886108398e+00,3.234836578369140625e+00,3.149321556091308594e+00,3.068211555480957031e+00,2.991174936294555664e+00,2.917911767959594727e+00,2.848151445388793945e+00,2.781649351119995117e+00,2.718181610107421875e+00,2.657545328140258789e+00,2.599555730819702148e+00,2.544042587280273438e+00,2.490850925445556641e+00
4.882453918457031250e+00,5.000000000000000000e+00,5.000000000000000000e+00,5.000000000000000000e+00,5.000000000000000000e+00,5.000000000000000000e+00,5.000000000000000000e+00,5.000000000000000000e+00,5.000000000000000000e+00,5.000000000000000000e+00,5.000000000000000000e+00,5.000000000000000000e+00,5.000000000000000000e+00,5.000000000000000000e+00,5.000000000000000000e+00,5.000000000000000000e+00,5.000000000000000000e+00,5.000000000000000000e+00,5.000000000000000000e+00,5.000000000000000000e+00,5.000000000000000000e+00,5.000000000000000000e+00,5.000000000000000000e+00,5.000000000000000000e+00,5.000000000000000000e+00,5.000000000000000000e+00,5.000000000000000000e+00,5.000000000000000000e+00,5.000000000000000000e+00,5.000000000000000000e+00,5.000000000000000000e+00,5.000000000000000000e+00,5.000000000000000000e+00,5.000000000000000000e+00,5.000000000000000000e+00,5.000000000000000000e+00,5.000000000000000000e+00,5.000000000000000000e+00,5.000000000000000000e+00,5.000000000000000000e+00,5.000000000000000000e+00,5.000000000000000000e+00,5.000000000000000000e+00,5.000000000000000000e+00,5.000000000000000000e+00,5.000000000000000000e+00,5.000000000000000000e+00,5.000000000000000000e+00,5.000000000000000000e+00,5.000000000000000000e+00,5.000000000000000000e+00,5.000000000000000000e+00,5.000000000000000000e+00,5.000000000000000000e+00,5.000000000000000000e+00,4.999857902526855469e+00,4.798470497131347656e+00,4.612678527832031250e+00,4.440737247467041016e+00,4.281154155731201172e+00,4.132642269134521484e+00,3.994088888168334961e+00,3.864524841308593750e+00,1.797350287437438965e+00,1.497252821922302246e+00,1.467682003974914551e+00,1.455741167068481445e+00,1.446590304374694824e+00,1.469123601913452148e+00,3.149384021759033203e+00,3.068270921707153320e+00,2.991230964660644531e+00,2.917965173721313477e+00,2.848202466964721680e+00,2.781697750091552734e+00,2.718228101730346680e+00,2.657589912414550781e+00,2.599598169326782227e+00,2.544083356857299805e+00,2.490890026092529297e+00
4.882327556610107422e+00,5.000000000000000000e+00,5.000000000000000000e+00,5.000000000000000000e+00,5.000000000000000000e+00,5.000000000000000000e+00,5.000000000000000000e+00,5.000000000000000000e+00,5.000000000000000000e+00,5.000000000000000000e+00,5.000000000000000000e+00,5.000000000000000000e+00,5.000000000000000000e+00,5.000000000000000000e+00,5.000000000000000000e+00,5.000000000000000000e+00,5.000000000000000000e+00,5.000000000000000000e+00,5.000000000000000000e+00,5.000000000000000000e+00,5.000000000000000000e+00,5.000000000000000000e+00,5.000000000000000000e+00,5.000000000000000000e+00,5.000000000000000000e+00,5.000000000000000000e+00,5.000000000000000000e+00,5.000000000000000000e+00,5.000000000000000000e+00,5.000000000000000000e+00,5.000000000000000000e+00,5.000000000000000000e+00,5.000000000000000000e+00,5.000000000000000000e+00,5.000000000000000000e+00,5.000000000000000000e+00,5.000000000000000000e+00,5.000000000000000000e+00,5.000000000000000000e+00,5.000000000000000000e+00,5.000000000000000000e+00,5.000000000000000000e+00,5.000000000000000000e+00,5.000000000000000000e+00,5.000000000000000000e+00,5.000000000000000000e+00,5.000000000000000000e+00,5.000000000000000000e+00,5.000000000000000000e+00,5.000000000000000000e+00,5.000000000000000000e+00,5.000000000000000000e+00,5.000000000000000000e+00,5.000000000000000000e+00,5.000000000000000000e+00,5.000000000000000000e+00,4.798615455627441406e+00,4.612812042236328125e+00,4.440861225128173828e+00,4.281269073486328125e+00,4.132749557495117188e+00,3.994189023971557617e+00,3.864618301391601562e+00,1.796533942222595215e+00,1.497062683105468750e+00,1.467784762382507324e+00,1.449344873428344727e+00,1.440247416496276855e+00,1.447573423385620117e+00,3.149446249008178711e+00,3.068330049514770508e+00,2.991287231445312500e+00,2.918018817901611328e+00,2.848253488540649414e+00,2.781746387481689453e+00,2.718274354934692383e+00,2.657634258270263672e+00,2.599640607833862305e+00,2.544123888015747070e+00,2.490928888320922852e+00
4.882202148437500000e+00,5.000000000000000000e+00,5.000000000000000000e+00,5.000000000000000000e+00,5.000000000000000000e+00,5.000000000000000000e+00,5.000000000000000000e+00,5.000000000000000000e+00,5.000000000000000000e+00,5.000000000000000000e+00,5.000000000000000000e+00,5.000000000000000000e+00,5.000000000000000000e+00,5.000000000000000000e+00,5.000000000000000000e+00,5.000000000000000000e+00,5.000000000000000000e+00,5.000000000000000000e+00,5.000000000000000000e+00,5.000000000000000000e+00,5.000000000000000000e+00,5.000000000000000000e+00,5.000000000000000000e+00,5.000000000000000000e+00,5.000000000000000000e+00,5.000000000000000000e+00,5.000000000000000000e+00,5.000000000000000000e+00,5.000000000000000000e+00,5.000000000000000000e+00,5.000000000000000000e+00,5.000000000000000000e+00,5.000000000000000000e+00,5.000000000000000000e+00,5.000000000000000000e+00,5.000000000000000000e+00,5.000000000000000000e+00,5.000000000000000000e+00,5.000000000000000000e+00,5.000000000000000000e+00,5.000000000000000000e+00,5.000000000000000000e+00,5.000000000000000000e+00,5.000000000000000000e+00,5.000000000000000000e+00,5.000000000000000000e+00,5.000000000000000000e+00,5.000000000000000000e+00,5.000000000000000000e+00,5.000000000000000000e+00,5.000000000000000000e+00,5.000000000000000000e+00,5.000000000000000000e+00,5.000000000000000000e+00,5.000000000000000000e+00,5.000000000000000000e+00,4.798759937286376953e+00,4.612945556640625000e+00,4.440985202789306641e+00,4.281384468078613281e+00,4.132856845855712891e+00,3.994289398193359375e+00,3.864712238311767578e+00,1.795747518539428711e+00,1.536781191825866699e+00,1.468920230865478516e+00,1.442958354949951172e+00,1.433884739875793457e+00,1.429581999778747559e+00,3.149508476257324219e+00,3.068389177322387695e+00,2.991343498229980469e+00,2.918072223663330078e+00,2.848304510116577148e+00,2.781795024871826172e+00,2.718320846557617188e+00,2.657678604125976562e+00,2.599683046340942383e+00,2.544164657592773438e+00,2.490967988967895508e+00
4.881921291351318359e+00,5.000000000000000000e+00,5.000000000000000000e+00,5.000000000000000000e+00,5.000000000000000000e+00,5.000000000000000000e+00,5.000000000000000000e+00,5.000000000000000000e+00,5.000000000000000000e+00,5.000000000000000000e+00,5.000000000000000000e+00,5.000000000000000000e+00,5.000000000000000000e+00,5.000000000000000000e+00,5.000000000000000000e+00,5.000000000000000000e+00,5.000000000000000000e+00,5.000000000000000000e+00,5.000000000000000000e+00,5.000000000000000000e+00,5.000000000000000000e+00,5.000000000000000000e+00,5.000000000000000000e+00,5.000000000000000000e+00,5.000000000000000000e+00,5.000000000000000000e+00,5.000000000000000000e+00,5.000000000000000000e+00,5.000000000000000000e+00,5.000000000000000000e+00,5.000000000000000000e+00,5.000000000000000000e+00,5.000000000000000000e+00,5.000000000000000000e+00,5.000000000000000000e+00,5.000000000000000000e+00,5.000000000000000000e+00,5.000000000000000000e+00,5.000000000000000000e+00,5.000000000000000000e+00,5.000000000000000000e+00,5.000000000000000000e+00,5.000000000000000000e+00,5.000000000000000000e+00,5.000000000000000000e+00,5.000000000000000000e+00,5.000000000000000000e+00,5.000000000000000000e+00,5.000000000000000000e+00,5.000000000000000000e+00,5.000000000000000000e+00,5.000000000000000000e+00,5.000000000000000000e+00,5.000000000000000000e+00,5.000000000000000000e+00,5.000000000000000000e+00,4.798904895782470703e+00,4.613079071044921875e+00,4.441109180450439453e+00,4.281499385833740234e+00,4.132964134216308594e+00,3.994389772415161133e+00,3.864806175231933594e+00,1.794961690902709961e+00,1.759517669677734375e+00,1.470845222473144531e+00,1.442690134048461914e+00,1.427578210830688477e+00,1.421647548675537109e+00,3.149570703506469727e+00,3.068448543548583984e+00,2.991399765014648438e+00,2.918125629425048828e+00,2.848355293273925781e+00,2.781843662261962891e+00,2.718367338180541992e+00,2.657722949981689453e+00,2.599725484848022461e+00,2.544205188751220703e+00,2.491006851196289062e+00
4.873116016387939453e+00,4.871901988983154297e+00,4.870688915252685547e+00,4.869476318359375000e+00,4.868264198303222656e+00,4.867053031921386719e+00,4.865842342376708984e+00,4.864632129669189453e+00,4.863422393798828125e+00,4.862213611602783203e+00,4.861005306243896484e+00,4.859797477722167969e+00,4.858590126037597656e+00,4.857383728027343750e+00,4.856177806854248047e+00,4.854972362518310547e+00,4.853767395019531250e+00,4.852563381195068359e+00,4.851359844207763672e+00,4.850156784057617188e+00,4.848954677581787109e+00,4.847752571105957031e+00,4.846551418304443359e+00,4.845350742340087891e+00,4.844151020050048828e+00,4.842951297760009766e+00,4.841752529144287109e+00,4.840554237365722656e+00,4.839356899261474609e+00,4.838159561157226562e+00,4.836963176727294922e+00,4.835767269134521484e+00,4.834572315216064453e+00,4.833377361297607422e+00,4.832183361053466797e+00,4.830989837646484375e+00,4.829796791076660156e+00,4.828604698181152344e+00,4.827413082122802734e+00,4.826221942901611328e+00,4.825031280517578125e+00,4.823841094970703125e+00,4.822651863098144531e+00,4.821463108062744141e+00,4.820274829864501953e+00,4.819087505340576172e+00,4.817900180816650391e+00,4.816713809967041016e+00,4.815527915954589844e+00,4.814342498779296875e+00,4.813158035278320312e+00,4.811973571777343750e+00,4.810790061950683594e+00,4.809607028961181641e+00,4.808424949645996094e+00,4.807242870330810547e+00,4.799049377441406250e+00,4.613213062286376953e+00,4.441233158111572266e+00,4.281614303588867188e+00,4.133071422576904297e+00,3.994490146636962891e+00,3.864900112152099609e+00,1.821151494979858398e+00,1.760193824768066406e+00,1.481678605079650879e+00,1.444753885269165039e+00,1.422253608703613281e+00,1.413800477981567383e+00,1.425034642219543457e+00,3.068507432937622070e+00,2.991456031799316406e+00,2.918179273605346680e+00,2.848406314849853516e+00,2.781892299652099609e+00,2.718413591384887695e+00,2.657767295837402344e+00,2.599768161773681641e+00,2.544245958328247070e+00,2.491045713424682617e+00
3.777004957199096680e+00,3.776275873184204102e+00,3.775546789169311523e+00,3.774818181991577148e+00,3.774089813232421875e+00,3.773361921310424805e+00,3.772633790969848633e+00,3.771906614303588867e+00,3.771178960800170898e+00,3.770452260971069336e+00,3.769725322723388672e+00,3.768999338150024414e+00,3.768272876739501953e+00,3.767547369003295898e+00,3.766821622848510742e+00,3.766096353530883789e+00,3.765371322631835938e+00,3.764646768569946289e+00,3.763921976089477539e+00,3.763198137283325195e+00,3.762474060058593750e+00,3.761750698089599609e+00,3.761027097702026367e+00,3.760304212570190430e+00,3.759581327438354492e+00,3.758858919143676758e+00,3.758136510848999023e+00,3.757414817810058594e+00,3.756692886352539062e+00,3.755971670150756836e+00,3.755250453948974609e+00,3.754529714584350586e+00,3.753808975219726562e+00,3.753088951110839844e+00,3.752368688583374023e+00,3.751649141311645508e+00,3.750929594039916992e+00,3.750210523605346680e+00,3.749491930007934570e+00,3.748773097991943359e+00,3.748054981231689453e+00,3.747336626052856445e+00,3.746618986129760742e+00,3.745901346206665039e+00,3.745184183120727539e+00,3.744467020034790039e+00,3.743750572204589844e+00,3.743033885955810547e+00,3.742317914962768555e+00,3.741601943969726562e+00,3.740886449813842773e+00,3.740170955657958984e+00,3.739456176757812500e+00,3.738741159439086914e+00,3.738026857376098633e+00,3.737312555313110352e+00,3.736598730087280273e+00,3.735884904861450195e+00,3.735171556472778320e+00,3.734458208084106445e+00,3.733745574951171875e+00,3.733032703399658203e+00,3.732320547103881836e+00,3.731608390808105469e+00,1.768463969230651855e+00,1.747431993484497070e+00,1.446823477745056152e+00,1.420348882675170898e+00,1.406455636024475098e+00,1.411296248435974121e+00,3.068566560745239258e+00,2.991512060165405273e+00,2.918232679367065430e+00,2.848457336425781250e+00,2.781940937042236328e+00,2.718460083007812500e+00,2.657811641693115234e+00,2.599810361862182617e+00,2.544286727905273438e+00,2.491084814071655273e+00
3.083445072174072266e+00,3.082959175109863281e+00,3.082473278045654297e+00,3.081987619400024414e+00,3.081501960754394531e+00,3.081016778945922852e+00,3.080531358718872070e+00,3.080046415328979492e+00,3.079561471939086914e+00,3.079076766967773438e+00,3.078591823577880859e+00,3.078107595443725586e+00,3.077623128890991211e+00,3.077139139175415039e+00,3.076654911041259766e+00,3.076171159744262695e+00,3.075687408447265625e+00,3.075203895568847656e+00,3.074720382690429688e+00,3.074237108230590820e+00,3.073753833770751953e+00,3.073271036148071289e+00,3.072788238525390625e+00,3.072305679321289062e+00,3.071823120117187500e+00,3.071340799331665039e+00,3.070858478546142578e+00,3.070376634597778320e+00,3.069894552230834961e+00,3.069412946701049805e+00,3.068931102752685547e+00,3.068449735641479492e+00,3.067968368530273438e+00,3.067487478256225586e+00,3.067006349563598633e+00,3.066525459289550781e+00,3.066044807434082031e+00,3.065564393997192383e+00,3.065083980560302734e+00,3.064603805541992188e+00,3.064123630523681641e+00,3.063643693923950195e+00,3.063163757324218750e+00,3.062684297561645508e+00,3.062204837799072266e+00,3.061725616455078125e+00,3.061246156692504883e+00,3.060767412185668945e+00,3.060288190841674805e+00,3.059809684753417969e+00,3.059330940246582031e+00,3.058852672576904297e+00,3.058374166488647461e+00,3.057896137237548828e+00,3.057418107986450195e+00,3.056940317153930664e+00,3.056462526321411133e+00,3.055985212326049805e+00,3.055507659912109375e+00,3.055030345916748047e+00,3.054553270339965820e+00,3.054076433181762695e+00,3.053599357604980469e+00,3.053122997283935547e+00,1.755393266677856445e+00,1.736402869224548340e+00,1.448767185211181641e+00,1.420401334762573242e+00,1.413588285446166992e+00,1.429982662200927734e+00,3.049790382385253906e+00,2.991568326950073242e+00,2.918286323547363281e+00,2.848508358001708984e+00,2.781989574432373047e+00,2.718506336212158203e+00,2.657856225967407227e+00,2.599852800369262695e+00,2.544327259063720703e+00,2.491123914718627930e+00
2.605082035064697266e+00,2.604734897613525391e+00,2.604388236999511719e+00,2.604041337966918945e+00,2.603694915771484375e+00,2.603348255157470703e+00,2.603001832962036133e+00,2.602655410766601562e+00,2.602309226989746094e+00,2.601962804794311523e+00,2.601616859436035156e+00,2.601270914077758789e+00,2.600924968719482422e+00,2.600579023361206055e+00,2.600233554840087891e+00,2.599887847900390625e+00,2.599542379379272461e+00,2.599196672439575195e+00,2.598851442337036133e+00,2.598506212234497070e+00,2.598160982131958008e+00,2.597815990447998047e+00,2.597470998764038086e+00,2.597126007080078125e+00,2.596781253814697266e+00,2.596436500549316406e+00,2.596091985702514648e+00,2.595747232437133789e+00,2.595402956008911133e+00,2.595058679580688477e+00,2.594714403152465820e+00,2.594370365142822266e+00,2.594026088714599609e+00,2.593682289123535156e+00,2.593338251113891602e+00,2.592994689941406250e+00,2.592650890350341797e+00,2.592307329177856445e+00,2.591963768005371094e+00,2.591620445251464844e+00,2.591276884078979492e+00,2.590933799743652344e+00,2.590590476989746094e+00,2.590247631072998047e+00,2.589904546737670898e+00,2.589561700820922852e+00,2.589218854904174805e+00,2.588876247406005859e+00,2.588533401489257812e+00,2.588191032409667969e+00,2.587848424911499023e+00,2.587506294250488281e+00,2.587163925170898438e+00,2.586821794509887695e+00,2.586479663848876953e+00,2.586137771606445312e+00,2.585795879364013672e+00,2.585454225540161133e+00,2.585112333297729492e+00,2.584770917892456055e+00,2.584429264068603516e+00,2.584087848663330078e+00,2.583746433258056641e+00,1.813756465911865234e+00,1.741795659065246582e+00,1.727046608924865723e+00,1.486898183822631836e+00,1.435733795166015625e+00,1.418354392051696777e+00,1.404492259025573730e+00,2.581018924713134766e+00,2.580678462982177734e+00,2.580337762832641602e+00,2.579997539520263672e+00,2.579657316207885742e+00,2.579317092895507812e+00,2.578976869583129883e+00,2.578637123107910156e+00,2.544368028640747070e+00,2.491162776947021484e+00
2.255210399627685547e+00,2.254950284957885742e+00,2.254690408706665039e+00,2.254430532455444336e+00,2.254170894622802734e+00,2.253911018371582031e+00,2.253651380538940430e+00,2.253391742706298828e+00,2.253132104873657227e+00,2.252872467041015625e+00,2.252613067626953125e+00,2.252353668212890625e+00,2.252094507217407227e+00,2.251835107803344727e+00,2.251575946807861328e+00,2.251316785812377930e+00,2.251057624816894531e+00,2.250798702239990234e+00,2.250539779663085938e+00,2.250280618667602539e+00,2.250021934509277344e+00,2.249763011932373047e+00,2.249504327774047852e+00,2.249245643615722656e+00,2.248987197875976562e+00,2.248728513717651367e+00,2.248470067977905273e+00,2.248211622238159180e+00,2.247953176498413086e+00,2.247694730758666992e+00,2.247436523437500000e+00,2.247178316116333008e+00,2.246920347213745117e+00,2.246662139892578125e+00,2.246404170989990234e+00,2.246146202087402344e+00,2.245888233184814453e+00,2.245630264282226562e+00,2.245372533798217773e+00,2.245114803314208984e+00,2.244857072830200195e+00,2.244599580764770508e+00,2.244342088699340820e+00,2.244084358215332031e+00,2.243827104568481445e+00,2.243569612503051758e+00,2.243312358856201172e+00,2.243055105209350586e+00,2.242797851562500000e+00,2.242540597915649414e+00,2.242283821105957031e+00,2.242026567459106445e+00,2.241769790649414062e+00,2.241512775421142578e+00,2.241255998611450195e+00,2.240999221801757812e+00,2.240742444992065430e+00,2.240485668182373047e+00,2.240229129791259766e+00,2.239972591400146484e+00,2.239716053009033203e+00,2.239459514617919922e+00,1.901322007179260254e+00,1.847018957138061523e+00,1.737132787704467773e+00,1.721717476844787598e+00,2.238178491592407227e+00,1.440123319625854492e+00,1.411932110786437988e+00,1.392482638359069824e+00,2.237154483795166016e+00,2.236898422241210938e+00,2.236642837524414062e+00,2.236387014389038086e+00,2.236131429672241211e+00,2.235875606536865234e+00,2.235620260238647461e+00,2.235364675521850586e+00,2.235109329223632812e+00,2.234853744506835938e+00
1.988189458847045898e+00,1.987987637519836426e+00,1.987785458564758301e+00,1.987583398818969727e+00,1.987381458282470703e+00,1.987179756164550781e+00,1.986977815628051758e+00,1.986775875091552734e+00,1.986574053764343262e+00,1.986372470855712891e+00,1.986170768737792969e+00,1.985969066619873047e+00,1.985767364501953125e+00,1.985565900802612305e+00,1.985364317893981934e+00,1.985162734985351562e+00,1.984961271286010742e+00,1.984760046005249023e+00,1.984558582305908203e+00,1.984357118606567383e+00,1.984155774116516113e+00,1.983954787254333496e+00,1.983753442764282227e+00,1.983552217483520508e+00,1.983351111412048340e+00,1.983150124549865723e+00,1.982949018478393555e+00,1.982747912406921387e+00,1.982546925544738770e+00,1.982346177101135254e+00,1.982145190238952637e+00,1.981944322586059570e+00,1.981743454933166504e+00,1.981542825698852539e+00,1.981342077255249023e+00,1.981141328811645508e+00,1.980940699577331543e+00,1.980740189552307129e+00,1.980539560317993164e+00,1.980339050292968750e+00,1.980138659477233887e+00,1.979938268661499023e+00,1.979737758636474609e+00,1.979537367820739746e+00,1.979337215423583984e+00,1.979136824607849121e+00,1.978936553001403809e+00,1.978736281394958496e+00,1.978536248207092285e+00,1.978336095809936523e+00,1.978135943412780762e+00,1.977935910224914551e+00,1.977736115455627441e+00,1.977536082267761230e+00,1.977336049079895020e+00,1.977136135101318359e+00,1.976936459541320801e+00,1.976736664772033691e+00,1.976536750793457031e+00,1.976337075233459473e+00,1.976137518882751465e+00,1.975937843322753906e+00,1.975738167762756348e+00,1.975538611412048340e+00,1.975339174270629883e+00,1.975139737129211426e+00,1.974940180778503418e+00,1.443956494331359863e+00,1.407881498336791992e+00,1.387136340141296387e+00,1.381635308265686035e+00,1.973943591117858887e+00,1.973744511604309082e+00,1.973545312881469727e+00,1.973346233367919922e+00,1.973147034645080566e+00,1.972948193550109863e+00,1.972749114036560059e+00,1.972550153732299805e+00,1.972351193428039551e+00
1.777706146240234375e+00,1.777544617652893066e+00,1.777382969856262207e+00,1.777221679687500000e+00,1.777060151100158691e+00,1.776898622512817383e+00,1.776737213134765625e+00,1.776576042175292969e+00,1.776414632797241211e+00,1.776253223419189453e+00,1.776091933250427246e+00,1.775930762290954590e+00,1.775769472122192383e+00,1.775608301162719727e+00,1.775447010993957520e+00,1.775285959243774414e+00,1.775124907493591309e+00,1.774963736534118652e+00,1.774802565574645996e+00,1.774641752243041992e+00,1.774480700492858887e+00,1.774319648742675781e+00,1.774158716201782227e+00,1.773997902870178223e+00,1.773836970329284668e+00,1.773676037788391113e+00,1.773515224456787109e+00,1.773354530334472656e+00,1.773193717002868652e+00,1.773032903671264648e+00,1.772872209548950195e+00,1.772711634635925293e+00,1.772550940513610840e+00,1.772390246391296387e+00,1.772229671478271484e+00,1.772069215774536133e+00,1.771908640861511230e+00,1.771748065948486328e+00,1.771587610244750977e+00,1.771427273750305176e+00,1.771266818046569824e+00,1.771106362342834473e+00,1.770945906639099121e+00,1.770785808563232422e+00,1.770625472068786621e+00,1.770465135574340820e+00,1.770304799079895020e+00,1.770144701004028320e+00,1.769984483718872070e+00,1.769824266433715820e+00,1.769664168357849121e+00,1.769504189491271973e+00,1.769344091415405273e+00,1.769183993339538574e+00,1.769023895263671875e+00,1.768864035606384277e+00,1.768704056739807129e+00,1.768544077873229980e+00,1.768384099006652832e+00,1.768224358558654785e+00,1.768064498901367188e+00,1.767904639244079590e+00,1.767744898796081543e+00,1.767585277557373047e+00,1.767425417900085449e+00,1.767265677452087402e+00,1.487643837928771973e+00,1.443669676780700684e+00,1.408720612525939941e+00,1.383415699005126953e+00,1.370890378952026367e+00,1.766308307647705078e+00,1.766148686408996582e+00,1.765989184379577637e+00,1.765829801559448242e+00,1.765670537948608398e+00,1.765511155128479004e+00,1.765351772308349609e+00,1.765192389488220215e+00,1.765033245086669922e+00
1.607522726058959961e+00,1.607390522956848145e+00,1.607258558273315430e+00,1.607126474380493164e+00,1.606994390487670898e+00,1.606862425804138184e+00,1.606730461120605469e+00,1.606598496437072754e+00,1.606466531753540039e+00,1.606334567070007324e+00,1.606202721595764160e+00,1.606070756912231445e+00,1.605938911437988281e+00,1.605806946754455566e+00,1.605675339698791504e+00,1.605543494224548340e+00,1.605411648750305176e+00,1.605279803276062012e+00,1.605148196220397949e+00,1.605016469955444336e+00,1.604884743690490723e+00,1.604753017425537109e+00,1.604621529579162598e+00,1.604489803314208984e+00,1.604358196258544922e+00,1.604226589202880859e+00,1.604095101356506348e+00,1.603963494300842285e+00,1.603832006454467773e+00,1.603700399398803711e+00,1.603569030761718750e+00,1.603437542915344238e+00,1.603306055068969727e+00,1.603174805641174316e+00,1.603043317794799805e+00,1.602911949157714844e+00,1.602780580520629883e+00,1.602649331092834473e+00,1.602517962455749512e+00,1.602386713027954102e+00,1.602255344390869141e+00,1.602124214172363281e+00,1.601992964744567871e+00,1.601861834526062012e+00,1.601730585098266602e+00,1.601599574089050293e+00,1.601468324661254883e+00,1.601337194442749023e+00,1.601206064224243164e+00,1.601075172424316406e+00,1.600944042205810547e+00,1.600813031196594238e+00,1.600681900978088379e+00,1.600551128387451172e+00,1.600420117378234863e+00,1.600289106369018555e+00,1.600158095359802246e+00,1.600027322769165039e+00,1.599896430969238281e+00,1.599765539169311523e+00,1.599634647369384766e+00,1.599503993988037109e+00,1.599373102188110352e+00,1.599242329597473145e+00,1.599111557006835938e+00,1.520122766494750977e+00,1.484220027923583984e+00,1.452898979187011719e+00,1.412556409835815430e+00,1.386394739151000977e+00,1.377148509025573730e+00,1.598196983337402344e+00,1.598066329956054688e+00,1.597935914993286133e+00,1.597805261611938477e+00,1.597674727439880371e+00,1.597544193267822266e+00,1.597413897514343262e+00,1.597283363342285156e+00,1.597152948379516602e+00
1.467076539993286133e+00,1.466966509819030762e+00,1.466856479644775391e+00,1.466746449470520020e+00,1.466636538505554199e+00,1.466526508331298828e+00,1.466416597366333008e+00,1.466306567192077637e+00,1.466196775436401367e+00,1.466086864471435547e+00,1.465976953506469727e+00,1.465867042541503906e+00,1.465757250785827637e+00,1.465647459030151367e+00,1.465537548065185547e+00,1.465427756309509277e+00,1.465318083763122559e+00,1.465208292007446289e+00,1.465098500251770020e+00,1.464988708496093750e+00,1.464879035949707031e+00,1.464769363403320312e+00,1.464659571647644043e+00,1.464549899101257324e+00,1.464440345764160156e+00,1.464330673217773438e+00,1.464221000671386719e+00,1.464111447334289551e+00,1.464001893997192383e+00,1.463892340660095215e+00,1.463782668113708496e+00,1.463673114776611328e+00,1.463563680648803711e+00,1.463454127311706543e+00,1.463344693183898926e+00,1.463235139846801758e+00,1.463125824928283691e+00,1.463016390800476074e+00,1.462906837463378906e+00,1.462797403335571289e+00,1.462688207626342773e+00,1.462578773498535156e+00,1.462469339370727539e+00,1.462360024452209473e+00,1.462250709533691406e+00,1.462141394615173340e+00,1.462032079696655273e+00,1.461922764778137207e+00,1.461813688278198242e+00,1.461704373359680176e+00,1.461595058441162109e+00,1.461485862731933594e+00,1.461376786231994629e+00,1.461267590522766113e+00,1.461158394813537598e+00,1.461049199104309082e+00,1.460940122604370117e+00,1.460831046104431152e+00,1.460721850395202637e+00,1.460612773895263672e+00,1.460503816604614258e+00,1.460394740104675293e+00,1.460285663604736328e+00,1.460176587104797363e+00,1.460067749023437500e+00,1.459958672523498535e+00,1.459849715232849121e+00,1.459740757942199707e+00,1.459631919860839844e+00,1.459522962570190430e+00,1.459414005279541016e+00,1.459305047988891602e+00,1.459196329116821289e+00,1.459087491035461426e+00,1.458978533744812012e+00,1.458869695663452148e+00,1.458760976791381836e+00,1.458652257919311523e+00,1.458543419837951660e+00,1.458434581756591797e+00
1.349199414253234863e+00,1.349106431007385254e+00,1.349013328552246094e+00,1.348920345306396484e+00,1.348827362060546875e+00,1.348734259605407715e+00,1.348641276359558105e+00,1.348548293113708496e+00,1.348455309867858887e+00,1.348362326622009277e+00,1.348269343376159668e+00,1.348176598548889160e+00,1.348083615303039551e+00,1.347990632057189941e+00,1.347897768020629883e+00,1.347804903984069824e+00,1.347712039947509766e+00,1.347619175910949707e+00,1.347526311874389648e+00,1.347433567047119141e+00,1.347340703010559082e+00,1.347247958183288574e+00,1.347155094146728516e+00,1.347062468528747559e+00,1.346969604492187500e+00,1.346876859664916992e+00,1.346784114837646484e+00,1.346691489219665527e+00,1.346598744392395020e+00,1.346505999565124512e+00,1.346413254737854004e+00,1.346320629119873047e+00,1.346228003501892090e+00,1.346135258674621582e+00,1.346042633056640625e+00,1.345950126647949219e+00,1.345857381820678711e+00,1.345764756202697754e+00,1.345672249794006348e+00,1.345579743385314941e+00,1.345487117767333984e+00,1.345394492149353027e+00,1.345302104949951172e+00,1.345209479331970215e+00,1.345116972923278809e+00,1.345024466514587402e+00,1.344932079315185547e+00,1.344839572906494141e+00,1.344747066497802734e+00,1.344654560089111328e+00,1.344562292098999023e+00,1.344469785690307617e+00,1.344377398490905762e+00,1.344284892082214355e+00,1.344192624092102051e+00,1.344100236892700195e+00,1.344007849693298340e+00,1.343915462493896484e+00,1.343823194503784180e+00,1.343730926513671875e+00,1.343638539314270020e+00,1.343546271324157715e+00,1.343454003334045410e+00,1.343361735343933105e+00,1.343269467353820801e+00,1.343177199363708496e+00,1.343085050582885742e+00,1.342992782592773438e+00,1.342900514602661133e+00,1.342808365821838379e+00,1.342716217041015625e+00,1.342624068260192871e+00,1.342531800270080566e+00,1.342439651489257812e+00,1.342347621917724609e+00,1.342255473136901855e+00,1.342163324356079102e+00,1.342071175575256348e+00,1.341979265213012695e+00,1.341887116432189941e+00
1.248856067657470703e+00,1.248776435852050781e+00,1.248696684837341309e+00,1.248616933822631836e+00,1.248537182807922363e+00,1.248457551002502441e+00,1.248377919197082520e+00,1.248298168182373047e+00,1.248218536376953125e+00,1.248138904571533203e+00,1.248059272766113281e+00,1.247979640960693359e+00,1.247899889945983887e+00,1.247820377349853516e+00,1.247740745544433594e+00,1.247661113739013672e+00,1.247581601142883301e+00,1.247502088546752930e+00,1.247422456741333008e+00,1.247342944145202637e+00,1.247263312339782715e+00,1.247183918952941895e+00,1.247104287147521973e+00,1.247024774551391602e+00,1.246945261955261230e+00,1.246865868568420410e+00,1.246786355972290039e+00,1.246706843376159668e+00,1.246627330780029297e+00,1.246548056602478027e+00,1.246468544006347656e+00,1.246389031410217285e+00,1.246309638023376465e+00,1.246230363845825195e+00,1.246150851249694824e+00,1.246071457862854004e+00,1.245992064476013184e+00,1.245912790298461914e+00,1.245833396911621094e+00,1.245754003524780273e+00,1.245674610137939453e+00,1.245595455169677734e+00,1.245516061782836914e+00,1.245436787605285645e+00,1.245357394218444824e+00,1.245278239250183105e+00,1.245198845863342285e+00,1.245119571685791016e+00,1.245040297508239746e+00,1.244961142539978027e+00,1.244881868362426758e+00,1.244802594184875488e+00,1.244723439216613770e+00,1.244644284248352051e+00,1.244565010070800781e+00,1.244485855102539062e+00,1.244406580924987793e+00,1.244327545166015625e+00,1.244248390197753906e+00,1.244169235229492188e+00,1.244090080261230469e+00,1.244010925292968750e+00,1.243931889533996582e+00,1.243852734565734863e+00,1.243773579597473145e+00,1.243694543838500977e+00,1.243615508079528809e+00,1.243536353111267090e+00,1.243457317352294922e+00,1.243378400802612305e+00,1.243299245834350586e+00,1.243220210075378418e+00,1.243141174316406250e+00,1.243062257766723633e+00,1.242983222007751465e+00,1.242904186248779297e+00,1.242825269699096680e+00,1.242746353149414062e+00,1.242667436599731445e+00,1.242588400840759277e+00
1.162405133247375488e+00,1.162335991859436035e+00,1.162266969680786133e+00,1.162197828292846680e+00,1.162128925323486328e+00,1.162059783935546875e+00,1.161990761756896973e+00,1.161921739578247070e+00,1.161852717399597168e+00,1.161783695220947266e+00,1.161714673042297363e+00,1.161645650863647461e+00,1.161576747894287109e+00,1.161507725715637207e+00,1.161438703536987305e+00,1.161369800567626953e+00,1.161300897598266602e+00,1.161231875419616699e+00,1.161162972450256348e+00,1.161094069480895996e+00,1.161025166511535645e+00,1.160956263542175293e+00,1.160887241363525391e+00,1.160818338394165039e+00,1.160749554634094238e+00,1.160680651664733887e+00,1.160611748695373535e+00,1.160542845726013184e+00,1.160474061965942383e+00,1.160405158996582031e+00,1.160336375236511230e+00,1.160267591476440430e+00,1.160198688507080078e+00,1.160129904747009277e+00,1.160061120986938477e+00,1.159992337226867676e+00,1.159923553466796875e+00,1.159854650497436523e+00,1.159785866737365723e+00,1.159717202186584473e+00,1.159648418426513672e+00,1.159579634666442871e+00,1.159510850906372070e+00,1.159442186355590820e+00,1.159373521804809570e+00,1.159304738044738770e+00,1.159235954284667969e+00,1.159167408943176270e+00,1.159098625183105469e+00,1.159029960632324219e+00,1.158961296081542969e+00,1.158892631530761719e+00,1.158823966979980469e+00,1.158755302429199219e+00,1.158686637878417969e+00,1.158618092536926270e+00,1.158549427986145020e+00,1.158480763435363770e+00,1.158412098884582520e+00,1.158343553543090820e+00,1.158275008201599121e+00,1.158206343650817871e+00,1.158137798309326172e+00,1.158069252967834473e+00,1.158000707626342773e+00,1.157932162284851074e+00,1.157863616943359375e+00,1.157795071601867676e+00,1.157726526260375977e+00,1.157657980918884277e+00,1.157589435577392578e+00,1.157521009445190430e+00,1.157452464103698730e+00,1.157384037971496582e+00,1.157315492630004883e+00,1.157247066497802734e+00,1.157178640365600586e+00,1.157110095024108887e+00,1.157041668891906738e+00,1.156973242759704590e+00
1.087148189544677734e+00,1.087087750434875488e+00,1.087027311325073242e+00,1.086966872215270996e+00,1.086906552314758301e+00,1.086846113204956055e+00,1.086785793304443359e+00,1.086725354194641113e+00,1.086664915084838867e+00,1.086604595184326172e+00,1.086544275283813477e+00,1.086483955383300781e+00,1.086423516273498535e+00,1.086363196372985840e+00,1.086302876472473145e+00,1.086242556571960449e+00,1.086182236671447754e+00,1.086121916770935059e+00,1.086061596870422363e+00,1.086001276969909668e+00,1.085940957069396973e+00,1.085880756378173828e+00,1.085820436477661133e+00,1.085760235786437988e+00,1.085699915885925293e+00,1.085639595985412598e+00,1.085579395294189453e+00,1.085519194602966309e+00,1.085458874702453613e+00,1.085398674011230469e+00,1.085338473320007324e+00,1.085278272628784180e+00,1.085217952728271484e+00,1.085157752037048340e+00,1.085097670555114746e+00,1.085037469863891602e+00,1.084977269172668457e+00,1.084917068481445312e+00,1.084856867790222168e+00,1.084796667098999023e+00,1.084736466407775879e+00,1.084676384925842285e+00,1.084616303443908691e+00,1.084556102752685547e+00,1.084495902061462402e+00,1.084435820579528809e+00,1.084375739097595215e+00,1.084315657615661621e+00,1.084255456924438477e+00,1.084195375442504883e+00,1.084135293960571289e+00,1.084075212478637695e+00,1.084015130996704102e+00,1.083955049514770508e+00,1.083894968032836914e+00,1.083834886550903320e+00,1.083774924278259277e+00,1.083714842796325684e+00,1.083654761314392090e+00,1.083594799041748047e+00,1.083534717559814453e+00,1.083474636077880859e+00,1.083414673805236816e+00,1.083354711532592773e+00,1.083294630050659180e+00,1.083234667778015137e+00,1.083174705505371094e+00,1.083114743232727051e+00,1.083054780960083008e+00,1.082994699478149414e+00,1.082934856414794922e+00,1.082874894142150879e+00,1.082814931869506836e+00,1.082754969596862793e+00,1.082695007324218750e+00,1.082635164260864258e+00,1.082575201988220215e+00,1.082515239715576172e+00,1.082455396652221680e+00,1.082395434379577637e+00
1.021043300628662109e+00,1.020990014076232910e+00,1.020936727523803711e+00,1.020883440971374512e+00,1.020830154418945312e+00,1.020776987075805664e+00,1.020723700523376465e+00,1.020670413970947266e+00,1.020617127418518066e+00,1.020563840866088867e+00,1.020510673522949219e+00,1.020457386970520020e+00,1.020404100418090820e+00,1.020350933074951172e+00,1.020297646522521973e+00,1.020244479179382324e+00,1.020191192626953125e+00,1.020138025283813477e+00,1.020084857940673828e+00,1.020031571388244629e+00,1.019978404045104980e+00,1.019925236701965332e+00,1.019872069358825684e+00,1.019818902015686035e+00,1.019765734672546387e+00,1.019712567329406738e+00,1.019659399986267090e+00,1.019606232643127441e+00,1.019553065299987793e+00,1.019500017166137695e+00,1.019446849822998047e+00,1.019393682479858398e+00,1.019340515136718750e+00,1.019287467002868652e+00,1.019234418869018555e+00,1.019181251525878906e+00,1.019128084182739258e+00,1.019075036048889160e+00,1.019021987915039062e+00,1.018968820571899414e+00,1.018915772438049316e+00,1.018862724304199219e+00,1.018809676170349121e+00,1.018756508827209473e+00,1.018703579902648926e+00,1.018650531768798828e+00,1.018597364425659180e+00,1.018544316291809082e+00,1.018491387367248535e+00,1.018438339233398438e+00,1.018385291099548340e+00,1.018332242965698242e+00,1.018279314041137695e+00,1.018226265907287598e+00,1.018173217773437500e+00,1.018120169639587402e+00,1.018067240715026855e+00,1.018014311790466309e+00,1.017961263656616211e+00,1.017908334732055664e+00,1.017855405807495117e+00,1.017802357673645020e+00,1.017749428749084473e+00,1.017696499824523926e+00,1.017643570899963379e+00,1.017590522766113281e+00,1.017537593841552734e+00,1.017484664916992188e+00,1.017431855201721191e+00,1.017378807067871094e+00,1.017325878143310547e+00,1.017272949218750000e+00,1.017220139503479004e+00,1.017167210578918457e+00,1.017114281654357910e+00,1.017061471939086914e+00,1.017008543014526367e+00,1.016955733299255371e+00,1.016902804374694824e+00,1.016849875450134277e+00
