5.000000000000000000e+00,5.000000000000000000e+00,5.000000000000000000e+00,5.000000000000000000e+00,5.000000000000000000e+00,5.000000000000000000e+00,5.000000000000000000e+00,5.000000000000000000e+00,5.000000000000000000e+00,5.000000000000000000e+00,5.000000000000000000e+00,5.000000000000000000e+00,5.000000000000000000e+00,5.000000000000000000e+00,5.000000000000000000e+00,5.000000000000000000e+00,5.000000000000000000e+00,5.000000000000000000e+00,5.000000000000000000e+00,5.000000000000000000e+00,5.000000000000000000e+00,5.000000000000000000e+00,5.000000000000000000e+00,5.000000000000000000e+00,5.000000000000000000e+00,5.000000000000000000e+00,5.000000000000000000e+00,5.000000000000000000e+00,5.000000000000000000e+00,5.000000000000000000e+00,5.000000000000000000e+00,5.000000000000000000e+00,5.000000000000000000e+00,5.000000000000000000e+00,5.000000000000000000e+00,5.000000000000000000e+00,5.000000000000000000e+00,5.000000000000000000e+00,5.000000000000000000e+00,5.000000000000000000e+00,5.000000000000000000e+00,5.000000000000000000e+00,5.000000000000000000e+00,5.000000000000000000e+00,5.000000000000000000e+00,5.000000000000000000e+00,5.000000000000000000e+00,5.000000000000000000e+00,5.000000000000000000e+00,5.000000000000000000e+00,5.000000000000000000e+00,5.000000000000000000e+00,5.000000000000000000e+00,5.000000000000000000e+00,1.504023194313049316e+00,1.463203072547912598e+00,1.447669267654418945e+00,1.445925354957580566e+00,1.457840800285339355e+00,1.519767999649047852e+00,1.483635425567626953e+00,1.459198594093322754e+00,1.447137713432312012e+00,1.445191621780395508e+00,1.440023064613342285e+00,1.441240429878234863e+00,1.450249075889587402e+00,1.458834767341613770e+00,1.470499992370605469e+00,1.493653774261474609e+00,1.481904983520507812e+00,1.463681817054748535e+00,1.462944149971008301e+00,1.475870609283447266e+00,2.775382280349731445e+00,2.712234735488891602e+00,2.651897192001342773e+00,2.594185352325439453e+00,2.538906574249267578e+00,2.485934734344482422e+00
5.000000000000000000e+00,5.000000000000000000e+00,5.000000000000000000e+00,5.000000000000000000e+00,5.000000000000000000e+00,5.000000000000000000e+00,5.000000000000000000e+00,5.000000000000000000e+00,5.000000000000000000e+00,5.000000000000000000e+00,5.000000000000000000e+00,5.000000000000000000e+00,5.000000000000000000e+00,5.000000000000000000e+00,5.000000000000000000e+00,5.000000000000000000e+00,5.000000000000000000e+00,5.000000000000000000e+00,5.000000000000000000e+00,5.000000000000000000e+00,5.000000000000000000e+00,5.000000000000000000e+00,5.000000000000000000e+00,5.000000000000000000e+00,5.000000000000000000e+00,5.000000000000000000e+00,5.000000000000000000e+00,5.000000000000000000e+00,5.000000000000000000e+00,5.000000000000000000e+00,5.000000000000000000e+00,5.000000000000000000e+00,5.000000000000000000e+00,5.000000000000000000e+00,5.000000000000000000e+00,5.000000000000000000e+00,5.000000000000000000e+00,5.000000000000000000e+00,5.000000000000000000e+00,5.000000000000000000e+00,5.000000000000000000e+00,5.000000000000000000e+00,5.000000000000000000e+00,5.000000000000000000e+00,5.000000000000000000e+00,5.000000000000000000e+00,5.000000000000000000e+00,5.000000000000000000e+00,5.000000000000000000e+00,5.000000000000000000e+00,5.000000000000000000e+00,5.000000000000000000e+00,5.000000000000000000e+00,5.000000000000000000e+00,1.500636935234069824e+00,1.468512773513793945e+00,1.457268476486206055e+00,1.456201553344726562e+00,1.475338459014892578e+00,1.514568805694580078e+00,1.480709075927734375e+00,1.458588242530822754e+00,1.445271015167236328e+00,1.438052058219909668e+00,1.431597352027893066e+00,1.427078485488891602e+00,1.439936995506286621e+00,1.447460889816284180e+00,1.462338447570800781e+00,1.472013831138610840e+00,1.479938983917236328e+00,1.465273857116699219e+00,1.464479565620422363e+00,1.480714082717895508e+00,2.775498151779174805e+00,2.712343454360961914e+00,2.651973009109497070e+00,2.594231367111206055e+00,2.538950681686401367e+00,2.485976696014404297e+00
5.000000000000000000e+00,5.000000000000000000e+00,5.000000000000000000e+00,5.000000000000000000e+00,5.000000000000000000e+00,5.000000000000000000e+00,5.000000000000000000e+00,5.000000000000000000e+00,5.000000000000000000e+00,5.000000000000000000e+00,5.000000000000000000e+00,5.000000000000000000e+00,5.000000000000000000e+00,5.000000000000000000e+00,5.000000000000000000e+00,5.000000000000000000e+00,5.000000000000000000e+00,5.000000000000000000e+00,5.000000000000000000e+00,5.000000000000000000e+00,5.000000000000000000e+00,5.000000000000000000e+00,5.000000000000000000e+00,5.000000000000000000e+00,5.000000000000000000e+00,5.000000000000000000e+00,5.000000000000000000e+00,5.000000000000000000e+00,5.000000000000000000e+00,5.000000000000000000e+00,5.000000000000000000e+00,5.000000000000000000e+00,5.000000000000000000e+00,5.000000000000000000e+00,5.000000000000000000e+00,5.000000000000000000e+00,5.000000000000000000e+00,5.000000000000000000e+00,5.000000000000000000e+00,5.000000000000000000e+00,5.000000000000000000e+00,5.000000000000000000e+00,5.000000000000000000e+00,5.000000000000000000e+00,5.000000000000000000e+00,5.000000000000000000e+00,5.000000000000000000e+00,5.000000000000000000e+00,5.000000000000000000e+00,5.000000000000000000e+00,5.000000000000000000e+00,5.000000000000000000e+00,5.000000000000000000e+00,5.000000000000000000e+00,1.500464200973510742e+00,1.475999116897583008e+00,1.469614744186401367e+00,1.472577691078186035e+00,4.424451828002929688e+00,1.514035820960998535e+00,1.490626096725463867e+00,1.459386229515075684e+00,1.440821170806884766e+00,1.431195616722106934e+00,1.421697735786437988e+00,1.414561986923217773e+00,1.422331690788269043e+00,1.444889307022094727e+00,1.448413372039794922e+00,1.458278656005859375e+00,1.484037518501281738e+00,1.470787167549133301e+00,1.468777656555175781e+00,2.841778516769409180e+00,2.775578975677490234e+00,2.712393522262573242e+00,2.652020931243896484e+00,2.594277143478393555e+00,2.538994550704956055e+00,2.486018896102905273e+00
4.899371147155761719e+00,5.000000000000000000e+00,5.000000000000000000e+00,5.000000000000000000e+00,5.000000000000000000e+00,5.000000000000000000e+00,5.000000000000000000e+00,5.000000000000000000e+00,5.000000000000000000e+00,5.000000000000000000e+00,5.000000000000000000e+00,5.000000000000000000e+00,5.000000000000000000e+00,5.000000000000000000e+00,5.000000000000000000e+00,5.000000000000000000e+00,5.000000000000000000e+00,5.000000000000000000e+00,5.000000000000000000e+00,5.000000000000000000e+00,5.000000000000000000e+00,5.000000000000000000e+00,5.000000000000000000e+00,5.000000000000000000e+00,5.000000000000000000e+00,5.000000000000000000e+00,5.000000000000000000e+00,5.000000000000000000e+00,5.000000000000000000e+00,5.000000000000000000e+00,5.000000000000000000e+00,5.000000000000000000e+00,5.000000000000000000e+00,5.000000000000000000e+00,5.000000000000000000e+00,5.000000000000000000e+00,5.000000000000000000e+00,5.000000000000000000e+00,5.000000000000000000e+00,5.000000000000000000e+00,5.000000000000000000e+00,5.000000000000000000e+00,5.000000000000000000e+00,5.000000000000000000e+00,5.000000000000000000e+00,5.000000000000000000e+00,5.000000000000000000e+00,5.000000000000000000e+00,5.000000000000000000e+00,5.000000000000000000e+00,5.000000000000000000e+00,5.000000000000000000e+00,5.000000000000000000e+00,5.000000000000000000e+00,1.504047870635986328e+00,1.483782291412353516e+00,1.482172250747680664e+00,1.493622064590454102e+00,4.424584388732910156e+00,1.516051173210144043e+00,1.483626961708068848e+00,1.450765609741210938e+00,1.436630845069885254e+00,1.427048444747924805e+00,1.417593121528625488e+00,1.409120082855224609e+00,1.420794606208801270e+00,1.444888949394226074e+00,1.445339083671569824e+00,1.447159409523010254e+00,1.488879084587097168e+00,1.476615190505981445e+00,1.473340272903442383e+00,2.841833591461181641e+00,2.775631666183471680e+00,2.712443590164184570e+00,2.652068853378295898e+00,2.594322919845581055e+00,2.539038181304931641e+00,2.486060857772827148e+00
4.899243831634521484e+00,5.000000000000000000e+00,5.000000000000000000e+00,5.000000000000000000e+00,5.000000000000000000e+00,5.000000000000000000e+00,5.000000000000000000e+00,5.000000000000000000e+00,5.000000000000000000e+00,5.000000000000000000e+00,5.000000000000000000e+00,5.000000000000000000e+00,5.000000000000000000e+00,5.000000000000000000e+00,5.000000000000000000e+00,5.000000000000000000e+00,5.000000000000000000e+00,5.000000000000000000e+00,5.000000000000000000e+00,5.000000000000000000e+00,5.000000000000000000e+00,5.000000000000000000e+00,5.000000000000000000e+00,5.000000000000000000e+00,5.000000000000000000e+00,5.000000000000000000e+00,5.000000000000000000e+00,5.000000000000000000e+00,5.000000000000000000e+00,5.000000000000000000e+00,5.000000000000000000e+00,5.000000000000000000e+00,5.000000000000000000e+00,5.000000000000000000e+00,5.000000000000000000e+00,5.000000000000000000e+00,5.000000000000000000e+00,5.000000000000000000e+00,5.000000000000000000e+00,5.000000000000000000e+00,5.000000000000000000e+00,5.000000000000000000e+00,5.000000000000000000e+00,5.000000000000000000e+00,5.000000000000000000e+00,5.000000000000000000e+00,5.000000000000000000e+00,5.000000000000000000e+00,5.000000000000000000e+00,5.000000000000000000e+00,5.000000000000000000e+00,5.000000000000000000e+00,5.000000000000000000e+00,5.000000000000000000e+00,1.511783123016357422e+00,1.496583938598632812e+00,1.496734142303466797e+00,4.595370769500732422e+00,4.424716472625732422e+00,1.512141823768615723e+00,1.475949168205261230e+00,1.443500280380249023e+00,1.432662963867187500e+00,1.423848986625671387e+00,1.416500568389892578e+00,1.409227609634399414e+00,1.423890471458435059e+00,1.446897268295288086e+00,1.448259592056274414e+00,1.447706699371337891e+00,1.460073113441467285e+00,1.483372807502746582e+00,1.480313181877136230e+00,2.841888427734375000e+00,2.775683879852294922e+00,2.712493658065795898e+00,2.652116537094116211e+00,2.594368696212768555e+00,2.539082288742065430e+00,2.486102819442749023e+00
4.899116992950439453e+00,5.000000000000000000e+00,5.000000000000000000e+00,5.000000000000000000e+00,5.000000000000000000e+00,5.000000000000000000e+00,5.000000000000000000e+00,5.000000000000000000e+00,5.000000000000000000e+00,5.000000000000000000e+00,5.000000000000000000e+00,5.000000000000000000e+00,5.000000000000000000e+00,5.000000000000000000e+00,5.000000000000000000e+00,5.000000000000000000e+00,5.000000000000000000e+00,5.000000000000000000e+00,5.000000000000000000e+00,5.000000000000000000e+00,5.000000000000000000e+00,5.000000000000000000e+00,5.000000000000000000e+00,5.000000000000000000e+00,5.000000000000000000e+00,5.000000000000000000e+00,5.000000000000000000e+00,5.000000000000000000e+00,5.000000000000000000e+00,5.000000000000000000e+00,5.000000000000000000e+00,5.000000000000000000e+00,5.000000000000000000e+00,5.000000000000000000e+00,5.000000000000000000e+00,5.000000000000000000e+00,5.000000000000000000e+00,5.000000000000000000e+00,5.000000000000000000e+00,5.000000000000000000e+00,5.000000000000000000e+00,5.000000000000000000e+00,5.000000000000000000e+00,5.000000000000000000e+00,5.000000000000000000e+00,5.000000000000000000e+00,5.000000000000000000e+00,5.000000000000000000e+00,5.000000000000000000e+00,5.000000000000000000e+00,5.000000000000000000e+00,5.000000000000000000e+00,5.000000000000000000e+00,1.549080014228820801e+00,1.516138553619384766e+00,1.508492112159729004e+00,1.516559004783630371e+00,4.595513820648193359e+00,4.424849033355712891e+00,1.510240077972412109e+00,1.472476840019226074e+00,1.439403891563415527e+00,1.431385159492492676e+00,1.423958778381347656e+00,1.416609168052673340e+00,1.409335136413574219e+00,1.428810715675354004e+00,1.446994304656982422e+00,1.452556729316711426e+00,1.453655958175659180e+00,1.470746755599975586e+00,1.491036534309387207e+00,1.487950563430786133e+00,2.841943502426147461e+00,2.775736331939697266e+00,2.712543725967407227e+00,2.652164459228515625e+00,2.594414472579956055e+00,2.539126157760620117e+00,2.486145019531250000e+00
4.898989677429199219e+00,5.000000000000000000e+00,5.000000000000000000e+00,5.000000000000000000e+00,5.000000000000000000e+00,5.000000000000000000e+00,5.000000000000000000e+00,5.000000000000000000e+00,5.000000000000000000e+00,5.000000000000000000e+00,5.000000000000000000e+00,5.000000000000000000e+00,5.000000000000000000e+00,5.000000000000000000e+00,5.000000000000000000e+00,5.000000000000000000e+00,5.000000000000000000e+00,5.000000000000000000e+00,5.000000000000000000e+00,5.000000000000000000e+00,5.000000000000000000e+00,5.000000000000000000e+00,5.000000000000000000e+00,5.000000000000000000e+00,5.000000000000000000e+00,5.000000000000000000e+00,5.000000000000000000e+00,5.000000000000000000e+00,5.000000000000000000e+00,5.000000000000000000e+00,5.000000000000000000e+00,5.000000000000000000e+00,5.000000000000000000e+00,5.000000000000000000e+00,5.000000000000000000e+00,5.000000000000000000e+00,5.000000000000000000e+00,5.000000000000000000e+00,5.000000000000000000e+00,5.000000000000000000e+00,5.000000000000000000e+00,5.000000000000000000e+00,5.000000000000000000e+00,5.000000000000000000e+00,5.000000000000000000e+00,5.000000000000000000e+00,5.000000000000000000e+00,5.000000000000000000e+00,5.000000000000000000e+00,5.000000000000000000e+00,5.000000000000000000e+00,5.000000000000000000e+00,5.000000000000000000e+00,1.541282176971435547e+00,1.520303487777709961e+00,1.518838763236999512e+00,4.780025482177734375e+00,4.595656394958496094e+00,1.585682153701782227e+00,1.506980538368225098e+00,1.469008803367614746e+00,1.444436192512512207e+00,1.437031388282775879e+00,1.427834630012512207e+00,1.418754577636718750e+00,1.412480235099792480e+00,1.433165788650512695e+00,1.464901924133300781e+00,1.459723234176635742e+00,1.460126757621765137e+00,1.486634373664855957e+00,1.498740434646606445e+00,1.500381708145141602e+00,2.841998338699340820e+00,2.775788784027099609e+00,2.712593793869018555e+00,2.652212381362915039e+00,2.594460487365722656e+00,2.539169788360595703e+00,2.486186981201171875e+00
4.898862838745117188e+00,5.000000000000000000e+00,5.000000000000000000e+00,5.000000000000000000e+00,5.000000000000000000e+00,5.000000000000000000e+00,5.000000000000000000e+00,5.000000000000000000e+00,5.000000000000000000e+00,5.000000000000000000e+00,5.000000000000000000e+00,5.000000000000000000e+00,5.000000000000000000e+00,5.000000000000000000e+00,5.000000000000000000e+00,5.000000000000000000e+00,5.000000000000000000e+00,5.000000000000000000e+00,5.000000000000000000e+00,5.000000000000000000e+00,5.000000000000000000e+00,5.000000000000000000e+00,5.000000000000000000e+00,5.000000000000000000e+00,5.000000000000000000e+00,5.000000000000000000e+00,5.000000000000000000e+00,5.000000000000000000e+00,5.000000000000000000e+00,5.000000000000000000e+00,5.000000000000000000e+00,5.000000000000000000e+00,5.000000000000000000e+00,5.000000000000000000e+00,5.000000000000000000e+00,5.000000000000000000e+00,5.000000000000000000e+00,5.000000000000000000e+00,5.000000000000000000e+00,5.000000000000000000e+00,5.000000000000000000e+00,5.000000000000000000e+00,5.000000000000000000e+00,5.000000000000000000e+00,5.000000000000000000e+00,5.000000000000000000e+00,5.000000000000000000e+00,5.000000000000000000e+00,5.000000000000000000e+00,5.000000000000000000e+00,5.000000000000000000e+00,5.000000000000000000e+00,5.000000000000000000e+00,1.544997334480285645e+00,1.529718518257141113e+00,1.551827549934387207e+00,4.780180454254150391e+00,4.595798969268798828e+00,1.566431760787963867e+00,1.502833843231201172e+00,1.468824148178100586e+00,1.449503779411315918e+00,1.442353367805480957e+00,1.434654831886291504e+00,1.425488114356994629e+00,1.432058453559875488e+00,1.451156735420227051e+00,1.469213843345642090e+00,1.466248393058776855e+00,1.466655611991882324e+00,1.502869009971618652e+00,1.506524562835693359e+00,1.511651396751403809e+00,2.842053413391113281e+00,2.775841236114501953e+00,2.712643861770629883e+00,2.652260065078735352e+00,2.594506263732910156e+00,2.539213895797729492e+00,2.486228942871093750e+00
4.898736000061035156e+00,5.000000000000000000e+00,5.000000000000000000e+00,5.000000000000000000e+00,5.000000000000000000e+00,5.000000000000000000e+00,5.000000000000000000e+00,5.000000000000000000e+00,5.000000000000000000e+00,5.000000000000000000e+00,5.000000000000000000e+00,5.000000000000000000e+00,5.000000000000000000e+00,5.000000000000000000e+00,5.000000000000000000e+00,5.000000000000000000e+00,5.000000000000000000e+00,5.000000000000000000e+00,5.000000000000000000e+00,5.000000000000000000e+00,5.000000000000000000e+00,5.000000000000000000e+00,5.000000000000000000e+00,5.000000000000000000e+00,5.000000000000000000e+00,5.000000000000000000e+00,5.000000000000000000e+00,5.000000000000000000e+00,5.000000000000000000e+00,5.000000000000000000e+00,5.000000000000000000e+00,5.000000000000000000e+00,5.000000000000000000e+00,5.000000000000000000e+00,5.000000000000000000e+00,5.000000000000000000e+00,5.000000000000000000e+00,5.000000000000000000e+00,5.000000000000000000e+00,5.000000000000000000e+00,5.000000000000000000e+00,5.000000000000000000e+00,5.000000000000000000e+00,5.000000000000000000e+00,5.000000000000000000e+00,5.000000000000000000e+00,5.000000000000000000e+00,5.000000000000000000e+00,5.000000000000000000e+00,5.000000000000000000e+00,5.000000000000000000e+00,5.000000000000000000e+00,5.000000000000000000e+00,1.557282328605651855e+00,1.563200235366821289e+00,4.980142116546630859e+00,4.780343532562255859e+00,4.596034049987792969e+00,1.545973181724548340e+00,1.502181649208068848e+00,1.468207597732543945e+00,1.455358147621154785e+00,1.447792768478393555e+00,1.440305709838867188e+00,1.439368844032287598e+00,1.452558159828186035e+00,1.493565917015075684e+00,1.484608888626098633e+00,1.481703996658325195e+00,1.479176044464111328e+00,1.523598074913024902e+00,1.510405659675598145e+00,1.513687372207641602e+00,2.842108488082885742e+00,2.775893688201904297e+00,2.712693929672241211e+00,2.652308225631713867e+00,2.594551801681518555e+00,2.539257764816284180e+00,2.486271142959594727e+00
4.898608684539794922e+00,5.000000000000000000e+00,5.000000000000000000e+00,5.000000000000000000e+00,5.000000000000000000e+00,5.000000000000000000e+00,5.000000000000000000e+00,5.000000000000000000e+00,5.000000000000000000e+00,5.000000000000000000e+00,5.000000000000000000e+00,5.000000000000000000e+00,5.000000000000000000e+00,5.000000000000000000e+00,5.000000000000000000e+00,5.000000000000000000e+00,5.000000000000000000e+00,5.000000000000000000e+00,5.000000000000000000e+00,5.000000000000000000e+00,5.000000000000000000e+00,5.000000000000000000e+00,5.000000000000000000e+00,5.000000000000000000e+00,5.000000000000000000e+00,5.000000000000000000e+00,5.000000000000000000e+00,5.000000000000000000e+00,5.000000000000000000e+00,5.000000000000000000e+00,5.000000000000000000e+00,5.000000000000000000e+00,5.000000000000000000e+00,5.000000000000000000e+00,5.000000000000000000e+00,5.000000000000000000e+00,5.000000000000000000e+00,5.000000000000000000e+00,5.000000000000000000e+00,5.000000000000000000e+00,5.000000000000000000e+00,5.000000000000000000e+00,5.000000000000000000e+00,5.000000000000000000e+00,5.000000000000000000e+00,5.000000000000000000e+00,5.000000000000000000e+00,5.000000000000000000e+00,5.000000000000000000e+00,5.000000000000000000e+00,5.000000000000000000e+00,5.000000000000000000e+00,5.000000000000000000e+00,1.555838584899902344e+00,1.570815563201904297e+00,4.980426311492919922e+00,4.780687808990478516e+00,4.596352100372314453e+00,1.538462877273559570e+00,1.500446557998657227e+00,1.467516660690307617e+00,1.461581587791442871e+00,1.455571293830871582e+00,1.448003768920898438e+00,1.456721305847167969e+00,1.473653078079223633e+00,1.505861759185791016e+00,1.502979993820190430e+00,1.501007437705993652e+00,1.530590653419494629e+00,1.536378622055053711e+00,1.516938090324401855e+00,1.518047213554382324e+00,2.842163324356079102e+00,2.775946140289306641e+00,2.712743997573852539e+00,2.652355909347534180e+00,2.594597816467285156e+00,2.539301633834838867e+00,2.486313104629516602e+00
4.898461341857910156e+00,5.000000000000000000e+00,5.000000000000000000e+00,5.000000000000000000e+00,5.000000000000000000e+00,5.000000000000000000e+00,5.000000000000000000e+00,5.000000000000000000e+00,5.000000000000000000e+00,5.000000000000000000e+00,5.000000000000000000e+00,5.000000000000000000e+00,5.000000000000000000e+00,5.000000000000000000e+00,5.000000000000000000e+00,5.000000000000000000e+00,5.000000000000000000e+00,5.000000000000000000e+00,5.000000000000000000e+00,5.000000000000000000e+00,5.000000000000000000e+00,5.000000000000000000e+00,5.000000000000000000e+00,5.000000000000000000e+00,5.000000000000000000e+00,5.000000000000000000e+00,5.000000000000000000e+00,5.000000000000000000e+00,5.000000000000000000e+00,5.000000000000000000e+00,5.000000000000000000e+00,5.000000000000000000e+00,5.000000000000000000e+00,5.000000000000000000e+00,5.000000000000000000e+00,5.000000000000000000e+00,5.000000000000000000e+00,5.000000000000000000e+00,5.000000000000000000e+00,5.000000000000000000e+00,5.000000000000000000e+00,5.000000000000000000e+00,5.000000000000000000e+00,5.000000000000000000e+00,5.000000000000000000e+00,5.000000000000000000e+00,5.000000000000000000e+00,5.000000000000000000e+00,5.000000000000000000e+00,5.000000000000000000e+00,5.000000000000000000e+00,5.000000000000000000e+00,1.584739089012145996e+00,1.560895442962646484e+00,1.601483702659606934e+00,4.980799674987792969e+00,4.781031608581542969e+00,4.596606254577636719e+00,1.534363269805908203e+00,1.499598264694213867e+00,1.471327066421508789e+00,1.466917872428894043e+00,1.462087273597717285e+00,1.455784678459167480e+00,1.472517609596252441e+00,1.490643858909606934e+00,1.525524973869323730e+00,1.523492813110351562e+00,1.521327495574951172e+00,1.570855498313903809e+00,1.547593593597412109e+00,1.525194883346557617e+00,1.532145619392395020e+00,2.842218160629272461e+00,2.775998592376708984e+00,2.712794303894042969e+00,2.652403831481933594e+00,2.594643592834472656e+00,2.539345502853393555e+00,2.486355066299438477e+00
4.898309707641601562e+00,5.000000000000000000e+00,5.000000000000000000e+00,5.000000000000000000e+00,5.000000000000000000e+00,5.000000000000000000e+00,5.000000000000000000e+00,5.000000000000000000e+00,5.000000000000000000e+00,5.000000000000000000e+00,5.000000000000000000e+00,5.000000000000000000e+00,5.000000000000000000e+00,5.000000000000000000e+00,5.000000000000000000e+00,5.000000000000000000e+00,5.000000000000000000e+00,5.000000000000000000e+00,5.000000000000000000e+00,5.000000000000000000e+00,5.000000000000000000e+00,5.000000000000000000e+00,5.000000000000000000e+00,5.000000000000000000e+00,5.000000000000000000e+00,5.000000000000000000e+00,5.000000000000000000e+00,5.000000000000000000e+00,5.000000000000000000e+00,5.000000000000000000e+00,5.000000000000000000e+00,5.000000000000000000e+00,5.000000000000000000e+00,5.000000000000000000e+00,5.000000000000000000e+00,5.000000000000000000e+00,5.000000000000000000e+00,5.000000000000000000e+00,5.000000000000000000e+00,5.000000000000000000e+00,5.000000000000000000e+00,5.000000000000000000e+00,5.000000000000000000e+00,5.000000000000000000e+00,5.000000000000000000e+00,5.000000000000000000e+00,5.000000000000000000e+00,5.000000000000000000e+00,5.000000000000000000e+00,5.000000000000000000e+00,5.000000000000000000e+00,5.000000000000000000e+00,1.575175046920776367e+00,1.620843052864074707e+00,1.637643218040466309e+00,4.981091022491455078e+00,4.781208992004394531e+00,4.596750259399414062e+00,1.539258122444152832e+00,1.504162907600402832e+00,1.473948717117309570e+00,1.469165205955505371e+00,1.465027451515197754e+00,1.464136719703674316e+00,1.488646745681762695e+00,1.546189665794372559e+00,1.543701052665710449e+00,1.540599822998046875e+00,1.563067197799682617e+00,3.142089605331420898e+00,1.560539841651916504e+00,1.536044716835021973e+00,1.534129142761230469e+00,2.842273235321044922e+00,2.776050806045532227e+00,2.712844133377075195e+00,2.652451753616333008e+00,2.594689369201660156e+00,2.539389371871948242e+00,2.486397266387939453e+00
4.898158073425292969e+00,5.000000000000000000e+00,5.000000000000000000e+00,5.000000000000000000e+00,5.000000000000000000e+00,5.000000000000000000e+00,5.000000000000000000e+00,5.000000000000000000e+00,5.000000000000000000e+00,5.000000000000000000e+00,5.000000000000000000e+00,5.000000000000000000e+00,5.000000000000000000e+00,5.000000000000000000e+00,5.000000000000000000e+00,5.000000000000000000e+00,5.000000000000000000e+00,5.000000000000000000e+00,5.000000000000000000e+00,5.000000000000000000e+00,5.000000000000000000e+00,5.000000000000000000e+00,5.000000000000000000e+00,5.000000000000000000e+00,5.000000000000000000e+00,5.000000000000000000e+00,5.000000000000000000e+00,5.000000000000000000e+00,5.000000000000000000e+00,5.000000000000000000e+00,5.000000000000000000e+00,5.000000000000000000e+00,5.000000000000000000e+00,5.000000000000000000e+00,5.000000000000000000e+00,5.000000000000000000e+00,5.000000000000000000e+00,5.000000000000000000e+00,5.000000000000000000e+00,5.000000000000000000e+00,5.000000000000000000e+00,5.000000000000000000e+00,5.000000000000000000e+00,5.000000000000000000e+00,5.000000000000000000e+00,5.000000000000000000e+00,5.000000000000000000e+00,5.000000000000000000e+00,5.000000000000000000e+00,5.000000000000000000e+00,5.000000000000000000e+00,5.000000000000000000e+00,1.580228090286254883e+00,5.000000000000000000e+00,1.653952121734619141e+00,4.981259822845458984e+00,4.781364917755126953e+00,4.596893787384033203e+00,1.547257423400878906e+00,1.508958458900451660e+00,1.476630330085754395e+00,1.471341252326965332e+00,1.467009782791137695e+00,1.465347409248352051e+00,1.492516517639160156e+00,1.562250971794128418e+00,1.559304118156433105e+00,1.556357145309448242e+00,1.587917208671569824e+00,1.576102256774902344e+00,1.559017539024353027e+00,1.537160038948059082e+00,1.526868700981140137e+00,2.842328310012817383e+00,2.776103496551513672e+00,2.712894201278686523e+00,2.652499675750732422e+00,2.594735383987426758e+00,2.539433240890502930e+00,2.486439466476440430e+00
4.898005962371826172e+00,5.000000000000000000e+00,5.000000000000000000e+00,5.000000000000000000e+00,5.000000000000000000e+00,5.000000000000000000e+00,5.000000000000000000e+00,5.000000000000000000e+00,5.000000000000000000e+00,5.000000000000000000e+00,5.000000000000000000e+00,5.000000000000000000e+00,5.000000000000000000e+00,5.000000000000000000e+00,5.000000000000000000e+00,5.000000000000000000e+00,5.000000000000000000e+00,5.000000000000000000e+00,5.000000000000000000e+00,5.000000000000000000e+00,5.000000000000000000e+00,5.000000000000000000e+00,5.000000000000000000e+00,5.000000000000000000e+00,5.000000000000000000e+00,5.000000000000000000e+00,5.000000000000000000e+00,5.000000000000000000e+00,5.000000000000000000e+00,5.000000000000000000e+00,5.000000000000000000e+00,5.000000000000000000e+00,5.000000000000000000e+00,5.000000000000000000e+00,5.000000000000000000e+00,5.000000000000000000e+00,5.000000000000000000e+00,5.000000000000000000e+00,5.000000000000000000e+00,5.000000000000000000e+00,5.000000000000000000e+00,5.000000000000000000e+00,5.000000000000000000e+00,5.000000000000000000e+00,5.000000000000000000e+00,5.000000000000000000e+00,5.000000000000000000e+00,5.000000000000000000e+00,5.000000000000000000e+00,5.000000000000000000e+00,5.000000000000000000e+00,5.000000000000000000e+00,1.645840048789978027e+00,5.000000000000000000e+00,5.000000000000000000e+00,4.981428623199462891e+00,4.781520366668701172e+00,4.597037792205810547e+00,1.555340528488159180e+00,1.513784766197204590e+00,1.480222105979919434e+00,1.474013328552246094e+00,1.468997478485107422e+00,1.466560006141662598e+00,1.495898365974426270e+00,1.569506764411926270e+00,1.566532492637634277e+00,1.573232531547546387e+00,3.227336406707763672e+00,1.583705782890319824e+00,1.576636195182800293e+00,1.555833578109741211e+00,1.527789950370788574e+00,2.842383146286010742e+00,2.776155948638916016e+00,2.712944507598876953e+00,2.652547359466552734e+00,2.594780921936035156e+00,2.539477109909057617e+00,2.486481428146362305e+00
4.897854804992675781e+00,5.000000000000000000e+00,5.000000000000000000e+00,5.000000000000000000e+00,5.000000000000000000e+00,5.000000000000000000e+00,5.000000000000000000e+00,5.000000000000000000e+00,5.000000000000000000e+00,5.000000000000000000e+00,5.000000000000000000e+00,5.000000000000000000e+00,5.000000000000000000e+00,5.000000000000000000e+00,5.000000000000000000e+00,5.000000000000000000e+00,5.000000000000000000e+00,5.000000000000000000e+00,5.000000000000000000e+00,5.000000000000000000e+00,5.000000000000000000e+00,5.000000000000000000e+00,5.000000000000000000e+00,5.000000000000000000e+00,5.000000000000000000e+00,5.000000000000000000e+00,5.000000000000000000e+00,5.000000000000000000e+00,5.000000000000000000e+00,5.000000000000000000e+00,5.000000000000000000e+00,5.000000000000000000e+00,5.000000000000000000e+00,5.000000000000000000e+00,5.000000000000000000e+00,5.000000000000000000e+00,5.000000000000000000e+00,5.000000000000000000e+00,5.000000000000000000e+00,5.000000000000000000e+00,5.000000000000000000e+00,5.000000000000000000e+00,5.000000000000000000e+00,5.000000000000000000e+00,5.000000000000000000e+00,5.000000000000000000e+00,5.000000000000000000e+00,5.000000000000000000e+00,5.000000000000000000e+00,5.000000000000000000e+00,5.000000000000000000e+00,1.633613824844360352e+00,5.000000000000000000e+00,5.000000000000000000e+00,5.000000000000000000e+00,4.981597423553466797e+00,4.781675815582275391e+00,4.597181797027587891e+00,1.562099933624267578e+00,1.518462181091308594e+00,1.484483718872070312e+00,1.476695060729980469e+00,1.471405625343322754e+00,1.467774629592895508e+00,1.499295115470886230e+00,1.576830148696899414e+00,1.572764992713928223e+00,1.592200040817260742e+00,3.227407217025756836e+00,3.142291307449340820e+00,1.588219523429870605e+00,1.558943390846252441e+00,1.533895969390869141e+00,2.842438220977783203e+00,2.776208162307739258e+00,2.712994337081909180e+00,2.652595520019531250e+00,2.594826698303222656e+00,2.539520978927612305e+00,2.486523628234863281e+00
4.897703170776367188e+00,5.000000000000000000e+00,5.000000000000000000e+00,5.000000000000000000e+00,5.000000000000000000e+00,5.000000000000000000e+00,5.000000000000000000e+00,5.000000000000000000e+00,5.000000000000000000e+00,5.000000000000000000e+00,5.000000000000000000e+00,5.000000000000000000e+00,5.000000000000000000e+00,5.000000000000000000e+00,5.000000000000000000e+00,5.000000000000000000e+00,5.000000000000000000e+00,5.000000000000000000e+00,5.000000000000000000e+00,5.000000000000000000e+00,5.000000000000000000e+00,5.000000000000000000e+00,5.000000000000000000e+00,5.000000000000000000e+00,5.000000000000000000e+00,5.000000000000000000e+00,5.000000000000000000e+00,5.000000000000000000e+00,5.000000000000000000e+00,5.000000000000000000e+00,5.000000000000000000e+00,5.000000000000000000e+00,5.000000000000000000e+00,5.000000000000000000e+00,5.000000000000000000e+00,5.000000000000000000e+00,5.000000000000000000e+00,5.000000000000000000e+00,5.000000000000000000e+00,5.000000000000000000e+00,5.000000000000000000e+00,5.000000000000000000e+00,5.000000000000000000e+00,5.000000000000000000e+00,5.000000000000000000e+00,5.000000000000000000e+00,5.000000000000000000e+00,5.000000000000000000e+00,5.000000000000000000e+00,5.000000000000000000e+00,5.000000000000000000e+00,5.000000000000000000e+00,5.000000000000000000e+00,5.000000000000000000e+00,5.000000000000000000e+00,4.981766700744628906e+00,4.781831741333007812e+00,4.597325325012207031e+00,1.568497300148010254e+00,1.523074150085449219e+00,1.489223241806030273e+00,1.479581832885742188e+00,1.474163055419921875e+00,1.468991398811340332e+00,1.501556873321533203e+00,1.583161950111389160e+00,1.579041719436645508e+00,1.616507053375244141e+00,3.227477788925170898e+00,3.142358303070068359e+00,1.606740474700927734e+00,1.583195447921752930e+00,1.537772297859191895e+00,2.842493057250976562e+00,2.776260852813720703e+00,2.713044404983520508e+00,2.652643203735351562e+00,2.594872713088989258e+00,2.539564847946166992e+00,2.486565589904785156e+00
4.897551536560058594e+00,5.000000000000000000e+00,5.000000000000000000e+00,5.000000000000000000e+00,5.000000000000000000e+00,5.000000000000000000e+00,5.000000000000000000e+00,5.000000000000000000e+00,5.000000000000000000e+00,5.000000000000000000e+00,5.000000000000000000e+00,5.000000000000000000e+00,5.000000000000000000e+00,5.000000000000000000e+00,5.000000000000000000e+00,5.000000000000000000e+00,5.000000000000000000e+00,5.000000000000000000e+00,5.000000000000000000e+00,5.000000000000000000e+00,5.000000000000000000e+00,5.000000000000000000e+00,5.000000000000000000e+00,5.000000000000000000e+00,5.000000000000000000e+00,5.000000000000000000e+00,5.000000000000000000e+00,5.000000000000000000e+00,5.000000000000000000e+00,5.000000000000000000e+00,5.000000000000000000e+00,5.000000000000000000e+00,5.000000000000000000e+00,5.000000000000000000e+00,5.000000000000000000e+00,5.000000000000000000e+00,5.000000000000000000e+00,5.000000000000000000e+00,5.000000000000000000e+00,5.000000000000000000e+00,5.000000000000000000e+00,5.000000000000000000e+00,5.000000000000000000e+00,5.000000000000000000e+00,5.000000000000000000e+00,5.000000000000000000e+00,5.000000000000000000e+00,5.000000000000000000e+00,5.000000000000000000e+00,5.000000000000000000e+00,5.000000000000000000e+00,5.000000000000000000e+00,5.000000000000000000e+00,5.000000000000000000e+00,5.000000000000000000e+00,4.981935024261474609e+00,4.781987190246582031e+00,4.597469329833984375e+00,1.575725674629211426e+00,1.529086470603942871e+00,1.493609309196472168e+00,1.483123421669006348e+00,1.477678894996643066e+00,1.476091980934143066e+00,1.505385994911193848e+00,1.589522361755371094e+00,1.598381042480468750e+00,3.317412376403808594e+00,3.227549076080322266e+00,3.142425775527954102e+00,1.618106722831726074e+00,1.589129924774169922e+00,1.544603466987609863e+00,2.842548131942749023e+00,2.776313304901123047e+00,2.713094711303710938e+00,2.652691125869750977e+00,2.594918489456176758e+00,2.539608716964721680e+00,2.486607551574707031e+00
4.897399902343750000e+00,5.000000000000000000e+00,5.000000000000000000e+00,5.000000000000000000e+00,5.000000000000000000e+00,5.000000000000000000e+00,5.000000000000000000e+00,5.000000000000000000e+00,5.000000000000000000e+00,5.000000000000000000e+00,5.000000000000000000e+00,5.000000000000000000e+00,5.000000000000000000e+00,5.000000000000000000e+00,5.000000000000000000e+00,5.000000000000000000e+00,5.000000000000000000e+00,5.000000000000000000e+00,5.000000000000000000e+00,5.000000000000000000e+00,5.000000000000000000e+00,5.000000000000000000e+00,5.000000000000000000e+00,5.000000000000000000e+00,5.000000000000000000e+00,5.000000000000000000e+00,5.000000000000000000e+00,5.000000000000000000e+00,5.000000000000000000e+00,5.000000000000000000e+00,5.000000000000000000e+00,5.000000000000000000e+00,5.000000000000000000e+00,5.000000000000000000e+00,5.000000000000000000e+00,5.000000000000000000e+00,5.000000000000000000e+00,5.000000000000000000e+00,5.000000000000000000e+00,5.000000000000000000e+00,5.000000000000000000e+00,5.000000000000000000e+00,5.000000000000000000e+00,5.000000000000000000e+00,5.000000000000000000e+00,5.000000000000000000e+00,5.000000000000000000e+00,5.000000000000000000e+00,5.000000000000000000e+00,5.000000000000000000e+00,5.000000000000000000e+00,5.000000000000000000e+00,5.000000000000000000e+00,5.000000000000000000e+00,5.000000000000000000e+00,4.982095718383789062e+00,4.782136917114257812e+00,4.597609043121337891e+00,1.582500457763671875e+00,1.535146355628967285e+00,1.497164607048034668e+00,1.486893296241760254e+00,1.481211423873901367e+00,1.483489871025085449e+00,1.511690974235534668e+00,1.597069144248962402e+00,1.619626641273498535e+00,3.317487239837646484e+00,3.227619886398315430e+00,3.142492771148681641e+00,3.061740875244140625e+00,1.597400546073913574e+00,2.912078380584716797e+00,2.842603206634521484e+00,2.776365518569946289e+00,2.713144779205322266e+00,2.652739048004150391e+00,2.594964265823364258e+00,2.539652585983276367e+00,2.486649751663208008e+00
4.897248268127441406e+00,5.000000000000000000e+00,5.000000000000000000e+00,5.000000000000000000e+00,5.000000000000000000e+00,5.000000000000000000e+00,5.000000000000000000e+00,5.000000000000000000e+00,5.000000000000000000e+00,5.000000000000000000e+00,5.000000000000000000e+00,5.000000000000000000e+00,5.000000000000000000e+00,5.000000000000000000e+00,5.000000000000000000e+00,5.000000000000000000e+00,5.000000000000000000e+00,5.000000000000000000e+00,5.000000000000000000e+00,5.000000000000000000e+00,5.000000000000000000e+00,5.000000000000000000e+00,5.000000000000000000e+00,5.000000000000000000e+00,5.000000000000000000e+00,5.000000000000000000e+00,5.000000000000000000e+00,5.000000000000000000e+00,5.000000000000000000e+00,5.000000000000000000e+00,5.000000000000000000e+00,5.000000000000000000e+00,5.000000000000000000e+00,5.000000000000000000e+00,5.000000000000000000e+00,5.000000000000000000e+00,5.000000000000000000e+00,5.000000000000000000e+00,5.000000000000000000e+00,5.000000000000000000e+00,5.000000000000000000e+00,5.000000000000000000e+00,5.000000000000000000e+00,5.000000000000000000e+00,5.000000000000000000e+00,5.000000000000000000e+00,5.000000000000000000e+00,5.000000000000000000e+00,5.000000000000000000e+00,5.000000000000000000e+00,5.000000000000000000e+00,5.000000000000000000e+00,5.000000000000000000e+00,5.000000000000000000e+00,5.000000000000000000e+00,4.982251644134521484e+00,4.782280445098876953e+00,4.597742080688476562e+00,1.587704420089721680e+00,1.541254758834838867e+00,1.500736951828002930e+00,1.490856766700744629e+00,1.484760999679565430e+00,1.490962147712707520e+00,1.609066843986511230e+00,1.607163548469543457e+00,1.646028280258178711e+00,3.317562341690063477e+00,3.227690935134887695e+00,3.142560005187988281e+00,3.061804533004760742e+00,2.985095500946044922e+00,2.912136077880859375e+00,2.842658042907714844e+00,2.776418209075927734e+00,2.713194847106933594e+00,2.652786970138549805e+00,2.595010280609130859e+00,2.539696455001831055e+00,2.486691713333129883e+00
4.897096633911132812e+00,5.000000000000000000e+00,5.000000000000000000e+00,5.000000000000000000e+00,5.000000000000000000e+00,5.000000000000000000e+00,5.000000000000000000e+00,5.000000000000000000e+00,5.000000000000000000e+00,5.000000000000000000e+00,5.000000000000000000e+00,5.000000000000000000e+00,5.000000000000000000e+00,5.000000000000000000e+00,5.000000000000000000e+00,5.000000000000000000e+00,5.000000000000000000e+00,5.000000000000000000e+00,5.000000000000000000e+00,5.000000000000000000e+00,5.000000000000000000e+00,5.000000000000000000e+00,5.000000000000000000e+00,5.000000000000000000e+00,5.000000000000000000e+00,5.000000000000000000e+00,5.000000000000000000e+00,5.000000000000000000e+00,5.000000000000000000e+00,5.000000000000000000e+00,5.000000000000000000e+00,5.000000000000000000e+00,5.000000000000000000e+00,5.000000000000000000e+00,5.000000000000000000e+00,5.000000000000000000e+00,5.000000000000000000e+00,5.000000000000000000e+00,5.000000000000000000e+00,5.000000000000000000e+00,5.000000000000000000e+00,5.000000000000000000e+00,5.000000000000000000e+00,5.000000000000000000e+00,5.000000000000000000e+00,5.000000000000000000e+00,5.000000000000000000e+00,5.000000000000000000e+00,5.000000000000000000e+00,5.000000000000000000e+00,5.000000000000000000e+00,5.000000000000000000e+00,5.000000000000000000e+00,5.000000000000000000e+00,5.000000000000000000e+00,4.982408046722412109e+00,4.782424449920654297e+00,4.597875118255615234e+00,4.427040100097656250e+00,1.547526359558105469e+00,1.504326462745666504e+00,1.494841575622558594e+00,1.488517642021179199e+00,1.498510241508483887e+00,1.618424057960510254e+00,1.620193719863891602e+00,3.412655353546142578e+00,3.317632436752319336e+00,3.227758169174194336e+00,3.142624616622924805e+00,3.061866521835327148e+00,2.985155344009399414e+00,2.912193775177001953e+00,2.842713117599487305e+00,2.776470661163330078e+00,2.713244915008544922e+00,2.652834653854370117e+00,2.595056056976318359e+00,2.539740562438964844e+00,2.486733913421630859e+00
4.896944999694824219e+00,5.000000000000000000e+00,5.000000000000000000e+00,5.000000000000000000e+00,5.000000000000000000e+00,5.000000000000000000e+00,5.000000000000000000e+00,5.000000000000000000e+00,5.000000000000000000e+00,5.000000000000000000e+00,5.000000000000000000e+00,5.000000000000000000e+00,5.000000000000000000e+00,5.000000000000000000e+00,5.000000000000000000e+00,5.000000000000000000e+00,5.000000000000000000e+00,5.000000000000000000e+00,5.000000000000000000e+00,5.000000000000000000e+00,5.000000000000000000e+00,5.000000000000000000e+00,5.000000000000000000e+00,5.000000000000000000e+00,5.000000000000000000e+00,5.000000000000000000e+00,5.000000000000000000e+00,5.000000000000000000e+00,5.000000000000000000e+00,5.000000000000000000e+00,5.000000000000000000e+00,5.000000000000000000e+00,5.000000000000000000e+00,5.000000000000000000e+00,5.000000000000000000e+00,5.000000000000000000e+00,5.000000000000000000e+00,5.000000000000000000e+00,5.000000000000000000e+00,5.000000000000000000e+00,5.000000000000000000e+00,5.000000000000000000e+00,5.000000000000000000e+00,5.000000000000000000e+00,5.000000000000000000e+00,5.000000000000000000e+00,5.000000000000000000e+00,5.000000000000000000e+00,5.000000000000000000e+00,5.000000000000000000e+00,5.000000000000000000e+00,5.000000000000000000e+00,5.000000000000000000e+00,5.000000000000000000e+00,5.000000000000000000e+00,4.982563972473144531e+00,4.782568454742431641e+00,4.598008155822753906e+00,4.427163124084472656e+00,1.554940104484558105e+00,1.510212659835815430e+00,1.497707366943359375e+00,1.473651409149169922e+00,1.452066421508789062e+00,1.628781914710998535e+00,1.647545695304870605e+00,3.412728548049926758e+00,3.317701816558837891e+00,3.227823734283447266e+00,3.142686843872070312e+00,3.061925649642944336e+00,2.985211372375488281e+00,2.912246942520141602e+00,2.842764616012573242e+00,2.776520252227783203e+00,2.713292837142944336e+00,2.652881145477294922e+00,2.595100879669189453e+00,2.539783954620361328e+00,2.486776113510131836e+00
4.896793365478515625e+00,5.000000000000000000e+00,5.000000000000000000e+00,5.000000000000000000e+00,5.000000000000000000e+00,5.000000000000000000e+00,5.000000000000000000e+00,5.000000000000000000e+00,5.000000000000000000e+00,5.000000000000000000e+00,5.000000000000000000e+00,5.000000000000000000e+00,5.000000000000000000e+00,5.000000000000000000e+00,5.000000000000000000e+00,5.000000000000000000e+00,5.000000000000000000e+00,5.000000000000000000e+00,5.000000000000000000e+00,5.000000000000000000e+00,5.000000000000000000e+00,5.000000000000000000e+00,5.000000000000000000e+00,5.000000000000000000e+00,5.000000000000000000e+00,5.000000000000000000e+00,5.000000000000000000e+00,5.000000000000000000e+00,5.000000000000000000e+00,5.000000000000000000e+00,5.000000000000000000e+00,5.000000000000000000e+00,5.000000000000000000e+00,5.000000000000000000e+00,5.000000000000000000e+00,5.000000000000000000e+00,5.000000000000000000e+00,5.000000000000000000e+00,5.000000000000000000e+00,5.000000000000000000e+00,5.000000000000000000e+00,5.000000000000000000e+00,5.000000000000000000e+00,5.000000000000000000e+00,5.000000000000000000e+00,5.000000000000000000e+00,5.000000000000000000e+00,5.000000000000000000e+00,5.000000000000000000e+00,5.000000000000000000e+00,5.000000000000000000e+00,5.000000000000000000e+00,5.000000000000000000e+00,5.000000000000000000e+00,5.000000000000000000e+00,4.982719898223876953e+00,4.782711982727050781e+00,4.598141193389892578e+00,4.427286148071289062e+00,1.560693860054016113e+00,1.516602635383605957e+00,1.467656373977661133e+00,1.432489871978759766e+00,1.410344004631042480e+00,1.394585132598876953e+00,1.384544014930725098e+00,3.412801742553710938e+00,3.317770957946777344e+00,3.227889299392700195e+00,3.142748832702636719e+00,3.061984539031982422e+00,2.985267400741577148e+00,2.912300348281860352e+00,2.842815399169921875e+00,2.776568651199340820e+00,2.713339090347290039e+00,2.652925491333007812e+00,2.595143318176269531e+00,2.539824485778808594e+00,2.486815214157104492e+00
4.896642208099365234e+00,5.000000000000000000e+00,5.000000000000000000e+00,5.000000000000000000e+00,5.000000000000000000e+00,5.000000000000000000e+00,5.000000000000000000e+00,5.000000000000000000e+00,5.000000000000000000e+00,5.000000000000000000e+00,5.000000000000000000e+00,5.000000000000000000e+00,5.000000000000000000e+00,5.000000000000000000e+00,5.000000000000000000e+00,5.000000000000000000e+00,5.000000000000000000e+00,5.000000000000000000e+00,5.000000000000000000e+00,5.000000000000000000e+00,5.000000000000000000e+00,5.000000000000000000e+00,5.000000000000000000e+00,5.000000000000000000e+00,5.000000000000000000e+00,5.000000000000000000e+00,5.000000000000000000e+00,5.000000000000000000e+00,5.000000000000000000e+00,5.000000000000000000e+00,5.000000000000000000e+00,5.000000000000000000e+00,5.000000000000000000e+00,5.000000000000000000e+00,5.000000000000000000e+00,5.000000000000000000e+00,5.000000000000000000e+00,5.000000000000000000e+00,5.000000000000000000e+00,5.000000000000000000e+00,5.000000000000000000e+00,5.000000000000000000e+00,5.000000000000000000e+00,5.000000000000000000e+00,5.000000000000000000e+00,5.000000000000000000e+00,5.000000000000000000e+00,5.000000000000000000e+00,5.000000000000000000e+00,5.000000000000000000e+00,5.000000000000000000e+00,5.000000000000000000e+00,5.000000000000000000e+00,5.000000000000000000e+00,5.000000000000000000e+00,4.982876300811767578e+00,4.782855987548828125e+00,4.598274230957031250e+00,4.427410125732421875e+00,1.562886953353881836e+00,1.507996082305908203e+00,1.457255959510803223e+00,1.418691396713256836e+00,1.391281843185424805e+00,1.373090267181396484e+00,1.363322615623474121e+00,1.353725075721740723e+00,3.317840099334716797e+00,3.227954864501953125e+00,3.142811059951782227e+00,3.062043666839599609e+00,2.985323429107666016e+00,2.912353754043579102e+00,2.842866182327270508e+00,2.776617288589477539e+00,2.713385343551635742e+00,2.652969837188720703e+00,2.595185518264770508e+00,2.539865255355834961e+00,2.486854076385498047e+00
4.896490573883056641e+00,5.000000000000000000e+00,5.000000000000000000e+00,5.000000000000000000e+00,5.000000000000000000e+00,5.000000000000000000e+00,5.000000000000000000e+00,5.000000000000000000e+00,5.000000000000000000e+00,5.000000000000000000e+00,5.000000000000000000e+00,5.000000000000000000e+00,5.000000000000000000e+00,5.000000000000000000e+00,5.000000000000000000e+00,5.000000000000000000e+00,5.000000000000000000e+00,5.000000000000000000e+00,5.000000000000000000e+00,5.000000000000000000e+00,5.000000000000000000e+00,5.000000000000000000e+00,5.000000000000000000e+00,5.000000000000000000e+00,5.000000000000000000e+00,5.000000000000000000e+00,5.000000000000000000e+00,5.000000000000000000e+00,5.000000000000000000e+00,5.000000000000000000e+00,5.000000000000000000e+00,5.000000000000000000e+00,5.000000000000000000e+00,5.000000000000000000e+00,5.000000000000000000e+00,5.000000000000000000e+00,5.000000000000000000e+00,5.000000000000000000e+00,5.000000000000000000e+00,5.000000000000000000e+00,5.000000000000000000e+00,5.000000000000000000e+00,5.000000000000000000e+00,5.000000000000000000e+00,5.000000000000000000e+00,5.000000000000000000e+00,5.000000000000000000e+00,5.000000000000000000e+00,5.000000000000000000e+00,5.000000000000000000e+00,5.000000000000000000e+00,5.000000000000000000e+00,5.000000000000000000e+00,5.000000000000000000e+00,5.000000000000000000e+00,4.983032226562500000e+00,4.782999992370605469e+00,4.598407268524169922e+00,4.427533149719238281e+00,4.268903255462646484e+00,1.515056729316711426e+00,1.455255627632141113e+00,1.408654093742370605e+00,1.384250044822692871e+00,1.359216451644897461e+00,1.342894315719604492e+00,1.333457946777343750e+00,1.324248313903808594e+00,3.228020429611206055e+00,3.142873048782348633e+00,3.062102794647216797e+00,2.985379457473754883e+00,2.912406921386718750e+00,2.842916965484619141e+00,2.776665687561035156e+00,2.713431596755981445e+00,2.653013944625854492e+00,2.595227956771850586e+00,2.539905786514282227e+00,2.486892938613891602e+00
4.896338939666748047e+00,5.000000000000000000e+00,5.000000000000000000e+00,5.000000000000000000e+00,5.000000000000000000e+00,5.000000000000000000e+00,5.000000000000000000e+00,5.000000000000000000e+00,5.000000000000000000e+00,5.000000000000000000e+00,5.000000000000000000e+00,5.000000000000000000e+00,5.000000000000000000e+00,5.000000000000000000e+00,5.000000000000000000e+00,5.000000000000000000e+00,5.000000000000000000e+00,5.000000000000000000e+00,5.000000000000000000e+00,5.000000000000000000e+00,5.000000000000000000e+00,5.000000000000000000e+00,5.000000000000000000e+00,5.000000000000000000e+00,5.000000000000000000e+00,5.000000000000000000e+00,5.000000000000000000e+00,5.000000000000000000e+00,5.000000000000000000e+00,5.000000000000000000e+00,5.000000000000000000e+00,5.000000000000000000e+00,5.000000000000000000e+00,5.000000000000000000e+00,5.000000000000000000e+00,5.000000000000000000e+00,5.000000000000000000e+00,5.000000000000000000e+00,5.000000000000000000e+00,5.000000000000000000e+00,5.000000000000000000e+00,5.000000000000000000e+00,5.000000000000000000e+00,5.000000000000000000e+00,5.000000000000000000e+00,5.000000000000000000e+00,5.000000000000000000e+00,5.000000000000000000e+00,5.000000000000000000e+00,5.000000000000000000e+00,5.000000000000000000e+00,5.000000000000000000e+00,5.000000000000000000e+00,5.000000000000000000e+00,5.000000000000000000e+00,4.983189105987548828e+00,4.783143520355224609e+00,4.598540306091308594e+00,4.427656650543212891e+00,4.269017696380615234e+00,4.121353626251220703e+00,1.477172493934631348e+00,1.419858217239379883e+00,1.377288937568664551e+00,1.353699564933776855e+00,1.328201770782470703e+00,1.313997864723205566e+00,1.304961919784545898e+00,1.296034216880798340e+00,3.142935276031494141e+00,3.062161684036254883e+00,2.985435485839843750e+00,2.912460327148437500e+00,2.842967748641967773e+00,2.776714086532592773e+00,2.713478326797485352e+00,2.653058290481567383e+00,2.595270395278930664e+00,2.539946317672729492e+00,2.486931800842285156e+00
4.896187782287597656e+00,5.000000000000000000e+00,5.000000000000000000e+00,5.000000000000000000e+00,5.000000000000000000e+00,5.000000000000000000e+00,5.000000000000000000e+00,5.000000000000000000e+00,5.000000000000000000e+00,5.000000000000000000e+00,5.000000000000000000e+00,5.000000000000000000e+00,5.000000000000000000e+00,5.000000000000000000e+00,5.000000000000000000e+00,5.000000000000000000e+00,5.000000000000000000e+00,5.000000000000000000e+00,5.000000000000000000e+00,5.000000000000000000e+00,5.000000000000000000e+00,5.000000000000000000e+00,5.000000000000000000e+00,5.000000000000000000e+00,5.000000000000000000e+00,5.000000000000000000e+00,5.000000000000000000e+00,5.000000000000000000e+00,5.000000000000000000e+00,5.000000000000000000e+00,5.000000000000000000e+00,5.000000000000000000e+00,5.000000000000000000e+00,5.000000000000000000e+00,5.000000000000000000e+00,5.000000000000000000e+00,5.000000000000000000e+00,5.000000000000000000e+00,5.000000000000000000e+00,5.000000000000000000e+00,5.000000000000000000e+00,5.000000000000000000e+00,5.000000000000000000e+00,5.000000000000000000e+00,5.000000000000000000e+00,5.000000000000000000e+00,5.000000000000000000e+00,5.000000000000000000e+00,5.000000000000000000e+00,5.000000000000000000e+00,5.000000000000000000e+00,5.000000000000000000e+00,5.000000000000000000e+00,5.000000000000000000e+00,5.000000000000000000e+00,4.983345031738281250e+00,4.783287525177001953e+00,4.598672866821289062e+00,4.427779674530029297e+00,4.269132614135742188e+00,4.121460437774658203e+00,1.681526303291320801e+00,1.441618084907531738e+00,1.385639905929565430e+00,1.347290277481079102e+00,1.322933197021484375e+00,1.298968672752380371e+00,1.286200523376464844e+00,1.277475476264953613e+00,1.279362916946411133e+00,3.062220573425292969e+00,2.985491514205932617e+00,2.912513732910156250e+00,2.843018770217895508e+00,2.776762723922729492e+00,2.713524580001831055e+00,2.653102636337280273e+00,2.595312595367431641e+00,2.539987087249755859e+00,2.486970663070678711e+00
4.896054744720458984e+00,5.000000000000000000e+00,5.000000000000000000e+00,5.000000000000000000e+00,5.000000000000000000e+00,5.000000000000000000e+00,5.000000000000000000e+00,5.000000000000000000e+00,5.000000000000000000e+00,5.000000000000000000e+00,5.000000000000000000e+00,5.000000000000000000e+00,5.000000000000000000e+00,5.000000000000000000e+00,5.000000000000000000e+00,5.000000000000000000e+00,5.000000000000000000e+00,5.000000000000000000e+00,5.000000000000000000e+00,5.000000000000000000e+00,5.000000000000000000e+00,5.000000000000000000e+00,5.000000000000000000e+00,5.000000000000000000e+00,5.000000000000000000e+00,5.000000000000000000e+00,5.000000000000000000e+00,5.000000000000000000e+00,5.000000000000000000e+00,5.000000000000000000e+00,5.000000000000000000e+00,5.000000000000000000e+00,5.000000000000000000e+00,5.000000000000000000e+00,5.000000000000000000e+00,5.000000000000000000e+00,5.000000000000000000e+00,5.000000000000000000e+00,5.000000000000000000e+00,5.000000000000000000e+00,5.000000000000000000e+00,5.000000000000000000e+00,5.000000000000000000e+00,5.000000000000000000e+00,5.000000000000000000e+00,5.000000000000000000e+00,5.000000000000000000e+00,5.000000000000000000e+00,5.000000000000000000e+00,5.000000000000000000e+00,5.000000000000000000e+00,5.000000000000000000e+00,5.000000000000000000e+00,5.000000000000000000e+00,5.000000000000000000e+00,4.983501434326171875e+00,4.783431529998779297e+00,4.598805904388427734e+00,4.427903175354003906e+00,4.269247055053710938e+00,4.121567249298095703e+00,1.676385760307312012e+00,1.625381708145141602e+00,1.406530976295471191e+00,1.353145480155944824e+00,1.317706346511840820e+00,1.295091629028320312e+00,1.273098945617675781e+00,1.259440541267395020e+00,1.251073718070983887e+00,3.062279701232910156e+00,2.985547542572021484e+00,2.912567138671875000e+00,2.843069553375244141e+00,2.776811122894287109e+00,2.713570833206176758e+00,2.653146743774414062e+00,2.595355033874511719e+00,2.540027618408203125e+00,2.487009525299072266e+00
4.895928382873535156e+00,5.000000000000000000e+00,5.000000000000000000e+00,5.000000000000000000e+00,5.000000000000000000e+00,5.000000000000000000e+00,5.000000000000000000e+00,5.000000000000000000e+00,5.000000000000000000e+00,5.000000000000000000e+00,5.000000000000000000e+00,5.000000000000000000e+00,5.000000000000000000e+00,5.000000000000000000e+00,5.000000000000000000e+00,5.000000000000000000e+00,5.000000000000000000e+00,5.000000000000000000e+00,5.000000000000000000e+00,5.000000000000000000e+00,5.000000000000000000e+00,5.000000000000000000e+00,5.000000000000000000e+00,5.000000000000000000e+00,5.000000000000000000e+00,5.000000000000000000e+00,5.000000000000000000e+00,5.000000000000000000e+00,5.000000000000000000e+00,5.000000000000000000e+00,5.000000000000000000e+00,5.000000000000000000e+00,5.000000000000000000e+00,5.000000000000000000e+00,5.000000000000000000e+00,5.000000000000000000e+00,5.000000000000000000e+00,5.000000000000000000e+00,5.000000000000000000e+00,5.000000000000000000e+00,5.000000000000000000e+00,5.000000000000000000e+00,5.000000000000000000e+00,5.000000000000000000e+00,5.000000000000000000e+00,5.000000000000000000e+00,5.000000000000000000e+00,5.000000000000000000e+00,5.000000000000000000e+00,5.000000000000000000e+00,5.000000000000000000e+00,5.000000000000000000e+00,5.000000000000000000e+00,5.000000000000000000e+00,5.000000000000000000e+00,4.983657360076904297e+00,4.783575534820556641e+00,4.598938941955566406e+00,4.428026199340820312e+00,4.269361972808837891e+00,4.121674537658691406e+00,1.671850919723510742e+00,1.624238252639770508e+00,1.599056363105773926e+00,1.373537659645080566e+00,1.322986602783203125e+00,1.291237711906433105e+00,1.269837498664855957e+00,1.248207330703735352e+00,1.233990430831909180e+00,1.228498339653015137e+00,2.985603570938110352e+00,2.912620544433593750e+00,2.843120336532592773e+00,2.776859521865844727e+00,2.713617086410522461e+00,2.653191089630126953e+00,2.595397472381591797e+00,2.540068149566650391e+00,2.487048387527465820e+00
4.895802021026611328e+00,5.000000000000000000e+00,5.000000000000000000e+00,5.000000000000000000e+00,5.000000000000000000e+00,5.000000000000000000e+00,5.000000000000000000e+00,5.000000000000000000e+00,5.000000000000000000e+00,5.000000000000000000e+00,5.000000000000000000e+00,5.000000000000000000e+00,5.000000000000000000e+00,5.000000000000000000e+00,5.000000000000000000e+00,5.000000000000000000e+00,5.000000000000000000e+00,5.000000000000000000e+00,5.000000000000000000e+00,5.000000000000000000e+00,5.000000000000000000e+00,5.000000000000000000e+00,5.000000000000000000e+00,5.000000000000000000e+00,5.000000000000000000e+00,5.000000000000000000e+00,5.000000000000000000e+00,5.000000000000000000e+00,5.000000000000000000e+00,5.000000000000000000e+00,5.000000000000000000e+00,5.000000000000000000e+00,5.000000000000000000e+00,5.000000000000000000e+00,5.000000000000000000e+00,5.000000000000000000e+00,5.000000000000000000e+00,5.000000000000000000e+00,5.000000000000000000e+00,5.000000000000000000e+00,5.000000000000000000e+00,5.000000000000000000e+00,5.000000000000000000e+00,5.000000000000000000e+00,5.000000000000000000e+00,5.000000000000000000e+00,5.000000000000000000e+00,5.000000000000000000e+00,5.000000000000000000e+00,5.000000000000000000e+00,5.000000000000000000e+00,5.000000000000000000e+00,5.000000000000000000e+00,5.000000000000000000e+00,5.000000000000000000e+00,4.983813762664794922e+00,4.783719539642333984e+00,4.599071979522705078e+00,4.428149700164794922e+00,4.269476413726806641e+00,4.121781349182128906e+00,1.667340278625488281e+00,1.622583746910095215e+00,1.597394704818725586e+00,1.593011379241943359e+00,1.342922449111938477e+00,1.295650601387023926e+00,1.266132116317749023e+00,1.245026826858520508e+00,1.224987745285034180e+00,1.211291909217834473e+00,1.211359143257141113e+00,2.912673950195312500e+00,2.843171119689941406e+00,2.776908159255981445e+00,2.713663339614868164e+00,2.653235435485839844e+00,2.595439672470092773e+00,2.540108680725097656e+00,2.487087249755859375e+00
4.895675182342529297e+00,5.000000000000000000e+00,5.000000000000000000e+00,5.000000000000000000e+00,5.000000000000000000e+00,5.000000000000000000e+00,5.000000000000000000e+00,5.000000000000000000e+00,5.000000000000000000e+00,5.000000000000000000e+00,5.000000000000000000e+00,5.000000000000000000e+00,5.000000000000000000e+00,5.000000000000000000e+00,5.000000000000000000e+00,5.000000000000000000e+00,5.000000000000000000e+00,5.000000000000000000e+00,5.000000000000000000e+00,5.000000000000000000e+00,5.000000000000000000e+00,5.000000000000000000e+00,5.000000000000000000e+00,5.000000000000000000e+00,5.000000000000000000e+00,5.000000000000000000e+00,5.000000000000000000e+00,5.000000000000000000e+00,5.000000000000000000e+00,5.000000000000000000e+00,5.000000000000000000e+00,5.000000000000000000e+00,5.000000000000000000e+00,5.000000000000000000e+00,5.000000000000000000e+00,5.000000000000000000e+00,5.000000000000000000e+00,5.000000000000000000e+00,5.000000000000000000e+00,5.000000000000000000e+00,5.000000000000000000e+00,5.000000000000000000e+00,5.000000000000000000e+00,5.000000000000000000e+00,5.000000000000000000e+00,5.000000000000000000e+00,5.000000000000000000e+00,5.000000000000000000e+00,5.000000000000000000e+00,5.000000000000000000e+00,5.000000000000000000e+00,5.000000000000000000e+00,5.000000000000000000e+00,5.000000000000000000e+00,5.000000000000000000e+00,4.983969688415527344e+00,4.783863544464111328e+00,4.599205017089843750e+00,4.428272724151611328e+00,4.269590854644775391e+00,4.121888160705566406e+00,1.663521409034729004e+00,1.620885848999023438e+00,1.597076654434204102e+00,1.589918017387390137e+00,1.599189996719360352e+00,1.314964532852172852e+00,1.269421219825744629e+00,1.241934537887573242e+00,1.221141099929809570e+00,1.214206695556640625e+00,1.213231086730957031e+00,2.912727355957031250e+00,2.843221902847290039e+00,2.776956558227539062e+00,2.713709831237792969e+00,2.653279542922973633e+00,2.595482110977172852e+00,2.540149211883544922e+00,2.487126350402832031e+00
4.895548820495605469e+00,5.000000000000000000e+00,5.000000000000000000e+00,5.000000000000000000e+00,5.000000000000000000e+00,5.000000000000000000e+00,5.000000000000000000e+00,5.000000000000000000e+00,5.000000000000000000e+00,5.000000000000000000e+00,5.000000000000000000e+00,5.000000000000000000e+00,5.000000000000000000e+00,5.000000000000000000e+00,5.000000000000000000e+00,5.000000000000000000e+00,5.000000000000000000e+00,5.000000000000000000e+00,5.000000000000000000e+00,5.000000000000000000e+00,5.000000000000000000e+00,5.000000000000000000e+00,5.000000000000000000e+00,5.000000000000000000e+00,5.000000000000000000e+00,5.000000000000000000e+00,5.000000000000000000e+00,5.000000000000000000e+00,5.000000000000000000e+00,5.000000000000000000e+00,5.000000000000000000e+00,5.000000000000000000e+00,5.000000000000000000e+00,5.000000000000000000e+00,5.000000000000000000e+00,5.000000000000000000e+00,5.000000000000000000e+00,5.000000000000000000e+00,5.000000000000000000e+00,5.000000000000000000e+00,5.000000000000000000e+00,5.000000000000000000e+00,5.000000000000000000e+00,5.000000000000000000e+00,5.000000000000000000e+00,5.000000000000000000e+00,5.000000000000000000e+00,5.000000000000000000e+00,5.000000000000000000e+00,5.000000000000000000e+00,5.000000000000000000e+00,5.000000000000000000e+00,5.000000000000000000e+00,5.000000000000000000e+00,5.000000000000000000e+00,4.984126091003417969e+00,4.784007549285888672e+00,4.599338531494140625e+00,4.428396224975585938e+00,4.269705772399902344e+00,4.121994972229003906e+00,1.665559172630310059e+00,1.619672298431396484e+00,1.596131086349487305e+00,1.587808012962341309e+00,1.599804878234863281e+00,3.413461208343505859e+00,1.288406729698181152e+00,1.244254708290100098e+00,1.224690675735473633e+00,1.214181065559387207e+00,1.196439385414123535e+00,1.170753479003906250e+00,1.154700994491577148e+00,2.777004957199096680e+00,2.713756084442138672e+00,2.653323888778686523e+00,2.595524787902832031e+00,2.540189743041992188e+00,2.487165212631225586e+00
4.895504474639892578e+00,5.000000000000000000e+00,5.000000000000000000e+00,5.000000000000000000e+00,5.000000000000000000e+00,5.000000000000000000e+00,5.000000000000000000e+00,5.000000000000000000e+00,5.000000000000000000e+00,5.000000000000000000e+00,5.000000000000000000e+00,5.000000000000000000e+00,5.000000000000000000e+00,5.000000000000000000e+00,5.000000000000000000e+00,5.000000000000000000e+00,5.000000000000000000e+00,5.000000000000000000e+00,5.000000000000000000e+00,5.000000000000000000e+00,5.000000000000000000e+00,5.000000000000000000e+00,5.000000000000000000e+00,5.000000000000000000e+00,5.000000000000000000e+00,5.000000000000000000e+00,5.000000000000000000e+00,5.000000000000000000e+00,5.000000000000000000e+00,5.000000000000000000e+00,5.000000000000000000e+00,5.000000000000000000e+00,5.000000000000000000e+00,5.000000000000000000e+00,5.000000000000000000e+00,5.000000000000000000e+00,5.000000000000000000e+00,5.000000000000000000e+00,5.000000000000000000e+00,5.000000000000000000e+00,5.000000000000000000e+00,5.000000000000000000e+00,5.000000000000000000e+00,5.000000000000000000e+00,5.000000000000000000e+00,5.000000000000000000e+00,5.000000000000000000e+00,5.000000000000000000e+00,5.000000000000000000e+00,5.000000000000000000e+00,5.000000000000000000e+00,5.000000000000000000e+00,5.000000000000000000e+00,5.000000000000000000e+00,5.000000000000000000e+00,4.984282016754150391e+00,4.784151077270507812e+00,4.599471569061279297e+00,4.428519725799560547e+00,4.269820213317871094e+00,4.122101783752441406e+00,1.667002081871032715e+00,1.618460536003112793e+00,1.596525430679321289e+00,1.586018085479736328e+00,1.600369334220886230e+00,3.413534402847290039e+00,3.318463563919067383e+00,1.262900352478027344e+00,1.235402464866638184e+00,1.207952857017517090e+00,1.181833863258361816e+00,1.155552029609680176e+00,1.139026284217834473e+00,1.134886503219604492e+00,2.713802337646484375e+00,2.653368234634399414e+00,2.595566987991333008e+00,2.540230512619018555e+00,2.487204074859619141e+00
4.872818946838378906e+00,4.871605396270751953e+00,4.870392322540283203e+00,4.869179248809814453e+00,4.867967605590820312e+00,4.866755962371826172e+00,4.865544795989990234e+00,4.864334583282470703e+00,4.863124847412109375e+00,4.861916065216064453e+00,4.860707759857177734e+00,4.859499454498291016e+00,4.858292579650878906e+00,4.857085704803466797e+00,4.855879783630371094e+00,4.854674339294433594e+00,4.853469371795654297e+00,4.852265357971191406e+00,4.851061820983886719e+00,4.849858760833740234e+00,4.848656177520751953e+00,4.847454547882080078e+00,4.846252918243408203e+00,4.845052719116210938e+00,4.843852519989013672e+00,4.842652797698974609e+00,4.841454029083251953e+00,4.840255737304687500e+00,4.839057922363281250e+00,4.837860584259033203e+00,4.836664199829101562e+00,4.835468292236328125e+00,4.834272861480712891e+00,4.833077907562255859e+00,4.831883907318115234e+00,4.830690383911132812e+00,4.829497337341308594e+00,4.828305244445800781e+00,4.827113151550292969e+00,4.825922012329101562e+00,4.824731349945068359e+00,4.823541164398193359e+00,4.822351932525634766e+00,4.821163177490234375e+00,4.819974899291992188e+00,4.818787097930908203e+00,4.817600250244140625e+00,4.816413402557373047e+00,4.815227508544921875e+00,4.814042091369628906e+00,4.812857151031494141e+00,4.811673164367675781e+00,4.810489654541015625e+00,4.809306621551513672e+00,4.808124065399169922e+00,4.806941986083984375e+00,4.784295082092285156e+00,4.599604606628417969e+00,4.428643226623535156e+00,4.269935131072998047e+00,4.122208595275878906e+00,1.667585134506225586e+00,1.617250680923461914e+00,1.596920013427734375e+00,1.584232449531555176e+00,1.600933790206909180e+00,3.413608074188232422e+00,3.318532943725585938e+00,3.228610038757324219e+00,1.271218895912170410e+00,1.204571366310119629e+00,1.177434325218200684e+00,1.149905920028686523e+00,1.137753725051879883e+00,1.136688947677612305e+00,2.713848590850830078e+00,2.653412342071533203e+00,2.595609426498413086e+00,2.540271043777465820e+00,2.487242937088012695e+00
3.776821613311767578e+00,3.776092290878295898e+00,3.775363206863403320e+00,3.774634361267089844e+00,3.773906230926513672e+00,3.773178100585937500e+00,3.772450208663940430e+00,3.771722555160522461e+00,3.770995140075683594e+00,3.770267963409423828e+00,3.769541501998901367e+00,3.768815040588378906e+00,3.768088817596435547e+00,3.767362833023071289e+00,3.766637086868286133e+00,3.765912055969238281e+00,3.765187025070190430e+00,3.764461994171142578e+00,3.763737440109252930e+00,3.763013124465942383e+00,3.762289285659790039e+00,3.761565923690795898e+00,3.760842323303222656e+00,3.760119199752807617e+00,3.759396314620971680e+00,3.758673667907714844e+00,3.757951736450195312e+00,3.757229804992675781e+00,3.756507873535156250e+00,3.755786418914794922e+00,3.755065202713012695e+00,3.754344463348388672e+00,3.753623723983764648e+00,3.752903461456298828e+00,3.752183198928833008e+00,3.751463413238525391e+00,3.750743865966796875e+00,3.750024795532226562e+00,3.749305963516235352e+00,3.748587131500244141e+00,3.747868537902832031e+00,3.747150421142578125e+00,3.746432781219482422e+00,3.745715141296386719e+00,3.744997739791870117e+00,3.744280815124511719e+00,3.743563890457153320e+00,3.742847204208374023e+00,3.742131471633911133e+00,3.741415500640869141e+00,3.740699768066406250e+00,3.739984273910522461e+00,3.739269018173217773e+00,3.738554716110229492e+00,3.737839937210083008e+00,3.737125635147094727e+00,3.736411333084106445e+00,3.735697507858276367e+00,3.734984159469604492e+00,3.734271287918090820e+00,3.733558177947998047e+00,1.668168783187866211e+00,1.616907119750976562e+00,1.597314834594726562e+00,1.582450985908508301e+00,3.514369010925292969e+00,3.413681268692016602e+00,3.318602085113525391e+00,3.228675603866577148e+00,3.143494606018066406e+00,1.214913249015808105e+00,1.176032304763793945e+00,1.151092410087585449e+00,1.144710540771484375e+00,1.146890878677368164e+00,2.713895082473754883e+00,2.653456687927246094e+00,2.595651865005493164e+00,2.540311574935913086e+00,2.487281799316406250e+00
3.083319425582885742e+00,3.082833528518676758e+00,3.082347631454467773e+00,3.081861734390258789e+00,3.081376075744628906e+00,3.080890655517578125e+00,3.080405235290527344e+00,3.079920291900634766e+00,3.079435348510742188e+00,3.078950405120849609e+00,3.078465700149536133e+00,3.077980995178222656e+00,3.077497005462646484e+00,3.077012777328491211e+00,3.076528549194335938e+00,3.076044559478759766e+00,3.075560808181762695e+00,3.075077056884765625e+00,3.074593782424926758e+00,3.074110507965087891e+00,3.073627233505249023e+00,3.073144197463989258e+00,3.072661161422729492e+00,3.072178840637207031e+00,3.071696281433105469e+00,3.071213722229003906e+00,3.070731401443481445e+00,3.070249319076538086e+00,3.069767236709594727e+00,3.069285631179809570e+00,3.068804025650024414e+00,3.068322420120239258e+00,3.067841053009033203e+00,3.067359924316406250e+00,3.066879034042358398e+00,3.066398143768310547e+00,3.065917253494262695e+00,3.065436840057373047e+00,3.064956188201904297e+00,3.064475774765014648e+00,3.063996076583862305e+00,3.063515901565551758e+00,3.063035964965820312e+00,3.062556266784667969e+00,3.062076807022094727e+00,3.061597585678100586e+00,3.061118364334106445e+00,3.060639142990112305e+00,3.060160160064697266e+00,3.059681415557861328e+00,3.059202671051025391e+00,3.058724403381347656e+00,3.058245897293090820e+00,3.057767629623413086e+00,3.057289600372314453e+00,3.056811571121215820e+00,3.056334257125854492e+00,3.055856466293334961e+00,3.055378913879394531e+00,3.054901599884033203e+00,3.054424524307250977e+00,3.053947448730468750e+00,1.617311954498291016e+00,1.597709894180297852e+00,1.582653760910034180e+00,3.052041053771972656e+00,3.051564693450927734e+00,3.051088809967041016e+00,3.050612926483154297e+00,3.050137042999267578e+00,3.049661159515380859e+00,1.174386382102966309e+00,1.158212423324584961e+00,1.156682848930358887e+00,2.777199268341064453e+00,2.713941335678100586e+00,2.653501033782958984e+00,2.595694065093994141e+00,2.540352106094360352e+00,2.487320661544799805e+00
2.604989767074584961e+00,2.604642629623413086e+00,2.604295730590820312e+00,2.603949069976806641e+00,2.603602409362792969e+00,2.603255748748779297e+00,2.602909326553344727e+00,2.602562904357910156e+00,2.602216482162475586e+00,2.601870298385620117e+00,2.601524353027343750e+00,2.601178169250488281e+00,2.600832223892211914e+00,2.600486278533935547e+00,2.600140571594238281e+00,2.599795103073120117e+00,2.599449396133422852e+00,2.599103927612304688e+00,2.598758459091186523e+00,2.598413228988647461e+00,2.598067998886108398e+00,2.597723007202148438e+00,2.597378015518188477e+00,2.597033023834228516e+00,2.596688032150268555e+00,2.596343278884887695e+00,2.595998764038085938e+00,2.595654249191284180e+00,2.595309734344482422e+00,2.594965219497680664e+00,2.594620943069458008e+00,2.594276905059814453e+00,2.593932628631591797e+00,2.593588590621948242e+00,2.593244791030883789e+00,2.592900753021240234e+00,2.592556953430175781e+00,2.592213630676269531e+00,2.591870069503784180e+00,2.591526508331298828e+00,2.591182947158813477e+00,2.590839624404907227e+00,2.590496778488159180e+00,2.590153455734252930e+00,2.589810371398925781e+00,2.589467525482177734e+00,2.589124679565429688e+00,2.588781833648681641e+00,2.588439464569091797e+00,2.588096857070922852e+00,2.587754249572753906e+00,2.587411880493164062e+00,2.587069511413574219e+00,2.586727619171142578e+00,2.586385488510131836e+00,2.586043357849121094e+00,2.585701465606689453e+00,2.585359573364257812e+00,2.585017681121826172e+00,2.584676265716552734e+00,2.584334611892700195e+00,2.583993196487426758e+00,1.620632410049438477e+00,1.601989865303039551e+00,2.582969427108764648e+00,2.582628250122070312e+00,2.582287073135375977e+00,2.581946134567260742e+00,2.581605195999145508e+00,2.581264495849609375e+00,2.580924034118652344e+00,1.175978541374206543e+00,1.166622757911682129e+00,1.172789692878723145e+00,2.579561948776245117e+00,2.579221963882446289e+00,2.578881740570068359e+00,2.578541755676269531e+00,2.540392637252807617e+00,2.487359762191772461e+00
2.255139350891113281e+00,2.254879474639892578e+00,2.254619359970092773e+00,2.254359483718872070e+00,2.254099607467651367e+00,2.253839731216430664e+00,2.253580093383789062e+00,2.253320455551147461e+00,2.253060817718505859e+00,2.252801418304443359e+00,2.252541780471801758e+00,2.252282381057739258e+00,2.252023220062255859e+00,2.251763820648193359e+00,2.251504421234130859e+00,2.251245260238647461e+00,2.250986099243164062e+00,2.250726938247680664e+00,2.250468254089355469e+00,2.250209093093872070e+00,2.249950170516967773e+00,2.249691486358642578e+00,2.249432563781738281e+00,2.249174118041992188e+00,2.248915433883666992e+00,2.248656749725341797e+00,2.248398065567016602e+00,2.248139619827270508e+00,2.247881174087524414e+00,2.247622966766357422e+00,2.247364759445190430e+00,2.247106313705444336e+00,2.246848106384277344e+00,2.246590137481689453e+00,2.246332168579101562e+00,2.246074199676513672e+00,2.245816230773925781e+00,2.245558261871337891e+00,2.245300292968750000e+00,2.245042562484741211e+00,2.244784832000732422e+00,2.244527339935302734e+00,2.244269609451293945e+00,2.244012117385864258e+00,2.243754625320434570e+00,2.243497371673583984e+00,2.243239879608154297e+00,2.242982625961303711e+00,2.242725372314453125e+00,2.242468118667602539e+00,2.242211103439331055e+00,2.241954088211059570e+00,2.241697072982788086e+00,2.241440057754516602e+00,2.241183280944824219e+00,2.240926265716552734e+00,2.240669727325439453e+00,2.240412950515747070e+00,2.240156412124633789e+00,2.239899635314941406e+00,2.239643096923828125e+00,1.651589035987854004e+00,1.619228243827819824e+00,1.593370676040649414e+00,1.589257121086120605e+00,2.238361358642578125e+00,2.238105297088623047e+00,2.237849235534667969e+00,2.237593173980712891e+00,2.237337112426757812e+00,2.237081289291381836e+00,1.178171873092651367e+00,1.173072218894958496e+00,1.186353445053100586e+00,2.236057996749877930e+00,2.235802412033081055e+00,2.235546827316284180e+00,2.235291242599487305e+00,2.235035896301269531e+00,2.234780311584472656e+00
1.988132953643798828e+00,1.987930774688720703e+00,1.987728714942932129e+00,1.987526655197143555e+00,1.987324953079223633e+00,1.987123012542724609e+00,1.986921072006225586e+00,1.986719250679016113e+00,1.986517310142517090e+00,1.986315608024597168e+00,1.986113786697387695e+00,1.985912084579467773e+00,1.985710501670837402e+00,1.985508799552917480e+00,1.985307216644287109e+00,1.985105991363525391e+00,1.984904408454895020e+00,1.984702944755554199e+00,1.984501600265502930e+00,1.984300136566162109e+00,1.984098792076110840e+00,1.983897447586059570e+00,1.983696222305297852e+00,1.983494997024536133e+00,1.983293890953063965e+00,1.983092665672302246e+00,1.982891798019409180e+00,1.982690811157226562e+00,1.982489824295043945e+00,1.982288837432861328e+00,1.982087850570678711e+00,1.981886982917785645e+00,1.981686115264892578e+00,1.981485366821289062e+00,1.981284499168395996e+00,1.981083750724792480e+00,1.980883121490478516e+00,1.980682730674743652e+00,1.980482101440429688e+00,1.980281472206115723e+00,1.980080962181091309e+00,1.979880452156066895e+00,1.979680061340332031e+00,1.979479670524597168e+00,1.979279279708862305e+00,1.979078888893127441e+00,1.978878617286682129e+00,1.978678464889526367e+00,1.978478431701660156e+00,1.978278279304504395e+00,1.978078126907348633e+00,1.977878093719482422e+00,1.977677941322326660e+00,1.977478027343750000e+00,1.977277994155883789e+00,1.977078080177307129e+00,1.976878285408020020e+00,1.976678371429443359e+00,1.772546887397766113e+00,1.718375325202941895e+00,1.687098264694213867e+00,1.651729106903076172e+00,1.613096237182617188e+00,1.583270072937011719e+00,1.575313568115234375e+00,1.975081324577331543e+00,1.974881887435913086e+00,1.974682450294494629e+00,1.974483013153076172e+00,1.974283695220947266e+00,1.974084615707397461e+00,1.181047797203063965e+00,1.180257678031921387e+00,1.192617058753967285e+00,1.199333429336547852e+00,1.973088622093200684e+00,1.972889542579650879e+00,1.972690463066101074e+00,1.972491502761840820e+00,1.972292542457580566e+00
1.777659654617309570e+00,1.777498245239257812e+00,1.777336716651916504e+00,1.777175188064575195e+00,1.777013659477233887e+00,1.776852250099182129e+00,1.776690721511840820e+00,1.776529312133789062e+00,1.776367902755737305e+00,1.776206612586975098e+00,1.776045203208923340e+00,1.775883913040161133e+00,1.775722861289978027e+00,1.775561690330505371e+00,1.775400400161743164e+00,1.775239229202270508e+00,1.775078058242797852e+00,1.774917006492614746e+00,1.774755835533142090e+00,1.774594783782958984e+00,1.774433732032775879e+00,1.774272799491882324e+00,1.774111747741699219e+00,1.773951053619384766e+00,1.773790121078491211e+00,1.773629188537597656e+00,1.773468375205993652e+00,1.773307442665100098e+00,1.773146748542785645e+00,1.772985935211181641e+00,1.772825121879577637e+00,1.772664427757263184e+00,1.772503733634948730e+00,1.772343158721923828e+00,1.772182703018188477e+00,1.772022008895874023e+00,1.771861433982849121e+00,1.771700978279113770e+00,1.771540403366088867e+00,1.771379947662353516e+00,1.771219491958618164e+00,1.771059036254882812e+00,1.770898699760437012e+00,1.770738244056701660e+00,1.770577907562255859e+00,1.770417809486389160e+00,1.770257592201232910e+00,1.770097255706787109e+00,1.769937038421630859e+00,1.769776821136474609e+00,1.769616723060607910e+00,1.769456624984741211e+00,1.769296407699584961e+00,1.769136428833007812e+00,1.768976330757141113e+00,1.768816351890563965e+00,1.768656492233276367e+00,1.768496513366699219e+00,1.768336653709411621e+00,1.720473289489746094e+00,1.714192748069763184e+00,1.700440406799316406e+00,1.619509696960449219e+00,1.584990859031677246e+00,1.587255120277404785e+00,1.767217874526977539e+00,1.767058134078979492e+00,1.766898751258850098e+00,1.766739010810852051e+00,1.766579389572143555e+00,1.766419887542724609e+00,1.188416719436645508e+00,1.191024303436279297e+00,1.198202133178710938e+00,1.199761867523193359e+00,1.765622377395629883e+00,1.765462994575500488e+00,1.765303611755371094e+00,1.765144467353820801e+00,1.764985084533691406e+00
1.607483863830566406e+00,1.607351779937744141e+00,1.607219696044921875e+00,1.607087612152099609e+00,1.606955528259277344e+00,1.606823444366455078e+00,1.606691360473632812e+00,1.606559395790100098e+00,1.606427431106567383e+00,1.606295466423034668e+00,1.606163620948791504e+00,1.606031775474548340e+00,1.605899810791015625e+00,1.605767965316772461e+00,1.605636119842529297e+00,1.605504274368286133e+00,1.605372428894042969e+00,1.605240702629089355e+00,1.605108857154846191e+00,1.604977130889892578e+00,1.604845404624938965e+00,1.604713916778564453e+00,1.604582190513610840e+00,1.604450583457946777e+00,1.604318857192993164e+00,1.604187250137329102e+00,1.604055643081665039e+00,1.603924155235290527e+00,1.603792548179626465e+00,1.603661060333251953e+00,1.603529572486877441e+00,1.603398203849792480e+00,1.603266716003417969e+00,1.603135228157043457e+00,1.603003859519958496e+00,1.602872490882873535e+00,1.602741122245788574e+00,1.602609753608703613e+00,1.602478384971618652e+00,1.602347016334533691e+00,1.602215766906738281e+00,1.602084517478942871e+00,1.601953387260437012e+00,1.601822137832641602e+00,1.601691007614135742e+00,1.601559758186340332e+00,1.601428627967834473e+00,1.601297497749328613e+00,1.601166367530822754e+00,1.601035237312316895e+00,1.600904226303100586e+00,1.600773096084594727e+00,1.600642085075378418e+00,1.600511193275451660e+00,1.600380182266235352e+00,1.600249290466308594e+00,1.600118279457092285e+00,1.599987387657165527e+00,1.599856376647949219e+00,1.599725604057312012e+00,1.599594712257385254e+00,1.599463820457458496e+00,1.599333047866821289e+00,1.599202275276184082e+00,1.599071621894836426e+00,1.598940849304199219e+00,1.598810076713562012e+00,1.598679423332214355e+00,1.598548650741577148e+00,1.598417997360229492e+00,1.598287343978881836e+00,1.216420769691467285e+00,1.208186745643615723e+00,1.214176774024963379e+00,1.597764968872070312e+00,1.597634553909301758e+00,1.597504019737243652e+00,1.597373604774475098e+00,1.597243070602416992e+00,1.597112655639648438e+00
1.467043399810791016e+00,1.466933250427246094e+00,1.466823220252990723e+00,1.466713190078735352e+00,1.466603159904479980e+00,1.466493248939514160e+00,1.466383218765258789e+00,1.466273427009582520e+00,1.466163516044616699e+00,1.466053485870361328e+00,1.465943574905395508e+00,1.465833783149719238e+00,1.465723872184753418e+00,1.465613961219787598e+00,1.465504169464111328e+00,1.465394377708435059e+00,1.465284466743469238e+00,1.465174674987792969e+00,1.465065121650695801e+00,1.464955329895019531e+00,1.464845538139343262e+00,1.464735865592956543e+00,1.464626073837280273e+00,1.464516401290893555e+00,1.464406728744506836e+00,1.464297056198120117e+00,1.464187383651733398e+00,1.464077830314636230e+00,1.463968157768249512e+00,1.463858723640441895e+00,1.463749170303344727e+00,1.463639616966247559e+00,1.463530063629150391e+00,1.463420510292053223e+00,1.463310956954956055e+00,1.463201522827148438e+00,1.463091969490051270e+00,1.462982535362243652e+00,1.462873101234436035e+00,1.462763667106628418e+00,1.462654352188110352e+00,1.462544918060302734e+00,1.462435603141784668e+00,1.462326169013977051e+00,1.462216854095458984e+00,1.462107539176940918e+00,1.461998224258422852e+00,1.461888909339904785e+00,1.461779594421386719e+00,1.461670398712158203e+00,1.461561083793640137e+00,1.461452007293701172e+00,1.461342811584472656e+00,1.461233615875244141e+00,1.461124420166015625e+00,1.461015224456787109e+00,1.460906028747558594e+00,1.460796952247619629e+00,1.460687756538391113e+00,1.460578680038452148e+00,1.460469603538513184e+00,1.460360527038574219e+00,1.460251569747924805e+00,1.460142612457275391e+00,1.460033535957336426e+00,1.459924578666687012e+00,1.459815502166748047e+00,1.459706544876098633e+00,1.459597587585449219e+00,1.459488630294799805e+00,1.459379792213439941e+00,1.221018671989440918e+00,1.232497572898864746e+00,1.231525540351867676e+00,1.458944320678710938e+00,1.458835482597351074e+00,1.458726644515991211e+00,1.458617806434631348e+00,1.458509087562561035e+00,1.458400249481201172e+00
1.349170684814453125e+00,1.349077582359313965e+00,1.348984599113464355e+00,1.348891496658325195e+00,1.348798632621765137e+00,1.348705530166625977e+00,1.348612546920776367e+00,1.348519563674926758e+00,1.348426580429077148e+00,1.348333597183227539e+00,1.348240613937377930e+00,1.348147630691528320e+00,1.348054647445678711e+00,1.347961783409118652e+00,1.347868800163269043e+00,1.347776055335998535e+00,1.347683191299438477e+00,1.347590327262878418e+00,1.347497463226318359e+00,1.347404599189758301e+00,1.347311735153198242e+00,1.347218990325927734e+00,1.347126126289367676e+00,1.347033262252807617e+00,1.346940517425537109e+00,1.346847772598266602e+00,1.346755146980285645e+00,1.346662402153015137e+00,1.346569657325744629e+00,1.346476912498474121e+00,1.346384167671203613e+00,1.346291542053222656e+00,1.346198797225952148e+00,1.346106171607971191e+00,1.346013426780700684e+00,1.345920801162719727e+00,1.345828175544738770e+00,1.345735669136047363e+00,1.345643043518066406e+00,1.345550417900085449e+00,1.345457911491394043e+00,1.345365285873413086e+00,1.345272779464721680e+00,1.345180153846740723e+00,1.345087647438049316e+00,1.344995141029357910e+00,1.344902634620666504e+00,1.344810128211975098e+00,1.344717741012573242e+00,1.344625234603881836e+00,1.344532847404479980e+00,1.344440340995788574e+00,1.344347953796386719e+00,1.344255566596984863e+00,1.344163179397583008e+00,1.344070672988891602e+00,1.343978404998779297e+00,1.343886017799377441e+00,1.343793630599975586e+00,1.343701362609863281e+00,1.343609094619750977e+00,1.343516707420349121e+00,1.343424439430236816e+00,1.343332171440124512e+00,1.343239903450012207e+00,1.343147635459899902e+00,1.343055367469787598e+00,1.342963099479675293e+00,1.342870831489562988e+00,1.342778682708740234e+00,1.342686533927917480e+00,1.342594385147094727e+00,1.342502117156982422e+00,1.342409968376159668e+00,1.342317819595336914e+00,1.342225670814514160e+00,1.342133641242980957e+00,1.342041492462158203e+00,1.341949343681335449e+00,1.341857314109802246e+00
1.248830795288085938e+00,1.248751163482666016e+00,1.248671531677246094e+00,1.248591780662536621e+00,1.248512029647827148e+00,1.248432278633117676e+00,1.248352646827697754e+00,1.248272895812988281e+00,1.248193264007568359e+00,1.248113512992858887e+00,1.248033881187438965e+00,1.247954249382019043e+00,1.247874736785888672e+00,1.247795104980468750e+00,1.247715473175048828e+00,1.247635841369628906e+00,1.247556209564208984e+00,1.247476696968078613e+00,1.247397065162658691e+00,1.247317433357238770e+00,1.247237920761108398e+00,1.247158408164978027e+00,1.247078895568847656e+00,1.246999382972717285e+00,1.246919870376586914e+00,1.246840357780456543e+00,1.246760845184326172e+00,1.246681332588195801e+00,1.246601939201354980e+00,1.246522426605224609e+00,1.246443033218383789e+00,1.246363520622253418e+00,1.246284127235412598e+00,1.246204614639282227e+00,1.246125340461730957e+00,1.246045947074890137e+00,1.245966553688049316e+00,1.245887160301208496e+00,1.245807766914367676e+00,1.245728373527526855e+00,1.245649099349975586e+00,1.245569705963134766e+00,1.245490312576293945e+00,1.245411038398742676e+00,1.245331764221191406e+00,1.245252490043640137e+00,1.245173215866088867e+00,1.245093941688537598e+00,1.245014667510986328e+00,1.244935393333435059e+00,1.244856119155883789e+00,1.244776844978332520e+00,1.244697690010070801e+00,1.244618415832519531e+00,1.244539141654968262e+00,1.244459986686706543e+00,1.244380831718444824e+00,1.244301676750183105e+00,1.244222521781921387e+00,1.244143366813659668e+00,1.244064211845397949e+00,1.243985056877136230e+00,1.243905901908874512e+00,1.243826746940612793e+00,1.243747711181640625e+00,1.243668556213378906e+00,1.243589520454406738e+00,1.243510484695434570e+00,1.243431448936462402e+00,1.243352413177490234e+00,1.243273258209228516e+00,1.243194222450256348e+00,1.243115186691284180e+00,1.243036150932312012e+00,1.242957234382629395e+00,1.242878198623657227e+00,1.242799162864685059e+00,1.242720246315002441e+00,1.242641329765319824e+00,1.242562413215637207e+00
1.162382841110229492e+00,1.162313699722290039e+00,1.162244677543640137e+00,1.162175536155700684e+00,1.162106513977050781e+00,1.162037372589111328e+00,1.161968350410461426e+00,1.161899328231811523e+00,1.161830306053161621e+00,1.161761283874511719e+00,1.161692380905151367e+00,1.161623358726501465e+00,1.161554336547851562e+00,1.161485314369201660e+00,1.161416292190551758e+00,1.161347389221191406e+00,1.161278367042541504e+00,1.161209464073181152e+00,1.161140441894531250e+00,1.161071538925170898e+00,1.161002516746520996e+00,1.160933732986450195e+00,1.160864830017089844e+00,1.160795927047729492e+00,1.160727024078369141e+00,1.160658121109008789e+00,1.160589218139648438e+00,1.160520315170288086e+00,1.160451412200927734e+00,1.160382628440856934e+00,1.160313725471496582e+00,1.160244941711425781e+00,1.160176157951354980e+00,1.160107254981994629e+00,1.160038471221923828e+00,1.159969687461853027e+00,1.159900784492492676e+00,1.159832000732421875e+00,1.159763216972351074e+00,1.159694433212280273e+00,1.159625649452209473e+00,1.159556865692138672e+00,1.159488201141357422e+00,1.159419417381286621e+00,1.159350752830505371e+00,1.159281969070434570e+00,1.159213304519653320e+00,1.159144520759582520e+00,1.159075856208801270e+00,1.159007072448730469e+00,1.158938407897949219e+00,1.158869743347167969e+00,1.158801078796386719e+00,1.158732414245605469e+00,1.158663868904113770e+00,1.158595204353332520e+00,1.158526539802551270e+00,1.158457875251770020e+00,1.158389210700988770e+00,1.158320665359497070e+00,1.158252000808715820e+00,1.158183455467224121e+00,1.158114790916442871e+00,1.158046245574951172e+00,1.157977819442749023e+00,1.157909154891967773e+00,1.157840609550476074e+00,1.157772064208984375e+00,1.157703518867492676e+00,1.157634973526000977e+00,1.157566428184509277e+00,1.157497882843017578e+00,1.157429456710815430e+00,1.157360911369323730e+00,1.157292366027832031e+00,1.157224059104919434e+00,1.157155513763427734e+00,1.157087087631225586e+00,1.157018542289733887e+00,1.156950116157531738e+00
1.087128162384033203e+00,1.087067723274230957e+00,1.087007403373718262e+00,1.086946964263916016e+00,1.086886525154113770e+00,1.086826086044311523e+00,1.086765646934509277e+00,1.086705327033996582e+00,1.086645007133483887e+00,1.086584568023681641e+00,1.086524248123168945e+00,1.086463809013366699e+00,1.086403489112854004e+00,1.086343169212341309e+00,1.086282730102539062e+00,1.086222410202026367e+00,1.086162090301513672e+00,1.086101770401000977e+00,1.086041569709777832e+00,1.085981249809265137e+00,1.085920929908752441e+00,1.085860610008239746e+00,1.085800290107727051e+00,1.085739970207214355e+00,1.085679769515991211e+00,1.085619449615478516e+00,1.085559129714965820e+00,1.085498929023742676e+00,1.085438728332519531e+00,1.085378527641296387e+00,1.085318207740783691e+00,1.085258007049560547e+00,1.085197806358337402e+00,1.085137605667114258e+00,1.085077404975891113e+00,1.085017085075378418e+00,1.084956884384155273e+00,1.084896802902221680e+00,1.084836602210998535e+00,1.084776401519775391e+00,1.084716200828552246e+00,1.084656119346618652e+00,1.084595918655395508e+00,1.084535717964172363e+00,1.084475636482238770e+00,1.084415435791015625e+00,1.084355354309082031e+00,1.084295153617858887e+00,1.084235072135925293e+00,1.084174990653991699e+00,1.084114909172058105e+00,1.084054827690124512e+00,1.083994746208190918e+00,1.083934664726257324e+00,1.083874583244323730e+00,1.083814501762390137e+00,1.083754420280456543e+00,1.083694338798522949e+00,1.083634257316589355e+00,1.083574295043945312e+00,1.083514213562011719e+00,1.083454132080078125e+00,1.083394169807434082e+00,1.083334207534790039e+00,1.083274126052856445e+00,1.083214163780212402e+00,1.083154201507568359e+00,1.083094120025634766e+00,1.083034157752990723e+00,1.082974195480346680e+00,1.082914233207702637e+00,1.082854270935058594e+00,1.082794308662414551e+00,1.082734346389770508e+00,1.082674503326416016e+00,1.082614541053771973e+00,1.082554578781127930e+00,1.082494616508483887e+00,1.082434773445129395e+00,1.082374811172485352e+00
1.021025300025939941e+00,1.020972013473510742e+00,1.020918726921081543e+00,1.020865440368652344e+00,1.020812153816223145e+00,1.020758867263793945e+00,1.020705580711364746e+00,1.020652413368225098e+00,1.020599126815795898e+00,1.020545840263366699e+00,1.020492553710937500e+00,1.020439267158508301e+00,1.020386099815368652e+00,1.020332813262939453e+00,1.020279526710510254e+00,1.020226359367370605e+00,1.020173192024230957e+00,1.020119905471801758e+00,1.020066738128662109e+00,1.020013570785522461e+00,1.019960284233093262e+00,1.019907116889953613e+00,1.019853949546813965e+00,1.019800782203674316e+00,1.019747614860534668e+00,1.019694328308105469e+00,1.019641280174255371e+00,1.019588112831115723e+00,1.019534945487976074e+00,1.019481778144836426e+00,1.019428610801696777e+00,1.019375443458557129e+00,1.019322395324707031e+00,1.019269227981567383e+00,1.019216060638427734e+00,1.019163012504577637e+00,1.019109845161437988e+00,1.019056797027587891e+00,1.019003748893737793e+00,1.018950581550598145e+00,1.018897533416748047e+00,1.018844366073608398e+00,1.018791317939758301e+00,1.018738269805908203e+00,1.018685221672058105e+00,1.018632173538208008e+00,1.018579006195068359e+00,1.018525958061218262e+00,1.018473029136657715e+00,1.018419981002807617e+00,1.018366932868957520e+00,1.018313884735107422e+00,1.018260836601257324e+00,1.018207788467407227e+00,1.018154859542846680e+00,1.018101811408996582e+00,1.018048763275146484e+00,1.017995834350585938e+00,1.017942786216735840e+00,1.017889857292175293e+00,1.017836928367614746e+00,1.017783880233764648e+00,1.017730951309204102e+00,1.017678022384643555e+00,1.017624974250793457e+00,1.017572045326232910e+00,1.017519116401672363e+00,1.017466187477111816e+00,1.017413258552551270e+00,1.017360329627990723e+00,1.017307400703430176e+00,1.017254471778869629e+00,1.017201542854309082e+00,1.017148613929748535e+00,1.017095804214477539e+00,1.017042875289916992e+00,1.016989946365356445e+00,1.016937136650085449e+00,1.016884207725524902e+00,1.016831278800964355e+00
9.625005722045898438e-01,9.624531865119934082e-01,9.624058008193969727e-01,9.623584151268005371e-01,9.623110890388488770e-01,9.622637033462524414e-01,9.622163772583007812e-01,9.621689915657043457e-01,9.621216654777526855e-01,9.620743393898010254e-01,9.620270133018493652e-01,9.619796872138977051e-01,9.619324803352355957e-01,9.618851542472839355e-01,9.618378281593322754e-01,9.617905020713806152e-01,9.617432355880737305e-01,9.616959095001220703e-01,9.616486430168151855e-01,9.616013169288635254e-01,9.615540504455566406e-01,9.615067839622497559e-01,9.614595174789428711e-01,9.614122509956359863e-01,9.613649845123291016e-01,9.613177180290222168e-01,9.612704515457153320e-01,9.612231850624084473e-01,9.611759185791015625e-01,9.611287117004394531e-01,9.610814452171325684e-01,9.610342383384704590e-01,9.609869718551635742e-01,9.609397649765014648e-01,9.608926773071289062e-01,9.608454108238220215e-01,9.607982039451599121e-01,9.607509970664978027e-01,9.607037901878356934e-01,9.606566429138183594e-01,9.606094360351562500e-01,9.605622291564941406e-01,9.605150222778320312e-01,9.604678750038146973e-01,9.604206681251525879e-01,9.603735208511352539e-01,9.603263735771179199e-01,9.602791666984558105e-01,9.602320194244384766e-01,9.601848721504211426e-01,9.601377248764038086e-01,9.600905776023864746e-01,9.600434303283691406e-01,9.599963426589965820e-01,9.599491953849792480e-01,9.599020481109619141e-01,9.598550796508789062e-01,9.598079323768615723e-01,9.597608447074890137e-01,9.597137570381164551e-01,9.596666097640991211e-01,9.596195220947265625e-01,9.595724344253540039e-01,9.595253467559814453e-01,9.594782590866088867e-01,9.594311714172363281e-01,9.593840837478637695e-01,9.593370556831359863e-01,9.592899680137634277e-01,9.592429399490356445e-01,9.591958522796630859e-01,9.591488242149353027e-01,9.591017961502075195e-01,9.590547084808349609e-01,9.590076804161071777e-01,9.589606523513793945e-01,9.589136242866516113e-01,9.588665962219238281e-01,9.588196873664855957e-01,9.587726593017578125e-01
