1.933852672576904297e+00,1.960568070411682129e+00,1.988031864166259766e+00,2.016275882720947266e+00,2.045334339141845703e+00,2.075242280960083008e+00,2.106037855148315430e+00,2.137761592864990234e+00,2.170455217361450195e+00,2.204164505004882812e+00,2.238937616348266602e+00,2.274825096130371094e+00,2.311882019042968750e+00,2.350166082382202148e+00,2.389739751815795898e+00,2.430668830871582031e+00,2.473024129867553711e+00,2.516881942749023438e+00,2.562323331832885742e+00,2.609436035156250000e+00,2.658313274383544922e+00,2.709056615829467773e+00,2.761775016784667969e+00,2.816585779190063477e+00,2.873616456985473633e+00,2.933004140853881836e+00,2.994898319244384766e+00,3.059459686279296875e+00,3.126866102218627930e+00,3.197309494018554688e+00,3.271000146865844727e+00,3.348167181015014648e+00,3.429063796997070312e+00,3.513965845108032227e+00,3.603179454803466797e+00,3.697040557861328125e+00,3.795922756195068359e+00,3.900239706039428711e+00,4.010451793670654297e+00,4.127074241638183594e+00,4.250682353973388672e+00,4.381923675537109375e+00,4.521527290344238281e+00,5.000000000000000000e+00,5.000000000000000000e+00,5.000000000000000000e+00,5.000000000000000000e+00,5.000000000000000000e+00,5.000000000000000000e+00,5.000000000000000000e+00,5.000000000000000000e+00,5.000000000000000000e+00,5.000000000000000000e+00,5.000000000000000000e+00,5.000000000000000000e+00,5.000000000000000000e+00,5.000000000000000000e+00,5.000000000000000000e+00,5.000000000000000000e+00,5.000000000000000000e+00,5.000000000000000000e+00,5.000000000000000000e+00,5.000000000000000000e+00,5.000000000000000000e+00,5.000000000000000000e+00,5.000000000000000000e+00,5.000000000000000000e+00,5.000000000000000000e+00,5.000000000000000000e+00,5.000000000000000000e+00,5.000000000000000000e+00,5.000000000000000000e+00,5.000000000000000000e+00,5.000000000000000000e+00,5.000000000000000000e+00,5.000000000000000000e+00,5.000000000000000000e+00,5.000000000000000000e+00,5.000000000000000000e+00,5.000000000000000000e+00
1.933826804161071777e+00,1.960538983345031738e+00,1.988001942634582520e+00,2.016245126724243164e+00,2.045302629470825195e+00,2.075209856033325195e+00,2.106004476547241211e+00,2.137727022171020508e+00,2.170419692993164062e+00,2.204128026962280273e+00,2.238899707794189453e+00,2.274785995483398438e+00,2.311841726303100586e+00,2.350124597549438477e+00,2.389696836471557617e+00,2.430624246597290039e+00,2.472978115081787109e+00,2.516834259033203125e+00,2.562273979187011719e+00,2.609384775161743164e+00,2.658259868621826172e+00,2.709001541137695312e+00,2.761717557907104492e+00,2.816525936126708984e+00,2.873554229736328125e+00,2.932939291000366211e+00,2.994830846786499023e+00,3.059390544891357422e+00,3.126794099807739258e+00,3.197234153747558594e+00,3.270920991897583008e+00,3.348084688186645508e+00,3.428977012634277344e+00,3.513875007629394531e+00,3.603083610534667969e+00,3.696939945220947266e+00,3.795816421508789062e+00,3.900127649307250977e+00,4.010333538055419922e+00,4.126948833465576172e+00,4.250549316406250000e+00,4.381782054901123047e+00,4.521376132965087891e+00,4.670157432556152344e+00,5.000000000000000000e+00,5.000000000000000000e+00,5.000000000000000000e+00,5.000000000000000000e+00,5.000000000000000000e+00,5.000000000000000000e+00,5.000000000000000000e+00,5.000000000000000000e+00,5.000000000000000000e+00,5.000000000000000000e+00,5.000000000000000000e+00,5.000000000000000000e+00,5.000000000000000000e+00,5.000000000000000000e+00,5.000000000000000000e+00,5.000000000000000000e+00,5.000000000000000000e+00,5.000000000000000000e+00,5.000000000000000000e+00,5.000000000000000000e+00,5.000000000000000000e+00,5.000000000000000000e+00,5.000000000000000000e+00,5.000000000000000000e+00,5.000000000000000000e+00,5.000000000000000000e+00,5.000000000000000000e+00,5.000000000000000000e+00,5.000000000000000000e+00,5.000000000000000000e+00,5.000000000000000000e+00,5.000000000000000000e+00,5.000000000000000000e+00,5.000000000000000000e+00,5.000000000000000000e+00,5.000000000000000000e+00
1.933826565742492676e+00,1.960527896881103516e+00,1.987976789474487305e+00,2.016214609146118164e+00,2.045271158218383789e+00,2.075177192687988281e+00,2.105971097946166992e+00,2.137692689895629883e+00,2.170384168624877930e+00,2.204091310501098633e+00,2.238861799240112305e+00,2.274747133255004883e+00,2.311801433563232422e+00,2.350082874298095703e+00,2.389653682708740234e+00,2.430579662322998047e+00,2.472932100296020508e+00,2.516786575317382812e+00,2.562224388122558594e+00,2.609333276748657227e+00,2.658206701278686523e+00,2.708946228027343750e+00,2.761660099029541016e+00,2.816466093063354492e+00,2.873492002487182617e+00,2.932874441146850586e+00,2.994763135910034180e+00,3.059319972991943359e+00,3.126721382141113281e+00,3.197159051895141602e+00,3.270842313766479492e+00,3.348001956939697266e+00,3.428890466690063477e+00,3.513783693313598633e+00,3.602988004684448242e+00,3.696838855743408203e+00,3.795710325241088867e+00,3.900015115737915039e+00,4.010214805603027344e+00,4.126823425292968750e+00,4.250416278839111328e+00,4.381640434265136719e+00,4.521225452423095703e+00,4.669996738433837891e+00,4.828891754150390625e+00,5.000000000000000000e+00,5.000000000000000000e+00,5.000000000000000000e+00,5.000000000000000000e+00,5.000000000000000000e+00,5.000000000000000000e+00,5.000000000000000000e+00,5.000000000000000000e+00,5.000000000000000000e+00,5.000000000000000000e+00,5.000000000000000000e+00,5.000000000000000000e+00,5.000000000000000000e+00,5.000000000000000000e+00,5.000000000000000000e+00,5.000000000000000000e+00,5.000000000000000000e+00,5.000000000000000000e+00,5.000000000000000000e+00,5.000000000000000000e+00,5.000000000000000000e+00,5.000000000000000000e+00,5.000000000000000000e+00,5.000000000000000000e+00,5.000000000000000000e+00,5.000000000000000000e+00,5.000000000000000000e+00,5.000000000000000000e+00,5.000000000000000000e+00,5.000000000000000000e+00,5.000000000000000000e+00,5.000000000000000000e+00,5.000000000000000000e+00,5.000000000000000000e+00,5.000000000000000000e+00
1.933826565742492676e+00,1.960527896881103516e+00,1.987976789474487305e+00,2.016205072402954102e+00,2.045246839523315430e+00,2.075144767761230469e+00,2.105937719345092773e+00,2.137658119201660156e+00,2.170348644256591797e+00,2.204054832458496094e+00,2.238824129104614258e+00,2.274708271026611328e+00,2.311761140823364258e+00,2.350041151046752930e+00,2.389610528945922852e+00,2.430535078048706055e+00,2.472886085510253906e+00,2.516738653182983398e+00,2.562175035476684570e+00,2.609282016754150391e+00,2.658153533935546875e+00,2.708890914916992188e+00,2.761602640151977539e+00,2.816406726837158203e+00,2.873429775238037109e+00,2.932809591293334961e+00,2.994695663452148438e+00,3.059249401092529297e+00,3.126647949218750000e+00,3.197082757949829102e+00,3.270763397216796875e+00,3.347919464111328125e+00,3.428803920745849609e+00,3.513692855834960938e+00,3.602891921997070312e+00,3.696738243103027344e+00,3.795603752136230469e+00,3.899903297424316406e+00,4.010096073150634766e+00,4.126697540283203125e+00,4.250282764434814453e+00,4.381498813629150391e+00,4.521074771881103516e+00,4.669836044311523438e+00,4.828719615936279297e+00,4.998795509338378906e+00,5.000000000000000000e+00,5.000000000000000000e+00,5.000000000000000000e+00,5.000000000000000000e+00,5.000000000000000000e+00,5.000000000000000000e+00,5.000000000000000000e+00,5.000000000000000000e+00,5.000000000000000000e+00,5.000000000000000000e+00,5.000000000000000000e+00,5.000000000000000000e+00,5.000000000000000000e+00,5.000000000000000000e+00,5.000000000000000000e+00,5.000000000000000000e+00,5.000000000000000000e+00,5.000000000000000000e+00,5.000000000000000000e+00,5.000000000000000000e+00,5.000000000000000000e+00,5.000000000000000000e+00,5.000000000000000000e+00,5.000000000000000000e+00,5.000000000000000000e+00,5.000000000000000000e+00,5.000000000000000000e+00,5.000000000000000000e+00,5.000000000000000000e+00,5.000000000000000000e+00,5.000000000000000000e+00,5.000000000000000000e+00,5.000000000000000000e+00,5.000000000000000000e+00
1.933819413185119629e+00,1.960527777671813965e+00,1.987976789474487305e+00,2.016205072402954102e+00,2.045246839523315430e+00,2.075137138366699219e+00,2.105914354324340820e+00,2.137623786926269531e+00,2.170313358306884766e+00,2.204018115997314453e+00,2.238786220550537109e+00,2.274669170379638672e+00,2.311720848083496094e+00,2.349999666213989258e+00,2.389567613601684570e+00,2.430490493774414062e+00,2.472839832305908203e+00,2.516690969467163086e+00,2.562125682830810547e+00,2.609230756759643555e+00,2.658100128173828125e+00,2.708835601806640625e+00,2.761545181274414062e+00,2.816346883773803711e+00,2.873367309570312500e+00,2.932744741439819336e+00,2.994627952575683594e+00,3.059178829193115234e+00,3.126574277877807617e+00,3.197005748748779297e+00,3.270683526992797852e+00,3.347836971282958984e+00,3.428716897964477539e+00,3.513602018356323242e+00,3.602796554565429688e+00,3.696637630462646484e+00,3.795497655868530273e+00,3.899790763854980469e+00,4.009977340698242188e+00,4.126572132110595703e+00,4.250149726867675781e+00,4.381357192993164062e+00,4.520924091339111328e+00,4.669675350189208984e+00,4.828547954559326172e+00,4.998611927032470703e+00,5.000000000000000000e+00,5.000000000000000000e+00,5.000000000000000000e+00,5.000000000000000000e+00,5.000000000000000000e+00,5.000000000000000000e+00,5.000000000000000000e+00,5.000000000000000000e+00,5.000000000000000000e+00,5.000000000000000000e+00,5.000000000000000000e+00,5.000000000000000000e+00,5.000000000000000000e+00,5.000000000000000000e+00,5.000000000000000000e+00,5.000000000000000000e+00,5.000000000000000000e+00,5.000000000000000000e+00,5.000000000000000000e+00,5.000000000000000000e+00,5.000000000000000000e+00,5.000000000000000000e+00,5.000000000000000000e+00,5.000000000000000000e+00,5.000000000000000000e+00,5.000000000000000000e+00,5.000000000000000000e+00,5.000000000000000000e+00,5.000000000000000000e+00,5.000000000000000000e+00,5.000000000000000000e+00,5.000000000000000000e+00,5.000000000000000000e+00,5.000000000000000000e+00
1.933791160583496094e+00,1.960504770278930664e+00,1.987966895103454590e+00,2.016205072402954102e+00,2.045246839523315430e+00,2.075137138366699219e+00,2.105914354324340820e+00,2.137618303298950195e+00,2.170291185379028320e+00,2.203981399536132812e+00,2.238748550415039062e+00,2.274630308151245117e+00,2.311680555343627930e+00,2.349958181381225586e+00,2.389524459838867188e+00,2.430446147918701172e+00,2.472793817520141602e+00,2.516643285751342773e+00,2.562076091766357422e+00,2.609179258346557617e+00,2.658047199249267578e+00,2.708780288696289062e+00,2.761487483978271484e+00,2.816287040710449219e+00,2.873305082321166992e+00,2.932680130004882812e+00,2.994560241699218750e+00,3.059108257293701172e+00,3.126500606536865234e+00,3.196928739547729492e+00,3.270603179931640625e+00,3.347753047943115234e+00,3.428630352020263672e+00,3.513510704040527344e+00,3.602700948715209961e+00,3.696536779403686523e+00,3.795391798019409180e+00,3.899678945541381836e+00,4.009859085083007812e+00,4.126446247100830078e+00,4.250016212463378906e+00,4.381215572357177734e+00,4.520773410797119141e+00,4.669514179229736328e+00,4.828375816345214844e+00,4.998427391052246094e+00,5.000000000000000000e+00,5.000000000000000000e+00,5.000000000000000000e+00,5.000000000000000000e+00,5.000000000000000000e+00,5.000000000000000000e+00,5.000000000000000000e+00,5.000000000000000000e+00,5.000000000000000000e+00,5.000000000000000000e+00,5.000000000000000000e+00,5.000000000000000000e+00,5.000000000000000000e+00,5.000000000000000000e+00,5.000000000000000000e+00,5.000000000000000000e+00,5.000000000000000000e+00,5.000000000000000000e+00,5.000000000000000000e+00,5.000000000000000000e+00,5.000000000000000000e+00,5.000000000000000000e+00,5.000000000000000000e+00,5.000000000000000000e+00,5.000000000000000000e+00,5.000000000000000000e+00,5.000000000000000000e+00,5.000000000000000000e+00,5.000000000000000000e+00,5.000000000000000000e+00,5.000000000000000000e+00,5.000000000000000000e+00,5.000000000000000000e+00,5.000000000000000000e+00
1.933763027191162109e+00,1.960475921630859375e+00,1.987937211990356445e+00,2.016178607940673828e+00,2.045234203338623047e+00,2.075137138366699219e+00,2.105914354324340820e+00,2.137618064880371094e+00,2.170291185379028320e+00,2.203978300094604492e+00,2.238727807998657227e+00,2.274591207504272461e+00,2.311640262603759766e+00,2.349916458129882812e+00,2.389481544494628906e+00,2.430401802062988281e+00,2.472747802734375000e+00,2.516595363616943359e+00,2.562026500701904297e+00,2.609127998352050781e+00,2.657993793487548828e+00,2.708724975585937500e+00,2.761430025100708008e+00,2.816227197647094727e+00,2.873242855072021484e+00,2.932615280151367188e+00,2.994492769241333008e+00,3.059037685394287109e+00,3.126426696777343750e+00,3.196851491928100586e+00,3.270522356033325195e+00,3.347668647766113281e+00,3.428542137145996094e+00,3.513419866561889648e+00,3.602605104446411133e+00,3.696436166763305664e+00,3.795285224914550781e+00,3.899566888809204102e+00,4.009740352630615234e+00,4.126321315765380859e+00,4.249883174896240234e+00,4.381073951721191406e+00,4.520622730255126953e+00,4.669353485107421875e+00,4.828204154968261719e+00,4.998243331909179688e+00,5.000000000000000000e+00,5.000000000000000000e+00,5.000000000000000000e+00,5.000000000000000000e+00,5.000000000000000000e+00,5.000000000000000000e+00,5.000000000000000000e+00,5.000000000000000000e+00,5.000000000000000000e+00,5.000000000000000000e+00,5.000000000000000000e+00,5.000000000000000000e+00,5.000000000000000000e+00,5.000000000000000000e+00,5.000000000000000000e+00,5.000000000000000000e+00,5.000000000000000000e+00,5.000000000000000000e+00,5.000000000000000000e+00,5.000000000000000000e+00,5.000000000000000000e+00,5.000000000000000000e+00,5.000000000000000000e+00,5.000000000000000000e+00,5.000000000000000000e+00,5.000000000000000000e+00,5.000000000000000000e+00,5.000000000000000000e+00,5.000000000000000000e+00,5.000000000000000000e+00,5.000000000000000000e+00,5.000000000000000000e+00,5.000000000000000000e+00,5.000000000000000000e+00
1.933734774589538574e+00,1.960446834564208984e+00,1.987907290458679199e+00,2.016147851943969727e+00,2.045202493667602539e+00,2.075106859207153320e+00,2.105898618698120117e+00,2.137618064880371094e+00,2.170290946960449219e+00,2.203978300094604492e+00,2.238727807998657227e+00,2.274590730667114258e+00,2.311621427536010742e+00,2.349877595901489258e+00,2.389438390731811523e+00,2.430357217788696289e+00,2.472701549530029297e+00,2.516547679901123047e+00,2.561977148056030273e+00,2.609076738357543945e+00,2.657940626144409180e+00,2.708669662475585938e+00,2.761372804641723633e+00,2.816167354583740234e+00,2.873180627822875977e+00,2.932550430297851562e+00,2.994425058364868164e+00,3.058967590332031250e+00,3.126353025436401367e+00,3.196774482727050781e+00,3.270441770553588867e+00,3.347584009170532227e+00,3.428453922271728516e+00,3.513327121734619141e+00,3.602509498596191406e+00,3.696335077285766602e+00,3.795179128646850586e+00,3.899454593658447266e+00,4.009622097015380859e+00,4.126195430755615234e+00,4.249750137329101562e+00,4.380932807922363281e+00,4.520472526550292969e+00,4.669192790985107422e+00,4.828032016754150391e+00,4.998058795928955078e+00,5.000000000000000000e+00,5.000000000000000000e+00,5.000000000000000000e+00,5.000000000000000000e+00,5.000000000000000000e+00,5.000000000000000000e+00,5.000000000000000000e+00,5.000000000000000000e+00,5.000000000000000000e+00,5.000000000000000000e+00,5.000000000000000000e+00,5.000000000000000000e+00,5.000000000000000000e+00,5.000000000000000000e+00,5.000000000000000000e+00,5.000000000000000000e+00,5.000000000000000000e+00,5.000000000000000000e+00,5.000000000000000000e+00,5.000000000000000000e+00,5.000000000000000000e+00,5.000000000000000000e+00,5.000000000000000000e+00,5.000000000000000000e+00,5.000000000000000000e+00,5.000000000000000000e+00,5.000000000000000000e+00,5.000000000000000000e+00,5.000000000000000000e+00,5.000000000000000000e+00,5.000000000000000000e+00,5.000000000000000000e+00,5.000000000000000000e+00,5.000000000000000000e+00
1.933706641197204590e+00,1.960417985916137695e+00,1.987877607345581055e+00,2.016117334365844727e+00,2.045171022415161133e+00,2.075074434280395508e+00,2.105865240097045898e+00,2.137583494186401367e+00,2.170271873474121094e+00,2.203975439071655273e+00,2.238727807998657227e+00,2.274590730667114258e+00,2.311621427536010742e+00,2.349877595901489258e+00,2.389421463012695312e+00,2.430318832397460938e+00,2.472655534744262695e+00,2.516500234603881836e+00,2.561927556991577148e+00,2.609025239944458008e+00,2.657887220382690430e+00,2.708614349365234375e+00,2.761315345764160156e+00,2.816107511520385742e+00,2.873118400573730469e+00,2.932485580444335938e+00,2.994357585906982422e+00,3.058897018432617188e+00,3.126279354095458984e+00,3.196697473526000977e+00,3.270361185073852539e+00,3.347499608993530273e+00,3.428365230560302734e+00,3.513234138488769531e+00,3.602411746978759766e+00,3.696234464645385742e+00,3.795072793960571289e+00,3.899342536926269531e+00,4.009503364562988281e+00,4.126070022583007812e+00,4.249617099761962891e+00,4.380791187286376953e+00,4.520321369171142578e+00,4.669032096862792969e+00,4.827860355377197266e+00,4.997874736785888672e+00,5.000000000000000000e+00,5.000000000000000000e+00,5.000000000000000000e+00,5.000000000000000000e+00,5.000000000000000000e+00,5.000000000000000000e+00,5.000000000000000000e+00,5.000000000000000000e+00,5.000000000000000000e+00,5.000000000000000000e+00,5.000000000000000000e+00,5.000000000000000000e+00,5.000000000000000000e+00,5.000000000000000000e+00,5.000000000000000000e+00,5.000000000000000000e+00,5.000000000000000000e+00,5.000000000000000000e+00,5.000000000000000000e+00,5.000000000000000000e+00,5.000000000000000000e+00,5.000000000000000000e+00,5.000000000000000000e+00,5.000000000000000000e+00,5.000000000000000000e+00,5.000000000000000000e+00,5.000000000000000000e+00,5.000000000000000000e+00,5.000000000000000000e+00,5.000000000000000000e+00,5.000000000000000000e+00,5.000000000000000000e+00,5.000000000000000000e+00,5.000000000000000000e+00
1.933678388595581055e+00,1.960388898849487305e+00,1.987847685813903809e+00,2.016086578369140625e+00,2.045139551162719727e+00,2.075042009353637695e+00,2.105831861495971680e+00,2.137549161911010742e+00,2.170236349105834961e+00,2.203938961029052734e+00,2.238704681396484375e+00,2.274585008621215820e+00,2.311621189117431641e+00,2.349877595901489258e+00,2.389421224594116211e+00,2.430318832397460938e+00,2.472640752792358398e+00,2.516462564468383789e+00,2.561878204345703125e+00,2.608973979949951172e+00,2.657834053039550781e+00,2.708559036254882812e+00,2.761257886886596680e+00,2.816047906875610352e+00,2.873056411743164062e+00,2.932420730590820312e+00,2.994289875030517578e+00,3.058826446533203125e+00,3.126205682754516602e+00,3.196620702743530273e+00,3.270280599594116211e+00,3.347414970397949219e+00,3.428276538848876953e+00,3.513141155242919922e+00,3.602314233779907227e+00,3.696131467819213867e+00,3.794966697692871094e+00,3.899230241775512695e+00,4.009384632110595703e+00,4.125944137573242188e+00,4.249483585357666016e+00,4.380649566650390625e+00,4.520170688629150391e+00,4.668871402740478516e+00,4.827688694000244141e+00,4.997690677642822266e+00,5.000000000000000000e+00,5.000000000000000000e+00,5.000000000000000000e+00,5.000000000000000000e+00,5.000000000000000000e+00,5.000000000000000000e+00,5.000000000000000000e+00,5.000000000000000000e+00,5.000000000000000000e+00,5.000000000000000000e+00,5.000000000000000000e+00,4.063347816467285156e+00,4.037823200225830078e+00,5.000000000000000000e+00,5.000000000000000000e+00,5.000000000000000000e+00,5.000000000000000000e+00,5.000000000000000000e+00,5.000000000000000000e+00,5.000000000000000000e+00,5.000000000000000000e+00,5.000000000000000000e+00,5.000000000000000000e+00,5.000000000000000000e+00,5.000000000000000000e+00,5.000000000000000000e+00,5.000000000000000000e+00,5.000000000000000000e+00,5.000000000000000000e+00,5.000000000000000000e+00,5.000000000000000000e+00,5.000000000000000000e+00,5.000000000000000000e+00,5.000000000000000000e+00
1.933650255203247070e+00,1.960360050201416016e+00,1.987818002700805664e+00,2.016056060791015625e+00,2.045108079910278320e+00,2.075009346008300781e+00,2.105798244476318359e+00,2.137514591217041016e+00,2.170200824737548828e+00,2.203902244567871094e+00,2.238667011260986328e+00,2.274545907974243164e+00,2.311593770980834961e+00,2.349868535995483398e+00,2.389421224594116211e+00,2.430318832397460938e+00,2.472640514373779297e+00,2.516462564468383789e+00,2.561866044998168945e+00,2.608937740325927734e+00,2.657780647277832031e+00,2.708503723144531250e+00,2.761200428009033203e+00,2.815988063812255859e+00,2.872994184494018555e+00,2.932355880737304688e+00,2.994222164154052734e+00,3.058755874633789062e+00,3.126132011413574219e+00,3.196543693542480469e+00,3.270199775695800781e+00,3.347330570220947266e+00,3.428188085556030273e+00,3.513047933578491211e+00,3.602216243743896484e+00,3.696028470993041992e+00,3.794857740402221680e+00,3.899117946624755859e+00,4.009266376495361328e+00,4.125818729400634766e+00,4.249350547790527344e+00,4.380508422851562500e+00,4.520020008087158203e+00,4.668710708618164062e+00,4.827516555786132812e+00,4.997506618499755859e+00,5.000000000000000000e+00,5.000000000000000000e+00,5.000000000000000000e+00,5.000000000000000000e+00,5.000000000000000000e+00,5.000000000000000000e+00,5.000000000000000000e+00,5.000000000000000000e+00,5.000000000000000000e+00,5.000000000000000000e+00,5.000000000000000000e+00,4.080731391906738281e+00,4.037186145782470703e+00,5.000000000000000000e+00,5.000000000000000000e+00,5.000000000000000000e+00,5.000000000000000000e+00,5.000000000000000000e+00,5.000000000000000000e+00,5.000000000000000000e+00,5.000000000000000000e+00,5.000000000000000000e+00,5.000000000000000000e+00,5.000000000000000000e+00,5.000000000000000000e+00,5.000000000000000000e+00,5.000000000000000000e+00,5.000000000000000000e+00,5.000000000000000000e+00,5.000000000000000000e+00,5.000000000000000000e+00,5.000000000000000000e+00,5.000000000000000000e+00,5.000000000000000000e+00
1.933622002601623535e+00,1.960330963134765625e+00,1.987788081169128418e+00,2.016025304794311523e+00,2.045076370239257812e+00,2.074976921081542969e+00,2.105764865875244141e+00,2.137480258941650391e+00,2.170165300369262695e+00,2.203865766525268555e+00,2.238629102706909180e+00,2.274507045745849609e+00,2.311553478240966797e+00,2.349826812744140625e+00,2.389388799667358398e+00,2.430305957794189453e+00,2.472640514373779297e+00,2.516462564468383789e+00,2.561865806579589844e+00,2.608937740325927734e+00,2.657771587371826172e+00,2.708468675613403320e+00,2.761142730712890625e+00,2.815928220748901367e+00,2.872931957244873047e+00,2.932291030883789062e+00,2.994154930114746094e+00,3.058685302734375000e+00,3.126058340072631836e+00,3.196466684341430664e+00,3.270119190216064453e+00,3.347246408462524414e+00,3.428099393844604492e+00,3.512954950332641602e+00,3.602118492126464844e+00,3.695925474166870117e+00,3.794749498367309570e+00,3.899003267288208008e+00,4.009146690368652344e+00,4.125693321228027344e+00,4.249217510223388672e+00,4.380366802215576172e+00,4.519869327545166016e+00,4.668550014495849609e+00,4.827344894409179688e+00,4.997322559356689453e+00,5.000000000000000000e+00,5.000000000000000000e+00,5.000000000000000000e+00,5.000000000000000000e+00,5.000000000000000000e+00,5.000000000000000000e+00,5.000000000000000000e+00,5.000000000000000000e+00,5.000000000000000000e+00,5.000000000000000000e+00,5.000000000000000000e+00,4.092804431915283203e+00,4.059371471405029297e+00,4.116611003875732422e+00,5.000000000000000000e+00,5.000000000000000000e+00,5.000000000000000000e+00,5.000000000000000000e+00,5.000000000000000000e+00,5.000000000000000000e+00,5.000000000000000000e+00,5.000000000000000000e+00,5.000000000000000000e+00,5.000000000000000000e+00,5.000000000000000000e+00,5.000000000000000000e+00,5.000000000000000000e+00,5.000000000000000000e+00,5.000000000000000000e+00,5.000000000000000000e+00,5.000000000000000000e+00,5.000000000000000000e+00,5.000000000000000000e+00,5.000000000000000000e+00
1.933593630790710449e+00,1.960301876068115234e+00,1.987758159637451172e+00,2.015994548797607422e+00,2.045044898986816406e+00,2.074944496154785156e+00,2.105731487274169922e+00,2.137445688247680664e+00,2.170129776000976562e+00,2.203829050064086914e+00,2.238591432571411133e+00,2.274467945098876953e+00,2.311513185501098633e+00,2.349785089492797852e+00,2.389345884323120117e+00,2.430261373519897461e+00,2.472602605819702148e+00,2.516445398330688477e+00,2.561865806579589844e+00,2.608937501907348633e+00,2.657771587371826172e+00,2.708468675613403320e+00,2.761137247085571289e+00,2.815894842147827148e+00,2.872869729995727539e+00,2.932226181030273438e+00,2.994087457656860352e+00,3.058614730834960938e+00,3.125984668731689453e+00,3.196389675140380859e+00,3.270038604736328125e+00,3.347162008285522461e+00,3.428010702133178711e+00,3.512861967086791992e+00,3.602020740509033203e+00,3.695822477340698242e+00,3.794641017913818359e+00,3.898888587951660156e+00,4.009025573730468750e+00,4.125566482543945312e+00,4.249084472656250000e+00,4.380225658416748047e+00,4.519719123840332031e+00,4.668389320373535156e+00,4.827172756195068359e+00,4.997138023376464844e+00,5.000000000000000000e+00,5.000000000000000000e+00,5.000000000000000000e+00,5.000000000000000000e+00,5.000000000000000000e+00,5.000000000000000000e+00,5.000000000000000000e+00,5.000000000000000000e+00,5.000000000000000000e+00,5.000000000000000000e+00,5.000000000000000000e+00,4.217241764068603516e+00,4.049282550811767578e+00,4.036086559295654297e+00,3.969334602355957031e+00,3.937171220779418945e+00,5.000000000000000000e+00,5.000000000000000000e+00,5.000000000000000000e+00,5.000000000000000000e+00,5.000000000000000000e+00,5.000000000000000000e+00,5.000000000000000000e+00,5.000000000000000000e+00,5.000000000000000000e+00,5.000000000000000000e+00,5.000000000000000000e+00,5.000000000000000000e+00,5.000000000000000000e+00,5.000000000000000000e+00,5.000000000000000000e+00,5.000000000000000000e+00,5.000000000000000000e+00,5.000000000000000000e+00
1.933565616607666016e+00,1.960273027420043945e+00,1.987728476524353027e+00,2.015963792800903320e+00,2.045013189315795898e+00,2.074911832809448242e+00,2.105697870254516602e+00,2.137411355972290039e+00,2.170094251632690430e+00,2.203792333602905273e+00,2.238553524017333984e+00,2.274429082870483398e+00,2.311472892761230469e+00,2.349743604660034180e+00,2.389302730560302734e+00,2.430216789245605469e+00,2.472556591033935547e+00,2.516397714614868164e+00,2.561821699142456055e+00,2.608915567398071289e+00,2.657771587371826172e+00,2.708468437194824219e+00,2.761137247085571289e+00,2.815894842147827148e+00,2.872868299484252930e+00,2.932194948196411133e+00,2.994023323059082031e+00,3.058544158935546875e+00,3.125911235809326172e+00,3.196312665939331055e+00,3.269958019256591797e+00,3.347077608108520508e+00,3.427922248840332031e+00,3.512769222259521484e+00,3.601922750473022461e+00,3.695719480514526367e+00,3.794532537460327148e+00,3.898774147033691406e+00,4.008904933929443359e+00,4.125438213348388672e+00,4.248949527740478516e+00,4.380084037780761719e+00,4.519568443298339844e+00,4.668228626251220703e+00,4.827001571655273438e+00,4.996953964233398438e+00,5.000000000000000000e+00,5.000000000000000000e+00,5.000000000000000000e+00,5.000000000000000000e+00,5.000000000000000000e+00,5.000000000000000000e+00,5.000000000000000000e+00,5.000000000000000000e+00,5.000000000000000000e+00,5.000000000000000000e+00,4.206516265869140625e+00,4.089950084686279297e+00,4.026157379150390625e+00,3.984103441238403320e+00,3.984322786331176758e+00,3.940607547760009766e+00,5.000000000000000000e+00,5.000000000000000000e+00,5.000000000000000000e+00,5.000000000000000000e+00,5.000000000000000000e+00,5.000000000000000000e+00,5.000000000000000000e+00,5.000000000000000000e+00,5.000000000000000000e+00,5.000000000000000000e+00,5.000000000000000000e+00,5.000000000000000000e+00,5.000000000000000000e+00,5.000000000000000000e+00,5.000000000000000000e+00,5.000000000000000000e+00,5.000000000000000000e+00,5.000000000000000000e+00
1.933537244796752930e+00,1.960243940353393555e+00,1.987698554992675781e+00,2.015933275222778320e+00,2.044981718063354492e+00,2.074879407882690430e+00,2.105664491653442383e+00,2.137376785278320312e+00,2.170058727264404297e+00,2.203755617141723633e+00,2.238515615463256836e+00,2.274389982223510742e+00,2.311432600021362305e+00,2.349701881408691406e+00,2.389259815216064453e+00,2.430172443389892578e+00,2.472510576248168945e+00,2.516350030899047852e+00,2.561772108078002930e+00,2.608864307403564453e+00,2.657720088958740234e+00,2.708440780639648438e+00,2.761135101318359375e+00,2.815894603729248047e+00,2.872868299484252930e+00,2.932194709777832031e+00,2.994023323059082031e+00,3.058515548706054688e+00,3.125846862792968750e+00,3.196235656738281250e+00,3.269877433776855469e+00,3.346992969512939453e+00,3.427833557128906250e+00,3.512676239013671875e+00,3.601824998855590820e+00,3.695616483688354492e+00,3.794423818588256836e+00,3.898659467697143555e+00,4.008783817291259766e+00,4.125310420989990234e+00,4.248813629150390625e+00,4.379940509796142578e+00,4.519417762756347656e+00,4.668067932128906250e+00,4.826829433441162109e+00,4.996770381927490234e+00,5.000000000000000000e+00,5.000000000000000000e+00,5.000000000000000000e+00,5.000000000000000000e+00,5.000000000000000000e+00,5.000000000000000000e+00,5.000000000000000000e+00,5.000000000000000000e+00,5.000000000000000000e+00,4.263253688812255859e+00,4.125687599182128906e+00,4.052409172058105469e+00,4.003702163696289062e+00,3.982688903808593750e+00,4.007725238800048828e+00,3.943471670150756836e+00,5.000000000000000000e+00,5.000000000000000000e+00,5.000000000000000000e+00,5.000000000000000000e+00,5.000000000000000000e+00,5.000000000000000000e+00,5.000000000000000000e+00,5.000000000000000000e+00,5.000000000000000000e+00,5.000000000000000000e+00,5.000000000000000000e+00,5.000000000000000000e+00,5.000000000000000000e+00,5.000000000000000000e+00,5.000000000000000000e+00,5.000000000000000000e+00,5.000000000000000000e+00,5.000000000000000000e+00
1.933509230613708496e+00,1.960215091705322266e+00,1.987668871879577637e+00,2.015902519226074219e+00,2.044950246810913086e+00,2.074846982955932617e+00,2.105631113052368164e+00,2.137342214584350586e+00,2.170023202896118164e+00,2.203719139099121094e+00,2.238477945327758789e+00,2.274350881576538086e+00,2.311392307281494141e+00,2.349660158157348633e+00,2.389216661453247070e+00,2.430127859115600586e+00,2.472464323043823242e+00,2.516302108764648438e+00,2.561722517013549805e+00,2.608813047409057617e+00,2.657666921615600586e+00,2.708385467529296875e+00,2.761077642440795898e+00,2.815860748291015625e+00,2.872861623764038086e+00,2.932194709777832031e+00,2.994023323059082031e+00,3.058515310287475586e+00,3.125846862792968750e+00,3.196209907531738281e+00,3.269813299179077148e+00,3.346908569335937500e+00,3.427745103836059570e+00,3.512583255767822266e+00,3.601727247238159180e+00,3.695513963699340820e+00,3.794315338134765625e+00,3.898544788360595703e+00,4.008662223815917969e+00,4.125182151794433594e+00,4.248677730560302734e+00,4.379795551300048828e+00,4.519264698028564453e+00,4.667907238006591797e+00,4.826657772064208984e+00,4.996585845947265625e+00,5.000000000000000000e+00,5.000000000000000000e+00,5.000000000000000000e+00,5.000000000000000000e+00,5.000000000000000000e+00,5.000000000000000000e+00,5.000000000000000000e+00,5.000000000000000000e+00,5.000000000000000000e+00,5.000000000000000000e+00,4.145778656005859375e+00,4.047199726104736328e+00,4.007344722747802734e+00,3.994518518447875977e+00,4.031552314758300781e+00,3.941346168518066406e+00,5.000000000000000000e+00,5.000000000000000000e+00,5.000000000000000000e+00,5.000000000000000000e+00,5.000000000000000000e+00,5.000000000000000000e+00,5.000000000000000000e+00,5.000000000000000000e+00,5.000000000000000000e+00,5.000000000000000000e+00,5.000000000000000000e+00,5.000000000000000000e+00,5.000000000000000000e+00,5.000000000000000000e+00,5.000000000000000000e+00,5.000000000000000000e+00,5.000000000000000000e+00,5.000000000000000000e+00
1.933480858802795410e+00,1.960186004638671875e+00,1.987639069557189941e+00,2.015872001647949219e+00,2.044918775558471680e+00,2.074814558029174805e+00,2.105597496032714844e+00,2.137307882308959961e+00,2.169987678527832031e+00,2.203682422637939453e+00,2.238440036773681641e+00,2.274311780929565430e+00,2.311352014541625977e+00,2.349618434906005859e+00,2.389173507690429688e+00,2.430083036422729492e+00,2.472418069839477539e+00,2.516254186630249023e+00,2.561673164367675781e+00,2.608761548995971680e+00,2.657613515853881836e+00,2.708330154418945312e+00,2.761020183563232422e+00,2.815800905227661133e+00,2.872799396514892578e+00,2.932153224945068359e+00,2.994011402130126953e+00,3.058515310287475586e+00,3.125846862792968750e+00,3.196209669113159180e+00,3.269813299179077148e+00,3.346886634826660156e+00,3.427681207656860352e+00,3.512490034103393555e+00,3.601629495620727539e+00,3.695410966873168945e+00,3.794206857681274414e+00,3.898430109024047852e+00,4.008541107177734375e+00,4.125053882598876953e+00,4.248541831970214844e+00,4.379651546478271484e+00,4.519110679626464844e+00,4.667743682861328125e+00,4.826486110687255859e+00,4.996401786804199219e+00,5.000000000000000000e+00,5.000000000000000000e+00,5.000000000000000000e+00,5.000000000000000000e+00,5.000000000000000000e+00,5.000000000000000000e+00,5.000000000000000000e+00,5.000000000000000000e+00,5.000000000000000000e+00,5.000000000000000000e+00,4.134750366210937500e+00,4.047068595886230469e+00,4.007424831390380859e+00,4.001843452453613281e+00,4.079250335693359375e+00,3.944683313369750977e+00,5.000000000000000000e+00,5.000000000000000000e+00,5.000000000000000000e+00,5.000000000000000000e+00,5.000000000000000000e+00,5.000000000000000000e+00,5.000000000000000000e+00,5.000000000000000000e+00,5.000000000000000000e+00,5.000000000000000000e+00,5.000000000000000000e+00,5.000000000000000000e+00,5.000000000000000000e+00,5.000000000000000000e+00,5.000000000000000000e+00,5.000000000000000000e+00,5.000000000000000000e+00,5.000000000000000000e+00
1.933452844619750977e+00,1.960157155990600586e+00,1.987609386444091797e+00,2.015841245651245117e+00,2.044887065887451172e+00,2.074782133102416992e+00,2.105564117431640625e+00,2.137273311614990234e+00,2.169952154159545898e+00,2.203645706176757812e+00,2.238402366638183594e+00,2.274272918701171875e+00,2.311311721801757812e+00,2.349576950073242188e+00,2.389130592346191406e+00,2.430038690567016602e+00,2.472372055053710938e+00,2.516206502914428711e+00,2.561623573303222656e+00,2.608710050582885742e+00,2.657560110092163086e+00,2.708274841308593750e+00,2.760962724685668945e+00,2.815741062164306641e+00,2.872737169265747070e+00,2.932088375091552734e+00,2.993943691253662109e+00,3.058465003967285156e+00,3.125828504562377930e+00,3.196209669113159180e+00,3.269813060760498047e+00,3.346886634826660156e+00,3.427681207656860352e+00,3.512472867965698242e+00,3.601566314697265625e+00,3.695307970046997070e+00,3.794098377227783203e+00,3.898316144943237305e+00,4.008419990539550781e+00,4.124925136566162109e+00,4.248405456542968750e+00,4.379506587982177734e+00,4.518957138061523438e+00,4.667579174041748047e+00,4.826310634613037109e+00,4.996217727661132812e+00,5.000000000000000000e+00,5.000000000000000000e+00,5.000000000000000000e+00,5.000000000000000000e+00,5.000000000000000000e+00,5.000000000000000000e+00,5.000000000000000000e+00,5.000000000000000000e+00,5.000000000000000000e+00,5.000000000000000000e+00,4.113464832305908203e+00,4.043998241424560547e+00,3.992151737213134766e+00,3.988281250000000000e+00,4.026423454284667969e+00,3.931001901626586914e+00,5.000000000000000000e+00,5.000000000000000000e+00,5.000000000000000000e+00,5.000000000000000000e+00,5.000000000000000000e+00,5.000000000000000000e+00,5.000000000000000000e+00,5.000000000000000000e+00,5.000000000000000000e+00,5.000000000000000000e+00,5.000000000000000000e+00,5.000000000000000000e+00,5.000000000000000000e+00,5.000000000000000000e+00,5.000000000000000000e+00,5.000000000000000000e+00,5.000000000000000000e+00,5.000000000000000000e+00
1.933424592018127441e+00,1.960128068923950195e+00,1.987579464912414551e+00,2.015810728073120117e+00,2.044855594635009766e+00,2.074749708175659180e+00,2.105530738830566406e+00,2.137238979339599609e+00,2.169916629791259766e+00,2.203609228134155273e+00,2.238364696502685547e+00,2.274233818054199219e+00,2.311271429061889648e+00,2.349535226821899414e+00,2.389087438583374023e+00,2.429994106292724609e+00,2.472325801849365234e+00,2.516158819198608398e+00,2.561573982238769531e+00,2.608658790588378906e+00,2.657506942749023438e+00,2.708219528198242188e+00,2.760905027389526367e+00,2.815680980682373047e+00,2.872674703598022461e+00,2.932023525238037109e+00,2.993876218795776367e+00,3.058394432067871094e+00,3.125754833221435547e+00,3.196149349212646484e+00,3.269787549972534180e+00,3.346886634826660156e+00,3.427680969238281250e+00,3.512472867965698242e+00,3.601566314697265625e+00,3.695296525955200195e+00,3.794036388397216797e+00,3.898201465606689453e+00,4.008299350738525391e+00,4.124796867370605469e+00,4.248269557952880859e+00,4.379362106323242188e+00,4.518803119659423828e+00,4.667415618896484375e+00,4.826135158538818359e+00,4.996029376983642578e+00,5.000000000000000000e+00,5.000000000000000000e+00,5.000000000000000000e+00,5.000000000000000000e+00,5.000000000000000000e+00,5.000000000000000000e+00,5.000000000000000000e+00,5.000000000000000000e+00,5.000000000000000000e+00,5.000000000000000000e+00,4.134473800659179688e+00,4.039652824401855469e+00,4.002805233001708984e+00,3.983882427215576172e+00,4.010194301605224609e+00,3.908011913299560547e+00,5.000000000000000000e+00,5.000000000000000000e+00,5.000000000000000000e+00,5.000000000000000000e+00,5.000000000000000000e+00,5.000000000000000000e+00,5.000000000000000000e+00,5.000000000000000000e+00,5.000000000000000000e+00,5.000000000000000000e+00,5.000000000000000000e+00,5.000000000000000000e+00,5.000000000000000000e+00,5.000000000000000000e+00,5.000000000000000000e+00,5.000000000000000000e+00,5.000000000000000000e+00,5.000000000000000000e+00
1.933396458625793457e+00,1.960099220275878906e+00,1.987549781799316406e+00,2.015779972076416016e+00,2.044824123382568359e+00,2.074717044830322266e+00,2.105497360229492188e+00,2.137204408645629883e+00,2.169881105422973633e+00,2.203572511672973633e+00,2.238326787948608398e+00,2.274194955825805664e+00,2.311231136322021484e+00,2.349493503570556641e+00,2.389044284820556641e+00,2.429949522018432617e+00,2.472279787063598633e+00,2.516111135482788086e+00,2.561524629592895508e+00,2.608607530593872070e+00,2.657453536987304688e+00,2.708164215087890625e+00,2.760847568511962891e+00,2.815621376037597656e+00,2.872612476348876953e+00,2.931958436965942383e+00,2.993808269500732422e+00,3.058323621749877930e+00,3.125680923461914062e+00,3.196072340011596680e+00,3.269706964492797852e+00,3.346814393997192383e+00,3.427646636962890625e+00,3.512472867965698242e+00,3.601566076278686523e+00,3.695296525955200195e+00,3.794036149978637695e+00,3.898197412490844727e+00,4.008239269256591797e+00,4.124674320220947266e+00,4.248133659362792969e+00,4.379217624664306641e+00,4.518649101257324219e+00,4.667251110076904297e+00,4.825959682464599609e+00,4.995841503143310547e+00,5.000000000000000000e+00,5.000000000000000000e+00,5.000000000000000000e+00,5.000000000000000000e+00,5.000000000000000000e+00,5.000000000000000000e+00,5.000000000000000000e+00,5.000000000000000000e+00,5.000000000000000000e+00,5.000000000000000000e+00,4.103188991546630859e+00,4.072775840759277344e+00,4.017271518707275391e+00,3.968375921249389648e+00,3.996432304382324219e+00,3.877800226211547852e+00,5.000000000000000000e+00,5.000000000000000000e+00,5.000000000000000000e+00,5.000000000000000000e+00,5.000000000000000000e+00,5.000000000000000000e+00,5.000000000000000000e+00,5.000000000000000000e+00,5.000000000000000000e+00,5.000000000000000000e+00,5.000000000000000000e+00,5.000000000000000000e+00,5.000000000000000000e+00,5.000000000000000000e+00,5.000000000000000000e+00,5.000000000000000000e+00,5.000000000000000000e+00,5.000000000000000000e+00
1.933368206024169922e+00,1.960070133209228516e+00,1.987519860267639160e+00,2.015749454498291016e+00,2.044792652130126953e+00,2.074684619903564453e+00,2.105463981628417969e+00,2.137170076370239258e+00,2.169845581054687500e+00,2.203536033630371094e+00,2.238289117813110352e+00,2.274155855178833008e+00,2.311190843582153320e+00,2.349452018737792969e+00,2.389001369476318359e+00,2.429904937744140625e+00,2.472233772277832031e+00,2.516063213348388672e+00,2.561475038528442383e+00,2.608556270599365234e+00,2.657400369644165039e+00,2.708108901977539062e+00,2.760790109634399414e+00,2.815561532974243164e+00,2.872550249099731445e+00,2.931893587112426758e+00,2.993740797042846680e+00,3.058253288269042969e+00,3.125607252120971680e+00,3.195995092391967773e+00,3.269625902175903320e+00,3.346729516983032227e+00,3.427557945251464844e+00,3.512386798858642578e+00,3.601521253585815430e+00,3.695296287536621094e+00,3.794036149978637695e+00,3.898197412490844727e+00,4.008238792419433594e+00,4.124674320220947266e+00,4.248076438903808594e+00,4.379090309143066406e+00,4.518495082855224609e+00,4.667087078094482422e+00,4.825784206390380859e+00,4.995653629302978516e+00,5.000000000000000000e+00,5.000000000000000000e+00,5.000000000000000000e+00,5.000000000000000000e+00,5.000000000000000000e+00,5.000000000000000000e+00,5.000000000000000000e+00,5.000000000000000000e+00,5.000000000000000000e+00,4.119104385375976562e+00,4.040731430053710938e+00,4.055701255798339844e+00,3.976266860961914062e+00,3.952271699905395508e+00,3.995525121688842773e+00,3.859947204589843750e+00,5.000000000000000000e+00,5.000000000000000000e+00,5.000000000000000000e+00,5.000000000000000000e+00,5.000000000000000000e+00,5.000000000000000000e+00,5.000000000000000000e+00,5.000000000000000000e+00,5.000000000000000000e+00,5.000000000000000000e+00,5.000000000000000000e+00,5.000000000000000000e+00,5.000000000000000000e+00,5.000000000000000000e+00,5.000000000000000000e+00,5.000000000000000000e+00,5.000000000000000000e+00,5.000000000000000000e+00
1.933339834213256836e+00,1.960041046142578125e+00,1.987489938735961914e+00,2.015718698501586914e+00,2.044760942459106445e+00,2.074652194976806641e+00,2.105430364608764648e+00,2.137135505676269531e+00,2.169810295104980469e+00,2.203499317169189453e+00,2.238251209259033203e+00,2.274116754531860352e+00,2.311150550842285156e+00,2.349410295486450195e+00,2.388958454132080078e+00,2.429860591888427734e+00,2.472187757492065430e+00,2.516015529632568359e+00,2.561425685882568359e+00,2.608505010604858398e+00,2.657347202301025391e+00,2.708053588867187500e+00,2.760732650756835938e+00,2.815501689910888672e+00,2.872488021850585938e+00,2.931828975677490234e+00,2.993673086166381836e+00,3.058182716369628906e+00,3.125533580780029297e+00,3.195918083190917969e+00,3.269545316696166992e+00,3.346645116806030273e+00,3.427469015121459961e+00,3.512293338775634766e+00,3.601423025131225586e+00,3.695193767547607422e+00,3.793978691101074219e+00,3.898189783096313477e+00,4.008238792419433594e+00,4.124674320220947266e+00,4.248075962066650391e+00,4.379089832305908203e+00,4.518441677093505859e+00,4.666954517364501953e+00,4.825608730316162109e+00,4.995465278625488281e+00,5.000000000000000000e+00,5.000000000000000000e+00,5.000000000000000000e+00,5.000000000000000000e+00,5.000000000000000000e+00,5.000000000000000000e+00,5.000000000000000000e+00,5.000000000000000000e+00,5.000000000000000000e+00,4.043137550354003906e+00,4.016727924346923828e+00,4.058586120605468750e+00,3.967325925827026367e+00,3.949804544448852539e+00,4.020462989807128906e+00,5.000000000000000000e+00,5.000000000000000000e+00,5.000000000000000000e+00,5.000000000000000000e+00,5.000000000000000000e+00,5.000000000000000000e+00,5.000000000000000000e+00,5.000000000000000000e+00,5.000000000000000000e+00,5.000000000000000000e+00,5.000000000000000000e+00,5.000000000000000000e+00,5.000000000000000000e+00,5.000000000000000000e+00,5.000000000000000000e+00,5.000000000000000000e+00,5.000000000000000000e+00,5.000000000000000000e+00,5.000000000000000000e+00
1.933311820030212402e+00,1.960012197494506836e+00,1.987460255622863770e+00,2.015687942504882812e+00,2.044729471206665039e+00,2.074619770050048828e+00,2.105396986007690430e+00,2.137101173400878906e+00,2.169774770736694336e+00,2.203462839126586914e+00,2.238213539123535156e+00,2.274077892303466797e+00,2.311110258102416992e+00,2.349368810653686523e+00,2.388915300369262695e+00,2.429816007614135742e+00,2.472141504287719727e+00,2.515967845916748047e+00,2.561376094818115234e+00,2.608453512191772461e+00,2.657294034957885742e+00,2.707998275756835938e+00,2.760675191879272461e+00,2.815442085266113281e+00,2.872425794601440430e+00,2.931764125823974609e+00,2.993605613708496094e+00,3.058112144470214844e+00,3.125459909439086914e+00,3.195841073989868164e+00,3.269464731216430664e+00,3.346560716629028320e+00,3.427380561828613281e+00,3.512200355529785156e+00,3.601325273513793945e+00,3.695090770721435547e+00,3.793869495391845703e+00,3.898074626922607422e+00,4.008165836334228516e+00,4.124656200408935547e+00,4.248075962066650391e+00,4.379089355468750000e+00,4.518441677093505859e+00,4.666954040527343750e+00,4.825561046600341797e+00,4.995327472686767578e+00,5.000000000000000000e+00,5.000000000000000000e+00,5.000000000000000000e+00,5.000000000000000000e+00,5.000000000000000000e+00,5.000000000000000000e+00,5.000000000000000000e+00,5.000000000000000000e+00,5.000000000000000000e+00,4.012842178344726562e+00,4.005714416503906250e+00,5.000000000000000000e+00,3.965078830718994141e+00,3.951433181762695312e+00,5.000000000000000000e+00,5.000000000000000000e+00,5.000000000000000000e+00,5.000000000000000000e+00,5.000000000000000000e+00,5.000000000000000000e+00,5.000000000000000000e+00,5.000000000000000000e+00,5.000000000000000000e+00,5.000000000000000000e+00,5.000000000000000000e+00,5.000000000000000000e+00,5.000000000000000000e+00,5.000000000000000000e+00,5.000000000000000000e+00,5.000000000000000000e+00,5.000000000000000000e+00,5.000000000000000000e+00,5.000000000000000000e+00,5.000000000000000000e+00
1.933283567428588867e+00,1.959983110427856445e+00,1.987430453300476074e+00,2.015657424926757812e+00,2.044697761535644531e+00,2.074587106704711914e+00,2.105363607406616211e+00,2.137066602706909180e+00,2.169739007949829102e+00,2.203425884246826172e+00,2.238175630569458008e+00,2.274038791656494141e+00,2.311069965362548828e+00,2.349327087402343750e+00,2.388872385025024414e+00,2.429771423339843750e+00,2.472095489501953125e+00,2.515920162200927734e+00,2.561326742172241211e+00,2.608402252197265625e+00,2.657240629196166992e+00,2.707942962646484375e+00,2.760617733001708984e+00,2.815382242202758789e+00,2.872363567352294922e+00,2.931699275970458984e+00,2.993537902832031250e+00,3.058041572570800781e+00,3.125386238098144531e+00,3.195764064788818359e+00,3.269384145736694336e+00,3.346476316452026367e+00,3.427291870117187500e+00,3.512107372283935547e+00,3.601227283477783203e+00,3.694987773895263672e+00,3.793761014938354492e+00,3.897960186004638672e+00,4.008044719696044922e+00,4.124527931213378906e+00,4.247984409332275391e+00,4.379059314727783203e+00,4.518441677093505859e+00,4.666954040527343750e+00,4.825560569763183594e+00,4.995327472686767578e+00,5.000000000000000000e+00,5.000000000000000000e+00,5.000000000000000000e+00,5.000000000000000000e+00,5.000000000000000000e+00,5.000000000000000000e+00,5.000000000000000000e+00,5.000000000000000000e+00,5.000000000000000000e+00,3.976099729537963867e+00,3.990354061126708984e+00,5.000000000000000000e+00,3.960839033126831055e+00,3.963805437088012695e+00,5.000000000000000000e+00,5.000000000000000000e+00,5.000000000000000000e+00,5.000000000000000000e+00,5.000000000000000000e+00,5.000000000000000000e+00,5.000000000000000000e+00,5.000000000000000000e+00,5.000000000000000000e+00,5.000000000000000000e+00,5.000000000000000000e+00,5.000000000000000000e+00,5.000000000000000000e+00,5.000000000000000000e+00,5.000000000000000000e+00,5.000000000000000000e+00,5.000000000000000000e+00,5.000000000000000000e+00,5.000000000000000000e+00,5.000000000000000000e+00
1.933255434036254883e+00,1.959954261779785156e+00,1.987400770187377930e+00,2.015626668930053711e+00,2.044666290283203125e+00,2.074554681777954102e+00,2.105329990386962891e+00,2.137032032012939453e+00,2.169703483581542969e+00,2.203389406204223633e+00,2.238137722015380859e+00,2.273999691009521484e+00,2.311029434204101562e+00,2.349285364151000977e+00,2.388829231262207031e+00,2.429726839065551758e+00,2.472049474716186523e+00,2.515872478485107422e+00,2.561277151107788086e+00,2.608350992202758789e+00,2.657187461853027344e+00,2.707887649536132812e+00,2.760560274124145508e+00,2.815322399139404297e+00,2.872301340103149414e+00,2.931634426116943359e+00,2.993470430374145508e+00,3.057971239089965820e+00,3.125312566757202148e+00,3.195687055587768555e+00,3.269303560256958008e+00,3.346391916275024414e+00,3.427203416824340820e+00,3.512014389038085938e+00,3.601129531860351562e+00,3.694884777069091797e+00,3.793652534484863281e+00,3.897845506668090820e+00,4.007923603057861328e+00,4.124399662017822266e+00,4.247848033905029297e+00,4.378914833068847656e+00,4.518326759338378906e+00,4.666907787322998047e+00,4.825560569763183594e+00,4.995326995849609375e+00,5.000000000000000000e+00,5.000000000000000000e+00,5.000000000000000000e+00,5.000000000000000000e+00,5.000000000000000000e+00,5.000000000000000000e+00,5.000000000000000000e+00,5.000000000000000000e+00,5.000000000000000000e+00,3.966970205307006836e+00,5.000000000000000000e+00,5.000000000000000000e+00,3.955815553665161133e+00,3.990953922271728516e+00,5.000000000000000000e+00,5.000000000000000000e+00,5.000000000000000000e+00,5.000000000000000000e+00,5.000000000000000000e+00,5.000000000000000000e+00,5.000000000000000000e+00,5.000000000000000000e+00,5.000000000000000000e+00,5.000000000000000000e+00,5.000000000000000000e+00,5.000000000000000000e+00,5.000000000000000000e+00,5.000000000000000000e+00,5.000000000000000000e+00,5.000000000000000000e+00,5.000000000000000000e+00,5.000000000000000000e+00,5.000000000000000000e+00,5.000000000000000000e+00
1.933227181434631348e+00,1.959925174713134766e+00,1.987370848655700684e+00,2.015596151351928711e+00,2.044634819030761719e+00,2.074522256851196289e+00,2.105296611785888672e+00,2.136997699737548828e+00,2.169667959213256836e+00,2.203352689743041992e+00,2.238100051879882812e+00,2.273960828781127930e+00,2.310989379882812500e+00,2.349243640899658203e+00,2.388786077499389648e+00,2.429682254791259766e+00,2.472003221511840820e+00,2.515824556350708008e+00,2.561227798461914062e+00,2.608299732208251953e+00,2.657134294509887695e+00,2.707832336425781250e+00,2.760502815246582031e+00,2.815262556076049805e+00,2.872239112854003906e+00,2.931569576263427734e+00,2.993402957916259766e+00,3.057900667190551758e+00,3.125238895416259766e+00,3.195610046386718750e+00,3.269222974777221680e+00,3.346307516098022461e+00,3.427114963531494141e+00,3.511921405792236328e+00,3.601031780242919922e+00,3.694782018661499023e+00,3.793544054031372070e+00,3.897731065750122070e+00,4.007802486419677734e+00,4.124271392822265625e+00,4.247712135314941406e+00,4.378770351409912109e+00,4.518172740936279297e+00,4.666743755340576172e+00,4.825417518615722656e+00,4.995260715484619141e+00,5.000000000000000000e+00,5.000000000000000000e+00,5.000000000000000000e+00,5.000000000000000000e+00,5.000000000000000000e+00,5.000000000000000000e+00,5.000000000000000000e+00,5.000000000000000000e+00,5.000000000000000000e+00,4.004860401153564453e+00,4.017602443695068359e+00,5.000000000000000000e+00,3.971374273300170898e+00,4.001354694366455078e+00,5.000000000000000000e+00,5.000000000000000000e+00,5.000000000000000000e+00,5.000000000000000000e+00,5.000000000000000000e+00,5.000000000000000000e+00,5.000000000000000000e+00,5.000000000000000000e+00,5.000000000000000000e+00,5.000000000000000000e+00,5.000000000000000000e+00,5.000000000000000000e+00,5.000000000000000000e+00,5.000000000000000000e+00,5.000000000000000000e+00,5.000000000000000000e+00,5.000000000000000000e+00,5.000000000000000000e+00,5.000000000000000000e+00,5.000000000000000000e+00
1.933199048042297363e+00,1.959896326065063477e+00,1.987341165542602539e+00,2.015565395355224609e+00,2.044603347778320312e+00,2.074489831924438477e+00,2.105263233184814453e+00,2.136963367462158203e+00,2.169632673263549805e+00,2.203316211700439453e+00,2.238062143325805664e+00,2.273921728134155273e+00,2.310949087142944336e+00,2.349202156066894531e+00,2.388742923736572266e+00,2.429637670516967773e+00,2.471957206726074219e+00,2.515776634216308594e+00,2.561177968978881836e+00,2.608248233795166016e+00,2.657080650329589844e+00,2.707776784896850586e+00,2.760445356369018555e+00,2.815202951431274414e+00,2.872177124023437500e+00,2.931504726409912109e+00,2.993335247039794922e+00,3.057830095291137695e+00,3.125165462493896484e+00,3.195533037185668945e+00,3.269142389297485352e+00,3.346223115921020508e+00,3.427026271820068359e+00,3.511828422546386719e+00,3.600934028625488281e+00,3.694679021835327148e+00,3.793435573577880859e+00,3.897616386413574219e+00,4.007681369781494141e+00,4.124143123626708984e+00,4.247576236724853516e+00,4.378625392913818359e+00,4.518019199371337891e+00,4.666579246520996094e+00,4.825242042541503906e+00,4.995072841644287109e+00,5.000000000000000000e+00,5.000000000000000000e+00,5.000000000000000000e+00,5.000000000000000000e+00,5.000000000000000000e+00,5.000000000000000000e+00,5.000000000000000000e+00,5.000000000000000000e+00,5.000000000000000000e+00,5.000000000000000000e+00,4.036712646484375000e+00,5.000000000000000000e+00,4.038811683654785156e+00,4.017638206481933594e+00,5.000000000000000000e+00,5.000000000000000000e+00,5.000000000000000000e+00,5.000000000000000000e+00,5.000000000000000000e+00,5.000000000000000000e+00,5.000000000000000000e+00,5.000000000000000000e+00,5.000000000000000000e+00,5.000000000000000000e+00,5.000000000000000000e+00,5.000000000000000000e+00,5.000000000000000000e+00,5.000000000000000000e+00,5.000000000000000000e+00,5.000000000000000000e+00,5.000000000000000000e+00,5.000000000000000000e+00,5.000000000000000000e+00,5.000000000000000000e+00
1.933170795440673828e+00,1.959867238998413086e+00,1.987311244010925293e+00,2.015534877777099609e+00,2.044571876525878906e+00,2.074457406997680664e+00,2.105229854583740234e+00,2.136928796768188477e+00,2.169597148895263672e+00,2.203279495239257812e+00,2.238024473190307617e+00,2.273882865905761719e+00,2.310908794403076172e+00,2.349160432815551758e+00,2.388700008392333984e+00,2.429593324661254883e+00,2.471910953521728516e+00,2.515728950500488281e+00,2.561128616333007812e+00,2.608196973800659180e+00,2.657027482986450195e+00,2.707721710205078125e+00,2.760387659072875977e+00,2.815142869949340820e+00,2.872114658355712891e+00,2.931440114974975586e+00,2.993267774581909180e+00,3.057759523391723633e+00,3.125091791152954102e+00,3.195456027984619141e+00,3.269061803817749023e+00,3.346138715744018555e+00,3.426937818527221680e+00,3.511735439300537109e+00,3.600836277008056641e+00,3.694576025009155273e+00,3.793327093124389648e+00,3.897501945495605469e+00,4.007559776306152344e+00,4.124014377593994141e+00,4.247439861297607422e+00,4.378480911254882812e+00,4.517865180969238281e+00,4.666415214538574219e+00,4.825066089630126953e+00,4.994884967803955078e+00,5.000000000000000000e+00,5.000000000000000000e+00,5.000000000000000000e+00,5.000000000000000000e+00,5.000000000000000000e+00,5.000000000000000000e+00,5.000000000000000000e+00,5.000000000000000000e+00,5.000000000000000000e+00,5.000000000000000000e+00,4.068265914916992188e+00,4.076920032501220703e+00,4.087746620178222656e+00,4.042705535888671875e+00,5.000000000000000000e+00,5.000000000000000000e+00,5.000000000000000000e+00,5.000000000000000000e+00,5.000000000000000000e+00,5.000000000000000000e+00,5.000000000000000000e+00,5.000000000000000000e+00,5.000000000000000000e+00,5.000000000000000000e+00,5.000000000000000000e+00,5.000000000000000000e+00,5.000000000000000000e+00,5.000000000000000000e+00,5.000000000000000000e+00,5.000000000000000000e+00,5.000000000000000000e+00,5.000000000000000000e+00,5.000000000000000000e+00,5.000000000000000000e+00
1.933142781257629395e+00,1.959838390350341797e+00,1.987281680107116699e+00,2.015504360198974609e+00,2.044540166854858398e+00,2.074424982070922852e+00,2.105196475982666016e+00,2.136894464492797852e+00,2.169561624526977539e+00,2.203243017196655273e+00,2.237986803054809570e+00,2.273843765258789062e+00,2.310868501663208008e+00,2.349118947982788086e+00,2.388657093048095703e+00,2.429548740386962891e+00,2.471864938735961914e+00,2.515681266784667969e+00,2.561079263687133789e+00,2.608145713806152344e+00,2.656974315643310547e+00,2.707666397094726562e+00,2.760330200195312500e+00,2.815083265304565430e+00,2.872052431106567383e+00,2.931375026702880859e+00,2.993199825286865234e+00,3.057688951492309570e+00,3.125017881393432617e+00,3.195379018783569336e+00,3.268981218338012695e+00,3.346054315567016602e+00,3.426849126815795898e+00,3.511642456054687500e+00,3.600738525390625000e+00,3.694473028182983398e+00,3.793218612670898438e+00,3.897387504577636719e+00,4.007438659667968750e+00,4.123886108398437500e+00,4.247303485870361328e+00,4.378336429595947266e+00,4.517710685729980469e+00,4.666250705718994141e+00,4.824890613555908203e+00,4.994696617126464844e+00,5.000000000000000000e+00,5.000000000000000000e+00,5.000000000000000000e+00,5.000000000000000000e+00,5.000000000000000000e+00,5.000000000000000000e+00,5.000000000000000000e+00,5.000000000000000000e+00,5.000000000000000000e+00,5.000000000000000000e+00,4.127617835998535156e+00,4.095775127410888672e+00,4.116286277770996094e+00,4.067697525024414062e+00,5.000000000000000000e+00,5.000000000000000000e+00,5.000000000000000000e+00,5.000000000000000000e+00,5.000000000000000000e+00,5.000000000000000000e+00,5.000000000000000000e+00,5.000000000000000000e+00,5.000000000000000000e+00,5.000000000000000000e+00,5.000000000000000000e+00,5.000000000000000000e+00,5.000000000000000000e+00,5.000000000000000000e+00,5.000000000000000000e+00,5.000000000000000000e+00,5.000000000000000000e+00,5.000000000000000000e+00,5.000000000000000000e+00,5.000000000000000000e+00
1.933114409446716309e+00,1.959809303283691406e+00,1.987251758575439453e+00,2.015473604202270508e+00,2.044508695602416992e+00,2.074392557144165039e+00,2.105163097381591797e+00,2.136859893798828125e+00,2.169526100158691406e+00,2.203206300735473633e+00,2.237948894500732422e+00,2.273804903030395508e+00,2.310828208923339844e+00,2.349077224731445312e+00,2.388613939285278320e+00,2.429504156112670898e+00,2.471818923950195312e+00,2.515633583068847656e+00,2.561029672622680664e+00,2.608094215393066406e+00,2.656921148300170898e+00,2.707611083984375000e+00,2.760272741317749023e+00,2.815023422241210938e+00,2.871990203857421875e+00,2.931310176849365234e+00,2.993132352828979492e+00,3.057618379592895508e+00,3.124944210052490234e+00,3.195301771163940430e+00,3.268900394439697266e+00,3.345969438552856445e+00,3.426760673522949219e+00,3.511549472808837891e+00,3.600640773773193359e+00,3.694370269775390625e+00,3.793110132217407227e+00,3.897272825241088867e+00,4.007317543029785156e+00,4.123758316040039062e+00,4.247167587280273438e+00,4.378191471099853516e+00,4.517557144165039062e+00,4.666086673736572266e+00,4.824714660644531250e+00,4.994508266448974609e+00,5.000000000000000000e+00,5.000000000000000000e+00,5.000000000000000000e+00,5.000000000000000000e+00,5.000000000000000000e+00,5.000000000000000000e+00,5.000000000000000000e+00,5.000000000000000000e+00,5.000000000000000000e+00,5.000000000000000000e+00,5.000000000000000000e+00,4.129596233367919922e+00,5.000000000000000000e+00,4.095587253570556641e+00,5.000000000000000000e+00,5.000000000000000000e+00,5.000000000000000000e+00,5.000000000000000000e+00,5.000000000000000000e+00,5.000000000000000000e+00,5.000000000000000000e+00,5.000000000000000000e+00,5.000000000000000000e+00,5.000000000000000000e+00,5.000000000000000000e+00,5.000000000000000000e+00,5.000000000000000000e+00,5.000000000000000000e+00,5.000000000000000000e+00,5.000000000000000000e+00,5.000000000000000000e+00,5.000000000000000000e+00,5.000000000000000000e+00,5.000000000000000000e+00
1.933086156845092773e+00,1.959780216217041016e+00,1.987221837043762207e+00,2.015442848205566406e+00,2.044477224349975586e+00,2.074360132217407227e+00,2.105129480361938477e+00,2.136825561523437500e+00,2.169490575790405273e+00,2.203169822692871094e+00,2.237911224365234375e+00,2.273765802383422852e+00,2.310787916183471680e+00,2.349035739898681641e+00,2.388571023941040039e+00,2.429459810256958008e+00,2.471772909164428711e+00,2.515585899353027344e+00,2.560980319976806641e+00,2.608042955398559570e+00,2.656867742538452148e+00,2.707555770874023438e+00,2.760215282440185547e+00,2.814963579177856445e+00,2.871927976608276367e+00,2.931245326995849609e+00,2.993064880371093750e+00,3.057547807693481445e+00,3.124870538711547852e+00,3.195224761962890625e+00,3.268819808959960938e+00,3.345885038375854492e+00,3.426671743392944336e+00,3.511456012725830078e+00,3.600542545318603516e+00,3.694266796112060547e+00,3.793001651763916016e+00,3.897158384323120117e+00,4.007196426391601562e+00,4.123630046844482422e+00,4.247031688690185547e+00,4.378046989440917969e+00,4.517403125762939453e+00,4.665922164916992188e+00,4.824539184570312500e+00,4.994319915771484375e+00,5.000000000000000000e+00,5.000000000000000000e+00,5.000000000000000000e+00,5.000000000000000000e+00,5.000000000000000000e+00,5.000000000000000000e+00,5.000000000000000000e+00,5.000000000000000000e+00,5.000000000000000000e+00,5.000000000000000000e+00,5.000000000000000000e+00,4.106146812438964844e+00,5.000000000000000000e+00,4.137344360351562500e+00,5.000000000000000000e+00,5.000000000000000000e+00,5.000000000000000000e+00,5.000000000000000000e+00,5.000000000000000000e+00,5.000000000000000000e+00,5.000000000000000000e+00,5.000000000000000000e+00,5.000000000000000000e+00,5.000000000000000000e+00,5.000000000000000000e+00,5.000000000000000000e+00,5.000000000000000000e+00,5.000000000000000000e+00,5.000000000000000000e+00,5.000000000000000000e+00,5.000000000000000000e+00,5.000000000000000000e+00,5.000000000000000000e+00,5.000000000000000000e+00
1.933058142662048340e+00,1.959751367568969727e+00,1.987192153930664062e+00,2.015412330627441406e+00,2.044445514678955078e+00,2.074327468872070312e+00,2.105096101760864258e+00,2.136791229248046875e+00,2.169455051422119141e+00,2.203133106231689453e+00,2.237873315811157227e+00,2.273726940155029297e+00,2.310747623443603516e+00,2.348994016647338867e+00,2.388527870178222656e+00,2.429415225982666016e+00,2.471726655960083008e+00,2.515538215637207031e+00,2.560930728912353516e+00,2.607991695404052734e+00,2.656814575195312500e+00,2.707500457763671875e+00,2.760157823562622070e+00,2.814903974533081055e+00,2.871865749359130859e+00,2.931180715560913086e+00,2.992997169494628906e+00,3.057477474212646484e+00,3.124796867370605469e+00,3.195147752761840820e+00,3.268739223480224609e+00,3.345800638198852539e+00,3.426583290100097656e+00,3.511363029479980469e+00,3.600444793701171875e+00,3.694164037704467773e+00,3.792892694473266602e+00,3.897043466567993164e+00,4.007075309753417969e+00,4.123501777648925781e+00,4.246895790100097656e+00,4.377902507781982422e+00,4.517249107360839844e+00,4.665758132934570312e+00,4.821117877960205078e+00,4.819931507110595703e+00,4.818746089935302734e+00,4.817561149597167969e+00,4.816376686096191406e+00,4.815192699432373047e+00,4.814009666442871094e+00,4.812827110290527344e+00,4.811645030975341797e+00,4.810463428497314453e+00,4.809282779693603516e+00,4.808102607727050781e+00,4.085698127746582031e+00,4.805743694305419922e+00,4.102794170379638672e+00,4.116042137145996094e+00,4.802209854125976562e+00,4.801032543182373047e+00,4.799856662750244141e+00,4.798680782318115234e+00,4.797505855560302734e+00,4.796330928802490234e+00,4.795157432556152344e+00,4.793983936309814453e+00,4.792810916900634766e+00,4.791638851165771484e+00,4.790467262268066406e+00,4.789296150207519531e+00,4.788125514984130859e+00,4.786955833435058594e+00,4.785786151885986328e+00,4.784617424011230469e+00,4.783449649810791016e+00,4.782281875610351562e+00,4.781114578247070312e+00,4.779948234558105469e+00
1.933029770851135254e+00,1.959722280502319336e+00,1.987162232398986816e+00,2.015381574630737305e+00,2.044414043426513672e+00,2.074295043945312500e+00,2.105062723159790039e+00,2.136756658554077148e+00,2.169419527053833008e+00,2.203096389770507812e+00,2.237835407257080078e+00,2.273687839508056641e+00,2.310707330703735352e+00,2.348952531814575195e+00,2.388484954833984375e+00,2.429370641708374023e+00,2.471680641174316406e+00,2.515490531921386719e+00,2.560881376266479492e+00,2.607940435409545898e+00,2.656761407852172852e+00,2.707445144653320312e+00,2.760100364685058594e+00,2.814844131469726562e+00,2.871803522109985352e+00,2.931115865707397461e+00,2.992929697036743164e+00,3.057406902313232422e+00,3.124723196029663086e+00,3.195070743560791016e+00,3.268658638000488281e+00,3.345716238021850586e+00,3.426494598388671875e+00,3.511270284652709961e+00,3.600347042083740234e+00,3.694061040878295898e+00,3.751426935195922852e+00,3.750708580017089844e+00,3.749990940093994141e+00,3.749273061752319336e+00,3.748555660247802734e+00,3.747838973999023438e+00,3.747122049331665039e+00,3.746405601501464844e+00,3.745689392089843750e+00,3.744973182678222656e+00,3.744257211685180664e+00,3.743542194366455078e+00,3.742826938629150391e+00,3.742111921310424805e+00,3.741397619247436523e+00,3.740683078765869141e+00,3.739968776702880859e+00,3.739254951477050781e+00,3.738541603088378906e+00,3.737828254699707031e+00,3.737115144729614258e+00,3.736402273178100586e+00,3.735690116882324219e+00,3.734977722167968750e+00,3.734265804290771484e+00,3.733554363250732422e+00,3.732842922210693359e+00,3.732131719589233398e+00,3.731420755386352539e+00,3.730710506439208984e+00,3.730000019073486328e+00,3.729290008544921875e+00,3.728580474853515625e+00,3.727870941162109375e+00,3.727161645889282227e+00,3.726452589035034180e+00,3.725744247436523438e+00,3.725035667419433594e+00,3.724327325820922852e+00,3.723619461059570312e+00,3.722912073135375977e+00,3.722204685211181641e+00,3.721497535705566406e+00,3.720790863037109375e+00
1.933001756668090820e+00,1.959693431854248047e+00,1.987132668495178223e+00,2.015351057052612305e+00,2.044382572174072266e+00,2.074262619018554688e+00,2.105029106140136719e+00,2.136722087860107422e+00,2.169384002685546875e+00,2.203059911727905273e+00,2.237797737121582031e+00,2.273648738861083984e+00,2.310667037963867188e+00,2.348910808563232422e+00,2.388441801071166992e+00,2.429326295852661133e+00,2.471634626388549805e+00,2.515442848205566406e+00,2.560832023620605469e+00,2.607889175415039062e+00,2.656708240509033203e+00,2.707389831542968750e+00,2.760042905807495117e+00,2.814784526824951172e+00,2.871741533279418945e+00,2.931051015853881836e+00,2.992862224578857422e+00,3.057336330413818359e+00,3.070218324661254883e+00,3.069737434387207031e+00,3.069256544113159180e+00,3.068775653839111328e+00,3.068295240402221680e+00,3.067814588546752930e+00,3.067334651947021484e+00,3.066854238510131836e+00,3.066374301910400391e+00,3.065894603729248047e+00,3.065414905548095703e+00,3.064935445785522461e+00,3.064455986022949219e+00,3.063977003097534180e+00,3.063497781753540039e+00,3.063018798828125000e+00,3.062540054321289062e+00,3.062061309814453125e+00,3.061583042144775391e+00,3.061104536056518555e+00,3.060626268386840820e+00,3.060148239135742188e+00,3.059670448303222656e+00,3.059192657470703125e+00,3.058714866638183594e+00,3.058237552642822266e+00,3.057760238647460938e+00,3.057282924652099609e+00,3.056805849075317383e+00,3.056329250335693359e+00,3.055852413177490234e+00,3.055375576019287109e+00,3.054899454116821289e+00,3.054423093795776367e+00,3.053946971893310547e+00,3.053470849990844727e+00,3.052995204925537109e+00,3.052519321441650391e+00,3.052043676376342773e+00,3.051568508148193359e+00,3.051093339920043945e+00,3.050618171691894531e+00,3.050143003463745117e+00,3.049668550491333008e+00,3.049193859100341797e+00,3.048719167709350586e+00,3.048244714736938477e+00,3.047770738601684570e+00,3.047296524047851562e+00,3.046822547912597656e+00,3.046349048614501953e+00,3.045875310897827148e+00
1.932973504066467285e+00,1.959664344787597656e+00,1.987102746963500977e+00,2.015320301055908203e+00,2.044351100921630859e+00,2.074230194091796875e+00,2.104995727539062500e+00,2.136687755584716797e+00,2.169348478317260742e+00,2.203023195266723633e+00,2.237760066986083984e+00,2.273609638214111328e+00,2.310626745223999023e+00,2.348869085311889648e+00,2.388398647308349609e+00,2.429281473159790039e+00,2.471588373184204102e+00,2.515394926071166992e+00,2.560782432556152344e+00,2.598731040954589844e+00,2.598386526107788086e+00,2.598042011260986328e+00,2.597697496414184570e+00,2.597353219985961914e+00,2.597008705139160156e+00,2.596664667129516602e+00,2.596320629119873047e+00,2.595976591110229492e+00,2.595632791519165039e+00,2.595288753509521484e+00,2.594945192337036133e+00,2.594601392745971680e+00,2.594258069992065430e+00,2.593914508819580078e+00,2.593570947647094727e+00,2.593227863311767578e+00,2.592884540557861328e+00,2.592541694641113281e+00,2.592198610305786133e+00,2.591855525970458984e+00,2.591512918472290039e+00,2.591170072555541992e+00,2.590827465057373047e+00,2.590484857559204102e+00,2.590142250061035156e+00,2.589800119400024414e+00,2.589457750320434570e+00,2.589115619659423828e+00,2.588773488998413086e+00,2.588431596755981445e+00,2.588089704513549805e+00,2.587747812271118164e+00,2.587406158447265625e+00,2.587064266204833984e+00,2.586722850799560547e+00,2.586381196975708008e+00,2.586040019989013672e+00,2.585698604583740234e+00,2.585357427597045898e+00,2.585016250610351562e+00,2.584675312042236328e+00,2.584334135055541992e+00,2.583993434906005859e+00,2.583652734756469727e+00,2.583312034606933594e+00,2.582971334457397461e+00,2.582630872726440430e+00,2.582290410995483398e+00,2.581950187683105469e+00,2.581609725952148438e+00,2.581269741058349609e+00,2.580929756164550781e+00,2.580589771270751953e+00,2.580249786376953125e+00,2.579910039901733398e+00,2.579570293426513672e+00,2.579230785369873047e+00,2.578891277313232422e+00,2.578551769256591797e+00,2.578212499618530273e+00
1.932945370674133301e+00,1.959635496139526367e+00,1.987073063850402832e+00,2.015289783477783203e+00,2.044319629669189453e+00,2.074197769165039062e+00,2.104962348937988281e+00,2.136653184890747070e+00,2.169312953948974609e+00,2.202986717224121094e+00,2.237722158432006836e+00,2.252517938613891602e+00,2.252259016036987305e+00,2.252000093460083008e+00,2.251741170883178711e+00,2.251482486724853516e+00,2.251223802566528320e+00,2.250965118408203125e+00,2.250706672668457031e+00,2.250447988510131836e+00,2.250189542770385742e+00,2.249931335449218750e+00,2.249672889709472656e+00,2.249414682388305664e+00,2.249156475067138672e+00,2.248898267745971680e+00,2.248640060424804688e+00,2.248382091522216797e+00,2.248124122619628906e+00,2.247866153717041016e+00,2.247608184814453125e+00,2.247350454330444336e+00,2.247092723846435547e+00,2.246834993362426758e+00,2.246577501296997070e+00,2.246320009231567383e+00,2.246062278747558594e+00,2.245804786682128906e+00,2.245547533035278320e+00,2.245290040969848633e+00,2.245033025741577148e+00,2.244775533676147461e+00,2.244518518447875977e+00,2.244261503219604492e+00,2.244004249572753906e+00,2.243747472763061523e+00,2.243490457534790039e+00,2.243233442306518555e+00,2.242976903915405273e+00,2.242719888687133789e+00,2.242463350296020508e+00,2.242206811904907227e+00,2.241950035095214844e+00,2.241693735122680664e+00,2.241437196731567383e+00,2.241180896759033203e+00,2.240924358367919922e+00,2.240668058395385742e+00,2.240411996841430664e+00,2.240155696868896484e+00,2.239899635314941406e+00,2.239643573760986328e+00,2.239387512207031250e+00,2.239131689071655273e+00,2.238875627517700195e+00,2.238619804382324219e+00,2.238364219665527344e+00,2.238108396530151367e+00,2.237852573394775391e+00,2.237597227096557617e+00,2.237341642379760742e+00,2.237086057662963867e+00,2.236830711364746094e+00,2.236575365066528320e+00,2.236320018768310547e+00,2.236064672470092773e+00,2.235809803009033203e+00,2.235554456710815430e+00,2.235299348831176758e+00,2.235044240951538086e+00
1.932917118072509766e+00,1.959606409072875977e+00,1.987043142318725586e+00,1.987707495689392090e+00,1.987506031990051270e+00,1.987304210662841797e+00,1.987102746963500977e+00,1.986901283264160156e+00,1.986699700355529785e+00,1.986498355865478516e+00,1.986297011375427246e+00,1.986095666885375977e+00,1.985894322395324707e+00,1.985693097114562988e+00,1.985491871833801270e+00,1.985290527343750000e+00,1.985089540481567383e+00,1.984888434410095215e+00,1.984687209129333496e+00,1.984486222267150879e+00,1.984285354614257812e+00,1.984084486961364746e+00,1.983883380889892578e+00,1.983682632446289062e+00,1.983481884002685547e+00,1.983280897140502930e+00,1.983080267906188965e+00,1.982879638671875000e+00,1.982678890228271484e+00,1.982478260993957520e+00,1.982277750968933105e+00,1.982077360153198242e+00,1.981876730918884277e+00,1.981676340103149414e+00,1.981475949287414551e+00,1.981275439262390137e+00,1.981075167655944824e+00,1.980874896049499512e+00,1.980674743652343750e+00,1.980474352836608887e+00,1.980274319648742676e+00,1.980074167251586914e+00,1.979873895645141602e+00,1.979673981666564941e+00,1.979474067687988281e+00,1.979273915290832520e+00,1.979074001312255859e+00,1.978874206542968750e+00,1.978674411773681641e+00,1.978474497795104980e+00,1.978274703025817871e+00,1.978075146675109863e+00,1.977875232696533203e+00,1.977675676345825195e+00,1.977476119995117188e+00,1.977276444435119629e+00,1.977076888084411621e+00,1.976877570152282715e+00,1.976678133010864258e+00,1.976478576660156250e+00,1.976279258728027344e+00,1.976080060005187988e+00,1.975880622863769531e+00,1.975681424140930176e+00,1.975481986999511719e+00,1.975282907485961914e+00,1.975083827972412109e+00,1.974884629249572754e+00,1.974685668945312500e+00,1.974486708641052246e+00,1.974287629127502441e+00,1.974088788032531738e+00,1.973889946937561035e+00,1.973690867424011230e+00,1.973492145538330078e+00,1.973293304443359375e+00,1.973094582557678223e+00,1.972895979881286621e+00,1.972697138786315918e+00,1.972498655319213867e+00
1.777803778648376465e+00,1.777642369270324707e+00,1.777481079101562500e+00,1.777319908142089844e+00,1.777158617973327637e+00,1.776997447013854980e+00,1.776836395263671875e+00,1.776675343513488770e+00,1.776514053344726562e+00,1.776353120803833008e+00,1.776192069053649902e+00,1.776031017303466797e+00,1.775870084762573242e+00,1.775709152221679688e+00,1.775548100471496582e+00,1.775387287139892578e+00,1.775226473808288574e+00,1.775065660476684570e+00,1.774904727935791016e+00,1.774744033813476562e+00,1.774583339691162109e+00,1.774422526359558105e+00,1.774261832237243652e+00,1.774101257324218750e+00,1.773940682411193848e+00,1.773779988288879395e+00,1.773619413375854492e+00,1.773458957672119141e+00,1.773298263549804688e+00,1.773137927055358887e+00,1.772977471351623535e+00,1.772816896438598633e+00,1.772656559944152832e+00,1.772496223449707031e+00,1.772336006164550781e+00,1.772175550460815430e+00,1.772015333175659180e+00,1.771855115890502930e+00,1.771694779396057129e+00,1.771534681320190430e+00,1.771374464035034180e+00,1.771214485168457031e+00,1.771054148674011230e+00,1.770894169807434082e+00,1.770734190940856934e+00,1.770573973655700684e+00,1.770414113998413086e+00,1.770254135131835938e+00,1.770094156265258789e+00,1.769934296607971191e+00,1.769774436950683594e+00,1.769614696502685547e+00,1.769454717636108398e+00,1.769294977188110352e+00,1.769135236740112305e+00,1.768975377082824707e+00,1.768815755844116211e+00,1.768656134605407715e+00,1.768496394157409668e+00,1.768336772918701172e+00,1.768177270889282227e+00,1.768017768859863281e+00,1.767858147621154785e+00,1.767698645591735840e+00,1.767539262771606445e+00,1.767379641532897949e+00,1.767220258712768555e+00,1.767060995101928711e+00,1.766901493072509766e+00,1.766742229461669922e+00,1.766582846641540527e+00,1.766423583030700684e+00,1.766264438629150391e+00,1.766105055809020996e+00,1.765945911407470703e+00,1.765786767005920410e+00,1.765627622604370117e+00,1.765468597412109375e+00,1.765309572219848633e+00,1.765150427818298340e+00
1.607601881027221680e+00,1.607469916343688965e+00,1.607338070869445801e+00,1.607206225395202637e+00,1.607074260711669922e+00,1.606942534446716309e+00,1.606810808181762695e+00,1.606678962707519531e+00,1.606547236442565918e+00,1.606415510177612305e+00,1.606283903121948242e+00,1.606152176856994629e+00,1.606020569801330566e+00,1.605888962745666504e+00,1.605757236480712891e+00,1.605625629425048828e+00,1.605494141578674316e+00,1.605362534523010254e+00,1.605231046676635742e+00,1.605099558830261230e+00,1.604968070983886719e+00,1.604836583137512207e+00,1.604705095291137695e+00,1.604573726654052734e+00,1.604442238807678223e+00,1.604310870170593262e+00,1.604179620742797852e+00,1.604048371315002441e+00,1.603916883468627930e+00,1.603785634040832520e+00,1.603654384613037109e+00,1.603523135185241699e+00,1.603391885757446289e+00,1.603260755538940430e+00,1.603129506111145020e+00,1.602998375892639160e+00,1.602867245674133301e+00,1.602736115455627441e+00,1.602604985237121582e+00,1.602473974227905273e+00,1.602342963218688965e+00,1.602211833000183105e+00,1.602080821990966797e+00,1.601949930191040039e+00,1.601818799972534180e+00,1.601687908172607422e+00,1.601557016372680664e+00,1.601426124572753906e+00,1.601295232772827148e+00,1.601164340972900391e+00,1.601033568382263184e+00,1.600902676582336426e+00,1.600771903991699219e+00,1.600641131401062012e+00,1.600510478019714355e+00,1.600379586219787598e+00,1.600248932838439941e+00,1.600118279457092285e+00,1.599987506866455078e+00,1.599856853485107422e+00,1.599726319313049316e+00,1.599595546722412109e+00,1.599465012550354004e+00,1.599334597587585449e+00,1.599204063415527344e+00,1.599073410034179688e+00,1.598942995071411133e+00,1.598812580108642578e+00,1.598681926727294922e+00,1.598551630973815918e+00,1.598421216011047363e+00,1.598290681838989258e+00,1.598160386085510254e+00,1.598029971122741699e+00,1.597899675369262695e+00,1.597769379615783691e+00,1.597638964653015137e+00,1.597508788108825684e+00,1.597378611564636230e+00,1.597248315811157227e+00
1.467141747474670410e+00,1.467031955718994141e+00,1.466922163963317871e+00,1.466812372207641602e+00,1.466702461242675781e+00,1.466592669486999512e+00,1.466482996940612793e+00,1.466373085975646973e+00,1.466263413429260254e+00,1.466153740882873535e+00,1.466043949127197266e+00,1.465934276580810547e+00,1.465824604034423828e+00,1.465715050697326660e+00,1.465605258941650391e+00,1.465495705604553223e+00,1.465386152267456055e+00,1.465276479721069336e+00,1.465166926383972168e+00,1.465057373046875000e+00,1.464947700500488281e+00,1.464838266372680664e+00,1.464728832244873047e+00,1.464619398117065430e+00,1.464509725570678711e+00,1.464400291442871094e+00,1.464290976524353027e+00,1.464181423187255859e+00,1.464071989059448242e+00,1.463962674140930176e+00,1.463853240013122559e+00,1.463743925094604492e+00,1.463634610176086426e+00,1.463525295257568359e+00,1.463415861129760742e+00,1.463306665420532227e+00,1.463197350502014160e+00,1.463088035583496094e+00,1.462978839874267578e+00,1.462869644165039062e+00,1.462760448455810547e+00,1.462651133537292480e+00,1.462542057037353516e+00,1.462432861328125000e+00,1.462323665618896484e+00,1.462214589118957520e+00,1.462105512619018555e+00,1.461996316909790039e+00,1.461887240409851074e+00,1.461778283119201660e+00,1.461669206619262695e+00,1.461560130119323730e+00,1.461451172828674316e+00,1.461342096328735352e+00,1.461233019828796387e+00,1.461124181747436523e+00,1.461015224456787109e+00,1.460906267166137695e+00,1.460797309875488281e+00,1.460688471794128418e+00,1.460579633712768555e+00,1.460470676422119141e+00,1.460361838340759277e+00,1.460253000259399414e+00,1.460144042968750000e+00,1.460035324096679688e+00,1.459926605224609375e+00,1.459817886352539062e+00,1.459708929061889648e+00,1.459600329399108887e+00,1.459491610527038574e+00,1.459382772445678711e+00,1.459274172782897949e+00,1.459165453910827637e+00,1.459056735038757324e+00,1.458948135375976562e+00,1.458839535713195801e+00,1.458730816841125488e+00,1.458622217178344727e+00,1.458513617515563965e+00
1.349254131317138672e+00,1.349161267280578613e+00,1.349068403244018555e+00,1.348975419998168945e+00,1.348882675170898438e+00,1.348789811134338379e+00,1.348696827888488770e+00,1.348604083061218262e+00,1.348511338233947754e+00,1.348418474197387695e+00,1.348325610160827637e+00,1.348232865333557129e+00,1.348140120506286621e+00,1.348047375679016113e+00,1.347954630851745605e+00,1.347861886024475098e+00,1.347769260406494141e+00,1.347676396369934082e+00,1.347583770751953125e+00,1.347491145133972168e+00,1.347398400306701660e+00,1.347305774688720703e+00,1.347213149070739746e+00,1.347120523452758789e+00,1.347027897834777832e+00,1.346935391426086426e+00,1.346842765808105469e+00,1.346750140190124512e+00,1.346657633781433105e+00,1.346565127372741699e+00,1.346472501754760742e+00,1.346379995346069336e+00,1.346287488937377930e+00,1.346194982528686523e+00,1.346102476119995117e+00,1.346009969711303711e+00,1.345917582511901855e+00,1.345825076103210449e+00,1.345732688903808594e+00,1.345640301704406738e+00,1.345547795295715332e+00,1.345455408096313477e+00,1.345363020896911621e+00,1.345270633697509766e+00,1.345178246498107910e+00,1.345085978507995605e+00,1.344993591308593750e+00,1.344901204109191895e+00,1.344808936119079590e+00,1.344716668128967285e+00,1.344624280929565430e+00,1.344532132148742676e+00,1.344439864158630371e+00,1.344347596168518066e+00,1.344255328178405762e+00,1.344163179397583008e+00,1.344070911407470703e+00,1.343978643417358398e+00,1.343886494636535645e+00,1.343794345855712891e+00,1.343702197074890137e+00,1.343610048294067383e+00,1.343517899513244629e+00,1.343425869941711426e+00,1.343333601951599121e+00,1.343241572380065918e+00,1.343149542808532715e+00,1.343057394027709961e+00,1.342965364456176758e+00,1.342873334884643555e+00,1.342781305313110352e+00,1.342689275741577148e+00,1.342597246170043945e+00,1.342505335807800293e+00,1.342413187026977539e+00,1.342321276664733887e+00,1.342229366302490234e+00,1.342137336730957031e+00,1.342045426368713379e+00,1.341953516006469727e+00
1.248902559280395508e+00,1.248822927474975586e+00,1.248743414878845215e+00,1.248663783073425293e+00,1.248584270477294922e+00,1.248504638671875000e+00,1.248425006866455078e+00,1.248345494270324707e+00,1.248265981674194336e+00,1.248186469078063965e+00,1.248106956481933594e+00,1.248027443885803223e+00,1.247948050498962402e+00,1.247868537902832031e+00,1.247789025306701660e+00,1.247709631919860840e+00,1.247630119323730469e+00,1.247550606727600098e+00,1.247471213340759277e+00,1.247391819953918457e+00,1.247312426567077637e+00,1.247233033180236816e+00,1.247153639793395996e+00,1.247074246406555176e+00,1.246994853019714355e+00,1.246915578842163086e+00,1.246836066246032715e+00,1.246756792068481445e+00,1.246677517890930176e+00,1.246598243713378906e+00,1.246518850326538086e+00,1.246439576148986816e+00,1.246360301971435547e+00,1.246280908584594727e+00,1.246201753616333008e+00,1.246122479438781738e+00,1.246043205261230469e+00,1.245963931083679199e+00,1.245884776115417480e+00,1.245805501937866211e+00,1.245726227760314941e+00,1.245647072792053223e+00,1.245567917823791504e+00,1.245488643646240234e+00,1.245409607887268066e+00,1.245330452919006348e+00,1.245251297950744629e+00,1.245172142982482910e+00,1.245092988014221191e+00,1.245013952255249023e+00,1.244934678077697754e+00,1.244855642318725586e+00,1.244776606559753418e+00,1.244697451591491699e+00,1.244618415832519531e+00,1.244539380073547363e+00,1.244460344314575195e+00,1.244381308555603027e+00,1.244302272796630859e+00,1.244223237037658691e+00,1.244144201278686523e+00,1.244065165519714355e+00,1.243986248970031738e+00,1.243907213211059570e+00,1.243828296661376953e+00,1.243749380111694336e+00,1.243670463562011719e+00,1.243591427803039551e+00,1.243512511253356934e+00,1.243433594703674316e+00,1.243354678153991699e+00,1.243275761604309082e+00,1.243196964263916016e+00,1.243118047714233398e+00,1.243039131164550781e+00,1.242960333824157715e+00,1.242881536483764648e+00,1.242802619934082031e+00,1.242723822593688965e+00,1.242645025253295898e+00
1.162444949150085449e+00,1.162376046180725098e+00,1.162307024002075195e+00,1.162238121032714844e+00,1.162169218063354492e+00,1.162100315093994141e+00,1.162031292915344238e+00,1.161962389945983887e+00,1.161893486976623535e+00,1.161824584007263184e+00,1.161755681037902832e+00,1.161686897277832031e+00,1.161617875099182129e+00,1.161549091339111328e+00,1.161480307579040527e+00,1.161411404609680176e+00,1.161342501640319824e+00,1.161273717880249023e+00,1.161204934120178223e+00,1.161136031150817871e+00,1.161067247390747070e+00,1.160998463630676270e+00,1.160929679870605469e+00,1.160860896110534668e+00,1.160792112350463867e+00,1.160723328590393066e+00,1.160654544830322266e+00,1.160585880279541016e+00,1.160517096519470215e+00,1.160448312759399414e+00,1.160379648208618164e+00,1.160310864448547363e+00,1.160242199897766113e+00,1.160173416137695312e+00,1.160104751586914062e+00,1.160036087036132812e+00,1.159967422485351562e+00,1.159898757934570312e+00,1.159830093383789062e+00,1.159761428833007812e+00,1.159692764282226562e+00,1.159624099731445312e+00,1.159555554389953613e+00,1.159486889839172363e+00,1.159418225288391113e+00,1.159349679946899414e+00,1.159281015396118164e+00,1.159212470054626465e+00,1.159143924713134766e+00,1.159075379371643066e+00,1.159006714820861816e+00,1.158938169479370117e+00,1.158869624137878418e+00,1.158801078796386719e+00,1.158732533454895020e+00,1.158664107322692871e+00,1.158595442771911621e+00,1.158527016639709473e+00,1.158458471298217773e+00,1.158390045166015625e+00,1.158321499824523926e+00,1.158253073692321777e+00,1.158184647560119629e+00,1.158116102218627930e+00,1.158047676086425781e+00,1.157979249954223633e+00,1.157910823822021484e+00,1.157842397689819336e+00,1.157773971557617188e+00,1.157705664634704590e+00,1.157637119293212891e+00,1.157568812370300293e+00,1.157500386238098145e+00,1.157431960105895996e+00,1.157363653182983398e+00,1.157295346260070801e+00,1.157226920127868652e+00,1.157158613204956055e+00,1.157090306282043457e+00,1.157021880149841309e+00
1.087182760238647461e+00,1.087122440338134766e+00,1.087062120437622070e+00,1.087001800537109375e+00,1.086941480636596680e+00,1.086881160736083984e+00,1.086820840835571289e+00,1.086760640144348145e+00,1.086700320243835449e+00,1.086640000343322754e+00,1.086579799652099609e+00,1.086519598960876465e+00,1.086459279060363770e+00,1.086399078369140625e+00,1.086338877677917480e+00,1.086278557777404785e+00,1.086218357086181641e+00,1.086158156394958496e+00,1.086097955703735352e+00,1.086037755012512207e+00,1.085977554321289062e+00,1.085917353630065918e+00,1.085857152938842773e+00,1.085796952247619629e+00,1.085736870765686035e+00,1.085676670074462891e+00,1.085616469383239746e+00,1.085556387901306152e+00,1.085496306419372559e+00,1.085436105728149414e+00,1.085375905036926270e+00,1.085315823554992676e+00,1.085255742073059082e+00,1.085195660591125488e+00,1.085135579109191895e+00,1.085075497627258301e+00,1.085015296936035156e+00,1.084955215454101562e+00,1.084895253181457520e+00,1.084835052490234375e+00,1.084775090217590332e+00,1.084715008735656738e+00,1.084654927253723145e+00,1.084594845771789551e+00,1.084534883499145508e+00,1.084474802017211914e+00,1.084414720535278320e+00,1.084354758262634277e+00,1.084294795989990234e+00,1.084234714508056641e+00,1.084174752235412598e+00,1.084114789962768555e+00,1.084054708480834961e+00,1.083994865417480469e+00,1.083934903144836426e+00,1.083874940872192383e+00,1.083814859390258789e+00,1.083755016326904297e+00,1.083695054054260254e+00,1.083635091781616211e+00,1.083575129508972168e+00,1.083515286445617676e+00,1.083455324172973633e+00,1.083395361900329590e+00,1.083335518836975098e+00,1.083275675773620605e+00,1.083215713500976562e+00,1.083155870437622070e+00,1.083096027374267578e+00,1.083036065101623535e+00,1.082976222038269043e+00,1.082916378974914551e+00,1.082856535911560059e+00,1.082796692848205566e+00,1.082736849784851074e+00,1.082677006721496582e+00,1.082617163658142090e+00,1.082557320594787598e+00,1.082497596740722656e+00,1.082437753677368164e+00
1.021073579788208008e+00,1.021020293235778809e+00,1.020967125892639160e+00,1.020913958549499512e+00,1.020860791206359863e+00,1.020807504653930664e+00,1.020754337310791016e+00,1.020701169967651367e+00,1.020648002624511719e+00,1.020594835281372070e+00,1.020541667938232422e+00,1.020488619804382324e+00,1.020435333251953125e+00,1.020382285118103027e+00,1.020329117774963379e+00,1.020275950431823730e+00,1.020222902297973633e+00,1.020169734954833984e+00,1.020116567611694336e+00,1.020063519477844238e+00,1.020010471343994141e+00,1.019957304000854492e+00,1.019904255867004395e+00,1.019851088523864746e+00,1.019798040390014648e+00,1.019744992256164551e+00,1.019691944122314453e+00,1.019638895988464355e+00,1.019585728645324707e+00,1.019532680511474609e+00,1.019479632377624512e+00,1.019426703453063965e+00,1.019373536109924316e+00,1.019320607185363770e+00,1.019267559051513672e+00,1.019214510917663574e+00,1.019161462783813477e+00,1.019108533859252930e+00,1.019055485725402832e+00,1.019002437591552734e+00,1.018949508666992188e+00,1.018896460533142090e+00,1.018843531608581543e+00,1.018790483474731445e+00,1.018737554550170898e+00,1.018684506416320801e+00,1.018631577491760254e+00,1.018578648567199707e+00,1.018525719642639160e+00,1.018472790718078613e+00,1.018419861793518066e+00,1.018366932868957520e+00,1.018314003944396973e+00,1.018261075019836426e+00,1.018208146095275879e+00,1.018155217170715332e+00,1.018102288246154785e+00,1.018049478530883789e+00,1.017996549606323242e+00,1.017943620681762695e+00,1.017890810966491699e+00,1.017837882041931152e+00,1.017784953117370605e+00,1.017732143402099609e+00,1.017679333686828613e+00,1.017626404762268066e+00,1.017573595046997070e+00,1.017520666122436523e+00,1.017467856407165527e+00,1.017415046691894531e+00,1.017362236976623535e+00,1.017309427261352539e+00,1.017256498336791992e+00,1.017203688621520996e+00,1.017150998115539551e+00,1.017098188400268555e+00,1.017045378684997559e+00,1.016992568969726562e+00,1.016939759254455566e+00,1.016886949539184570e+00
9.625435471534729004e-01,9.624961614608764648e-01,9.624488949775695801e-01,9.624015688896179199e-01,9.623543620109558105e-01,9.623070955276489258e-01,9.622598290443420410e-01,9.622126221656799316e-01,9.621652364730834961e-01,9.621180295944213867e-01,9.620708227157592773e-01,9.620236158370971680e-01,9.619763493537902832e-01,9.619291424751281738e-01,9.618818163871765137e-01,9.618346095085144043e-01,9.617874622344970703e-01,9.617402553558349609e-01,9.616930484771728516e-01,9.616459012031555176e-01,9.615986943244934082e-01,9.615514278411865234e-01,9.615042209625244141e-01,9.614570736885070801e-01,9.614099264144897461e-01,9.613627791404724121e-01,9.613155722618103027e-01,9.612684845924377441e-01,9.612212181091308594e-01,9.611740708351135254e-01,9.611269235610961914e-01,9.610797762870788574e-01,9.610326886177062988e-01,9.609855413436889648e-01,9.609384536743164062e-01,9.608911871910095215e-01,9.608440995216369629e-01,9.607970118522644043e-01,9.607499241828918457e-01,9.607028365135192871e-01,9.606557488441467285e-01,9.606086611747741699e-01,9.605614542961120605e-01,9.605143666267395020e-01,9.604673385620117188e-01,9.604202508926391602e-01,9.603731632232666016e-01,9.603261351585388184e-01,9.602789878845214844e-01,9.602319002151489258e-01,9.601848721504211426e-01,9.601378440856933594e-01,9.600908160209655762e-01,9.600437879562377930e-01,9.599967598915100098e-01,9.599496126174926758e-01,9.599026441574096680e-01,9.598556160926818848e-01,9.598085880279541016e-01,9.597616195678710938e-01,9.597145915031433105e-01,9.596676230430603027e-01,9.596205353736877441e-01,9.595735669136047363e-01,9.595265388488769531e-01,9.594795703887939453e-01,9.594326019287109375e-01,9.593856334686279297e-01,9.593386650085449219e-01,9.592916369438171387e-01,9.592446684837341309e-01,9.591977596282958984e-01,9.591507911682128906e-01,9.591038227081298828e-01,9.590569138526916504e-01,9.590098857879638672e-01,9.589629769325256348e-01,9.589160680770874023e-01,9.588690996170043945e-01,9.588221907615661621e-01
9.103597402572631836e-01,9.103173613548278809e-01,9.102750420570373535e-01,9.102327823638916016e-01,9.101905226707458496e-01,9.101482629776000977e-01,9.101060032844543457e-01,9.100636243820190430e-01,9.100213646888732910e-01,9.099791049957275391e-01,9.099369049072265625e-01,9.098946452140808105e-01,9.098523855209350586e-01,9.098101854324340820e-01,9.097678065299987793e-01,9.097256064414978027e-01,9.096834063529968262e-01,9.096411466598510742e-01,9.095989465713500977e-01,9.095567464828491211e-01,9.095145463943481445e-01,9.094722270965576172e-01,9.094300270080566406e-01,9.093878269195556641e-01,9.093456268310546875e-01,9.093034267425537109e-01,9.092612862586975098e-01,9.092190861701965332e-01,9.091768264770507812e-01,9.091346263885498047e-01,9.090924859046936035e-01,9.090502858161926270e-01,9.090081453323364258e-01,9.089660048484802246e-01,9.089237451553344727e-01,9.088816046714782715e-01,9.088394641876220703e-01,9.087973237037658691e-01,9.087551832199096680e-01,9.087130427360534668e-01,9.086709022521972656e-01,9.086286425590515137e-01,9.085865616798400879e-01,9.085444211959838867e-01,9.085023403167724609e-01,9.084601998329162598e-01,9.084181189537048340e-01,9.083759784698486328e-01,9.083338379859924316e-01,9.082916975021362305e-01,9.082496166229248047e-01,9.082075357437133789e-01,9.081654548645019531e-01,9.081233739852905273e-01,9.080812931060791016e-01,9.080391526222229004e-01,9.079970717430114746e-01,9.079549908638000488e-01,9.079129695892333984e-01,9.078708887100219727e-01,9.078288674354553223e-01,9.077866673469543457e-01,9.077446460723876953e-01,9.077026247978210449e-01,9.076605439186096191e-01,9.076185226440429688e-01,9.075765013694763184e-01,9.075344800949096680e-01,9.074923992156982422e-01,9.074503779411315918e-01,9.074083566665649414e-01,9.073663353919982910e-01,9.073243141174316406e-01,9.072823524475097656e-01,9.072403311729431152e-01,9.071982502937316895e-01,9.071562290191650391e-01,9.071142673492431641e-01,9.070723056793212891e-01,9.070302844047546387e-01
