5.000000000000000000e+00,5.000000000000000000e+00,5.000000000000000000e+00,5.000000000000000000e+00,5.000000000000000000e+00,5.000000000000000000e+00,5.000000000000000000e+00,5.000000000000000000e+00,5.000000000000000000e+00,5.000000000000000000e+00,5.000000000000000000e+00,5.000000000000000000e+00,5.000000000000000000e+00,5.000000000000000000e+00,5.000000000000000000e+00,5.000000000000000000e+00,5.000000000000000000e+00,5.000000000000000000e+00,5.000000000000000000e+00,5.000000000000000000e+00,5.000000000000000000e+00,5.000000000000000000e+00,5.000000000000000000e+00,5.000000000000000000e+00,5.000000000000000000e+00,5.000000000000000000e+00,5.000000000000000000e+00,5.000000000000000000e+00,5.000000000000000000e+00,5.000000000000000000e+00,5.000000000000000000e+00,5.000000000000000000e+00,5.000000000000000000e+00,5.000000000000000000e+00,5.000000000000000000e+00,5.000000000000000000e+00,5.000000000000000000e+00,5.000000000000000000e+00,5.000000000000000000e+00,5.000000000000000000e+00,5.000000000000000000e+00,5.000000000000000000e+00,5.000000000000000000e+00,5.000000000000000000e+00,5.000000000000000000e+00,5.000000000000000000e+00,5.000000000000000000e+00,5.000000000000000000e+00,5.000000000000000000e+00,5.000000000000000000e+00,5.000000000000000000e+00,5.000000000000000000e+00,5.000000000000000000e+00,5.000000000000000000e+00,4.539443492889404297e+00,4.404202461242675781e+00,4.276787281036376953e+00,4.156536102294921875e+00,4.042862892150878906e+00,3.935241699218750000e+00,3.833201646804809570e+00,3.736319541931152344e+00,3.644213914871215820e+00,3.556540012359619141e+00,3.472985744476318359e+00,3.393267154693603516e+00,3.317126512527465820e+00,3.244327545166015625e+00,3.174655437469482422e+00,3.107912540435791016e+00,3.043918609619140625e+00,2.982506752014160156e+00,2.923523902893066406e+00,2.866828680038452148e+00,2.812290668487548828e+00,2.759788751602172852e+00,2.709211349487304688e+00,2.660454273223876953e+00,2.613423585891723633e+00,2.568030357360839844e+00
5.000000000000000000e+00,5.000000000000000000e+00,5.000000000000000000e+00,5.000000000000000000e+00,5.000000000000000000e+00,5.000000000000000000e+00,5.000000000000000000e+00,5.000000000000000000e+00,5.000000000000000000e+00,5.000000000000000000e+00,5.000000000000000000e+00,5.000000000000000000e+00,5.000000000000000000e+00,5.000000000000000000e+00,5.000000000000000000e+00,5.000000000000000000e+00,5.000000000000000000e+00,5.000000000000000000e+00,5.000000000000000000e+00,5.000000000000000000e+00,5.000000000000000000e+00,5.000000000000000000e+00,5.000000000000000000e+00,5.000000000000000000e+00,5.000000000000000000e+00,5.000000000000000000e+00,5.000000000000000000e+00,5.000000000000000000e+00,5.000000000000000000e+00,5.000000000000000000e+00,5.000000000000000000e+00,5.000000000000000000e+00,5.000000000000000000e+00,5.000000000000000000e+00,5.000000000000000000e+00,5.000000000000000000e+00,5.000000000000000000e+00,5.000000000000000000e+00,5.000000000000000000e+00,5.000000000000000000e+00,5.000000000000000000e+00,5.000000000000000000e+00,5.000000000000000000e+00,5.000000000000000000e+00,5.000000000000000000e+00,5.000000000000000000e+00,5.000000000000000000e+00,5.000000000000000000e+00,5.000000000000000000e+00,5.000000000000000000e+00,5.000000000000000000e+00,5.000000000000000000e+00,5.000000000000000000e+00,4.683363914489746094e+00,4.539547443389892578e+00,4.404300689697265625e+00,4.276879310607910156e+00,4.156623363494873047e+00,4.042945384979248047e+00,3.935320138931274414e+00,3.833275556564331055e+00,3.736389875411987305e+00,3.644280910491943359e+00,3.556603908538818359e+00,3.473046779632568359e+00,3.393325567245483398e+00,3.317182302474975586e+00,3.244380474090576172e+00,3.174706220626831055e+00,3.107961416244506836e+00,3.043965578079223633e+00,2.982551813125610352e+00,2.923567056655883789e+00,2.866870164871215820e+00,2.812330484390258789e+00,2.759831190109252930e+00,2.709258794784545898e+00,2.660506486892700195e+00,2.613477706909179688e+00,2.568082571029663086e+00
5.000000000000000000e+00,5.000000000000000000e+00,5.000000000000000000e+00,5.000000000000000000e+00,5.000000000000000000e+00,5.000000000000000000e+00,5.000000000000000000e+00,5.000000000000000000e+00,5.000000000000000000e+00,5.000000000000000000e+00,5.000000000000000000e+00,5.000000000000000000e+00,5.000000000000000000e+00,5.000000000000000000e+00,5.000000000000000000e+00,5.000000000000000000e+00,5.000000000000000000e+00,5.000000000000000000e+00,5.000000000000000000e+00,5.000000000000000000e+00,5.000000000000000000e+00,5.000000000000000000e+00,5.000000000000000000e+00,5.000000000000000000e+00,5.000000000000000000e+00,5.000000000000000000e+00,5.000000000000000000e+00,5.000000000000000000e+00,5.000000000000000000e+00,5.000000000000000000e+00,5.000000000000000000e+00,5.000000000000000000e+00,5.000000000000000000e+00,5.000000000000000000e+00,5.000000000000000000e+00,5.000000000000000000e+00,5.000000000000000000e+00,5.000000000000000000e+00,5.000000000000000000e+00,5.000000000000000000e+00,5.000000000000000000e+00,5.000000000000000000e+00,5.000000000000000000e+00,5.000000000000000000e+00,5.000000000000000000e+00,5.000000000000000000e+00,5.000000000000000000e+00,5.000000000000000000e+00,5.000000000000000000e+00,5.000000000000000000e+00,5.000000000000000000e+00,5.000000000000000000e+00,4.836709022521972656e+00,4.683475017547607422e+00,4.539651393890380859e+00,4.404398441314697266e+00,4.276971817016601562e+00,4.156711101531982422e+00,4.043027877807617188e+00,3.935398101806640625e+00,3.833349943161010742e+00,3.736460447311401367e+00,3.644348144531250000e+00,3.556668043136596680e+00,3.473107576370239258e+00,3.393383502960205078e+00,3.317237615585327148e+00,3.244433879852294922e+00,3.174757242202758789e+00,3.108010292053222656e+00,3.044012069702148438e+00,2.982596635818481445e+00,2.923616170883178711e+00,2.866924762725830078e+00,2.812390089035034180e+00,2.759891510009765625e+00,2.709316968917846680e+00,2.660562515258789062e+00,2.613531827926635742e+00,2.568135023117065430e+00
5.000000000000000000e+00,5.000000000000000000e+00,5.000000000000000000e+00,5.000000000000000000e+00,5.000000000000000000e+00,5.000000000000000000e+00,5.000000000000000000e+00,5.000000000000000000e+00,5.000000000000000000e+00,5.000000000000000000e+00,5.000000000000000000e+00,5.000000000000000000e+00,5.000000000000000000e+00,5.000000000000000000e+00,5.000000000000000000e+00,5.000000000000000000e+00,5.000000000000000000e+00,5.000000000000000000e+00,5.000000000000000000e+00,5.000000000000000000e+00,5.000000000000000000e+00,5.000000000000000000e+00,5.000000000000000000e+00,5.000000000000000000e+00,5.000000000000000000e+00,5.000000000000000000e+00,5.000000000000000000e+00,5.000000000000000000e+00,5.000000000000000000e+00,5.000000000000000000e+00,5.000000000000000000e+00,5.000000000000000000e+00,5.000000000000000000e+00,5.000000000000000000e+00,5.000000000000000000e+00,5.000000000000000000e+00,5.000000000000000000e+00,5.000000000000000000e+00,5.000000000000000000e+00,5.000000000000000000e+00,5.000000000000000000e+00,5.000000000000000000e+00,5.000000000000000000e+00,5.000000000000000000e+00,5.000000000000000000e+00,5.000000000000000000e+00,5.000000000000000000e+00,5.000000000000000000e+00,5.000000000000000000e+00,5.000000000000000000e+00,5.000000000000000000e+00,5.000000000000000000e+00,4.836827278137207031e+00,4.683585643768310547e+00,4.539755821228027344e+00,4.404496669769287109e+00,4.277064323425292969e+00,4.156798362731933594e+00,4.043110847473144531e+00,3.935476541519165039e+00,3.833424568176269531e+00,3.736530780792236328e+00,3.644415140151977539e+00,3.556731700897216797e+00,3.473168611526489258e+00,3.393441915512084961e+00,3.317293405532836914e+00,3.244487285614013672e+00,3.174808025360107422e+00,3.108067750930786133e+00,3.044075727462768555e+00,2.982665538787841797e+00,2.923683881759643555e+00,2.866989850997924805e+00,2.812452793121337891e+00,2.759951829910278320e+00,2.709375143051147461e+00,2.660618543624877930e+00,2.613585948944091797e+00,2.568183422088623047e+00
5.000000000000000000e+00,5.000000000000000000e+00,5.000000000000000000e+00,5.000000000000000000e+00,5.000000000000000000e+00,5.000000000000000000e+00,5.000000000000000000e+00,5.000000000000000000e+00,5.000000000000000000e+00,5.000000000000000000e+00,5.000000000000000000e+00,5.000000000000000000e+00,5.000000000000000000e+00,5.000000000000000000e+00,5.000000000000000000e+00,5.000000000000000000e+00,5.000000000000000000e+00,5.000000000000000000e+00,5.000000000000000000e+00,5.000000000000000000e+00,5.000000000000000000e+00,5.000000000000000000e+00,5.000000000000000000e+00,5.000000000000000000e+00,5.000000000000000000e+00,5.000000000000000000e+00,5.000000000000000000e+00,5.000000000000000000e+00,5.000000000000000000e+00,5.000000000000000000e+00,5.000000000000000000e+00,5.000000000000000000e+00,5.000000000000000000e+00,5.000000000000000000e+00,5.000000000000000000e+00,5.000000000000000000e+00,5.000000000000000000e+00,5.000000000000000000e+00,5.000000000000000000e+00,5.000000000000000000e+00,5.000000000000000000e+00,5.000000000000000000e+00,5.000000000000000000e+00,5.000000000000000000e+00,5.000000000000000000e+00,5.000000000000000000e+00,5.000000000000000000e+00,5.000000000000000000e+00,5.000000000000000000e+00,5.000000000000000000e+00,5.000000000000000000e+00,5.000000000000000000e+00,4.836945533752441406e+00,4.683696269989013672e+00,4.539860248565673828e+00,4.404594898223876953e+00,4.277156829833984375e+00,4.156885623931884766e+00,4.043193340301513672e+00,3.935554742813110352e+00,3.833498477935791016e+00,3.736601591110229492e+00,3.644482374191284180e+00,3.556795835494995117e+00,3.473229885101318359e+00,3.393501996994018555e+00,3.317360639572143555e+00,3.244560956954956055e+00,3.174887895584106445e+00,3.108144283294677734e+00,3.044149160385131836e+00,2.982736110687255859e+00,2.923751831054687500e+00,2.867055177688598633e+00,2.812515497207641602e+00,2.760012149810791016e+00,2.709428071975708008e+00,2.660663127899169922e+00,2.613622903823852539e+00,2.568217039108276367e+00
5.000000000000000000e+00,5.000000000000000000e+00,5.000000000000000000e+00,5.000000000000000000e+00,5.000000000000000000e+00,5.000000000000000000e+00,5.000000000000000000e+00,5.000000000000000000e+00,5.000000000000000000e+00,5.000000000000000000e+00,5.000000000000000000e+00,5.000000000000000000e+00,5.000000000000000000e+00,5.000000000000000000e+00,5.000000000000000000e+00,5.000000000000000000e+00,5.000000000000000000e+00,5.000000000000000000e+00,5.000000000000000000e+00,5.000000000000000000e+00,5.000000000000000000e+00,5.000000000000000000e+00,5.000000000000000000e+00,5.000000000000000000e+00,5.000000000000000000e+00,5.000000000000000000e+00,5.000000000000000000e+00,5.000000000000000000e+00,5.000000000000000000e+00,5.000000000000000000e+00,5.000000000000000000e+00,5.000000000000000000e+00,5.000000000000000000e+00,5.000000000000000000e+00,5.000000000000000000e+00,5.000000000000000000e+00,5.000000000000000000e+00,5.000000000000000000e+00,5.000000000000000000e+00,5.000000000000000000e+00,5.000000000000000000e+00,5.000000000000000000e+00,5.000000000000000000e+00,5.000000000000000000e+00,5.000000000000000000e+00,5.000000000000000000e+00,5.000000000000000000e+00,5.000000000000000000e+00,5.000000000000000000e+00,5.000000000000000000e+00,5.000000000000000000e+00,5.000000000000000000e+00,4.837063789367675781e+00,4.683807373046875000e+00,4.539964199066162109e+00,4.404692649841308594e+00,4.277248859405517578e+00,4.156972885131835938e+00,4.043275833129882812e+00,3.935633182525634766e+00,3.833572864532470703e+00,3.736672401428222656e+00,3.644554138183593750e+00,3.556875467300415039e+00,3.473316431045532227e+00,3.393593311309814453e+00,3.317447900772094727e+00,3.244644403457641602e+00,3.174968004226684570e+00,3.108220815658569336e+00,3.044222593307495117e+00,2.982806444168090820e+00,2.923819541931152344e+00,2.867113113403320312e+00,2.812564134597778320e+00,2.760052204132080078e+00,2.709465265274047852e+00,2.660698890686035156e+00,2.613657474517822266e+00,2.568250417709350586e+00
5.000000000000000000e+00,5.000000000000000000e+00,5.000000000000000000e+00,5.000000000000000000e+00,5.000000000000000000e+00,5.000000000000000000e+00,5.000000000000000000e+00,5.000000000000000000e+00,5.000000000000000000e+00,5.000000000000000000e+00,5.000000000000000000e+00,5.000000000000000000e+00,5.000000000000000000e+00,5.000000000000000000e+00,5.000000000000000000e+00,5.000000000000000000e+00,5.000000000000000000e+00,5.000000000000000000e+00,5.000000000000000000e+00,5.000000000000000000e+00,5.000000000000000000e+00,5.000000000000000000e+00,5.000000000000000000e+00,5.000000000000000000e+00,5.000000000000000000e+00,5.000000000000000000e+00,5.000000000000000000e+00,5.000000000000000000e+00,5.000000000000000000e+00,5.000000000000000000e+00,5.000000000000000000e+00,5.000000000000000000e+00,5.000000000000000000e+00,5.000000000000000000e+00,5.000000000000000000e+00,5.000000000000000000e+00,5.000000000000000000e+00,5.000000000000000000e+00,5.000000000000000000e+00,5.000000000000000000e+00,5.000000000000000000e+00,5.000000000000000000e+00,5.000000000000000000e+00,5.000000000000000000e+00,5.000000000000000000e+00,5.000000000000000000e+00,5.000000000000000000e+00,5.000000000000000000e+00,5.000000000000000000e+00,5.000000000000000000e+00,5.000000000000000000e+00,5.000000000000000000e+00,4.837182044982910156e+00,4.683918476104736328e+00,4.540068149566650391e+00,4.404790878295898438e+00,4.277341842651367188e+00,4.157060146331787109e+00,4.043358802795410156e+00,3.935719966888427734e+00,3.833668470382690430e+00,3.736775636672973633e+00,3.644659280776977539e+00,3.556975841522216797e+00,3.473412036895751953e+00,3.393684625625610352e+00,3.317535161972045898e+00,3.244727849960327148e+00,3.175047874450683594e+00,3.108295917510986328e+00,3.044286251068115234e+00,2.982859611511230469e+00,2.923862934112548828e+00,2.867154598236083984e+00,2.812604188919067383e+00,2.760090827941894531e+00,2.709502458572387695e+00,2.660734891891479492e+00,2.613692045211791992e+00,2.568283796310424805e+00
5.000000000000000000e+00,5.000000000000000000e+00,5.000000000000000000e+00,5.000000000000000000e+00,5.000000000000000000e+00,5.000000000000000000e+00,5.000000000000000000e+00,5.000000000000000000e+00,5.000000000000000000e+00,5.000000000000000000e+00,5.000000000000000000e+00,5.000000000000000000e+00,5.000000000000000000e+00,5.000000000000000000e+00,5.000000000000000000e+00,5.000000000000000000e+00,5.000000000000000000e+00,5.000000000000000000e+00,5.000000000000000000e+00,5.000000000000000000e+00,5.000000000000000000e+00,5.000000000000000000e+00,5.000000000000000000e+00,5.000000000000000000e+00,5.000000000000000000e+00,5.000000000000000000e+00,5.000000000000000000e+00,5.000000000000000000e+00,5.000000000000000000e+00,5.000000000000000000e+00,5.000000000000000000e+00,5.000000000000000000e+00,5.000000000000000000e+00,5.000000000000000000e+00,5.000000000000000000e+00,5.000000000000000000e+00,5.000000000000000000e+00,5.000000000000000000e+00,5.000000000000000000e+00,5.000000000000000000e+00,5.000000000000000000e+00,5.000000000000000000e+00,5.000000000000000000e+00,5.000000000000000000e+00,5.000000000000000000e+00,5.000000000000000000e+00,5.000000000000000000e+00,5.000000000000000000e+00,5.000000000000000000e+00,5.000000000000000000e+00,5.000000000000000000e+00,5.000000000000000000e+00,4.837300300598144531e+00,4.684029102325439453e+00,4.540172576904296875e+00,4.404888629913330078e+00,4.277447223663330078e+00,4.157175540924072266e+00,4.043482303619384766e+00,3.935842752456665039e+00,3.833785057067871094e+00,3.736886262893676758e+00,3.644765138626098633e+00,3.557076454162597656e+00,3.473507881164550781e+00,3.393775939941406250e+00,3.317618608474731445e+00,3.244798421859741211e+00,3.175106287002563477e+00,3.108344554901123047e+00,3.044332981109619141e+00,2.982904672622680664e+00,2.923906326293945312e+00,2.867196083068847656e+00,2.812644243240356445e+00,2.760129451751708984e+00,2.709539413452148438e+00,2.660770654678344727e+00,2.613726615905761719e+00,2.568317174911499023e+00
5.000000000000000000e+00,5.000000000000000000e+00,5.000000000000000000e+00,5.000000000000000000e+00,5.000000000000000000e+00,5.000000000000000000e+00,5.000000000000000000e+00,5.000000000000000000e+00,5.000000000000000000e+00,5.000000000000000000e+00,5.000000000000000000e+00,5.000000000000000000e+00,5.000000000000000000e+00,5.000000000000000000e+00,5.000000000000000000e+00,5.000000000000000000e+00,5.000000000000000000e+00,5.000000000000000000e+00,5.000000000000000000e+00,5.000000000000000000e+00,5.000000000000000000e+00,5.000000000000000000e+00,5.000000000000000000e+00,5.000000000000000000e+00,5.000000000000000000e+00,5.000000000000000000e+00,5.000000000000000000e+00,5.000000000000000000e+00,5.000000000000000000e+00,5.000000000000000000e+00,5.000000000000000000e+00,5.000000000000000000e+00,5.000000000000000000e+00,5.000000000000000000e+00,5.000000000000000000e+00,5.000000000000000000e+00,5.000000000000000000e+00,5.000000000000000000e+00,5.000000000000000000e+00,5.000000000000000000e+00,5.000000000000000000e+00,5.000000000000000000e+00,5.000000000000000000e+00,5.000000000000000000e+00,5.000000000000000000e+00,5.000000000000000000e+00,5.000000000000000000e+00,5.000000000000000000e+00,5.000000000000000000e+00,5.000000000000000000e+00,5.000000000000000000e+00,5.000000000000000000e+00,4.837419033050537109e+00,4.684160232543945312e+00,4.540314197540283203e+00,4.405039310455322266e+00,4.277592658996582031e+00,4.157312870025634766e+00,4.043612003326416016e+00,3.935965538024902344e+00,3.833901405334472656e+00,3.736996889114379883e+00,3.644870281219482422e+00,3.557170391082763672e+00,3.473586797714233398e+00,3.393840789794921875e+00,3.317674398422241211e+00,3.244851827621459961e+00,3.175157546997070312e+00,3.108393669128417969e+00,3.044379949569702148e+00,2.982949733734130859e+00,2.923949480056762695e+00,2.867237806320190430e+00,2.812684297561645508e+00,2.760168075561523438e+00,2.709576606750488281e+00,2.660806655883789062e+00,2.613761425018310547e+00,2.568350553512573242e+00
5.000000000000000000e+00,5.000000000000000000e+00,5.000000000000000000e+00,5.000000000000000000e+00,5.000000000000000000e+00,5.000000000000000000e+00,5.000000000000000000e+00,5.000000000000000000e+00,5.000000000000000000e+00,5.000000000000000000e+00,5.000000000000000000e+00,5.000000000000000000e+00,5.000000000000000000e+00,5.000000000000000000e+00,5.000000000000000000e+00,5.000000000000000000e+00,5.000000000000000000e+00,5.000000000000000000e+00,5.000000000000000000e+00,5.000000000000000000e+00,5.000000000000000000e+00,5.000000000000000000e+00,5.000000000000000000e+00,5.000000000000000000e+00,5.000000000000000000e+00,5.000000000000000000e+00,5.000000000000000000e+00,5.000000000000000000e+00,5.000000000000000000e+00,5.000000000000000000e+00,5.000000000000000000e+00,5.000000000000000000e+00,5.000000000000000000e+00,5.000000000000000000e+00,5.000000000000000000e+00,5.000000000000000000e+00,5.000000000000000000e+00,5.000000000000000000e+00,5.000000000000000000e+00,5.000000000000000000e+00,5.000000000000000000e+00,5.000000000000000000e+00,5.000000000000000000e+00,5.000000000000000000e+00,5.000000000000000000e+00,5.000000000000000000e+00,5.000000000000000000e+00,5.000000000000000000e+00,5.000000000000000000e+00,5.000000000000000000e+00,5.000000000000000000e+00,5.000000000000000000e+00,4.837604522705078125e+00,4.684333801269531250e+00,4.540477275848388672e+00,4.405193328857421875e+00,4.277737617492675781e+00,4.157449722290039062e+00,4.043741703033447266e+00,3.936088323593139648e+00,3.834008455276489258e+00,3.737086057662963867e+00,3.644942760467529297e+00,3.557234525680541992e+00,3.473648071289062500e+00,3.393899202346801758e+00,3.317730188369750977e+00,3.244905233383178711e+00,3.175208568572998047e+00,3.108442544937133789e+00,3.044426918029785156e+00,2.982994794845581055e+00,2.923992633819580078e+00,2.867279529571533203e+00,2.812724351882934570e+00,2.760206699371337891e+00,2.709613800048828125e+00,2.660842418670654297e+00,2.613795995712280273e+00,2.568383932113647461e+00
5.000000000000000000e+00,5.000000000000000000e+00,5.000000000000000000e+00,5.000000000000000000e+00,5.000000000000000000e+00,5.000000000000000000e+00,5.000000000000000000e+00,5.000000000000000000e+00,5.000000000000000000e+00,5.000000000000000000e+00,5.000000000000000000e+00,5.000000000000000000e+00,5.000000000000000000e+00,5.000000000000000000e+00,5.000000000000000000e+00,5.000000000000000000e+00,5.000000000000000000e+00,5.000000000000000000e+00,5.000000000000000000e+00,5.000000000000000000e+00,5.000000000000000000e+00,5.000000000000000000e+00,5.000000000000000000e+00,5.000000000000000000e+00,5.000000000000000000e+00,5.000000000000000000e+00,5.000000000000000000e+00,5.000000000000000000e+00,5.000000000000000000e+00,5.000000000000000000e+00,5.000000000000000000e+00,5.000000000000000000e+00,5.000000000000000000e+00,5.000000000000000000e+00,5.000000000000000000e+00,5.000000000000000000e+00,5.000000000000000000e+00,5.000000000000000000e+00,5.000000000000000000e+00,5.000000000000000000e+00,5.000000000000000000e+00,5.000000000000000000e+00,5.000000000000000000e+00,5.000000000000000000e+00,5.000000000000000000e+00,5.000000000000000000e+00,5.000000000000000000e+00,5.000000000000000000e+00,5.000000000000000000e+00,5.000000000000000000e+00,5.000000000000000000e+00,5.000000000000000000e+00,4.837790489196777344e+00,4.684508323669433594e+00,4.540640830993652344e+00,4.405346870422363281e+00,4.277882575988769531e+00,4.157572746276855469e+00,4.043843269348144531e+00,3.936170578002929688e+00,3.834082841873168945e+00,3.737156391143798828e+00,3.645010232925415039e+00,3.557298421859741211e+00,3.473709106445312500e+00,3.393957376480102539e+00,3.317785978317260742e+00,3.244958639144897461e+00,3.175259351730346680e+00,3.108491420745849609e+00,3.044473886489868164e+00,2.983039855957031250e+00,2.924036026000976562e+00,2.867321014404296875e+00,2.812764406204223633e+00,2.760245084762573242e+00,2.709650993347167969e+00,2.660878419876098633e+00,2.613830566406250000e+00,2.568417310714721680e+00
5.000000000000000000e+00,5.000000000000000000e+00,5.000000000000000000e+00,5.000000000000000000e+00,5.000000000000000000e+00,5.000000000000000000e+00,5.000000000000000000e+00,5.000000000000000000e+00,5.000000000000000000e+00,5.000000000000000000e+00,5.000000000000000000e+00,5.000000000000000000e+00,5.000000000000000000e+00,5.000000000000000000e+00,5.000000000000000000e+00,5.000000000000000000e+00,5.000000000000000000e+00,5.000000000000000000e+00,5.000000000000000000e+00,5.000000000000000000e+00,5.000000000000000000e+00,5.000000000000000000e+00,5.000000000000000000e+00,5.000000000000000000e+00,5.000000000000000000e+00,5.000000000000000000e+00,5.000000000000000000e+00,5.000000000000000000e+00,5.000000000000000000e+00,5.000000000000000000e+00,5.000000000000000000e+00,5.000000000000000000e+00,5.000000000000000000e+00,5.000000000000000000e+00,5.000000000000000000e+00,5.000000000000000000e+00,5.000000000000000000e+00,5.000000000000000000e+00,5.000000000000000000e+00,5.000000000000000000e+00,5.000000000000000000e+00,5.000000000000000000e+00,5.000000000000000000e+00,5.000000000000000000e+00,5.000000000000000000e+00,5.000000000000000000e+00,5.000000000000000000e+00,5.000000000000000000e+00,5.000000000000000000e+00,5.000000000000000000e+00,5.000000000000000000e+00,5.000000000000000000e+00,4.837975978851318359e+00,4.684680461883544922e+00,4.540783882141113281e+00,4.405464649200439453e+00,4.277976989746093750e+00,4.157660007476806641e+00,4.043926239013671875e+00,3.936249017715454102e+00,3.834157228469848633e+00,3.737227201461791992e+00,3.645077466964721680e+00,3.557362556457519531e+00,3.473770380020141602e+00,3.394015789031982422e+00,3.317841768264770508e+00,3.245011806488037109e+00,3.175310373306274414e+00,3.108540534973144531e+00,3.044520854949951172e+00,2.983084917068481445e+00,2.924079179763793945e+00,2.867362737655639648e+00,2.812804460525512695e+00,2.760283470153808594e+00,2.709688186645507812e+00,2.660914182662963867e+00,2.613865137100219727e+00,2.568450689315795898e+00
5.000000000000000000e+00,5.000000000000000000e+00,5.000000000000000000e+00,5.000000000000000000e+00,5.000000000000000000e+00,5.000000000000000000e+00,5.000000000000000000e+00,5.000000000000000000e+00,5.000000000000000000e+00,5.000000000000000000e+00,5.000000000000000000e+00,5.000000000000000000e+00,5.000000000000000000e+00,5.000000000000000000e+00,5.000000000000000000e+00,5.000000000000000000e+00,5.000000000000000000e+00,5.000000000000000000e+00,5.000000000000000000e+00,5.000000000000000000e+00,5.000000000000000000e+00,5.000000000000000000e+00,5.000000000000000000e+00,5.000000000000000000e+00,5.000000000000000000e+00,5.000000000000000000e+00,5.000000000000000000e+00,5.000000000000000000e+00,5.000000000000000000e+00,5.000000000000000000e+00,5.000000000000000000e+00,5.000000000000000000e+00,5.000000000000000000e+00,5.000000000000000000e+00,5.000000000000000000e+00,5.000000000000000000e+00,5.000000000000000000e+00,5.000000000000000000e+00,5.000000000000000000e+00,5.000000000000000000e+00,5.000000000000000000e+00,5.000000000000000000e+00,5.000000000000000000e+00,5.000000000000000000e+00,5.000000000000000000e+00,5.000000000000000000e+00,5.000000000000000000e+00,5.000000000000000000e+00,5.000000000000000000e+00,5.000000000000000000e+00,5.000000000000000000e+00,5.000000000000000000e+00,4.838113307952880859e+00,4.684791564941406250e+00,4.540888786315917969e+00,4.405562400817871094e+00,4.278069496154785156e+00,4.157747745513916016e+00,4.044008731842041016e+00,3.936327457427978516e+00,3.834231853485107422e+00,3.737298011779785156e+00,3.645144701004028320e+00,3.557426691055297852e+00,3.473830938339233398e+00,3.394074201583862305e+00,3.317897558212280273e+00,3.245065212249755859e+00,3.175361394882202148e+00,3.108589410781860352e+00,3.044567823410034180e+00,2.983129739761352539e+00,2.924122571945190430e+00,2.867404460906982422e+00,2.812844514846801758e+00,2.760322093963623047e+00,2.709725379943847656e+00,2.660950183868408203e+00,2.613899469375610352e+00,2.568484067916870117e+00
5.000000000000000000e+00,5.000000000000000000e+00,5.000000000000000000e+00,5.000000000000000000e+00,5.000000000000000000e+00,5.000000000000000000e+00,5.000000000000000000e+00,5.000000000000000000e+00,5.000000000000000000e+00,5.000000000000000000e+00,5.000000000000000000e+00,5.000000000000000000e+00,5.000000000000000000e+00,5.000000000000000000e+00,5.000000000000000000e+00,5.000000000000000000e+00,5.000000000000000000e+00,5.000000000000000000e+00,5.000000000000000000e+00,5.000000000000000000e+00,5.000000000000000000e+00,5.000000000000000000e+00,5.000000000000000000e+00,5.000000000000000000e+00,5.000000000000000000e+00,5.000000000000000000e+00,5.000000000000000000e+00,5.000000000000000000e+00,5.000000000000000000e+00,5.000000000000000000e+00,5.000000000000000000e+00,5.000000000000000000e+00,5.000000000000000000e+00,5.000000000000000000e+00,5.000000000000000000e+00,5.000000000000000000e+00,5.000000000000000000e+00,5.000000000000000000e+00,5.000000000000000000e+00,5.000000000000000000e+00,5.000000000000000000e+00,5.000000000000000000e+00,5.000000000000000000e+00,5.000000000000000000e+00,5.000000000000000000e+00,5.000000000000000000e+00,5.000000000000000000e+00,5.000000000000000000e+00,5.000000000000000000e+00,5.000000000000000000e+00,5.000000000000000000e+00,5.000000000000000000e+00,4.838232040405273438e+00,4.684902191162109375e+00,4.540993213653564453e+00,4.405661106109619141e+00,4.278162479400634766e+00,4.157835006713867188e+00,4.044091701507568359e+00,3.936405897140502930e+00,3.834305763244628906e+00,3.737368822097778320e+00,3.645212173461914062e+00,3.557490825653076172e+00,3.473892211914062500e+00,3.394132614135742188e+00,3.317953348159790039e+00,3.245118379592895508e+00,3.175412654876708984e+00,3.108638286590576172e+00,3.044614791870117188e+00,2.983174800872802734e+00,2.924165964126586914e+00,2.867445945739746094e+00,2.812884569168090820e+00,2.760360717773437500e+00,2.709762573242187500e+00,2.660985946655273438e+00,2.613934278488159180e+00,6.964823603630065918e-01
5.000000000000000000e+00,5.000000000000000000e+00,5.000000000000000000e+00,5.000000000000000000e+00,5.000000000000000000e+00,5.000000000000000000e+00,5.000000000000000000e+00,5.000000000000000000e+00,5.000000000000000000e+00,5.000000000000000000e+00,5.000000000000000000e+00,5.000000000000000000e+00,5.000000000000000000e+00,5.000000000000000000e+00,5.000000000000000000e+00,5.000000000000000000e+00,5.000000000000000000e+00,5.000000000000000000e+00,5.000000000000000000e+00,5.000000000000000000e+00,5.000000000000000000e+00,5.000000000000000000e+00,5.000000000000000000e+00,5.000000000000000000e+00,5.000000000000000000e+00,5.000000000000000000e+00,5.000000000000000000e+00,5.000000000000000000e+00,5.000000000000000000e+00,5.000000000000000000e+00,5.000000000000000000e+00,5.000000000000000000e+00,5.000000000000000000e+00,5.000000000000000000e+00,5.000000000000000000e+00,5.000000000000000000e+00,5.000000000000000000e+00,5.000000000000000000e+00,5.000000000000000000e+00,5.000000000000000000e+00,5.000000000000000000e+00,5.000000000000000000e+00,5.000000000000000000e+00,5.000000000000000000e+00,5.000000000000000000e+00,5.000000000000000000e+00,5.000000000000000000e+00,5.000000000000000000e+00,5.000000000000000000e+00,5.000000000000000000e+00,5.000000000000000000e+00,5.000000000000000000e+00,4.838350772857666016e+00,4.685013294219970703e+00,4.541097640991210938e+00,4.405759334564208984e+00,4.278254508972167969e+00,4.157922744750976562e+00,4.044174194335937500e+00,3.936484575271606445e+00,3.834380388259887695e+00,3.737439393997192383e+00,3.645279407501220703e+00,3.557554960250854492e+00,3.473953247070312500e+00,3.394191026687622070e+00,3.318009138107299805e+00,3.245171546936035156e+00,3.175463676452636719e+00,3.108687400817871094e+00,3.044661760330200195e+00,2.983219861984252930e+00,2.924209117889404297e+00,2.867487668991088867e+00,2.812924623489379883e+00,2.760399341583251953e+00,2.709799766540527344e+00,2.661021947860717773e+00,7.064886689186096191e-01,6.915833950042724609e-01
5.000000000000000000e+00,5.000000000000000000e+00,5.000000000000000000e+00,5.000000000000000000e+00,5.000000000000000000e+00,5.000000000000000000e+00,5.000000000000000000e+00,5.000000000000000000e+00,5.000000000000000000e+00,5.000000000000000000e+00,5.000000000000000000e+00,5.000000000000000000e+00,5.000000000000000000e+00,5.000000000000000000e+00,5.000000000000000000e+00,5.000000000000000000e+00,5.000000000000000000e+00,5.000000000000000000e+00,5.000000000000000000e+00,5.000000000000000000e+00,5.000000000000000000e+00,5.000000000000000000e+00,5.000000000000000000e+00,5.000000000000000000e+00,5.000000000000000000e+00,5.000000000000000000e+00,5.000000000000000000e+00,5.000000000000000000e+00,5.000000000000000000e+00,5.000000000000000000e+00,5.000000000000000000e+00,5.000000000000000000e+00,5.000000000000000000e+00,5.000000000000000000e+00,5.000000000000000000e+00,5.000000000000000000e+00,5.000000000000000000e+00,5.000000000000000000e+00,5.000000000000000000e+00,5.000000000000000000e+00,5.000000000000000000e+00,5.000000000000000000e+00,5.000000000000000000e+00,5.000000000000000000e+00,5.000000000000000000e+00,5.000000000000000000e+00,5.000000000000000000e+00,5.000000000000000000e+00,5.000000000000000000e+00,5.000000000000000000e+00,5.000000000000000000e+00,5.000000000000000000e+00,4.838469028472900391e+00,4.685124874114990234e+00,4.541201591491699219e+00,4.405857563018798828e+00,4.278347492218017578e+00,4.158010482788085938e+00,4.044257164001464844e+00,3.936563014984130859e+00,3.834454774856567383e+00,3.737510204315185547e+00,3.645346641540527344e+00,3.557618618011474609e+00,3.474014520645141602e+00,3.394249200820922852e+00,3.318064928054809570e+00,3.245224952697753906e+00,3.175514698028564453e+00,3.108736276626586914e+00,3.044708490371704102e+00,2.983265161514282227e+00,2.924252510070800781e+00,2.867529392242431641e+00,2.812964677810668945e+00,2.760437965393066406e+00,2.709836959838867188e+00,2.661057472229003906e+00,7.014484405517578125e-01,6.864784955978393555e-01
5.000000000000000000e+00,5.000000000000000000e+00,5.000000000000000000e+00,5.000000000000000000e+00,5.000000000000000000e+00,5.000000000000000000e+00,5.000000000000000000e+00,5.000000000000000000e+00,5.000000000000000000e+00,5.000000000000000000e+00,5.000000000000000000e+00,5.000000000000000000e+00,5.000000000000000000e+00,5.000000000000000000e+00,5.000000000000000000e+00,5.000000000000000000e+00,5.000000000000000000e+00,5.000000000000000000e+00,5.000000000000000000e+00,5.000000000000000000e+00,5.000000000000000000e+00,5.000000000000000000e+00,5.000000000000000000e+00,5.000000000000000000e+00,5.000000000000000000e+00,5.000000000000000000e+00,5.000000000000000000e+00,5.000000000000000000e+00,5.000000000000000000e+00,5.000000000000000000e+00,5.000000000000000000e+00,5.000000000000000000e+00,5.000000000000000000e+00,5.000000000000000000e+00,5.000000000000000000e+00,5.000000000000000000e+00,5.000000000000000000e+00,5.000000000000000000e+00,5.000000000000000000e+00,5.000000000000000000e+00,5.000000000000000000e+00,5.000000000000000000e+00,5.000000000000000000e+00,5.000000000000000000e+00,5.000000000000000000e+00,5.000000000000000000e+00,5.000000000000000000e+00,5.000000000000000000e+00,5.000000000000000000e+00,5.000000000000000000e+00,5.000000000000000000e+00,5.000000000000000000e+00,4.838587284088134766e+00,4.685235977172851562e+00,4.541306018829345703e+00,4.405955791473388672e+00,4.278439998626708984e+00,4.158097743988037109e+00,4.044340133666992188e+00,3.936640977859497070e+00,3.834529399871826172e+00,3.737581014633178711e+00,3.645414113998413086e+00,3.557682752609252930e+00,3.474075555801391602e+00,3.394307613372802734e+00,3.318120241165161133e+00,3.245278358459472656e+00,3.175565958023071289e+00,3.108785390853881836e+00,3.044755458831787109e+00,2.983310222625732422e+00,2.924295902252197266e+00,2.867571115493774414e+00,2.813004732131958008e+00,2.760476589202880859e+00,2.709874153137207031e+00,7.115989327430725098e-01,6.964796781539916992e-01,6.812350749969482422e-01
5.000000000000000000e+00,5.000000000000000000e+00,5.000000000000000000e+00,5.000000000000000000e+00,5.000000000000000000e+00,5.000000000000000000e+00,5.000000000000000000e+00,5.000000000000000000e+00,5.000000000000000000e+00,5.000000000000000000e+00,5.000000000000000000e+00,5.000000000000000000e+00,5.000000000000000000e+00,5.000000000000000000e+00,5.000000000000000000e+00,5.000000000000000000e+00,5.000000000000000000e+00,5.000000000000000000e+00,5.000000000000000000e+00,5.000000000000000000e+00,5.000000000000000000e+00,5.000000000000000000e+00,5.000000000000000000e+00,5.000000000000000000e+00,5.000000000000000000e+00,5.000000000000000000e+00,5.000000000000000000e+00,5.000000000000000000e+00,5.000000000000000000e+00,5.000000000000000000e+00,5.000000000000000000e+00,5.000000000000000000e+00,5.000000000000000000e+00,5.000000000000000000e+00,5.000000000000000000e+00,5.000000000000000000e+00,5.000000000000000000e+00,5.000000000000000000e+00,5.000000000000000000e+00,5.000000000000000000e+00,5.000000000000000000e+00,5.000000000000000000e+00,5.000000000000000000e+00,5.000000000000000000e+00,5.000000000000000000e+00,5.000000000000000000e+00,5.000000000000000000e+00,5.000000000000000000e+00,5.000000000000000000e+00,5.000000000000000000e+00,5.000000000000000000e+00,5.000000000000000000e+00,4.838689804077148438e+00,4.685336112976074219e+00,4.541404247283935547e+00,4.406051635742187500e+00,4.278532981872558594e+00,4.158185482025146484e+00,4.044423103332519531e+00,3.936719655990600586e+00,3.834603786468505859e+00,3.737651824951171875e+00,3.645481348037719727e+00,3.557746887207031250e+00,3.474136829376220703e+00,3.394366025924682617e+00,3.318176031112670898e+00,3.245331764221191406e+00,3.175616979598999023e+00,3.108834266662597656e+00,3.044802427291870117e+00,2.983355283737182617e+00,2.924339294433593750e+00,2.867612361907958984e+00,2.813044786453247070e+00,2.760515213012695312e+00,7.220475673675537109e-01,7.064858675003051758e-01,6.915808320045471191e-01,6.760710477828979492e-01
5.000000000000000000e+00,5.000000000000000000e+00,5.000000000000000000e+00,5.000000000000000000e+00,5.000000000000000000e+00,5.000000000000000000e+00,5.000000000000000000e+00,5.000000000000000000e+00,5.000000000000000000e+00,5.000000000000000000e+00,5.000000000000000000e+00,5.000000000000000000e+00,5.000000000000000000e+00,5.000000000000000000e+00,5.000000000000000000e+00,5.000000000000000000e+00,5.000000000000000000e+00,5.000000000000000000e+00,5.000000000000000000e+00,5.000000000000000000e+00,5.000000000000000000e+00,5.000000000000000000e+00,5.000000000000000000e+00,5.000000000000000000e+00,5.000000000000000000e+00,5.000000000000000000e+00,5.000000000000000000e+00,5.000000000000000000e+00,5.000000000000000000e+00,5.000000000000000000e+00,5.000000000000000000e+00,5.000000000000000000e+00,5.000000000000000000e+00,5.000000000000000000e+00,5.000000000000000000e+00,5.000000000000000000e+00,5.000000000000000000e+00,5.000000000000000000e+00,5.000000000000000000e+00,5.000000000000000000e+00,5.000000000000000000e+00,5.000000000000000000e+00,5.000000000000000000e+00,5.000000000000000000e+00,5.000000000000000000e+00,5.000000000000000000e+00,5.000000000000000000e+00,5.000000000000000000e+00,5.000000000000000000e+00,5.000000000000000000e+00,5.000000000000000000e+00,5.000000000000000000e+00,4.838774204254150391e+00,4.685414314270019531e+00,4.541478157043457031e+00,4.406121253967285156e+00,4.278599262237548828e+00,4.158251285552978516e+00,4.044488430023193359e+00,3.936784267425537109e+00,3.834667921066284180e+00,3.737715005874633789e+00,3.645544052124023438e+00,3.557809352874755859e+00,3.474197864532470703e+00,3.394424438476562500e+00,3.318231821060180664e+00,3.245385169982910156e+00,3.175668001174926758e+00,3.108882904052734375e+00,3.044849395751953125e+00,2.983400344848632812e+00,2.924382448196411133e+00,2.867654085159301758e+00,2.813084840774536133e+00,7.329164743423461914e-01,7.167837619781494141e-01,7.014457583427429199e-01,6.863430738449096680e-01,6.789689064025878906e-01
5.000000000000000000e+00,5.000000000000000000e+00,5.000000000000000000e+00,5.000000000000000000e+00,5.000000000000000000e+00,5.000000000000000000e+00,5.000000000000000000e+00,5.000000000000000000e+00,5.000000000000000000e+00,5.000000000000000000e+00,5.000000000000000000e+00,5.000000000000000000e+00,5.000000000000000000e+00,5.000000000000000000e+00,5.000000000000000000e+00,5.000000000000000000e+00,5.000000000000000000e+00,5.000000000000000000e+00,5.000000000000000000e+00,5.000000000000000000e+00,5.000000000000000000e+00,5.000000000000000000e+00,5.000000000000000000e+00,5.000000000000000000e+00,5.000000000000000000e+00,5.000000000000000000e+00,5.000000000000000000e+00,5.000000000000000000e+00,5.000000000000000000e+00,5.000000000000000000e+00,5.000000000000000000e+00,5.000000000000000000e+00,5.000000000000000000e+00,5.000000000000000000e+00,5.000000000000000000e+00,5.000000000000000000e+00,5.000000000000000000e+00,5.000000000000000000e+00,5.000000000000000000e+00,5.000000000000000000e+00,5.000000000000000000e+00,5.000000000000000000e+00,5.000000000000000000e+00,5.000000000000000000e+00,5.000000000000000000e+00,5.000000000000000000e+00,5.000000000000000000e+00,5.000000000000000000e+00,5.000000000000000000e+00,5.000000000000000000e+00,5.000000000000000000e+00,5.000000000000000000e+00,4.838857650756835938e+00,4.685492992401123047e+00,4.541551589965820312e+00,4.406190395355224609e+00,4.278664588928222656e+00,4.158313274383544922e+00,4.044547080993652344e+00,3.936839580535888672e+00,3.834720373153686523e+00,3.737765073776245117e+00,3.645591497421264648e+00,3.557854413986206055e+00,3.474241495132446289e+00,3.394467592239379883e+00,3.318275690078735352e+00,3.245428800582885742e+00,3.175711631774902344e+00,3.108926773071289062e+00,3.044892787933349609e+00,2.983443498611450195e+00,2.924425840377807617e+00,2.867695808410644531e+00,2.813124895095825195e+00,7.301176190376281738e-01,7.134996056556701660e-01,6.976210474967956543e-01,6.875883340835571289e-01,6.803631186485290527e-01
5.000000000000000000e+00,5.000000000000000000e+00,5.000000000000000000e+00,5.000000000000000000e+00,5.000000000000000000e+00,5.000000000000000000e+00,5.000000000000000000e+00,5.000000000000000000e+00,5.000000000000000000e+00,5.000000000000000000e+00,5.000000000000000000e+00,5.000000000000000000e+00,5.000000000000000000e+00,5.000000000000000000e+00,5.000000000000000000e+00,5.000000000000000000e+00,5.000000000000000000e+00,5.000000000000000000e+00,5.000000000000000000e+00,5.000000000000000000e+00,5.000000000000000000e+00,5.000000000000000000e+00,5.000000000000000000e+00,5.000000000000000000e+00,5.000000000000000000e+00,5.000000000000000000e+00,5.000000000000000000e+00,5.000000000000000000e+00,5.000000000000000000e+00,5.000000000000000000e+00,5.000000000000000000e+00,5.000000000000000000e+00,5.000000000000000000e+00,5.000000000000000000e+00,5.000000000000000000e+00,5.000000000000000000e+00,5.000000000000000000e+00,5.000000000000000000e+00,5.000000000000000000e+00,5.000000000000000000e+00,5.000000000000000000e+00,5.000000000000000000e+00,5.000000000000000000e+00,5.000000000000000000e+00,5.000000000000000000e+00,5.000000000000000000e+00,5.000000000000000000e+00,5.000000000000000000e+00,5.000000000000000000e+00,5.000000000000000000e+00,5.000000000000000000e+00,5.000000000000000000e+00,4.838941574096679688e+00,4.685571670532226562e+00,4.541625499725341797e+00,4.406260013580322266e+00,4.278730392456054688e+00,4.158374786376953125e+00,4.044605255126953125e+00,3.936895132064819336e+00,3.834773063659667969e+00,3.737814903259277344e+00,3.645638942718505859e+00,3.557899713516235352e+00,3.474284648895263672e+00,3.394508838653564453e+00,3.318315029144287109e+00,3.245466470718383789e+00,3.175747632980346680e+00,3.108961343765258789e+00,3.044926166534423828e+00,2.983475446701049805e+00,2.924456119537353516e+00,2.867726564407348633e+00,7.446433901786804199e-01,7.273401021957397461e-01,7.108467817306518555e-01,6.952902674674987793e-01,6.879031062126159668e-01,6.806712746620178223e-01
5.000000000000000000e+00,5.000000000000000000e+00,5.000000000000000000e+00,5.000000000000000000e+00,5.000000000000000000e+00,5.000000000000000000e+00,5.000000000000000000e+00,5.000000000000000000e+00,5.000000000000000000e+00,5.000000000000000000e+00,5.000000000000000000e+00,5.000000000000000000e+00,5.000000000000000000e+00,5.000000000000000000e+00,5.000000000000000000e+00,5.000000000000000000e+00,5.000000000000000000e+00,5.000000000000000000e+00,5.000000000000000000e+00,5.000000000000000000e+00,5.000000000000000000e+00,5.000000000000000000e+00,5.000000000000000000e+00,5.000000000000000000e+00,5.000000000000000000e+00,5.000000000000000000e+00,5.000000000000000000e+00,5.000000000000000000e+00,5.000000000000000000e+00,5.000000000000000000e+00,5.000000000000000000e+00,5.000000000000000000e+00,5.000000000000000000e+00,5.000000000000000000e+00,5.000000000000000000e+00,5.000000000000000000e+00,5.000000000000000000e+00,5.000000000000000000e+00,5.000000000000000000e+00,5.000000000000000000e+00,5.000000000000000000e+00,5.000000000000000000e+00,5.000000000000000000e+00,5.000000000000000000e+00,5.000000000000000000e+00,5.000000000000000000e+00,5.000000000000000000e+00,5.000000000000000000e+00,5.000000000000000000e+00,5.000000000000000000e+00,5.000000000000000000e+00,5.000000000000000000e+00,4.839025497436523438e+00,4.685649871826171875e+00,4.541699409484863281e+00,4.406329631805419922e+00,4.278795719146728516e+00,4.158436775207519531e+00,4.044663906097412109e+00,3.936950445175170898e+00,3.834825515747070312e+00,3.737864971160888672e+00,3.645686626434326172e+00,3.557945013046264648e+00,3.474327802658081055e+00,3.394550085067749023e+00,3.318354368209838867e+00,3.245504140853881836e+00,3.175783634185791016e+00,3.108995914459228516e+00,3.044959306716918945e+00,2.983507156372070312e+00,2.924486637115478516e+00,2.867756128311157227e+00,7.417511343955993652e-01,7.245835661888122559e-01,7.082136273384094238e-01,6.956120133399963379e-01,6.882181167602539062e-01,6.809797286987304688e-01
5.000000000000000000e+00,5.000000000000000000e+00,5.000000000000000000e+00,5.000000000000000000e+00,5.000000000000000000e+00,5.000000000000000000e+00,5.000000000000000000e+00,5.000000000000000000e+00,5.000000000000000000e+00,5.000000000000000000e+00,5.000000000000000000e+00,5.000000000000000000e+00,5.000000000000000000e+00,5.000000000000000000e+00,5.000000000000000000e+00,5.000000000000000000e+00,5.000000000000000000e+00,5.000000000000000000e+00,5.000000000000000000e+00,5.000000000000000000e+00,5.000000000000000000e+00,5.000000000000000000e+00,5.000000000000000000e+00,5.000000000000000000e+00,5.000000000000000000e+00,5.000000000000000000e+00,5.000000000000000000e+00,5.000000000000000000e+00,5.000000000000000000e+00,5.000000000000000000e+00,5.000000000000000000e+00,5.000000000000000000e+00,5.000000000000000000e+00,5.000000000000000000e+00,5.000000000000000000e+00,5.000000000000000000e+00,5.000000000000000000e+00,5.000000000000000000e+00,5.000000000000000000e+00,5.000000000000000000e+00,5.000000000000000000e+00,5.000000000000000000e+00,5.000000000000000000e+00,5.000000000000000000e+00,5.000000000000000000e+00,5.000000000000000000e+00,5.000000000000000000e+00,5.000000000000000000e+00,5.000000000000000000e+00,5.000000000000000000e+00,5.000000000000000000e+00,5.000000000000000000e+00,4.839108943939208984e+00,4.685729026794433594e+00,4.541772842407226562e+00,4.406398773193359375e+00,4.278861522674560547e+00,4.158498764038085938e+00,4.044722557067871094e+00,3.937005996704101562e+00,3.834878206253051758e+00,3.737915039062500000e+00,3.645734071731567383e+00,3.557990312576293945e+00,3.474370956420898438e+00,3.394591331481933594e+00,3.318393707275390625e+00,3.245541810989379883e+00,3.175819873809814453e+00,3.109030485153198242e+00,3.044992446899414062e+00,2.983539104461669922e+00,2.924517393112182617e+00,2.867785453796386719e+00,7.388812303543090820e-01,7.218478918075561523e-01,7.055999636650085449e-01,6.959341764450073242e-01,6.885334253311157227e-01,6.812884211540222168e-01
5.000000000000000000e+00,5.000000000000000000e+00,5.000000000000000000e+00,5.000000000000000000e+00,5.000000000000000000e+00,5.000000000000000000e+00,5.000000000000000000e+00,5.000000000000000000e+00,5.000000000000000000e+00,5.000000000000000000e+00,5.000000000000000000e+00,5.000000000000000000e+00,5.000000000000000000e+00,5.000000000000000000e+00,5.000000000000000000e+00,5.000000000000000000e+00,5.000000000000000000e+00,5.000000000000000000e+00,5.000000000000000000e+00,5.000000000000000000e+00,5.000000000000000000e+00,5.000000000000000000e+00,5.000000000000000000e+00,5.000000000000000000e+00,5.000000000000000000e+00,5.000000000000000000e+00,5.000000000000000000e+00,5.000000000000000000e+00,5.000000000000000000e+00,5.000000000000000000e+00,5.000000000000000000e+00,5.000000000000000000e+00,5.000000000000000000e+00,5.000000000000000000e+00,5.000000000000000000e+00,5.000000000000000000e+00,5.000000000000000000e+00,5.000000000000000000e+00,5.000000000000000000e+00,5.000000000000000000e+00,5.000000000000000000e+00,5.000000000000000000e+00,5.000000000000000000e+00,5.000000000000000000e+00,5.000000000000000000e+00,5.000000000000000000e+00,5.000000000000000000e+00,5.000000000000000000e+00,5.000000000000000000e+00,5.000000000000000000e+00,5.000000000000000000e+00,5.000000000000000000e+00,4.839192867279052734e+00,4.685807704925537109e+00,4.541846752166748047e+00,4.406468391418457031e+00,4.278926849365234375e+00,4.158560276031494141e+00,4.044780731201171875e+00,3.937061786651611328e+00,3.834930658340454102e+00,3.737964868545532227e+00,3.645781517028808594e+00,3.558035612106323242e+00,3.474414110183715820e+00,3.394632577896118164e+00,3.318433046340942383e+00,3.245579481124877930e+00,3.175855875015258789e+00,3.109065055847167969e+00,3.045025587081909180e+00,2.983570814132690430e+00,2.924547910690307617e+00,7.537758350372314453e-01,7.360334396362304688e-01,7.191327214241027832e-01,7.038251757621765137e-01,6.962565779685974121e-01,6.888490319252014160e-01,6.815974116325378418e-01
5.000000000000000000e+00,5.000000000000000000e+00,5.000000000000000000e+00,5.000000000000000000e+00,5.000000000000000000e+00,5.000000000000000000e+00,5.000000000000000000e+00,5.000000000000000000e+00,5.000000000000000000e+00,5.000000000000000000e+00,5.000000000000000000e+00,5.000000000000000000e+00,5.000000000000000000e+00,5.000000000000000000e+00,5.000000000000000000e+00,5.000000000000000000e+00,5.000000000000000000e+00,5.000000000000000000e+00,5.000000000000000000e+00,5.000000000000000000e+00,5.000000000000000000e+00,5.000000000000000000e+00,5.000000000000000000e+00,5.000000000000000000e+00,5.000000000000000000e+00,5.000000000000000000e+00,5.000000000000000000e+00,5.000000000000000000e+00,5.000000000000000000e+00,5.000000000000000000e+00,5.000000000000000000e+00,5.000000000000000000e+00,5.000000000000000000e+00,5.000000000000000000e+00,5.000000000000000000e+00,5.000000000000000000e+00,5.000000000000000000e+00,5.000000000000000000e+00,5.000000000000000000e+00,5.000000000000000000e+00,5.000000000000000000e+00,5.000000000000000000e+00,5.000000000000000000e+00,5.000000000000000000e+00,5.000000000000000000e+00,5.000000000000000000e+00,5.000000000000000000e+00,5.000000000000000000e+00,5.000000000000000000e+00,5.000000000000000000e+00,5.000000000000000000e+00,5.000000000000000000e+00,4.839276313781738281e+00,4.685885906219482422e+00,4.541920661926269531e+00,4.406537532806396484e+00,4.278992176055908203e+00,4.158622264862060547e+00,4.044839382171630859e+00,3.937117338180541992e+00,3.834983348846435547e+00,3.738014936447143555e+00,3.645829200744628906e+00,3.558080911636352539e+00,3.474457263946533203e+00,3.394674062728881836e+00,3.318472385406494141e+00,3.245617151260375977e+00,3.175891876220703125e+00,3.109099626541137695e+00,3.045058965682983398e+00,2.983603000640869141e+00,2.924578428268432617e+00,7.508123517036437988e-01,7.332075834274291992e-01,7.164380550384521484e-01,7.041549682617187500e-01,6.965793371200561523e-01,6.891648769378662109e-01,6.822403669357299805e-01
5.000000000000000000e+00,5.000000000000000000e+00,5.000000000000000000e+00,5.000000000000000000e+00,5.000000000000000000e+00,5.000000000000000000e+00,5.000000000000000000e+00,5.000000000000000000e+00,5.000000000000000000e+00,5.000000000000000000e+00,5.000000000000000000e+00,5.000000000000000000e+00,5.000000000000000000e+00,5.000000000000000000e+00,5.000000000000000000e+00,5.000000000000000000e+00,5.000000000000000000e+00,5.000000000000000000e+00,5.000000000000000000e+00,5.000000000000000000e+00,5.000000000000000000e+00,5.000000000000000000e+00,5.000000000000000000e+00,5.000000000000000000e+00,5.000000000000000000e+00,5.000000000000000000e+00,5.000000000000000000e+00,5.000000000000000000e+00,5.000000000000000000e+00,5.000000000000000000e+00,5.000000000000000000e+00,5.000000000000000000e+00,5.000000000000000000e+00,5.000000000000000000e+00,5.000000000000000000e+00,5.000000000000000000e+00,5.000000000000000000e+00,5.000000000000000000e+00,5.000000000000000000e+00,5.000000000000000000e+00,5.000000000000000000e+00,5.000000000000000000e+00,5.000000000000000000e+00,5.000000000000000000e+00,5.000000000000000000e+00,5.000000000000000000e+00,5.000000000000000000e+00,5.000000000000000000e+00,5.000000000000000000e+00,5.000000000000000000e+00,5.000000000000000000e+00,5.000000000000000000e+00,4.839360237121582031e+00,4.685964584350585938e+00,4.541994571685791016e+00,4.406607151031494141e+00,4.279057979583740234e+00,4.158684253692626953e+00,4.044898033142089844e+00,3.937172651290893555e+00,3.835036039352416992e+00,3.738064765930175781e+00,3.645876646041870117e+00,3.558126211166381836e+00,3.474500417709350586e+00,3.394715309143066406e+00,3.318511962890625000e+00,3.245654821395874023e+00,3.175928115844726562e+00,3.109134197235107422e+00,3.045092105865478516e+00,2.983634948730468750e+00,2.924609184265136719e+00,7.478720545768737793e-01,7.304033041000366211e-01,7.137633562088012695e-01,7.044850587844848633e-01,6.969022750854492188e-01,6.898033022880554199e-01,6.829335093498229980e-01
5.000000000000000000e+00,5.000000000000000000e+00,5.000000000000000000e+00,5.000000000000000000e+00,5.000000000000000000e+00,5.000000000000000000e+00,5.000000000000000000e+00,5.000000000000000000e+00,5.000000000000000000e+00,5.000000000000000000e+00,5.000000000000000000e+00,5.000000000000000000e+00,5.000000000000000000e+00,5.000000000000000000e+00,5.000000000000000000e+00,5.000000000000000000e+00,5.000000000000000000e+00,5.000000000000000000e+00,5.000000000000000000e+00,5.000000000000000000e+00,5.000000000000000000e+00,5.000000000000000000e+00,5.000000000000000000e+00,5.000000000000000000e+00,5.000000000000000000e+00,5.000000000000000000e+00,5.000000000000000000e+00,5.000000000000000000e+00,5.000000000000000000e+00,5.000000000000000000e+00,5.000000000000000000e+00,5.000000000000000000e+00,5.000000000000000000e+00,5.000000000000000000e+00,5.000000000000000000e+00,5.000000000000000000e+00,5.000000000000000000e+00,5.000000000000000000e+00,5.000000000000000000e+00,5.000000000000000000e+00,5.000000000000000000e+00,5.000000000000000000e+00,5.000000000000000000e+00,5.000000000000000000e+00,5.000000000000000000e+00,5.000000000000000000e+00,5.000000000000000000e+00,5.000000000000000000e+00,5.000000000000000000e+00,5.000000000000000000e+00,5.000000000000000000e+00,5.000000000000000000e+00,4.839444160461425781e+00,4.686043262481689453e+00,4.542068481445312500e+00,4.406676769256591797e+00,4.279123306274414062e+00,4.158746242523193359e+00,4.044956207275390625e+00,3.937228202819824219e+00,3.835088491439819336e+00,3.738114833831787109e+00,3.645924329757690430e+00,3.558171510696411133e+00,3.474543571472167969e+00,3.394756555557250977e+00,3.318551301956176758e+00,3.245692491531372070e+00,3.175964117050170898e+00,3.109168767929077148e+00,3.045125246047973633e+00,2.983666658401489258e+00,7.631351351737976074e-01,7.449547052383422852e-01,7.276204228401184082e-01,7.125723361968994141e-01,7.048154473304748535e-01,6.975358724594116211e-01,6.905120015144348145e-01,6.836280822753906250e-01
5.000000000000000000e+00,5.000000000000000000e+00,5.000000000000000000e+00,5.000000000000000000e+00,5.000000000000000000e+00,5.000000000000000000e+00,5.000000000000000000e+00,5.000000000000000000e+00,5.000000000000000000e+00,5.000000000000000000e+00,5.000000000000000000e+00,5.000000000000000000e+00,5.000000000000000000e+00,5.000000000000000000e+00,5.000000000000000000e+00,5.000000000000000000e+00,5.000000000000000000e+00,5.000000000000000000e+00,5.000000000000000000e+00,5.000000000000000000e+00,5.000000000000000000e+00,5.000000000000000000e+00,5.000000000000000000e+00,5.000000000000000000e+00,5.000000000000000000e+00,5.000000000000000000e+00,5.000000000000000000e+00,5.000000000000000000e+00,5.000000000000000000e+00,5.000000000000000000e+00,5.000000000000000000e+00,5.000000000000000000e+00,5.000000000000000000e+00,5.000000000000000000e+00,5.000000000000000000e+00,5.000000000000000000e+00,5.000000000000000000e+00,5.000000000000000000e+00,5.000000000000000000e+00,5.000000000000000000e+00,5.000000000000000000e+00,5.000000000000000000e+00,5.000000000000000000e+00,5.000000000000000000e+00,5.000000000000000000e+00,5.000000000000000000e+00,5.000000000000000000e+00,5.000000000000000000e+00,5.000000000000000000e+00,5.000000000000000000e+00,5.000000000000000000e+00,5.000000000000000000e+00,4.839527606964111328e+00,4.686121463775634766e+00,4.542142391204833984e+00,4.406745910644531250e+00,4.279188632965087891e+00,4.158808231353759766e+00,4.045014858245849609e+00,3.937283515930175781e+00,3.835141658782958984e+00,3.738164663314819336e+00,3.645971775054931641e+00,3.558216810226440430e+00,3.474586725234985352e+00,3.394797563552856445e+00,3.318590641021728516e+00,3.245730161666870117e+00,3.176000118255615234e+00,3.109203338623046875e+00,3.045158386230468750e+00,2.983698606491088867e+00,7.600977420806884766e-01,7.420600056648254395e-01,7.248585820198059082e-01,7.129103541374206543e-01,7.054436802864074707e-01,6.982604861259460449e-01,6.912220120429992676e-01,6.843240261077880859e-01
5.000000000000000000e+00,5.000000000000000000e+00,5.000000000000000000e+00,5.000000000000000000e+00,5.000000000000000000e+00,5.000000000000000000e+00,5.000000000000000000e+00,5.000000000000000000e+00,5.000000000000000000e+00,5.000000000000000000e+00,5.000000000000000000e+00,5.000000000000000000e+00,5.000000000000000000e+00,5.000000000000000000e+00,5.000000000000000000e+00,5.000000000000000000e+00,5.000000000000000000e+00,5.000000000000000000e+00,5.000000000000000000e+00,5.000000000000000000e+00,5.000000000000000000e+00,5.000000000000000000e+00,5.000000000000000000e+00,5.000000000000000000e+00,5.000000000000000000e+00,5.000000000000000000e+00,5.000000000000000000e+00,5.000000000000000000e+00,5.000000000000000000e+00,5.000000000000000000e+00,5.000000000000000000e+00,5.000000000000000000e+00,5.000000000000000000e+00,5.000000000000000000e+00,5.000000000000000000e+00,5.000000000000000000e+00,5.000000000000000000e+00,5.000000000000000000e+00,5.000000000000000000e+00,5.000000000000000000e+00,5.000000000000000000e+00,5.000000000000000000e+00,5.000000000000000000e+00,5.000000000000000000e+00,5.000000000000000000e+00,5.000000000000000000e+00,5.000000000000000000e+00,5.000000000000000000e+00,5.000000000000000000e+00,5.000000000000000000e+00,5.000000000000000000e+00,5.000000000000000000e+00,4.839611530303955078e+00,4.686200141906738281e+00,4.542215824127197266e+00,4.406815528869628906e+00,4.279254436492919922e+00,4.158870220184326172e+00,4.045073509216308594e+00,3.937339067459106445e+00,3.835194110870361328e+00,3.738214731216430664e+00,3.646019220352172852e+00,3.558261871337890625e+00,3.474629878997802734e+00,3.394838809967041016e+00,3.318630456924438477e+00,3.245767831802368164e+00,3.176036357879638672e+00,3.109237909317016602e+00,3.045191526412963867e+00,7.761225700378417969e-01,7.570913434028625488e-01,7.391877770423889160e-01,7.221179008483886719e-01,7.135329842567443848e-01,7.061848640441894531e-01,6.989865303039550781e-01,6.919335722923278809e-01,6.874874234199523926e-01
5.000000000000000000e+00,5.000000000000000000e+00,5.000000000000000000e+00,5.000000000000000000e+00,5.000000000000000000e+00,5.000000000000000000e+00,5.000000000000000000e+00,5.000000000000000000e+00,5.000000000000000000e+00,5.000000000000000000e+00,5.000000000000000000e+00,5.000000000000000000e+00,5.000000000000000000e+00,5.000000000000000000e+00,5.000000000000000000e+00,5.000000000000000000e+00,5.000000000000000000e+00,5.000000000000000000e+00,5.000000000000000000e+00,5.000000000000000000e+00,5.000000000000000000e+00,5.000000000000000000e+00,5.000000000000000000e+00,5.000000000000000000e+00,5.000000000000000000e+00,5.000000000000000000e+00,5.000000000000000000e+00,5.000000000000000000e+00,5.000000000000000000e+00,5.000000000000000000e+00,5.000000000000000000e+00,5.000000000000000000e+00,5.000000000000000000e+00,5.000000000000000000e+00,5.000000000000000000e+00,5.000000000000000000e+00,5.000000000000000000e+00,5.000000000000000000e+00,5.000000000000000000e+00,5.000000000000000000e+00,5.000000000000000000e+00,5.000000000000000000e+00,5.000000000000000000e+00,5.000000000000000000e+00,5.000000000000000000e+00,5.000000000000000000e+00,5.000000000000000000e+00,5.000000000000000000e+00,5.000000000000000000e+00,5.000000000000000000e+00,5.000000000000000000e+00,5.000000000000000000e+00,4.839695453643798828e+00,4.686278820037841797e+00,4.542289733886718750e+00,4.406885147094726562e+00,4.279319763183593750e+00,4.158931732177734375e+00,4.045132160186767578e+00,3.937394380569458008e+00,3.835246801376342773e+00,3.738264799118041992e+00,3.646066904067993164e+00,3.558307170867919922e+00,3.474673271179199219e+00,3.394880056381225586e+00,3.318669795989990234e+00,3.245805501937866211e+00,3.176072359085083008e+00,3.109272480010986328e+00,3.045224666595458984e+00,7.730774879455566406e-01,7.543669939041137695e-01,7.365408539772033691e-01,7.222061753273010254e-01,7.143879532814025879e-01,7.069275379180908203e-01,6.997141838073730469e-01,6.926465034484863281e-01,6.912158727645874023e-01
5.000000000000000000e+00,5.000000000000000000e+00,5.000000000000000000e+00,5.000000000000000000e+00,5.000000000000000000e+00,5.000000000000000000e+00,5.000000000000000000e+00,5.000000000000000000e+00,5.000000000000000000e+00,5.000000000000000000e+00,5.000000000000000000e+00,5.000000000000000000e+00,5.000000000000000000e+00,5.000000000000000000e+00,5.000000000000000000e+00,5.000000000000000000e+00,5.000000000000000000e+00,5.000000000000000000e+00,5.000000000000000000e+00,5.000000000000000000e+00,5.000000000000000000e+00,5.000000000000000000e+00,5.000000000000000000e+00,5.000000000000000000e+00,5.000000000000000000e+00,5.000000000000000000e+00,5.000000000000000000e+00,5.000000000000000000e+00,5.000000000000000000e+00,5.000000000000000000e+00,5.000000000000000000e+00,5.000000000000000000e+00,5.000000000000000000e+00,5.000000000000000000e+00,5.000000000000000000e+00,5.000000000000000000e+00,5.000000000000000000e+00,5.000000000000000000e+00,5.000000000000000000e+00,5.000000000000000000e+00,5.000000000000000000e+00,5.000000000000000000e+00,5.000000000000000000e+00,5.000000000000000000e+00,5.000000000000000000e+00,5.000000000000000000e+00,5.000000000000000000e+00,5.000000000000000000e+00,5.000000000000000000e+00,5.000000000000000000e+00,5.000000000000000000e+00,5.000000000000000000e+00,4.839779376983642578e+00,4.686357021331787109e+00,4.542363643646240234e+00,4.406954288482666016e+00,4.279385089874267578e+00,4.158993721008300781e+00,4.045190334320068359e+00,3.937449932098388672e+00,3.835299491882324219e+00,3.738314628601074219e+00,3.646114349365234375e+00,3.558352470397949219e+00,3.474716424942016602e+00,3.394921302795410156e+00,3.318709135055541992e+00,3.245843172073364258e+00,3.176108360290527344e+00,3.109307050704956055e+00,3.045257806777954102e+00,7.702371478080749512e-01,7.516622543334960938e-01,7.339622378349304199e-01,7.236772775650024414e-01,7.158273458480834961e-01,7.081458568572998047e-01,7.006275057792663574e-01,6.952960491180419922e-01,6.949849128723144531e-01
4.873995304107666016e+00,4.872780799865722656e+00,4.871566295623779297e+00,4.870352745056152344e+00,4.869139671325683594e+00,4.867927551269531250e+00,4.866715431213378906e+00,4.865504741668701172e+00,4.864294052124023438e+00,4.863084316253662109e+00,4.861874580383300781e+00,4.860666275024414062e+00,4.859457969665527344e+00,4.858250617980957031e+00,4.857043266296386719e+00,4.855837345123291016e+00,4.854631423950195312e+00,4.853426456451416016e+00,4.852221488952636719e+00,4.851017951965332031e+00,4.849814414978027344e+00,4.848611831665039062e+00,4.847409725189208984e+00,4.846208095550537109e+00,4.845006942749023438e+00,4.843806743621826172e+00,4.842607021331787109e+00,4.841407775878906250e+00,4.840209007263183594e+00,4.839011192321777344e+00,4.837813854217529297e+00,4.836616992950439453e+00,4.835420608520507812e+00,4.834225177764892578e+00,4.833030223846435547e+00,4.831835746765136719e+00,4.830641746520996094e+00,4.829448699951171875e+00,4.828255653381347656e+00,4.827064037322998047e+00,4.825872421264648438e+00,4.824681758880615234e+00,4.823491096496582031e+00,4.822301387786865234e+00,4.821112155914306641e+00,4.819923877716064453e+00,4.818735599517822266e+00,4.817548274993896484e+00,4.816361427307128906e+00,4.815175533294677734e+00,4.813989639282226562e+00,4.812804698944091797e+00,4.811620235443115234e+00,4.686435699462890625e+00,4.542437553405761719e+00,4.407024383544921875e+00,4.279450893402099609e+00,4.159055709838867188e+00,4.045249462127685547e+00,3.937505245208740234e+00,3.835351943969726562e+00,3.738365173339843750e+00,3.646162033081054688e+00,3.558397769927978516e+00,3.474759578704833984e+00,3.394962549209594727e+00,3.318748474121093750e+00,3.245880842208862305e+00,3.176144361495971680e+00,3.109341621398925781e+00,7.885789275169372559e-01,7.674175500869750977e-01,7.489767670631408691e-01,7.332113385200500488e-01,7.251543402671813965e-01,7.172725200653076172e-01,7.095601558685302734e-01,7.019816637039184570e-01,6.994045376777648926e-01,6.989367008209228516e-01
3.777525663375854492e+00,3.776796102523803711e+00,3.776066780090332031e+00,3.775337696075439453e+00,3.774608612060546875e+00,3.773880004882812500e+00,3.773151874542236328e+00,3.772423982620239258e+00,3.771695852279663086e+00,3.770968437194824219e+00,3.770241260528564453e+00,3.769514560699462891e+00,3.768787622451782227e+00,3.768061399459838867e+00,3.767335414886474609e+00,3.766609668731689453e+00,3.765883922576904297e+00,3.765158653259277344e+00,3.764433860778808594e+00,3.763709306716918945e+00,3.762984514236450195e+00,3.762260437011718750e+00,3.761536836624145508e+00,3.760813474655151367e+00,3.760089635848999023e+00,3.759366750717163086e+00,3.758644342422485352e+00,3.757921934127807617e+00,3.757199287414550781e+00,3.756477594375610352e+00,3.755756139755249023e+00,3.755034923553466797e+00,3.754313468933105469e+00,3.753592729568481445e+00,3.752872467041015625e+00,3.752152204513549805e+00,3.751431941986083984e+00,3.750712394714355469e+00,3.749993085861206055e+00,3.749274015426635742e+00,3.748554944992065430e+00,3.747836351394653320e+00,3.747118234634399414e+00,3.746400356292724609e+00,3.745682239532470703e+00,3.744964838027954102e+00,3.744247674942016602e+00,3.743530988693237305e+00,3.742813825607299805e+00,3.742097616195678711e+00,3.741381645202636719e+00,3.740665912628173828e+00,3.739950180053710938e+00,3.739234924316406250e+00,3.738520145416259766e+00,3.737805366516113281e+00,3.737090587615966797e+00,3.736376523971557617e+00,3.735662698745727539e+00,3.734949111938476562e+00,3.734235525131225586e+00,3.733522415161132812e+00,3.646209478378295898e+00,3.558443069458007812e+00,3.474802732467651367e+00,3.395003795623779297e+00,3.318787813186645508e+00,3.245918750762939453e+00,3.176180601119995117e+00,3.109376192092895508e+00,7.851284742355346680e-01,7.646185755729675293e-01,7.463104724884033203e-01,7.347276806831359863e-01,7.266374826431274414e-01,7.187234759330749512e-01,7.109544277191162109e-01,7.044181227684020996e-01,7.036146521568298340e-01,7.031412124633789062e-01
3.083787441253662109e+00,3.083301305770874023e+00,3.082814931869506836e+00,3.082328796386718750e+00,3.081843137741088867e+00,3.081357479095458984e+00,3.080871582031250000e+00,3.080386400222778320e+00,3.079901218414306641e+00,3.079416036605834961e+00,3.078930854797363281e+00,3.078446149826049805e+00,3.077961683273315430e+00,3.077477216720581055e+00,3.076992750167846680e+00,3.076508522033691406e+00,3.076024532318115234e+00,3.075540781021118164e+00,3.075056791305541992e+00,3.074573278427124023e+00,3.074090003967285156e+00,3.073606729507446289e+00,3.073123455047607422e+00,3.072640419006347656e+00,3.072157621383666992e+00,3.071675062179565430e+00,3.071192264556884766e+00,3.070709943771362305e+00,3.070227861404418945e+00,3.069746017456054688e+00,3.069263696670532227e+00,3.068782091140747070e+00,3.068300485610961914e+00,3.067819118499755859e+00,3.067337751388549805e+00,3.066856622695922852e+00,3.066375732421875000e+00,3.065894842147827148e+00,3.065413951873779297e+00,3.064933538436889648e+00,3.064453125000000000e+00,3.063972949981689453e+00,3.063492774963378906e+00,3.063012838363647461e+00,3.062533140182495117e+00,3.062053442001342773e+00,3.061573743820190430e+00,3.061094522476196289e+00,3.060615539550781250e+00,3.060136556625366211e+00,3.059657335281372070e+00,3.059178590774536133e+00,3.058700084686279297e+00,3.058221817016601562e+00,3.057743310928344727e+00,3.057265043258666992e+00,3.056787252426147461e+00,3.056309461593627930e+00,3.055831432342529297e+00,3.055353879928588867e+00,3.054876565933227539e+00,3.054399490356445312e+00,3.053922176361083984e+00,3.053445339202880859e+00,3.052968502044677734e+00,3.052491903305053711e+00,3.052015304565429688e+00,3.051538944244384766e+00,3.051062822341918945e+00,8.050372004508972168e-01,7.817081212997436523e-01,7.618399262428283691e-01,7.445571422576904297e-01,7.362502813339233398e-01,7.281267046928405762e-01,7.201595306396484375e-01,7.122544050216674805e-01,7.083556652069091797e-01,7.078757882118225098e-01,7.073965668678283691e-01
2.605322599411010742e+00,2.604975461959838867e+00,2.604628562927246094e+00,2.604281663894653320e+00,2.603934764862060547e+00,2.603587865829467773e+00,2.603241205215454102e+00,2.602894783020019531e+00,2.602548122406005859e+00,2.602201700210571289e+00,2.601855516433715820e+00,2.601509332656860352e+00,2.601163148880004883e+00,2.600817203521728516e+00,2.600471258163452148e+00,2.600125551223754883e+00,2.599779605865478516e+00,2.599433898925781250e+00,2.599088430404663086e+00,2.598742961883544922e+00,2.598397493362426758e+00,2.598052263259887695e+00,2.597707033157348633e+00,2.597362041473388672e+00,2.597016811370849609e+00,2.596672058105468750e+00,2.596327304840087891e+00,2.595982551574707031e+00,2.595637798309326172e+00,2.595293283462524414e+00,2.594948768615722656e+00,2.594604492187500000e+00,2.594259977340698242e+00,2.593915939331054688e+00,2.593571901321411133e+00,2.593227863311767578e+00,2.592883825302124023e+00,2.592540025711059570e+00,2.592196464538574219e+00,2.591852664947509766e+00,2.591509103775024414e+00,2.591165542602539062e+00,2.590822219848632812e+00,2.590479135513305664e+00,2.590135812759399414e+00,2.589792728424072266e+00,2.589449644088745117e+00,2.589106798171997070e+00,2.588763952255249023e+00,2.588421106338500977e+00,2.588078737258911133e+00,2.587736129760742188e+00,2.587393522262573242e+00,2.587051153182983398e+00,2.586709022521972656e+00,2.586366891860961914e+00,2.586024522781372070e+00,2.585682630538940430e+00,2.585340738296508789e+00,2.584999084472656250e+00,2.584657192230224609e+00,2.584315538406372070e+00,2.583974123001098633e+00,2.583632707595825195e+00,2.583291053771972656e+00,2.582949876785278320e+00,2.582608699798583984e+00,2.582267761230468750e+00,2.581926584243774414e+00,8.014416098594665527e-01,7.783173322677612305e-01,7.590813636779785156e-01,7.461207509040832520e-01,7.377791404724121094e-01,7.296060323715209961e-01,7.214934229850769043e-01,7.145177721977233887e-01,7.126745581626892090e-01,7.121888399124145508e-01,7.117037177085876465e-01
2.255388259887695312e+00,2.255128145217895508e+00,2.254867792129516602e+00,2.254607915878295898e+00,2.254348039627075195e+00,2.254088163375854492e+00,2.253828048706054688e+00,2.253568410873413086e+00,2.253308773040771484e+00,2.253049135208129883e+00,2.252789258956909180e+00,2.252529859542846680e+00,2.252270460128784180e+00,2.252011060714721680e+00,2.251751422882080078e+00,2.251492261886596680e+00,2.251233100891113281e+00,2.250973939895629883e+00,2.250714540481567383e+00,2.250455617904663086e+00,2.250196695327758789e+00,2.249937772750854492e+00,2.249678611755371094e+00,2.249419927597045898e+00,2.249161243438720703e+00,2.248902559280395508e+00,2.248643636703491211e+00,2.248385190963745117e+00,2.248126745223999023e+00,2.247868299484252930e+00,2.247609615325927734e+00,2.247351408004760742e+00,2.247093200683593750e+00,2.246834993362426758e+00,2.246576547622680664e+00,2.246318578720092773e+00,2.246060609817504883e+00,2.245802640914916992e+00,2.245544433593750000e+00,2.245286703109741211e+00,2.245028972625732422e+00,2.244771242141723633e+00,2.244513273239135742e+00,2.244255781173706055e+00,2.243998050689697266e+00,2.243740558624267578e+00,2.243483066558837891e+00,2.243225812911987305e+00,2.242968320846557617e+00,2.242711067199707031e+00,2.242453813552856445e+00,2.242196559906005859e+00,2.241939544677734375e+00,2.241682529449462891e+00,2.241425514221191406e+00,2.241168498992919922e+00,2.240911722183227539e+00,2.240654945373535156e+00,2.240397930145263672e+00,2.240141391754150391e+00,2.239884853363037109e+00,2.239628314971923828e+00,2.239371538162231445e+00,2.239115238189697266e+00,2.238858699798583984e+00,2.238602399826049805e+00,2.238346099853515625e+00,2.238089799880981445e+00,8.221971988677978516e-01,7.978779077529907227e-01,7.751525640487670898e-01,7.563427686691284180e-01,7.476910352706909180e-01,7.393037080764770508e-01,7.309752106666564941e-01,7.228323221206665039e-01,7.182458639144897461e-01,7.170464992523193359e-01,7.165547609329223633e-01,7.160636782646179199e-01
1.988325715065002441e+00,1.988123536109924316e+00,1.987921357154846191e+00,1.987719297409057617e+00,1.987517237663269043e+00,1.987315297126770020e+00,1.987113356590270996e+00,1.986911416053771973e+00,1.986709356307983398e+00,1.986507534980773926e+00,1.986305713653564453e+00,1.986104011535644531e+00,1.985902309417724609e+00,1.985700607299804688e+00,1.985499024391174316e+00,1.985297441482543945e+00,1.985095620155334473e+00,1.984894156455993652e+00,1.984692692756652832e+00,1.984491229057312012e+00,1.984289765357971191e+00,1.984088420867919922e+00,1.983887195587158203e+00,1.983685970306396484e+00,1.983484506607055664e+00,1.983283281326293945e+00,1.983082175254821777e+00,1.982881069183349609e+00,1.982679963111877441e+00,1.982478976249694824e+00,1.982277989387512207e+00,1.982077121734619141e+00,1.981876015663146973e+00,1.981675148010253906e+00,1.981474280357360840e+00,1.981273531913757324e+00,1.981072783470153809e+00,1.980872154235839844e+00,1.980671525001525879e+00,1.980470895767211914e+00,1.980270028114318848e+00,1.980069518089294434e+00,1.979869008064270020e+00,1.979668617248535156e+00,1.979468226432800293e+00,1.979267835617065430e+00,1.979067444801330566e+00,1.978867173194885254e+00,1.978666782379150391e+00,1.978466510772705078e+00,1.978266358375549316e+00,1.978066205978393555e+00,1.977866172790527344e+00,1.977666139602661133e+00,1.977466106414794922e+00,1.977266192436218262e+00,1.977066040039062500e+00,1.976866126060485840e+00,1.976666331291198730e+00,1.976466417312622070e+00,1.976266741752624512e+00,1.976066946983337402e+00,1.975867271423339844e+00,1.975667715072631836e+00,1.975467801094055176e+00,1.975268244743347168e+00,1.975068807601928711e+00,1.974869251251220703e+00,8.184469938278198242e-01,7.943457365036010742e-01,7.722969651222229004e-01,7.578727602958679199e-01,7.492625713348388672e-01,7.407096028327941895e-01,7.323495745658874512e-01,7.249112129211425781e-01,7.220130562782287598e-01,7.214723229408264160e-01,7.209745645523071289e-01,1.972478270530700684e+00
1.777807354927062988e+00,1.777646422386169434e+00,1.777485609054565430e+00,1.777324676513671875e+00,1.777163863182067871e+00,1.777003169059753418e+00,1.776842355728149414e+00,1.776681661605834961e+00,1.776520848274230957e+00,1.776359677314758301e+00,1.776198267936706543e+00,1.776036977767944336e+00,1.775875687599182129e+00,1.775714397430419922e+00,1.775552988052368164e+00,1.775391817092895508e+00,1.775230646133422852e+00,1.775069475173950195e+00,1.774908304214477539e+00,1.774747252464294434e+00,1.774586200714111328e+00,1.774425148963928223e+00,1.774263978004455566e+00,1.774102926254272461e+00,1.773941993713378906e+00,1.773781061172485352e+00,1.773620247840881348e+00,1.773459315299987793e+00,1.773298501968383789e+00,1.773137688636779785e+00,1.772976756095886230e+00,1.772815942764282227e+00,1.772655248641967773e+00,1.772494554519653320e+00,1.772333979606628418e+00,1.772173285484313965e+00,1.772012710571289062e+00,1.771852135658264160e+00,1.771691441535949707e+00,1.771530866622924805e+00,1.771370410919189453e+00,1.771209955215454102e+00,1.771049499511718750e+00,1.770889163017272949e+00,1.770728707313537598e+00,1.770568370819091797e+00,1.770407915115356445e+00,1.770247697830200195e+00,1.770087361335754395e+00,1.769927144050598145e+00,1.769766926765441895e+00,1.769606828689575195e+00,1.769446730613708496e+00,1.769286513328552246e+00,1.769126296043395996e+00,1.768966317176818848e+00,1.768806219100952148e+00,1.768646240234375000e+00,1.768486261367797852e+00,1.768326401710510254e+00,1.768166422843933105e+00,1.768006563186645508e+00,1.767846584320068359e+00,1.767686724662780762e+00,1.767526984214782715e+00,1.767367243766784668e+00,1.767207503318786621e+00,1.767047762870788574e+00,1.766888141632080078e+00,7.908447980880737305e-01,7.694623470306396484e-01,7.594929337501525879e-01,7.507066726684570312e-01,7.421208024024963379e-01,7.337291240692138672e-01,7.287488579750061035e-01,7.264579534530639648e-01,7.259532213211059570e-01,1.765292644500732422e+00,1.765133261680603027e+00
1.607599139213562012e+00,1.607467532157897949e+00,1.607336044311523438e+00,1.607204437255859375e+00,1.607072949409484863e+00,1.606941461563110352e+00,1.606810092926025391e+00,1.606678605079650879e+00,1.606547117233276367e+00,1.606415748596191406e+00,1.606284379959106445e+00,1.606153011322021484e+00,1.606021642684936523e+00,1.605890274047851562e+00,1.605759024620056152e+00,1.605627775192260742e+00,1.605496644973754883e+00,1.605365037918090820e+00,1.605233311653137207e+00,1.605101585388183594e+00,1.604969620704650879e+00,1.604837894439697266e+00,1.604706168174743652e+00,1.604574561119079590e+00,1.604442834854125977e+00,1.604311227798461914e+00,1.604179620742797852e+00,1.604048013687133789e+00,1.603916287422180176e+00,1.603784680366516113e+00,1.603653192520141602e+00,1.603521704673767090e+00,1.603390216827392578e+00,1.603258728981018066e+00,1.603127360343933105e+00,1.602995872497558594e+00,1.602864384651184082e+00,1.602733016014099121e+00,1.602601647377014160e+00,1.602470278739929199e+00,1.602338910102844238e+00,1.602207660675048828e+00,1.602076411247253418e+00,1.601945161819458008e+00,1.601813793182373047e+00,1.601682543754577637e+00,1.601551413536071777e+00,1.601420164108276367e+00,1.601289033889770508e+00,1.601157903671264648e+00,1.601026892662048340e+00,1.600895762443542480e+00,1.600764513015747070e+00,1.600633502006530762e+00,1.600502490997314453e+00,1.600371479988098145e+00,1.600240588188171387e+00,1.600109577178955078e+00,1.599978685379028320e+00,1.599847674369812012e+00,1.599716663360595703e+00,1.599585890769958496e+00,1.599454998970031738e+00,1.599324226379394531e+00,1.599193334579467773e+00,1.599062561988830566e+00,1.598931908607482910e+00,1.598801136016845703e+00,8.273093104362487793e-01,7.873744964599609375e-01,7.700008749961853027e-01,7.609773278236389160e-01,7.521563768386840820e-01,7.435374259948730469e-01,7.356115579605102539e-01,7.326272726058959961e-01,7.310011386871337891e-01,7.304901480674743652e-01,1.597364187240600586e+00,1.597233653068542480e+00
1.467134833335876465e+00,1.467025279998779297e+00,1.466915726661682129e+00,1.466806054115295410e+00,1.466696500778198242e+00,1.466587066650390625e+00,1.466477632522583008e+00,1.466367959976196289e+00,1.466258525848388672e+00,1.466149091720581055e+00,1.466039657592773438e+00,1.465930342674255371e+00,1.465820789337158203e+00,1.465711474418640137e+00,1.465602040290832520e+00,1.465492725372314453e+00,1.465383410453796387e+00,1.465273976325988770e+00,1.465164780616760254e+00,1.465055465698242188e+00,1.464946269989013672e+00,1.464836955070495605e+00,1.464727640151977539e+00,1.464618444442749023e+00,1.464509248733520508e+00,1.464400053024291992e+00,1.464290261268615723e+00,1.464180707931518555e+00,1.464071035385131836e+00,1.463961362838745117e+00,1.463851809501647949e+00,1.463742256164550781e+00,1.463632702827453613e+00,1.463523149490356445e+00,1.463413476943969727e+00,1.463303923606872559e+00,1.463194489479064941e+00,1.463084936141967773e+00,1.462975502014160156e+00,1.462866067886352539e+00,1.462756633758544922e+00,1.462647199630737305e+00,1.462537646293640137e+00,1.462428331375122070e+00,1.462318897247314453e+00,1.462209582328796387e+00,1.462100267410278320e+00,1.461990952491760254e+00,1.461881637573242188e+00,1.461772322654724121e+00,1.461663007736206055e+00,1.461553692817687988e+00,1.461444497108459473e+00,1.461335301399230957e+00,1.461226105690002441e+00,1.461116909980773926e+00,1.461007714271545410e+00,1.460898518562316895e+00,1.460789322853088379e+00,1.460680127143859863e+00,1.460571050643920898e+00,1.460461974143981934e+00,1.460352897644042969e+00,1.460243821144104004e+00,1.460134863853454590e+00,1.460025787353515625e+00,1.459916710853576660e+00,1.459807634353637695e+00,8.148882389068603516e-01,7.961290478706359863e-01,7.805900573730468750e-01,7.624669671058654785e-01,7.536115646362304688e-01,7.449594736099243164e-01,7.395635247230529785e-01,7.365472316741943359e-01,7.356014847755432129e-01,1.458718538284301758e+00,1.458609700202941895e+00,1.458500862121582031e+00
1.349244236946105957e+00,1.349151611328125000e+00,1.349058866500854492e+00,1.348966240882873535e+00,1.348873615264892578e+00,1.348780989646911621e+00,1.348688364028930664e+00,1.348595738410949707e+00,1.348503112792968750e+00,1.348410606384277344e+00,1.348318099975585938e+00,1.348225474357604980e+00,1.348132848739624023e+00,1.348040342330932617e+00,1.347947835922241211e+00,1.347855448722839355e+00,1.347762942314147949e+00,1.347670435905456543e+00,1.347577929496765137e+00,1.347485542297363281e+00,1.347393035888671875e+00,1.347300767898559570e+00,1.347208261489868164e+00,1.347115874290466309e+00,1.347023487091064453e+00,1.346931099891662598e+00,1.346838712692260742e+00,1.346746325492858887e+00,1.346654057502746582e+00,1.346561670303344727e+00,1.346469402313232422e+00,1.346377015113830566e+00,1.346284747123718262e+00,1.346192479133605957e+00,1.346099972724914551e+00,1.346007347106933594e+00,1.345914721488952637e+00,1.345821976661682129e+00,1.345729351043701172e+00,1.345636844635009766e+00,1.345544099807739258e+00,1.345451474189758301e+00,1.345358967781066895e+00,1.345266342163085938e+00,1.345173835754394531e+00,1.345081329345703125e+00,1.344988822937011719e+00,1.344896316528320312e+00,1.344803690910339355e+00,1.344711184501647949e+00,1.344618678092956543e+00,1.344526290893554688e+00,1.344433784484863281e+00,1.344341397285461426e+00,1.344249010086059570e+00,1.344156503677368164e+00,1.344063997268676758e+00,1.343971729278564453e+00,1.343879342079162598e+00,1.343786954879760742e+00,1.343694567680358887e+00,1.343602299690246582e+00,1.343509912490844727e+00,1.343417644500732422e+00,1.343325257301330566e+00,1.343232989311218262e+00,1.343140721321105957e+00,8.294212222099304199e-01,8.059642910957336426e-01,7.901488542556762695e-01,7.799484133720397949e-01,7.714182734489440918e-01,7.664881944656372070e-01,7.620672583580017090e-01,7.435582876205444336e-01,7.407849431037902832e-01,1.342218637466430664e+00,1.342126488685607910e+00,1.342034339904785156e+00,1.341942191123962402e+00
1.248890638351440430e+00,1.248811244964599609e+00,1.248731851577758789e+00,1.248652458190917969e+00,1.248573064804077148e+00,1.248493671417236328e+00,1.248414397239685059e+00,1.248335003852844238e+00,1.248255610466003418e+00,1.248176336288452148e+00,1.248097062110900879e+00,1.248017787933349609e+00,1.247938394546508789e+00,1.247859120368957520e+00,1.247779846191406250e+00,1.247700572013854980e+00,1.247621297836303711e+00,1.247542023658752441e+00,1.247462868690490723e+00,1.247383594512939453e+00,1.247304439544677734e+00,1.247225165367126465e+00,1.247146010398864746e+00,1.247066736221313477e+00,1.246987581253051758e+00,1.246908545494079590e+00,1.246829271316528320e+00,1.246750116348266602e+00,1.246670961380004883e+00,1.246591925621032715e+00,1.246512770652770996e+00,1.246433615684509277e+00,1.246354579925537109e+00,1.246275424957275391e+00,1.246196389198303223e+00,1.246117353439331055e+00,1.246038198471069336e+00,1.245959162712097168e+00,1.245880246162414551e+00,1.245801210403442383e+00,1.245722174644470215e+00,1.245643138885498047e+00,1.245564103126525879e+00,1.245484709739685059e+00,1.245405435562133789e+00,1.245326042175292969e+00,1.245246648788452148e+00,1.245167374610900879e+00,1.245088100433349609e+00,1.245008826255798340e+00,1.244929552078247070e+00,1.244850277900695801e+00,1.244771003723144531e+00,1.244691848754882812e+00,1.244612455368041992e+00,1.244533300399780273e+00,1.244454026222229004e+00,1.244374871253967285e+00,1.244295716285705566e+00,1.244216561317443848e+00,1.244137406349182129e+00,1.244058251380920410e+00,1.243978977203369141e+00,1.243899822235107422e+00,1.243820667266845703e+00,1.243741631507873535e+00,8.476283550262451172e-01,8.247935771942138672e-01,8.047726154327392578e-01,7.868464589118957520e-01,7.793105244636535645e-01,7.724336385726928711e-01,7.659019827842712402e-01,7.616797089576721191e-01,1.243029952049255371e+00,1.242950916290283203e+00,1.242871880531311035e+00,1.242792844772338867e+00,1.242713809013366699e+00,1.242634892463684082e+00
1.162431716918945312e+00,1.162362933158874512e+00,1.162294030189514160e+00,1.162225365638732910e+00,1.162156581878662109e+00,1.162087798118591309e+00,1.162019014358520508e+00,1.161950230598449707e+00,1.161881566047668457e+00,1.161812782287597656e+00,1.161744117736816406e+00,1.161675333976745605e+00,1.161606669425964355e+00,1.161538004875183105e+00,1.161469340324401855e+00,1.161400675773620605e+00,1.161331892013549805e+00,1.161263227462768555e+00,1.161194682121276855e+00,1.161126017570495605e+00,1.161057353019714355e+00,1.160988688468933105e+00,1.160920023918151855e+00,1.160851478576660156e+00,1.160782933235168457e+00,1.160714268684387207e+00,1.160645604133605957e+00,1.160577058792114258e+00,1.160508513450622559e+00,1.160439968109130859e+00,1.160371422767639160e+00,1.160302758216857910e+00,1.160234212875366211e+00,1.160165786743164062e+00,1.160097241401672363e+00,1.160028696060180664e+00,1.159960150718688965e+00,1.159891724586486816e+00,1.159823179244995117e+00,1.159754753112792969e+00,1.159686207771301270e+00,1.159617781639099121e+00,1.159549236297607422e+00,1.159480810165405273e+00,1.159412384033203125e+00,1.159343957901000977e+00,1.159275531768798828e+00,1.159207105636596680e+00,1.159138679504394531e+00,1.159070253372192383e+00,1.159001827239990234e+00,1.158933281898498535e+00,1.158864498138427734e+00,1.158795833587646484e+00,1.158727169036865234e+00,1.158658504486083984e+00,1.158589839935302734e+00,1.158521175384521484e+00,1.158452510833740234e+00,1.158383846282958984e+00,1.158315181732177734e+00,1.158246636390686035e+00,1.158177971839904785e+00,1.158109426498413086e+00,1.158040881156921387e+00,1.157972216606140137e+00,8.377734422683715820e-01,8.201227188110351562e-01,8.015610575675964355e-01,7.843332290649414062e-01,7.754947543144226074e-01,7.694673538208007812e-01,7.634066343307495117e-01,7.611311674118041992e-01,1.157355308532714844e+00,1.157286763191223145e+00,1.157218217849731445e+00,1.157149791717529297e+00,1.157081365585327148e+00,1.157012820243835449e+00
1.087168455123901367e+00,1.087108254432678223e+00,1.087048172950744629e+00,1.086987972259521484e+00,1.086927890777587891e+00,1.086867690086364746e+00,1.086807489395141602e+00,1.086747407913208008e+00,1.086687326431274414e+00,1.086627125740051270e+00,1.086567044258117676e+00,1.086506962776184082e+00,1.086446881294250488e+00,1.086386799812316895e+00,1.086326718330383301e+00,1.086266636848449707e+00,1.086206436157226562e+00,1.086146473884582520e+00,1.086086392402648926e+00,1.086026310920715332e+00,1.085966348648071289e+00,1.085906267166137695e+00,1.085846185684204102e+00,1.085786223411560059e+00,1.085726141929626465e+00,1.085666060447692871e+00,1.085606098175048828e+00,1.085546135902404785e+00,1.085486173629760742e+00,1.085426211357116699e+00,1.085366129875183105e+00,1.085306167602539062e+00,1.085246205329895020e+00,1.085186243057250977e+00,1.085126280784606934e+00,1.085066318511962891e+00,1.085006356239318848e+00,1.084946513175964355e+00,1.084886550903320312e+00,1.084826707839965820e+00,1.084766745567321777e+00,1.084706783294677734e+00,1.084646940231323242e+00,1.084586977958679199e+00,1.084527134895324707e+00,1.084467172622680664e+00,1.084407329559326172e+00,1.084347486495971680e+00,1.084287643432617188e+00,1.084227800369262695e+00,1.084167957305908203e+00,1.084108114242553711e+00,1.084048271179199219e+00,1.083988428115844727e+00,1.083928585052490234e+00,1.083868741989135742e+00,1.083809018135070801e+00,1.083749175071716309e+00,1.083689451217651367e+00,1.083629369735717773e+00,1.083569407463073730e+00,1.083509325981140137e+00,1.083449244499206543e+00,1.083389282226562500e+00,1.083329200744628906e+00,8.599457740783691406e-01,8.327595591545104980e-01,8.153640627861022949e-01,7.991194128990173340e-01,7.823225855827331543e-01,7.717739343643188477e-01,7.638005018234252930e-01,7.558234930038452148e-01,7.527888417243957520e-01,7.633690237998962402e-01,1.082669258117675781e+00,1.082609295845031738e+00,1.082549452781677246e+00,1.082489490509033203e+00,1.082429528236389160e+00
1.021058678627014160e+00,1.021005630493164062e+00,1.020952582359313965e+00,1.020899534225463867e+00,1.020846486091613770e+00,1.020793437957763672e+00,1.020740270614624023e+00,1.020687222480773926e+00,1.020634174346923828e+00,1.020581245422363281e+00,1.020528197288513184e+00,1.020475149154663086e+00,1.020422101020812988e+00,1.020369052886962891e+00,1.020316123962402344e+00,1.020263075828552246e+00,1.020210027694702148e+00,1.020157098770141602e+00,1.020104169845581055e+00,1.020051121711730957e+00,1.019998192787170410e+00,1.019945144653320312e+00,1.019892215728759766e+00,1.019839286804199219e+00,1.019786357879638672e+00,1.019733309745788574e+00,1.019680380821228027e+00,1.019627571105957031e+00,1.019574642181396484e+00,1.019521713256835938e+00,1.019468665122985840e+00,1.019415855407714844e+00,1.019362926483154297e+00,1.019309997558593750e+00,1.019257187843322754e+00,1.019204258918762207e+00,1.019151329994201660e+00,1.019098520278930664e+00,1.019045591354370117e+00,1.018992781639099121e+00,1.018939852714538574e+00,1.018887042999267578e+00,1.018834114074707031e+00,1.018781304359436035e+00,1.018728375434875488e+00,1.018675565719604492e+00,1.018622756004333496e+00,1.018569946289062500e+00,1.018517136573791504e+00,1.018464326858520508e+00,1.018411517143249512e+00,1.018358707427978516e+00,1.018305897712707520e+00,1.018253087997436523e+00,1.018200278282165527e+00,1.018147587776184082e+00,1.018094778060913086e+00,1.018041968345642090e+00,1.017989277839660645e+00,1.017936468124389648e+00,1.017883658409118652e+00,1.017830967903137207e+00,1.017778277397155762e+00,1.017725467681884766e+00,1.017672777175903320e+00,1.017619967460632324e+00,8.303834199905395508e-01,8.135028481483459473e-01,7.985490560531616211e-01,7.826561331748962402e-01,7.665987610816955566e-01,7.573382854461669922e-01,7.467592358589172363e-01,7.412678599357604980e-01,7.390652298927307129e-01,1.017091035842895508e+00,1.017038226127624512e+00,1.016985297203063965e+00,1.016932368278503418e+00,1.016879439353942871e+00
9.625282883644104004e-01,9.624810218811035156e-01,9.624338746070861816e-01,9.623866677284240723e-01,9.623395204544067383e-01,9.622924327850341797e-01,9.622452855110168457e-01,9.621981382369995117e-01,9.621510505676269531e-01,9.621039032936096191e-01,9.620566964149475098e-01,9.620095491409301758e-01,9.619624614715576172e-01,9.619153738021850586e-01,9.618682861328125000e-01,9.618211984634399414e-01,9.617741107940673828e-01,9.617270231246948242e-01,9.616799354553222656e-01,9.616328477859497070e-01,9.615857005119323730e-01,9.615386128425598145e-01,9.614915847778320312e-01,9.614444971084594727e-01,9.613974690437316895e-01,9.613504409790039062e-01,9.613033533096313477e-01,9.612563252449035645e-01,9.612092971801757812e-01,9.611622691154479980e-01,9.611151218414306641e-01,9.610681533813476562e-01,9.610211253166198730e-01,9.609740972518920898e-01,9.609271287918090820e-01,9.608801007270812988e-01,9.608330726623535156e-01,9.607861042022705078e-01,9.607391357421875000e-01,9.606920480728149414e-01,9.606450796127319336e-01,9.605981111526489258e-01,9.605511426925659180e-01,9.605041742324829102e-01,9.604572057723999023e-01,9.604102373123168945e-01,9.603632688522338867e-01,9.603163599967956543e-01,9.602693915367126465e-01,9.602223634719848633e-01,9.601754546165466309e-01,9.601284861564636230e-01,9.600815773010253906e-01,9.600346684455871582e-01,9.599877595901489258e-01,9.599408507347106934e-01,9.598939418792724609e-01,9.598470330238342285e-01,9.598001241683959961e-01,9.597531557083129883e-01,9.597062468528747559e-01,9.596593976020812988e-01,9.596124887466430664e-01,9.595656394958496094e-01,9.595187902450561523e-01,9.594718813896179199e-01,9.594250321388244629e-01,8.125629425048828125e-01,7.991586327552795410e-01,7.848726511001586914e-01,7.690587639808654785e-01,7.531705498695373535e-01,7.408541440963745117e-01,7.326347827911376953e-01,7.271984815597534180e-01,7.288377285003662109e-01,9.589563608169555664e-01,9.589093327522277832e-01,9.588623046875000000e-01,9.588153362274169922e-01
9.103442430496215820e-01,9.103020429611206055e-01,9.102598428726196289e-01,9.102177023887634277e-01,9.101755023002624512e-01,9.101332426071166992e-01,9.100911021232604980e-01,9.100489020347595215e-01,9.100067615509033203e-01,9.099646210670471191e-01,9.099224805831909180e-01,9.098803400993347168e-01,9.098381996154785156e-01,9.097960591316223145e-01,9.097539186477661133e-01,9.097117185592651367e-01,9.096695780754089355e-01,9.096274375915527344e-01,9.095853567123413086e-01,9.095432162284851074e-01,9.095011353492736816e-01,9.094589948654174805e-01,9.094169139862060547e-01,9.093748331069946289e-01,9.093326926231384277e-01,9.092905521392822266e-01,9.092484712600708008e-01,9.092063903808593750e-01,9.091643095016479492e-01,9.091222286224365234e-01,9.090801477432250977e-01,9.090380668640136719e-01,9.089960455894470215e-01,9.089539647102355957e-01,9.089118242263793945e-01,9.088697433471679688e-01,9.088277220726013184e-01,9.087857007980346680e-01,9.087436199188232422e-01,9.087015986442565918e-01,9.086595773696899414e-01,9.086175560951232910e-01,9.085755348205566406e-01,9.085335135459899902e-01,9.084913730621337891e-01,9.084494113922119141e-01,9.084073901176452637e-01,9.083653688430786133e-01,9.083234071731567383e-01,9.082813858985900879e-01,9.082394242286682129e-01,9.081974029541015625e-01,9.081554412841796875e-01,9.081133604049682617e-01,9.080713987350463867e-01,9.080293774604797363e-01,9.079874157905578613e-01,9.079454541206359863e-01,9.079034924507141113e-01,9.078615307807922363e-01,9.078196287155151367e-01,9.077776670455932617e-01,9.077357053756713867e-01,9.076936841011047363e-01,9.076517224311828613e-01,9.076098203659057617e-01,9.075678586959838867e-01,9.075259566307067871e-01,9.074840545654296875e-01,7.938344478607177734e-01,7.711048722267150879e-01,7.558136582374572754e-01,7.378516793251037598e-01,7.261030673980712891e-01,7.182196974754333496e-01,7.142660021781921387e-01,7.192420959472656250e-01,9.071068167686462402e-01,9.070649147033691406e-01,9.070230722427368164e-01
