5.000000000000000000e+00,5.000000000000000000e+00,5.000000000000000000e+00,5.000000000000000000e+00,5.000000000000000000e+00,5.000000000000000000e+00,5.000000000000000000e+00,5.000000000000000000e+00,5.000000000000000000e+00,5.000000000000000000e+00,5.000000000000000000e+00,5.000000000000000000e+00,5.000000000000000000e+00,5.000000000000000000e+00,5.000000000000000000e+00,5.000000000000000000e+00,5.000000000000000000e+00,5.000000000000000000e+00,5.000000000000000000e+00,5.000000000000000000e+00,5.000000000000000000e+00,5.000000000000000000e+00,5.000000000000000000e+00,5.000000000000000000e+00,5.000000000000000000e+00,5.000000000000000000e+00,5.000000000000000000e+00,5.000000000000000000e+00,5.000000000000000000e+00,5.000000000000000000e+00,5.000000000000000000e+00,5.000000000000000000e+00,5.000000000000000000e+00,5.000000000000000000e+00,5.000000000000000000e+00,5.000000000000000000e+00,2.281308889389038086e+00,2.255321741104125977e+00,2.260974168777465820e+00,2.237277507781982422e+00,2.212026119232177734e+00,2.206563711166381836e+00,2.211194992065429688e+00,2.220598936080932617e+00,2.234805583953857422e+00,2.256459236145019531e+00,2.321238517761230469e+00,2.357195138931274414e+00,2.397243499755859375e+00,5.000000000000000000e+00,5.000000000000000000e+00,5.000000000000000000e+00,5.000000000000000000e+00,5.000000000000000000e+00,4.990167617797851562e+00,4.825118541717529297e+00,4.670638084411621094e+00,4.525742530822753906e+00,4.389565944671630859e+00,4.261345863342285156e+00,4.140403270721435547e+00,4.026136398315429688e+00,3.918007135391235352e+00,3.815534114837646484e+00,3.718284606933593750e+00,3.625869274139404297e+00,3.537935972213745117e+00,3.454167127609252930e+00,3.374273300170898438e+00,3.297991752624511719e+00,3.225083112716674805e+00,3.155314683914184570e+00,3.088497638702392578e+00,3.024451732635498047e+00,2.963008165359497070e+00,2.904011487960815430e+00,2.847318172454833984e+00,2.792796134948730469e+00,2.740323066711425781e+00,2.689785003662109375e+00
5.000000000000000000e+00,5.000000000000000000e+00,5.000000000000000000e+00,5.000000000000000000e+00,5.000000000000000000e+00,5.000000000000000000e+00,5.000000000000000000e+00,5.000000000000000000e+00,5.000000000000000000e+00,5.000000000000000000e+00,5.000000000000000000e+00,5.000000000000000000e+00,5.000000000000000000e+00,5.000000000000000000e+00,5.000000000000000000e+00,5.000000000000000000e+00,5.000000000000000000e+00,5.000000000000000000e+00,5.000000000000000000e+00,5.000000000000000000e+00,5.000000000000000000e+00,5.000000000000000000e+00,5.000000000000000000e+00,5.000000000000000000e+00,5.000000000000000000e+00,5.000000000000000000e+00,5.000000000000000000e+00,5.000000000000000000e+00,5.000000000000000000e+00,5.000000000000000000e+00,5.000000000000000000e+00,5.000000000000000000e+00,5.000000000000000000e+00,5.000000000000000000e+00,5.000000000000000000e+00,5.000000000000000000e+00,2.305519104003906250e+00,2.276093006134033203e+00,2.281283378601074219e+00,2.243239164352416992e+00,2.220868825912475586e+00,2.215161561965942383e+00,2.204251289367675781e+00,2.216942071914672852e+00,2.229309558868408203e+00,2.261059761047363281e+00,2.323481082916259766e+00,2.361254215240478516e+00,2.395298480987548828e+00,5.000000000000000000e+00,5.000000000000000000e+00,5.000000000000000000e+00,5.000000000000000000e+00,5.000000000000000000e+00,4.990298271179199219e+00,4.825240612030029297e+00,4.670752525329589844e+00,4.525850296020507812e+00,4.389667034149169922e+00,4.261440753936767578e+00,4.140492916107177734e+00,4.026221275329589844e+00,3.918087482452392578e+00,3.815610408782958984e+00,3.718357086181640625e+00,3.625938177108764648e+00,3.538001537322998047e+00,3.454229593276977539e+00,3.374315738677978516e+00,3.298013925552368164e+00,3.225086450576782227e+00,3.155314445495605469e+00,3.088497638702392578e+00,3.024451494216918945e+00,2.963007926940917969e+00,2.904011249542236328e+00,2.847317934036254883e+00,2.792795896530151367e+00,2.740334510803222656e+00,2.689808607101440430e+00
5.000000000000000000e+00,5.000000000000000000e+00,5.000000000000000000e+00,5.000000000000000000e+00,5.000000000000000000e+00,5.000000000000000000e+00,5.000000000000000000e+00,5.000000000000000000e+00,5.000000000000000000e+00,5.000000000000000000e+00,5.000000000000000000e+00,5.000000000000000000e+00,5.000000000000000000e+00,5.000000000000000000e+00,5.000000000000000000e+00,5.000000000000000000e+00,5.000000000000000000e+00,5.000000000000000000e+00,5.000000000000000000e+00,5.000000000000000000e+00,5.000000000000000000e+00,5.000000000000000000e+00,5.000000000000000000e+00,5.000000000000000000e+00,5.000000000000000000e+00,5.000000000000000000e+00,5.000000000000000000e+00,5.000000000000000000e+00,5.000000000000000000e+00,5.000000000000000000e+00,5.000000000000000000e+00,5.000000000000000000e+00,5.000000000000000000e+00,5.000000000000000000e+00,5.000000000000000000e+00,5.000000000000000000e+00,5.000000000000000000e+00,2.287525177001953125e+00,2.280865669250488281e+00,2.254158258438110352e+00,2.226061105728149414e+00,2.212297916412353516e+00,2.207585573196411133e+00,2.213312864303588867e+00,2.225367069244384766e+00,2.273156642913818359e+00,2.368875741958618164e+00,2.361147880554199219e+00,2.390258789062500000e+00,5.000000000000000000e+00,5.000000000000000000e+00,5.000000000000000000e+00,5.000000000000000000e+00,5.000000000000000000e+00,4.990428447723388672e+00,4.825362682342529297e+00,4.670866966247558594e+00,4.525957107543945312e+00,4.389768123626708984e+00,4.261536121368408203e+00,4.140583038330078125e+00,4.026306152343750000e+00,3.918168067932128906e+00,3.815686941146850586e+00,3.718429565429687500e+00,3.625984907150268555e+00,3.538025140762329102e+00,3.454231500625610352e+00,3.374315261840820312e+00,3.298013448715209961e+00,3.225086212158203125e+00,3.155314207077026367e+00,3.088497161865234375e+00,3.024451494216918945e+00,2.963007926940917969e+00,2.904025554656982422e+00,2.847345352172851562e+00,2.792835712432861328e+00,2.740374088287353516e+00,2.689846754074096680e+00
5.000000000000000000e+00,5.000000000000000000e+00,5.000000000000000000e+00,5.000000000000000000e+00,5.000000000000000000e+00,5.000000000000000000e+00,5.000000000000000000e+00,5.000000000000000000e+00,5.000000000000000000e+00,5.000000000000000000e+00,5.000000000000000000e+00,5.000000000000000000e+00,5.000000000000000000e+00,5.000000000000000000e+00,5.000000000000000000e+00,5.000000000000000000e+00,5.000000000000000000e+00,5.000000000000000000e+00,5.000000000000000000e+00,5.000000000000000000e+00,5.000000000000000000e+00,5.000000000000000000e+00,5.000000000000000000e+00,5.000000000000000000e+00,5.000000000000000000e+00,5.000000000000000000e+00,5.000000000000000000e+00,5.000000000000000000e+00,5.000000000000000000e+00,5.000000000000000000e+00,5.000000000000000000e+00,5.000000000000000000e+00,5.000000000000000000e+00,5.000000000000000000e+00,5.000000000000000000e+00,5.000000000000000000e+00,5.000000000000000000e+00,2.295350790023803711e+00,2.280928134918212891e+00,2.264164209365844727e+00,2.226034402847290039e+00,2.209327936172485352e+00,2.206131696701049805e+00,2.213064908981323242e+00,2.227196455001831055e+00,2.264753341674804688e+00,2.367115736007690430e+00,2.352051734924316406e+00,2.384492397308349609e+00,5.000000000000000000e+00,5.000000000000000000e+00,5.000000000000000000e+00,5.000000000000000000e+00,5.000000000000000000e+00,4.990559101104736328e+00,4.825485229492187500e+00,4.670981407165527344e+00,4.526064872741699219e+00,4.389869213104248047e+00,4.261631488800048828e+00,4.140672683715820312e+00,4.026388645172119141e+00,3.918219804763793945e+00,3.815711259841918945e+00,3.718429088592529297e+00,3.625984430313110352e+00,3.538024663925170898e+00,3.454231023788452148e+00,3.374315023422241211e+00,3.298013210296630859e+00,3.225085973739624023e+00,3.155315399169921875e+00,3.088514566421508789e+00,3.024483680725097656e+00,2.963053941726684570e+00,2.904069900512695312e+00,2.847388029098510742e+00,2.792876482009887695e+00,2.740413188934326172e+00,2.689884424209594727e+00
5.000000000000000000e+00,5.000000000000000000e+00,5.000000000000000000e+00,5.000000000000000000e+00,5.000000000000000000e+00,5.000000000000000000e+00,5.000000000000000000e+00,5.000000000000000000e+00,5.000000000000000000e+00,5.000000000000000000e+00,5.000000000000000000e+00,5.000000000000000000e+00,5.000000000000000000e+00,5.000000000000000000e+00,5.000000000000000000e+00,5.000000000000000000e+00,5.000000000000000000e+00,5.000000000000000000e+00,5.000000000000000000e+00,5.000000000000000000e+00,5.000000000000000000e+00,5.000000000000000000e+00,5.000000000000000000e+00,5.000000000000000000e+00,5.000000000000000000e+00,5.000000000000000000e+00,5.000000000000000000e+00,5.000000000000000000e+00,5.000000000000000000e+00,5.000000000000000000e+00,5.000000000000000000e+00,5.000000000000000000e+00,5.000000000000000000e+00,5.000000000000000000e+00,5.000000000000000000e+00,5.000000000000000000e+00,5.000000000000000000e+00,2.304976701736450195e+00,2.282698154449462891e+00,2.273238420486450195e+00,2.225272655487060547e+00,2.206329822540283203e+00,2.206908226013183594e+00,2.215450525283813477e+00,2.231914520263671875e+00,2.267449378967285156e+00,2.376033067703247070e+00,2.356919050216674805e+00,2.383630990982055664e+00,5.000000000000000000e+00,5.000000000000000000e+00,5.000000000000000000e+00,5.000000000000000000e+00,5.000000000000000000e+00,4.990689754486083984e+00,4.825607299804687500e+00,4.671095371246337891e+00,4.526172161102294922e+00,4.389963626861572266e+00,4.261689662933349609e+00,4.140698432922363281e+00,4.026387691497802734e+00,3.918219327926635742e+00,3.815710783004760742e+00,3.718428611755371094e+00,3.625984191894531250e+00,3.538024187088012695e+00,3.454231023788452148e+00,3.374318122863769531e+00,3.298034667968750000e+00,3.225124359130859375e+00,3.155367612838745117e+00,3.088564634323120117e+00,3.024531602859497070e+00,2.963099718093872070e+00,2.904113769531250000e+00,2.847430229187011719e+00,2.792917251586914062e+00,2.740452289581298828e+00,2.689922094345092773e+00
5.000000000000000000e+00,5.000000000000000000e+00,5.000000000000000000e+00,5.000000000000000000e+00,5.000000000000000000e+00,5.000000000000000000e+00,5.000000000000000000e+00,5.000000000000000000e+00,5.000000000000000000e+00,5.000000000000000000e+00,5.000000000000000000e+00,5.000000000000000000e+00,5.000000000000000000e+00,5.000000000000000000e+00,5.000000000000000000e+00,5.000000000000000000e+00,5.000000000000000000e+00,5.000000000000000000e+00,5.000000000000000000e+00,5.000000000000000000e+00,5.000000000000000000e+00,5.000000000000000000e+00,5.000000000000000000e+00,5.000000000000000000e+00,5.000000000000000000e+00,5.000000000000000000e+00,5.000000000000000000e+00,5.000000000000000000e+00,5.000000000000000000e+00,5.000000000000000000e+00,5.000000000000000000e+00,5.000000000000000000e+00,5.000000000000000000e+00,5.000000000000000000e+00,5.000000000000000000e+00,5.000000000000000000e+00,5.000000000000000000e+00,2.316762685775756836e+00,2.297129631042480469e+00,2.245333194732666016e+00,2.212565422058105469e+00,2.196394205093383789e+00,2.197079420089721680e+00,2.215673923492431641e+00,2.225736618041992188e+00,2.260170936584472656e+00,2.403082370758056641e+00,2.367890119552612305e+00,2.383421659469604492e+00,5.000000000000000000e+00,5.000000000000000000e+00,5.000000000000000000e+00,5.000000000000000000e+00,5.000000000000000000e+00,4.990820407867431641e+00,4.825716972351074219e+00,4.671162128448486328e+00,4.526199817657470703e+00,4.389963150024414062e+00,4.261689186096191406e+00,4.140697956085205078e+00,4.026387214660644531e+00,3.918218851089477539e+00,3.815710306167602539e+00,3.718428373336791992e+00,3.625989198684692383e+00,3.538050889968872070e+00,3.454276561737060547e+00,3.374377727508544922e+00,3.298091650009155273e+00,3.225178480148315430e+00,3.155419588088989258e+00,3.088614463806152344e+00,3.024579286575317383e+00,2.963145494461059570e+00,2.904157876968383789e+00,2.847472667694091797e+00,2.792958021163940430e+00,2.740491390228271484e+00,2.689960002899169922e+00
5.000000000000000000e+00,5.000000000000000000e+00,5.000000000000000000e+00,5.000000000000000000e+00,5.000000000000000000e+00,5.000000000000000000e+00,5.000000000000000000e+00,5.000000000000000000e+00,5.000000000000000000e+00,5.000000000000000000e+00,5.000000000000000000e+00,5.000000000000000000e+00,5.000000000000000000e+00,5.000000000000000000e+00,5.000000000000000000e+00,5.000000000000000000e+00,5.000000000000000000e+00,5.000000000000000000e+00,5.000000000000000000e+00,5.000000000000000000e+00,5.000000000000000000e+00,5.000000000000000000e+00,5.000000000000000000e+00,5.000000000000000000e+00,5.000000000000000000e+00,5.000000000000000000e+00,5.000000000000000000e+00,5.000000000000000000e+00,5.000000000000000000e+00,5.000000000000000000e+00,5.000000000000000000e+00,5.000000000000000000e+00,5.000000000000000000e+00,5.000000000000000000e+00,5.000000000000000000e+00,5.000000000000000000e+00,5.000000000000000000e+00,2.328707456588745117e+00,2.312419891357421875e+00,2.243479251861572266e+00,2.209378719329833984e+00,2.191417455673217773e+00,2.193105459213256836e+00,2.204134702682495117e+00,2.220622301101684570e+00,2.244599103927612305e+00,2.426571130752563477e+00,2.381246566772460938e+00,2.375493764877319336e+00,5.000000000000000000e+00,5.000000000000000000e+00,5.000000000000000000e+00,5.000000000000000000e+00,5.000000000000000000e+00,4.990849494934082031e+00,4.825716495513916016e+00,4.671161174774169922e+00,4.526198863983154297e+00,4.389962673187255859e+00,4.261688709259033203e+00,4.140697479248046875e+00,4.026387214660644531e+00,3.918227195739746094e+00,3.815743207931518555e+00,3.718483209609985352e+00,3.626058101654052734e+00,3.538115978240966797e+00,3.454338788986206055e+00,3.374437093734741211e+00,3.298148393630981445e+00,3.225232839584350586e+00,3.155471563339233398e+00,3.088664054870605469e+00,3.024626970291137695e+00,2.963191270828247070e+00,2.904201984405517578e+00,2.847515106201171875e+00,2.792998790740966797e+00,2.740530967712402344e+00,2.689997911453247070e+00
5.000000000000000000e+00,5.000000000000000000e+00,5.000000000000000000e+00,5.000000000000000000e+00,5.000000000000000000e+00,5.000000000000000000e+00,5.000000000000000000e+00,5.000000000000000000e+00,5.000000000000000000e+00,5.000000000000000000e+00,5.000000000000000000e+00,5.000000000000000000e+00,5.000000000000000000e+00,5.000000000000000000e+00,5.000000000000000000e+00,5.000000000000000000e+00,5.000000000000000000e+00,5.000000000000000000e+00,5.000000000000000000e+00,5.000000000000000000e+00,5.000000000000000000e+00,5.000000000000000000e+00,5.000000000000000000e+00,5.000000000000000000e+00,5.000000000000000000e+00,5.000000000000000000e+00,5.000000000000000000e+00,5.000000000000000000e+00,5.000000000000000000e+00,5.000000000000000000e+00,5.000000000000000000e+00,5.000000000000000000e+00,5.000000000000000000e+00,5.000000000000000000e+00,5.000000000000000000e+00,5.000000000000000000e+00,5.000000000000000000e+00,2.339360713958740234e+00,2.324999094009399414e+00,2.250572681427001953e+00,2.218032360076904297e+00,2.206804275512695312e+00,2.206140518188476562e+00,2.211764812469482422e+00,2.231507062911987305e+00,2.272309780120849609e+00,2.430780887603759766e+00,2.362448215484619141e+00,2.347157239913940430e+00,5.000000000000000000e+00,5.000000000000000000e+00,5.000000000000000000e+00,5.000000000000000000e+00,5.000000000000000000e+00,4.990849018096923828e+00,4.825716018676757812e+00,4.671160697937011719e+00,4.526198387145996094e+00,4.389962196350097656e+00,4.261701107025146484e+00,4.140738487243652344e+00,4.026453495025634766e+00,3.918307781219482422e+00,3.815819263458251953e+00,3.718555212020874023e+00,3.626126766204833984e+00,3.538181304931640625e+00,3.454401016235351562e+00,3.374496459960937500e+00,3.298205137252807617e+00,3.225286960601806641e+00,3.155523777008056641e+00,3.088714122772216797e+00,3.024675130844116211e+00,2.963237285614013672e+00,2.904246091842651367e+00,2.847557306289672852e+00,2.793039560317993164e+00,2.740570068359375000e+00,2.690035581588745117e+00
5.000000000000000000e+00,5.000000000000000000e+00,5.000000000000000000e+00,5.000000000000000000e+00,5.000000000000000000e+00,5.000000000000000000e+00,5.000000000000000000e+00,5.000000000000000000e+00,5.000000000000000000e+00,5.000000000000000000e+00,5.000000000000000000e+00,5.000000000000000000e+00,5.000000000000000000e+00,5.000000000000000000e+00,5.000000000000000000e+00,5.000000000000000000e+00,5.000000000000000000e+00,5.000000000000000000e+00,5.000000000000000000e+00,5.000000000000000000e+00,5.000000000000000000e+00,5.000000000000000000e+00,5.000000000000000000e+00,5.000000000000000000e+00,5.000000000000000000e+00,5.000000000000000000e+00,5.000000000000000000e+00,5.000000000000000000e+00,5.000000000000000000e+00,5.000000000000000000e+00,5.000000000000000000e+00,5.000000000000000000e+00,5.000000000000000000e+00,5.000000000000000000e+00,5.000000000000000000e+00,5.000000000000000000e+00,5.000000000000000000e+00,2.324150800704956055e+00,2.314120531082153320e+00,2.240356206893920898e+00,2.216522216796875000e+00,2.209473848342895508e+00,2.214024305343627930e+00,2.218594074249267578e+00,2.236366748809814453e+00,2.268009424209594727e+00,5.000000000000000000e+00,2.355436801910400391e+00,2.325587272644042969e+00,2.338744640350341797e+00,5.000000000000000000e+00,5.000000000000000000e+00,5.000000000000000000e+00,5.000000000000000000e+00,4.990848064422607422e+00,4.825715541839599609e+00,4.671178340911865234e+00,4.526249885559082031e+00,4.390043735504150391e+00,4.261795520782470703e+00,4.140828132629394531e+00,4.026538372039794922e+00,3.918387651443481445e+00,3.815895080566406250e+00,3.718627452850341797e+00,3.626195430755615234e+00,3.538246631622314453e+00,3.454463720321655273e+00,3.374556303024291992e+00,3.298262119293212891e+00,3.225341558456420898e+00,3.155575513839721680e+00,3.088763952255249023e+00,3.024722814559936523e+00,2.963283061981201172e+00,2.904289960861206055e+00,2.847599744796752930e+00,2.793080091476440430e+00,2.740609169006347656e+00,2.690073251724243164e+00
5.000000000000000000e+00,5.000000000000000000e+00,5.000000000000000000e+00,5.000000000000000000e+00,5.000000000000000000e+00,5.000000000000000000e+00,5.000000000000000000e+00,5.000000000000000000e+00,5.000000000000000000e+00,5.000000000000000000e+00,5.000000000000000000e+00,5.000000000000000000e+00,5.000000000000000000e+00,5.000000000000000000e+00,5.000000000000000000e+00,5.000000000000000000e+00,5.000000000000000000e+00,5.000000000000000000e+00,5.000000000000000000e+00,5.000000000000000000e+00,5.000000000000000000e+00,5.000000000000000000e+00,5.000000000000000000e+00,5.000000000000000000e+00,5.000000000000000000e+00,5.000000000000000000e+00,5.000000000000000000e+00,5.000000000000000000e+00,5.000000000000000000e+00,5.000000000000000000e+00,5.000000000000000000e+00,5.000000000000000000e+00,5.000000000000000000e+00,5.000000000000000000e+00,5.000000000000000000e+00,5.000000000000000000e+00,5.000000000000000000e+00,2.314720392227172852e+00,2.305217504501342773e+00,2.225680112838745117e+00,2.189377307891845703e+00,2.186029434204101562e+00,2.235380649566650391e+00,2.224863767623901367e+00,2.254769325256347656e+00,2.270805120468139648e+00,5.000000000000000000e+00,5.000000000000000000e+00,2.317226409912109375e+00,2.297989130020141602e+00,5.000000000000000000e+00,5.000000000000000000e+00,5.000000000000000000e+00,5.000000000000000000e+00,4.990914344787597656e+00,4.825816631317138672e+00,4.671292304992675781e+00,4.526357173919677734e+00,4.390144348144531250e+00,4.261890888214111328e+00,4.140917778015136719e+00,4.026622772216796875e+00,3.918467760086059570e+00,3.815971612930297852e+00,3.718699932098388672e+00,3.626264333724975586e+00,3.538312196731567383e+00,3.454525947570800781e+00,3.374615669250488281e+00,3.298318862915039062e+00,3.225395917892456055e+00,3.155627489089965820e+00,3.088813781738281250e+00,3.024770498275756836e+00,2.963328838348388672e+00,2.904334068298339844e+00,2.847642183303833008e+00,2.793121099472045898e+00,2.740648508071899414e+00,2.690111160278320312e+00
5.000000000000000000e+00,5.000000000000000000e+00,5.000000000000000000e+00,5.000000000000000000e+00,5.000000000000000000e+00,5.000000000000000000e+00,5.000000000000000000e+00,5.000000000000000000e+00,5.000000000000000000e+00,5.000000000000000000e+00,5.000000000000000000e+00,5.000000000000000000e+00,5.000000000000000000e+00,5.000000000000000000e+00,5.000000000000000000e+00,5.000000000000000000e+00,5.000000000000000000e+00,5.000000000000000000e+00,5.000000000000000000e+00,5.000000000000000000e+00,5.000000000000000000e+00,5.000000000000000000e+00,5.000000000000000000e+00,5.000000000000000000e+00,5.000000000000000000e+00,5.000000000000000000e+00,5.000000000000000000e+00,5.000000000000000000e+00,5.000000000000000000e+00,5.000000000000000000e+00,5.000000000000000000e+00,5.000000000000000000e+00,5.000000000000000000e+00,5.000000000000000000e+00,5.000000000000000000e+00,5.000000000000000000e+00,5.000000000000000000e+00,2.311807632446289062e+00,2.301562786102294922e+00,2.203098058700561523e+00,2.164954423904418945e+00,2.156482219696044922e+00,2.165451526641845703e+00,2.266387701034545898e+00,2.268913269042968750e+00,2.271857738494873047e+00,5.000000000000000000e+00,5.000000000000000000e+00,2.338441848754882812e+00,2.293650388717651367e+00,5.000000000000000000e+00,5.000000000000000000e+00,5.000000000000000000e+00,5.000000000000000000e+00,4.991044521331787109e+00,4.825938701629638672e+00,4.671406269073486328e+00,4.526463985443115234e+00,4.390244960784912109e+00,4.261985301971435547e+00,4.141007423400878906e+00,4.026707649230957031e+00,3.918548345565795898e+00,3.816047430038452148e+00,3.718771934509277344e+00,3.626332998275756836e+00,3.538377523422241211e+00,3.454588174819946289e+00,3.374675035476684570e+00,3.298375606536865234e+00,3.225450038909912109e+00,3.155679464340209961e+00,3.088863611221313477e+00,3.024818420410156250e+00,2.963375091552734375e+00,2.904378175735473633e+00,2.847684383392333984e+00,2.793161869049072266e+00,2.740687847137451172e+00,2.690149068832397461e+00
5.000000000000000000e+00,5.000000000000000000e+00,5.000000000000000000e+00,5.000000000000000000e+00,5.000000000000000000e+00,5.000000000000000000e+00,5.000000000000000000e+00,5.000000000000000000e+00,5.000000000000000000e+00,5.000000000000000000e+00,5.000000000000000000e+00,5.000000000000000000e+00,5.000000000000000000e+00,5.000000000000000000e+00,5.000000000000000000e+00,5.000000000000000000e+00,5.000000000000000000e+00,5.000000000000000000e+00,5.000000000000000000e+00,5.000000000000000000e+00,5.000000000000000000e+00,5.000000000000000000e+00,5.000000000000000000e+00,5.000000000000000000e+00,5.000000000000000000e+00,5.000000000000000000e+00,5.000000000000000000e+00,5.000000000000000000e+00,5.000000000000000000e+00,5.000000000000000000e+00,5.000000000000000000e+00,5.000000000000000000e+00,5.000000000000000000e+00,5.000000000000000000e+00,5.000000000000000000e+00,5.000000000000000000e+00,5.000000000000000000e+00,2.300971269607543945e+00,2.296232461929321289e+00,2.197093486785888672e+00,2.152714967727661133e+00,2.144447326660156250e+00,2.141581296920776367e+00,2.190823078155517578e+00,2.266425132751464844e+00,2.270651340484619141e+00,2.312128305435180664e+00,5.000000000000000000e+00,5.000000000000000000e+00,2.242696762084960938e+00,2.250422954559326172e+00,5.000000000000000000e+00,5.000000000000000000e+00,5.000000000000000000e+00,4.991174221038818359e+00,4.826059818267822266e+00,4.671520709991455078e+00,4.526571273803710938e+00,4.390345573425292969e+00,4.262080669403076172e+00,4.141096591949462891e+00,4.026792049407958984e+00,3.918628454208374023e+00,3.816123485565185547e+00,3.718844175338745117e+00,3.626401424407958984e+00,3.538442850112915039e+00,3.454650402069091797e+00,3.374734878540039062e+00,3.298432826995849609e+00,3.225504636764526367e+00,3.155731678009033203e+00,3.088913440704345703e+00,3.024866104125976562e+00,2.963420867919921875e+00,2.904422283172607422e+00,2.847726821899414062e+00,2.793202400207519531e+00,2.740726947784423828e+00,2.690186738967895508e+00
5.000000000000000000e+00,5.000000000000000000e+00,5.000000000000000000e+00,5.000000000000000000e+00,5.000000000000000000e+00,5.000000000000000000e+00,5.000000000000000000e+00,5.000000000000000000e+00,5.000000000000000000e+00,5.000000000000000000e+00,5.000000000000000000e+00,5.000000000000000000e+00,5.000000000000000000e+00,5.000000000000000000e+00,5.000000000000000000e+00,5.000000000000000000e+00,5.000000000000000000e+00,5.000000000000000000e+00,5.000000000000000000e+00,5.000000000000000000e+00,5.000000000000000000e+00,5.000000000000000000e+00,5.000000000000000000e+00,5.000000000000000000e+00,5.000000000000000000e+00,5.000000000000000000e+00,5.000000000000000000e+00,5.000000000000000000e+00,5.000000000000000000e+00,5.000000000000000000e+00,5.000000000000000000e+00,5.000000000000000000e+00,5.000000000000000000e+00,5.000000000000000000e+00,5.000000000000000000e+00,5.000000000000000000e+00,5.000000000000000000e+00,2.292659044265747070e+00,2.296560525894165039e+00,2.195682764053344727e+00,2.144208192825317383e+00,2.134970903396606445e+00,2.126838922500610352e+00,2.171261310577392578e+00,2.263578891754150391e+00,2.268301725387573242e+00,2.312952280044555664e+00,5.000000000000000000e+00,5.000000000000000000e+00,2.226212501525878906e+00,2.233534574508666992e+00,5.000000000000000000e+00,5.000000000000000000e+00,5.000000000000000000e+00,4.991304397583007812e+00,4.826181888580322266e+00,4.671634197235107422e+00,4.526678085327148438e+00,4.390446662902832031e+00,4.262175559997558594e+00,4.141186237335205078e+00,4.026876926422119141e+00,3.918708562850952148e+00,3.816199302673339844e+00,3.718916654586791992e+00,3.626470327377319336e+00,3.538508653640747070e+00,3.454712867736816406e+00,3.374794244766235352e+00,3.298489570617675781e+00,3.225558996200561523e+00,3.155783653259277344e+00,3.088963270187377930e+00,3.024914026260375977e+00,2.963466644287109375e+00,2.904466152191162109e+00,2.847769021987915039e+00,2.793243408203125000e+00,2.740766286849975586e+00,2.690224647521972656e+00
5.000000000000000000e+00,5.000000000000000000e+00,5.000000000000000000e+00,5.000000000000000000e+00,5.000000000000000000e+00,5.000000000000000000e+00,5.000000000000000000e+00,5.000000000000000000e+00,5.000000000000000000e+00,5.000000000000000000e+00,5.000000000000000000e+00,5.000000000000000000e+00,5.000000000000000000e+00,5.000000000000000000e+00,5.000000000000000000e+00,5.000000000000000000e+00,5.000000000000000000e+00,5.000000000000000000e+00,5.000000000000000000e+00,5.000000000000000000e+00,5.000000000000000000e+00,5.000000000000000000e+00,5.000000000000000000e+00,5.000000000000000000e+00,5.000000000000000000e+00,5.000000000000000000e+00,5.000000000000000000e+00,5.000000000000000000e+00,5.000000000000000000e+00,5.000000000000000000e+00,5.000000000000000000e+00,5.000000000000000000e+00,5.000000000000000000e+00,5.000000000000000000e+00,5.000000000000000000e+00,5.000000000000000000e+00,5.000000000000000000e+00,2.299187898635864258e+00,2.292279481887817383e+00,2.220099687576293945e+00,2.140542268753051758e+00,2.126613378524780273e+00,2.117516756057739258e+00,2.152584791183471680e+00,2.266874790191650391e+00,2.274681329727172852e+00,2.321226596832275391e+00,5.000000000000000000e+00,5.000000000000000000e+00,5.000000000000000000e+00,5.000000000000000000e+00,2.231472730636596680e+00,5.000000000000000000e+00,5.000000000000000000e+00,4.991435050964355469e+00,4.826303482055664062e+00,4.671748638153076172e+00,4.526785373687744141e+00,4.390547275543212891e+00,4.262270450592041016e+00,4.141275882720947266e+00,4.026961803436279297e+00,3.918789148330688477e+00,3.816275835037231445e+00,3.718988895416259766e+00,3.626538991928100586e+00,3.538573980331420898e+00,3.454775333404541016e+00,3.374853610992431641e+00,3.298546314239501953e+00,3.225613117218017578e+00,3.155835628509521484e+00,3.089013099670410156e+00,3.024961948394775391e+00,2.963512659072875977e+00,2.904510498046875000e+00,2.847811698913574219e+00,2.793284177780151367e+00,2.740805625915527344e+00,2.690262556076049805e+00
5.000000000000000000e+00,5.000000000000000000e+00,5.000000000000000000e+00,5.000000000000000000e+00,5.000000000000000000e+00,5.000000000000000000e+00,5.000000000000000000e+00,5.000000000000000000e+00,5.000000000000000000e+00,5.000000000000000000e+00,5.000000000000000000e+00,5.000000000000000000e+00,5.000000000000000000e+00,5.000000000000000000e+00,5.000000000000000000e+00,5.000000000000000000e+00,5.000000000000000000e+00,5.000000000000000000e+00,5.000000000000000000e+00,5.000000000000000000e+00,5.000000000000000000e+00,5.000000000000000000e+00,5.000000000000000000e+00,5.000000000000000000e+00,5.000000000000000000e+00,5.000000000000000000e+00,5.000000000000000000e+00,5.000000000000000000e+00,5.000000000000000000e+00,5.000000000000000000e+00,5.000000000000000000e+00,5.000000000000000000e+00,5.000000000000000000e+00,5.000000000000000000e+00,5.000000000000000000e+00,5.000000000000000000e+00,5.000000000000000000e+00,2.277917146682739258e+00,2.267780065536499023e+00,5.000000000000000000e+00,2.151452302932739258e+00,2.118070125579833984e+00,2.107642173767089844e+00,2.134243249893188477e+00,2.274571657180786133e+00,2.286074399948120117e+00,5.000000000000000000e+00,5.000000000000000000e+00,5.000000000000000000e+00,5.000000000000000000e+00,5.000000000000000000e+00,2.251485347747802734e+00,5.000000000000000000e+00,5.000000000000000000e+00,4.991568565368652344e+00,4.826427936553955078e+00,4.671864509582519531e+00,4.526893138885498047e+00,4.390647888183593750e+00,4.262365341186523438e+00,4.141365528106689453e+00,4.027046203613281250e+00,3.918869256973266602e+00,3.816351652145385742e+00,3.719060897827148438e+00,3.626607656478881836e+00,3.538639307022094727e+00,3.454837560653686523e+00,3.374912977218627930e+00,3.298603296279907227e+00,3.225667715072631836e+00,3.155887842178344727e+00,3.089063167572021484e+00,3.025009632110595703e+00,2.963558435440063477e+00,2.904554367065429688e+00,2.847853899002075195e+00,2.793324708938598633e+00,2.740844726562500000e+00,2.690300226211547852e+00
5.000000000000000000e+00,5.000000000000000000e+00,5.000000000000000000e+00,5.000000000000000000e+00,5.000000000000000000e+00,5.000000000000000000e+00,5.000000000000000000e+00,5.000000000000000000e+00,5.000000000000000000e+00,5.000000000000000000e+00,5.000000000000000000e+00,5.000000000000000000e+00,5.000000000000000000e+00,5.000000000000000000e+00,5.000000000000000000e+00,5.000000000000000000e+00,5.000000000000000000e+00,5.000000000000000000e+00,5.000000000000000000e+00,5.000000000000000000e+00,5.000000000000000000e+00,5.000000000000000000e+00,5.000000000000000000e+00,5.000000000000000000e+00,5.000000000000000000e+00,5.000000000000000000e+00,5.000000000000000000e+00,5.000000000000000000e+00,5.000000000000000000e+00,5.000000000000000000e+00,5.000000000000000000e+00,5.000000000000000000e+00,5.000000000000000000e+00,5.000000000000000000e+00,5.000000000000000000e+00,5.000000000000000000e+00,5.000000000000000000e+00,2.283221244812011719e+00,2.262381553649902344e+00,5.000000000000000000e+00,2.163459300994873047e+00,2.107770204544067383e+00,2.095434188842773438e+00,2.116509675979614258e+00,2.283057928085327148e+00,2.297969341278076172e+00,5.000000000000000000e+00,5.000000000000000000e+00,5.000000000000000000e+00,5.000000000000000000e+00,5.000000000000000000e+00,5.000000000000000000e+00,5.000000000000000000e+00,5.000000000000000000e+00,4.991705894470214844e+00,4.826556205749511719e+00,4.671984672546386719e+00,4.527006149291992188e+00,4.390754222869873047e+00,4.262465000152587891e+00,4.141458988189697266e+00,4.027133941650390625e+00,3.918951511383056641e+00,3.816429376602172852e+00,3.719134330749511719e+00,3.626677036285400391e+00,3.538704872131347656e+00,3.454900026321411133e+00,3.374972820281982422e+00,3.298660039901733398e+00,3.225722074508666992e+00,3.155939817428588867e+00,3.089112758636474609e+00,3.025057315826416016e+00,2.963604211807250977e+00,2.904598474502563477e+00,2.847896337509155273e+00,2.793365478515625000e+00,2.740884065628051758e+00,2.690338134765625000e+00
5.000000000000000000e+00,5.000000000000000000e+00,5.000000000000000000e+00,5.000000000000000000e+00,5.000000000000000000e+00,5.000000000000000000e+00,5.000000000000000000e+00,5.000000000000000000e+00,5.000000000000000000e+00,5.000000000000000000e+00,5.000000000000000000e+00,5.000000000000000000e+00,5.000000000000000000e+00,5.000000000000000000e+00,5.000000000000000000e+00,5.000000000000000000e+00,5.000000000000000000e+00,5.000000000000000000e+00,5.000000000000000000e+00,5.000000000000000000e+00,5.000000000000000000e+00,5.000000000000000000e+00,5.000000000000000000e+00,5.000000000000000000e+00,5.000000000000000000e+00,5.000000000000000000e+00,5.000000000000000000e+00,5.000000000000000000e+00,5.000000000000000000e+00,5.000000000000000000e+00,5.000000000000000000e+00,5.000000000000000000e+00,5.000000000000000000e+00,5.000000000000000000e+00,5.000000000000000000e+00,5.000000000000000000e+00,5.000000000000000000e+00,2.277708768844604492e+00,5.000000000000000000e+00,5.000000000000000000e+00,2.188274621963500977e+00,2.106062412261962891e+00,2.083366632461547852e+00,2.097582340240478516e+00,2.290284395217895508e+00,2.312661170959472656e+00,5.000000000000000000e+00,5.000000000000000000e+00,5.000000000000000000e+00,5.000000000000000000e+00,5.000000000000000000e+00,5.000000000000000000e+00,5.000000000000000000e+00,5.000000000000000000e+00,4.991843700408935547e+00,4.826684951782226562e+00,4.672104835510253906e+00,4.527119159698486328e+00,4.390860557556152344e+00,4.262565135955810547e+00,4.141553878784179688e+00,4.027223587036132812e+00,3.919036149978637695e+00,3.816509723663330078e+00,3.719210624694824219e+00,3.626749515533447266e+00,3.538774013519287109e+00,3.454965591430664062e+00,3.375034809112548828e+00,3.298718690872192383e+00,3.225777864456176758e+00,3.155992984771728516e+00,3.089163541793823242e+00,3.025105714797973633e+00,2.963650226593017578e+00,2.904642820358276367e+00,2.847938776016235352e+00,2.793406486511230469e+00,2.740923404693603516e+00,2.690375804901123047e+00
5.000000000000000000e+00,5.000000000000000000e+00,5.000000000000000000e+00,5.000000000000000000e+00,5.000000000000000000e+00,5.000000000000000000e+00,5.000000000000000000e+00,5.000000000000000000e+00,5.000000000000000000e+00,5.000000000000000000e+00,5.000000000000000000e+00,5.000000000000000000e+00,5.000000000000000000e+00,5.000000000000000000e+00,5.000000000000000000e+00,5.000000000000000000e+00,5.000000000000000000e+00,5.000000000000000000e+00,5.000000000000000000e+00,5.000000000000000000e+00,5.000000000000000000e+00,5.000000000000000000e+00,5.000000000000000000e+00,5.000000000000000000e+00,5.000000000000000000e+00,5.000000000000000000e+00,5.000000000000000000e+00,5.000000000000000000e+00,5.000000000000000000e+00,5.000000000000000000e+00,5.000000000000000000e+00,5.000000000000000000e+00,5.000000000000000000e+00,5.000000000000000000e+00,5.000000000000000000e+00,5.000000000000000000e+00,5.000000000000000000e+00,2.272922992706298828e+00,5.000000000000000000e+00,5.000000000000000000e+00,5.000000000000000000e+00,2.120267629623413086e+00,2.078489065170288086e+00,2.079035758972167969e+00,2.297891616821289062e+00,2.322443485260009766e+00,5.000000000000000000e+00,5.000000000000000000e+00,5.000000000000000000e+00,5.000000000000000000e+00,5.000000000000000000e+00,5.000000000000000000e+00,5.000000000000000000e+00,5.000000000000000000e+00,4.991981029510498047e+00,4.826813697814941406e+00,4.672225475311279297e+00,4.527232170104980469e+00,4.390966892242431641e+00,4.262665271759033203e+00,4.141648292541503906e+00,4.027313232421875000e+00,3.919121503829956055e+00,3.816590070724487305e+00,3.719286918640136719e+00,3.626821994781494141e+00,3.538842916488647461e+00,3.455031394958496094e+00,3.375097751617431641e+00,3.298779010772705078e+00,3.225835323333740234e+00,3.156047821044921875e+00,3.089215993881225586e+00,3.025156021118164062e+00,2.963698863983154297e+00,2.904689073562622070e+00,2.847982883453369141e+00,2.793448448181152344e+00,2.740963697433471680e+00,2.690414428710937500e+00
5.000000000000000000e+00,5.000000000000000000e+00,5.000000000000000000e+00,5.000000000000000000e+00,5.000000000000000000e+00,5.000000000000000000e+00,5.000000000000000000e+00,5.000000000000000000e+00,5.000000000000000000e+00,5.000000000000000000e+00,5.000000000000000000e+00,5.000000000000000000e+00,5.000000000000000000e+00,5.000000000000000000e+00,5.000000000000000000e+00,5.000000000000000000e+00,5.000000000000000000e+00,5.000000000000000000e+00,5.000000000000000000e+00,5.000000000000000000e+00,5.000000000000000000e+00,5.000000000000000000e+00,5.000000000000000000e+00,5.000000000000000000e+00,5.000000000000000000e+00,5.000000000000000000e+00,5.000000000000000000e+00,5.000000000000000000e+00,5.000000000000000000e+00,5.000000000000000000e+00,5.000000000000000000e+00,5.000000000000000000e+00,5.000000000000000000e+00,5.000000000000000000e+00,5.000000000000000000e+00,5.000000000000000000e+00,5.000000000000000000e+00,5.000000000000000000e+00,5.000000000000000000e+00,5.000000000000000000e+00,5.000000000000000000e+00,2.135370492935180664e+00,2.077759981155395508e+00,2.072226285934448242e+00,2.145776033401489258e+00,2.332924604415893555e+00,5.000000000000000000e+00,5.000000000000000000e+00,5.000000000000000000e+00,5.000000000000000000e+00,5.000000000000000000e+00,5.000000000000000000e+00,5.000000000000000000e+00,5.000000000000000000e+00,4.992118358612060547e+00,4.826941967010498047e+00,4.672345638275146484e+00,4.527345180511474609e+00,4.391073226928710938e+00,4.262765884399414062e+00,4.141742706298828125e+00,4.027402400970458984e+00,3.919206142425537109e+00,3.816670417785644531e+00,3.719363212585449219e+00,3.626894474029541016e+00,3.538912057876586914e+00,3.455097198486328125e+00,3.375160455703735352e+00,3.298839092254638672e+00,3.225893020629882812e+00,3.156102657318115234e+00,3.089268684387207031e+00,3.025206565856933594e+00,2.963747262954711914e+00,2.904735565185546875e+00,2.848027706146240234e+00,2.793491840362548828e+00,2.741004943847656250e+00,2.690454483032226562e+00
5.000000000000000000e+00,5.000000000000000000e+00,5.000000000000000000e+00,5.000000000000000000e+00,5.000000000000000000e+00,5.000000000000000000e+00,5.000000000000000000e+00,5.000000000000000000e+00,5.000000000000000000e+00,5.000000000000000000e+00,5.000000000000000000e+00,5.000000000000000000e+00,5.000000000000000000e+00,5.000000000000000000e+00,5.000000000000000000e+00,5.000000000000000000e+00,5.000000000000000000e+00,5.000000000000000000e+00,5.000000000000000000e+00,5.000000000000000000e+00,5.000000000000000000e+00,5.000000000000000000e+00,5.000000000000000000e+00,5.000000000000000000e+00,5.000000000000000000e+00,5.000000000000000000e+00,5.000000000000000000e+00,5.000000000000000000e+00,5.000000000000000000e+00,5.000000000000000000e+00,5.000000000000000000e+00,5.000000000000000000e+00,5.000000000000000000e+00,5.000000000000000000e+00,5.000000000000000000e+00,5.000000000000000000e+00,5.000000000000000000e+00,5.000000000000000000e+00,5.000000000000000000e+00,5.000000000000000000e+00,5.000000000000000000e+00,2.140458345413208008e+00,2.087123394012451172e+00,2.082001686096191406e+00,2.312915563583374023e+00,5.000000000000000000e+00,5.000000000000000000e+00,5.000000000000000000e+00,5.000000000000000000e+00,5.000000000000000000e+00,5.000000000000000000e+00,5.000000000000000000e+00,5.000000000000000000e+00,5.000000000000000000e+00,4.992255687713623047e+00,4.827070713043212891e+00,4.672466278076171875e+00,4.527458190917968750e+00,4.391179561614990234e+00,4.262866020202636719e+00,4.141837596893310547e+00,4.027492046356201172e+00,3.919290781021118164e+00,3.816751003265380859e+00,3.719439268112182617e+00,3.626967191696166992e+00,3.538980960845947266e+00,3.455163002014160156e+00,3.375223398208618164e+00,3.298899173736572266e+00,3.225950241088867188e+00,3.156157732009887695e+00,3.089321374893188477e+00,3.025256872177124023e+00,2.963795661926269531e+00,2.904782056808471680e+00,2.848072528839111328e+00,2.793534755706787109e+00,2.741046428680419922e+00,2.690494298934936523e+00
5.000000000000000000e+00,5.000000000000000000e+00,5.000000000000000000e+00,5.000000000000000000e+00,5.000000000000000000e+00,5.000000000000000000e+00,5.000000000000000000e+00,5.000000000000000000e+00,5.000000000000000000e+00,5.000000000000000000e+00,5.000000000000000000e+00,5.000000000000000000e+00,5.000000000000000000e+00,5.000000000000000000e+00,5.000000000000000000e+00,5.000000000000000000e+00,5.000000000000000000e+00,5.000000000000000000e+00,5.000000000000000000e+00,5.000000000000000000e+00,5.000000000000000000e+00,5.000000000000000000e+00,5.000000000000000000e+00,5.000000000000000000e+00,5.000000000000000000e+00,5.000000000000000000e+00,5.000000000000000000e+00,5.000000000000000000e+00,5.000000000000000000e+00,5.000000000000000000e+00,5.000000000000000000e+00,5.000000000000000000e+00,5.000000000000000000e+00,5.000000000000000000e+00,5.000000000000000000e+00,5.000000000000000000e+00,5.000000000000000000e+00,5.000000000000000000e+00,5.000000000000000000e+00,5.000000000000000000e+00,5.000000000000000000e+00,2.133060455322265625e+00,2.101175546646118164e+00,2.096283435821533203e+00,2.322329044342041016e+00,5.000000000000000000e+00,5.000000000000000000e+00,5.000000000000000000e+00,5.000000000000000000e+00,5.000000000000000000e+00,5.000000000000000000e+00,5.000000000000000000e+00,5.000000000000000000e+00,5.000000000000000000e+00,4.992393493652343750e+00,4.827198982238769531e+00,4.672586917877197266e+00,4.527571678161621094e+00,4.391285896301269531e+00,4.262966156005859375e+00,4.141932010650634766e+00,4.027581214904785156e+00,3.919375419616699219e+00,3.816831350326538086e+00,3.719516038894653320e+00,3.627039670944213867e+00,3.539050102233886719e+00,3.455228805541992188e+00,3.375286102294921875e+00,3.298959016799926758e+00,3.226007699966430664e+00,3.156212806701660156e+00,3.089373826980590820e+00,3.025307416915893555e+00,2.963844060897827148e+00,2.904828548431396484e+00,2.848117113113403320e+00,2.793577909469604492e+00,2.741088151931762695e+00,2.690534353256225586e+00
5.000000000000000000e+00,5.000000000000000000e+00,5.000000000000000000e+00,5.000000000000000000e+00,5.000000000000000000e+00,5.000000000000000000e+00,5.000000000000000000e+00,5.000000000000000000e+00,5.000000000000000000e+00,5.000000000000000000e+00,5.000000000000000000e+00,5.000000000000000000e+00,5.000000000000000000e+00,5.000000000000000000e+00,5.000000000000000000e+00,5.000000000000000000e+00,5.000000000000000000e+00,5.000000000000000000e+00,5.000000000000000000e+00,5.000000000000000000e+00,5.000000000000000000e+00,5.000000000000000000e+00,5.000000000000000000e+00,5.000000000000000000e+00,5.000000000000000000e+00,5.000000000000000000e+00,5.000000000000000000e+00,5.000000000000000000e+00,5.000000000000000000e+00,5.000000000000000000e+00,5.000000000000000000e+00,5.000000000000000000e+00,5.000000000000000000e+00,5.000000000000000000e+00,5.000000000000000000e+00,5.000000000000000000e+00,5.000000000000000000e+00,5.000000000000000000e+00,5.000000000000000000e+00,5.000000000000000000e+00,5.000000000000000000e+00,2.135503768920898438e+00,2.111121892929077148e+00,2.112875699996948242e+00,2.344869613647460938e+00,5.000000000000000000e+00,5.000000000000000000e+00,5.000000000000000000e+00,5.000000000000000000e+00,5.000000000000000000e+00,5.000000000000000000e+00,5.000000000000000000e+00,5.000000000000000000e+00,5.000000000000000000e+00,4.992531299591064453e+00,4.827327251434326172e+00,4.672707080841064453e+00,4.527684688568115234e+00,4.391392707824707031e+00,4.263066291809082031e+00,4.142026901245117188e+00,4.027670860290527344e+00,3.919460058212280273e+00,3.816911697387695312e+00,3.719592332839965820e+00,3.627112627029418945e+00,3.539119243621826172e+00,3.455294609069824219e+00,3.375349044799804688e+00,3.299019098281860352e+00,3.226065158843994141e+00,3.156267881393432617e+00,3.089426755905151367e+00,3.025357961654663086e+00,2.963892459869384766e+00,2.904875040054321289e+00,2.848161935806274414e+00,2.793620824813842773e+00,2.741129636764526367e+00,2.690574407577514648e+00
5.000000000000000000e+00,5.000000000000000000e+00,5.000000000000000000e+00,5.000000000000000000e+00,5.000000000000000000e+00,5.000000000000000000e+00,5.000000000000000000e+00,5.000000000000000000e+00,5.000000000000000000e+00,5.000000000000000000e+00,5.000000000000000000e+00,5.000000000000000000e+00,5.000000000000000000e+00,5.000000000000000000e+00,5.000000000000000000e+00,5.000000000000000000e+00,5.000000000000000000e+00,5.000000000000000000e+00,5.000000000000000000e+00,5.000000000000000000e+00,5.000000000000000000e+00,5.000000000000000000e+00,5.000000000000000000e+00,5.000000000000000000e+00,5.000000000000000000e+00,5.000000000000000000e+00,5.000000000000000000e+00,5.000000000000000000e+00,5.000000000000000000e+00,5.000000000000000000e+00,5.000000000000000000e+00,5.000000000000000000e+00,5.000000000000000000e+00,5.000000000000000000e+00,5.000000000000000000e+00,5.000000000000000000e+00,5.000000000000000000e+00,5.000000000000000000e+00,5.000000000000000000e+00,5.000000000000000000e+00,5.000000000000000000e+00,2.143510103225708008e+00,2.118419647216796875e+00,2.126644611358642578e+00,5.000000000000000000e+00,5.000000000000000000e+00,5.000000000000000000e+00,5.000000000000000000e+00,5.000000000000000000e+00,5.000000000000000000e+00,5.000000000000000000e+00,5.000000000000000000e+00,5.000000000000000000e+00,5.000000000000000000e+00,4.992668628692626953e+00,4.827456474304199219e+00,4.672827720642089844e+00,4.527797698974609375e+00,4.391499042510986328e+00,4.263166427612304688e+00,4.142121315002441406e+00,4.027760505676269531e+00,3.919544935226440430e+00,3.816992044448852539e+00,3.719668626785278320e+00,3.627185106277465820e+00,3.539188623428344727e+00,3.455360412597656250e+00,3.375411748886108398e+00,3.299079179763793945e+00,3.226122379302978516e+00,3.156322717666625977e+00,3.089479446411132812e+00,3.025408744812011719e+00,2.963940858840942383e+00,2.904921531677246094e+00,2.848206520080566406e+00,2.793663978576660156e+00,2.741170883178710938e+00,2.690614223480224609e+00
5.000000000000000000e+00,5.000000000000000000e+00,5.000000000000000000e+00,5.000000000000000000e+00,5.000000000000000000e+00,5.000000000000000000e+00,5.000000000000000000e+00,5.000000000000000000e+00,5.000000000000000000e+00,5.000000000000000000e+00,5.000000000000000000e+00,5.000000000000000000e+00,5.000000000000000000e+00,5.000000000000000000e+00,5.000000000000000000e+00,5.000000000000000000e+00,5.000000000000000000e+00,5.000000000000000000e+00,5.000000000000000000e+00,5.000000000000000000e+00,5.000000000000000000e+00,5.000000000000000000e+00,5.000000000000000000e+00,5.000000000000000000e+00,5.000000000000000000e+00,5.000000000000000000e+00,5.000000000000000000e+00,5.000000000000000000e+00,5.000000000000000000e+00,5.000000000000000000e+00,5.000000000000000000e+00,5.000000000000000000e+00,5.000000000000000000e+00,5.000000000000000000e+00,5.000000000000000000e+00,5.000000000000000000e+00,5.000000000000000000e+00,5.000000000000000000e+00,5.000000000000000000e+00,5.000000000000000000e+00,5.000000000000000000e+00,2.150589466094970703e+00,2.119666576385498047e+00,2.125271320343017578e+00,5.000000000000000000e+00,5.000000000000000000e+00,5.000000000000000000e+00,5.000000000000000000e+00,5.000000000000000000e+00,5.000000000000000000e+00,5.000000000000000000e+00,5.000000000000000000e+00,5.000000000000000000e+00,5.000000000000000000e+00,4.992805957794189453e+00,4.827584743499755859e+00,4.672948360443115234e+00,4.527910709381103516e+00,4.391605377197265625e+00,4.263267040252685547e+00,4.142216205596923828e+00,4.027850151062011719e+00,3.919629573822021484e+00,3.817072391510009766e+00,3.719744920730590820e+00,3.627257585525512695e+00,3.539257764816284180e+00,3.455426216125488281e+00,3.375474691390991211e+00,3.299139022827148438e+00,3.226179838180541992e+00,3.156377792358398438e+00,3.089532136917114258e+00,3.025459051132202148e+00,2.963989257812500000e+00,2.904968023300170898e+00,2.848251342773437500e+00,2.793706893920898438e+00,2.741212368011474609e+00,2.690654277801513672e+00
5.000000000000000000e+00,5.000000000000000000e+00,5.000000000000000000e+00,5.000000000000000000e+00,5.000000000000000000e+00,5.000000000000000000e+00,5.000000000000000000e+00,5.000000000000000000e+00,5.000000000000000000e+00,5.000000000000000000e+00,5.000000000000000000e+00,5.000000000000000000e+00,5.000000000000000000e+00,5.000000000000000000e+00,5.000000000000000000e+00,5.000000000000000000e+00,5.000000000000000000e+00,5.000000000000000000e+00,5.000000000000000000e+00,5.000000000000000000e+00,5.000000000000000000e+00,5.000000000000000000e+00,5.000000000000000000e+00,5.000000000000000000e+00,5.000000000000000000e+00,5.000000000000000000e+00,5.000000000000000000e+00,5.000000000000000000e+00,5.000000000000000000e+00,5.000000000000000000e+00,5.000000000000000000e+00,5.000000000000000000e+00,5.000000000000000000e+00,5.000000000000000000e+00,5.000000000000000000e+00,5.000000000000000000e+00,5.000000000000000000e+00,5.000000000000000000e+00,5.000000000000000000e+00,5.000000000000000000e+00,5.000000000000000000e+00,2.157715797424316406e+00,2.123353958129882812e+00,2.123899936676025391e+00,5.000000000000000000e+00,5.000000000000000000e+00,5.000000000000000000e+00,5.000000000000000000e+00,5.000000000000000000e+00,5.000000000000000000e+00,5.000000000000000000e+00,5.000000000000000000e+00,5.000000000000000000e+00,5.000000000000000000e+00,4.992943286895751953e+00,4.827713489532470703e+00,4.673068523406982422e+00,4.528023719787597656e+00,4.391711711883544922e+00,4.263367176055908203e+00,4.142310619354248047e+00,4.027939319610595703e+00,3.919714212417602539e+00,3.817152738571166992e+00,3.719821214675903320e+00,3.627330064773559570e+00,3.539326667785644531e+00,3.455492496490478516e+00,3.375537395477294922e+00,3.299199104309082031e+00,3.226237297058105469e+00,3.156432628631591797e+00,3.089584827423095703e+00,3.025509595870971680e+00,2.964038133621215820e+00,2.905014753341674805e+00,2.848296165466308594e+00,2.793750047683715820e+00,2.741253852844238281e+00,2.690694093704223633e+00
5.000000000000000000e+00,5.000000000000000000e+00,5.000000000000000000e+00,5.000000000000000000e+00,5.000000000000000000e+00,5.000000000000000000e+00,5.000000000000000000e+00,5.000000000000000000e+00,5.000000000000000000e+00,5.000000000000000000e+00,5.000000000000000000e+00,5.000000000000000000e+00,5.000000000000000000e+00,5.000000000000000000e+00,5.000000000000000000e+00,5.000000000000000000e+00,5.000000000000000000e+00,5.000000000000000000e+00,5.000000000000000000e+00,5.000000000000000000e+00,5.000000000000000000e+00,5.000000000000000000e+00,5.000000000000000000e+00,5.000000000000000000e+00,5.000000000000000000e+00,5.000000000000000000e+00,5.000000000000000000e+00,5.000000000000000000e+00,5.000000000000000000e+00,5.000000000000000000e+00,5.000000000000000000e+00,5.000000000000000000e+00,5.000000000000000000e+00,5.000000000000000000e+00,5.000000000000000000e+00,5.000000000000000000e+00,5.000000000000000000e+00,5.000000000000000000e+00,5.000000000000000000e+00,5.000000000000000000e+00,2.627127408981323242e+00,2.164889574050903320e+00,2.127990007400512695e+00,2.121881723403930664e+00,5.000000000000000000e+00,5.000000000000000000e+00,5.000000000000000000e+00,5.000000000000000000e+00,5.000000000000000000e+00,5.000000000000000000e+00,5.000000000000000000e+00,5.000000000000000000e+00,5.000000000000000000e+00,5.000000000000000000e+00,4.993081092834472656e+00,4.827841758728027344e+00,4.673189163208007812e+00,4.528137207031250000e+00,4.391818046569824219e+00,4.263467311859130859e+00,4.142405509948730469e+00,4.028028964996337891e+00,3.919799089431762695e+00,3.817233085632324219e+00,3.719897508621215820e+00,3.627402782440185547e+00,3.539395809173583984e+00,3.455558300018310547e+00,3.375600576400756836e+00,3.299259185791015625e+00,3.226294517517089844e+00,3.156487464904785156e+00,3.089637279510498047e+00,3.025560140609741211e+00,2.964086532592773438e+00,2.905061483383178711e+00,2.848340749740600586e+00,2.793792963027954102e+00,2.741295337677001953e+00,2.690734148025512695e+00
5.000000000000000000e+00,5.000000000000000000e+00,5.000000000000000000e+00,5.000000000000000000e+00,5.000000000000000000e+00,5.000000000000000000e+00,5.000000000000000000e+00,5.000000000000000000e+00,5.000000000000000000e+00,5.000000000000000000e+00,5.000000000000000000e+00,5.000000000000000000e+00,5.000000000000000000e+00,5.000000000000000000e+00,5.000000000000000000e+00,5.000000000000000000e+00,5.000000000000000000e+00,5.000000000000000000e+00,5.000000000000000000e+00,5.000000000000000000e+00,5.000000000000000000e+00,5.000000000000000000e+00,5.000000000000000000e+00,5.000000000000000000e+00,5.000000000000000000e+00,5.000000000000000000e+00,5.000000000000000000e+00,5.000000000000000000e+00,5.000000000000000000e+00,5.000000000000000000e+00,5.000000000000000000e+00,5.000000000000000000e+00,5.000000000000000000e+00,5.000000000000000000e+00,5.000000000000000000e+00,5.000000000000000000e+00,5.000000000000000000e+00,5.000000000000000000e+00,5.000000000000000000e+00,5.000000000000000000e+00,2.646081447601318359e+00,2.195104122161865234e+00,2.136225223541259766e+00,2.121261835098266602e+00,5.000000000000000000e+00,5.000000000000000000e+00,5.000000000000000000e+00,5.000000000000000000e+00,5.000000000000000000e+00,5.000000000000000000e+00,5.000000000000000000e+00,5.000000000000000000e+00,5.000000000000000000e+00,5.000000000000000000e+00,4.993218898773193359e+00,4.827970504760742188e+00,4.673309326171875000e+00,4.528250217437744141e+00,4.391924381256103516e+00,4.263567447662353516e+00,4.142499923706054688e+00,4.028118610382080078e+00,3.919883728027343750e+00,3.817313432693481445e+00,3.719973802566528320e+00,3.627475261688232422e+00,3.539464950561523438e+00,3.455624103546142578e+00,3.375663280487060547e+00,3.299319505691528320e+00,3.226351976394653320e+00,3.156542539596557617e+00,3.089689970016479492e+00,3.025610446929931641e+00,2.964134931564331055e+00,2.905107975006103516e+00,2.848385810852050781e+00,2.793836116790771484e+00,2.741336584091186523e+00,2.690773963928222656e+00
5.000000000000000000e+00,5.000000000000000000e+00,5.000000000000000000e+00,5.000000000000000000e+00,5.000000000000000000e+00,5.000000000000000000e+00,5.000000000000000000e+00,5.000000000000000000e+00,5.000000000000000000e+00,5.000000000000000000e+00,5.000000000000000000e+00,5.000000000000000000e+00,5.000000000000000000e+00,5.000000000000000000e+00,5.000000000000000000e+00,5.000000000000000000e+00,5.000000000000000000e+00,5.000000000000000000e+00,5.000000000000000000e+00,5.000000000000000000e+00,5.000000000000000000e+00,5.000000000000000000e+00,5.000000000000000000e+00,5.000000000000000000e+00,5.000000000000000000e+00,5.000000000000000000e+00,5.000000000000000000e+00,5.000000000000000000e+00,5.000000000000000000e+00,5.000000000000000000e+00,5.000000000000000000e+00,5.000000000000000000e+00,5.000000000000000000e+00,5.000000000000000000e+00,5.000000000000000000e+00,5.000000000000000000e+00,5.000000000000000000e+00,5.000000000000000000e+00,5.000000000000000000e+00,5.000000000000000000e+00,2.672104597091674805e+00,5.000000000000000000e+00,2.145093679428100586e+00,2.128556251525878906e+00,5.000000000000000000e+00,5.000000000000000000e+00,5.000000000000000000e+00,5.000000000000000000e+00,5.000000000000000000e+00,5.000000000000000000e+00,5.000000000000000000e+00,5.000000000000000000e+00,5.000000000000000000e+00,5.000000000000000000e+00,4.993356227874755859e+00,4.828099250793457031e+00,4.673429965972900391e+00,4.528363227844238281e+00,4.392031192779541016e+00,4.263668060302734375e+00,4.142594814300537109e+00,4.028208255767822266e+00,3.919968843460083008e+00,3.817393779754638672e+00,3.720050096511840820e+00,3.627547740936279297e+00,3.539533853530883789e+00,3.455689907073974609e+00,3.375726222991943359e+00,3.299379587173461914e+00,3.226409435272216797e+00,3.156597375869750977e+00,3.089742660522460938e+00,3.025660991668701172e+00,2.964183330535888672e+00,2.905154466629028320e+00,2.848430395126342773e+00,2.793879032135009766e+00,2.741378068923950195e+00,2.690813779830932617e+00
4.871444702148437500e+00,4.870233058929443359e+00,4.869021892547607422e+00,4.867811203002929688e+00,4.866601467132568359e+00,4.865392208099365234e+00,4.864183425903320312e+00,4.862975120544433594e+00,4.861767768859863281e+00,4.860560894012451172e+00,4.859354496002197266e+00,4.858148574829101562e+00,4.856943607330322266e+00,4.855739116668701172e+00,4.854535102844238281e+00,4.853331565856933594e+00,4.852128982543945312e+00,4.850926876068115234e+00,4.849725246429443359e+00,4.848524093627929688e+00,4.847323894500732422e+00,4.846124172210693359e+00,4.844924926757812500e+00,4.843726634979248047e+00,4.842528343200683594e+00,4.841331005096435547e+00,4.840134143829345703e+00,4.838937759399414062e+00,4.837742328643798828e+00,4.836546897888183594e+00,4.835352897644042969e+00,4.834158897399902344e+00,4.832965850830078125e+00,4.831772804260253906e+00,4.830580711364746094e+00,4.829389095306396484e+00,4.828197956085205078e+00,4.827008247375488281e+00,4.825818061828613281e+00,4.824629306793212891e+00,2.661456823348999023e+00,4.822252273559570312e+00,2.154036045074462891e+00,2.136815309524536133e+00,4.818692207336425781e+00,4.817506313323974609e+00,4.816321372985839844e+00,4.815136909484863281e+00,4.813952922821044922e+00,4.812769412994384766e+00,4.811586856842041016e+00,4.810404777526855469e+00,4.809223175048828125e+00,4.808042049407958984e+00,4.806861400604248047e+00,4.805681705474853516e+00,4.673550605773925781e+00,4.528476238250732422e+00,4.392137527465820312e+00,4.263768196105957031e+00,4.142689228057861328e+00,4.028297424316406250e+00,3.920053720474243164e+00,3.817474603652954102e+00,3.720126390457153320e+00,3.627620458602905273e+00,3.539602994918823242e+00,3.455755710601806641e+00,3.375788927078247070e+00,3.299439430236816406e+00,3.226467132568359375e+00,3.156652450561523438e+00,3.089795351028442383e+00,3.025711536407470703e+00,2.964231729507446289e+00,2.905200958251953125e+00,2.848475217819213867e+00,2.793922424316406250e+00,2.741419553756713867e+00,2.690853834152221680e+00
3.776014566421508789e+00,3.775286436080932617e+00,3.774558305740356445e+00,3.773831129074096680e+00,3.773103952407836914e+00,3.772376775741577148e+00,3.771650075912475586e+00,3.770923614501953125e+00,3.770197629928588867e+00,3.769471645355224609e+00,3.768746137619018555e+00,3.768020629882812500e+00,3.767296075820922852e+00,3.766571283340454102e+00,3.765846729278564453e+00,3.765122413635253906e+00,3.764398336410522461e+00,3.763674974441528320e+00,3.762951612472534180e+00,3.762228488922119141e+00,3.761505603790283203e+00,3.760782957077026367e+00,3.760061025619506836e+00,3.759339094161987305e+00,3.758617401123046875e+00,3.757895708084106445e+00,3.757174968719482422e+00,3.756453990936279297e+00,3.755733489990234375e+00,3.755012989044189453e+00,3.754292964935302734e+00,3.753573417663574219e+00,3.752853870391845703e+00,3.752134561538696289e+00,3.751415491104125977e+00,3.750696897506713867e+00,3.749978780746459961e+00,3.749260663986206055e+00,3.748542785644531250e+00,3.747825145721435547e+00,2.655277729034423828e+00,2.691448211669921875e+00,2.174477577209472656e+00,2.153369903564453125e+00,3.744241476058959961e+00,3.743525981903076172e+00,3.742810249328613281e+00,3.742094755172729492e+00,3.741379499435424805e+00,3.740664720535278320e+00,3.739950418472290039e+00,3.739236116409301758e+00,3.738522052764892578e+00,3.737808465957641602e+00,3.737094640731811523e+00,3.736382007598876953e+00,3.735668897628784180e+00,3.734956264495849609e+00,3.734243869781494141e+00,3.733531951904296875e+00,3.732820034027099609e+00,3.732108592987060547e+00,3.731397151947021484e+00,3.730685949325561523e+00,3.720203161239624023e+00,3.627692937850952148e+00,3.539672136306762695e+00,3.455821752548217773e+00,3.375851869583129883e+00,3.299499511718750000e+00,3.226524591445922852e+00,3.156707525253295898e+00,3.089847803115844727e+00,3.025761842727661133e+00,2.964280366897583008e+00,2.905247449874877930e+00,2.848520040512084961e+00,2.793965339660644531e+00,2.741461277008056641e+00,2.690893650054931641e+00
3.082793951034545898e+00,3.082308530807495117e+00,3.081823587417602539e+00,3.081338405609130859e+00,3.080853462219238281e+00,3.080368757247924805e+00,3.079884529113769531e+00,3.079400062561035156e+00,3.078915596008300781e+00,3.078431606292724609e+00,3.077947616577148438e+00,3.077463865280151367e+00,3.076980113983154297e+00,3.076496601104736328e+00,3.076013326644897461e+00,3.075530052185058594e+00,3.075047254562377930e+00,3.074564218521118164e+00,3.074081420898437500e+00,3.073598861694335938e+00,3.073116302490234375e+00,3.072634220123291016e+00,3.072152137756347656e+00,3.071670055389404297e+00,3.071188211441040039e+00,3.070706605911254883e+00,3.070225000381469727e+00,3.069743633270263672e+00,3.069262504577636719e+00,3.068781137466430664e+00,3.068300485610961914e+00,3.067819833755493164e+00,3.067339181900024414e+00,3.066858530044555664e+00,3.066378116607666016e+00,3.065898180007934570e+00,3.065418243408203125e+00,3.064938306808471680e+00,3.064458608627319336e+00,3.063979148864746094e+00,2.628705263137817383e+00,3.063020467758178711e+00,2.181546211242675781e+00,2.146286964416503906e+00,3.061583518981933594e+00,3.061104774475097656e+00,3.060626268386840820e+00,3.060147762298583984e+00,3.059669494628906250e+00,3.059191703796386719e+00,3.058713674545288086e+00,3.058235883712768555e+00,3.057758331298828125e+00,3.057281017303466797e+00,3.056803703308105469e+00,3.056326389312744141e+00,3.055849313735961914e+00,3.055372238159179688e+00,3.054895877838134766e+00,3.054419279098510742e+00,3.053942680358886719e+00,3.053466320037841797e+00,3.052990198135375977e+00,3.052514314651489258e+00,3.052038431167602539e+00,3.051562786102294922e+00,3.051087141036987305e+00,3.050611972808837891e+00,3.050136804580688477e+00,3.049661636352539062e+00,3.049186468124389648e+00,3.048711776733398438e+00,3.048237323760986328e+00,3.025812387466430664e+00,2.964328765869140625e+00,2.905294179916381836e+00,2.848564624786376953e+00,2.794008493423461914e+00,2.741502523422241211e+00,2.690933942794799805e+00
2.604623317718505859e+00,2.604276895523071289e+00,2.603930711746215820e+00,2.603584289550781250e+00,2.603238105773925781e+00,2.602892160415649414e+00,2.602546215057373047e+00,2.602200269699096680e+00,2.601854324340820312e+00,2.601508617401123047e+00,2.601163148880004883e+00,2.600817441940307617e+00,2.600471973419189453e+00,2.600126743316650391e+00,2.599781274795532227e+00,2.599436283111572266e+00,2.599091291427612305e+00,2.598746299743652344e+00,2.598401308059692383e+00,2.598056554794311523e+00,2.597711801528930664e+00,2.597367286682128906e+00,2.597022771835327148e+00,2.596678256988525391e+00,2.596333980560302734e+00,2.595989704132080078e+00,2.595645666122436523e+00,2.595301389694213867e+00,2.594957351684570312e+00,2.594613790512084961e+00,2.594269752502441406e+00,2.593926191329956055e+00,2.593582391738891602e+00,2.593239068984985352e+00,2.592895746231079102e+00,2.592552185058593750e+00,2.592208862304687500e+00,2.591865777969360352e+00,2.591522932052612305e+00,2.591179847717285156e+00,2.590837001800537109e+00,2.590494155883789062e+00,2.190714597702026367e+00,2.119981527328491211e+00,2.101920604705810547e+00,2.589123964309692383e+00,2.588781595230102539e+00,2.588439464569091797e+00,2.588097095489501953e+00,2.587755203247070312e+00,2.587413072586059570e+00,2.587071180343627930e+00,2.586729526519775391e+00,2.586387872695922852e+00,2.586046218872070312e+00,2.585704565048217773e+00,2.585363149642944336e+00,2.585021972656250000e+00,2.584680557250976562e+00,2.584339380264282227e+00,2.583998203277587891e+00,2.583657264709472656e+00,2.583316564559936523e+00,2.582975625991821289e+00,2.582634925842285156e+00,2.582294225692749023e+00,2.581954002380371094e+00,2.581613302230834961e+00,2.581273078918457031e+00,2.580932617187500000e+00,2.580592393875122070e+00,2.580252647399902344e+00,2.579912424087524414e+00,2.579572677612304688e+00,2.579232692718505859e+00,2.578892946243286133e+00,2.578553438186645508e+00,2.578213930130004883e+00,2.577874422073364258e+00,2.577534914016723633e+00
2.254871606826782227e+00,2.254611730575561523e+00,2.254352331161499023e+00,2.254092693328857422e+00,2.253833293914794922e+00,2.253573894500732422e+00,2.253314495086669922e+00,2.253055095672607422e+00,2.252795934677124023e+00,2.252536773681640625e+00,2.252277612686157227e+00,2.252018690109252930e+00,2.251759529113769531e+00,2.251500606536865234e+00,2.251241922378540039e+00,2.250982999801635742e+00,2.250724077224731445e+00,2.250465393066406250e+00,2.250206947326660156e+00,2.249948263168334961e+00,2.249689817428588867e+00,2.249431133270263672e+00,2.249172687530517578e+00,2.248914480209350586e+00,2.248656272888183594e+00,2.248398065567016602e+00,2.248139858245849609e+00,2.247881650924682617e+00,2.247623682022094727e+00,2.247365713119506836e+00,2.247107744216918945e+00,2.246849775314331055e+00,2.246592044830322266e+00,2.246334314346313477e+00,2.246076583862304688e+00,2.245819091796875000e+00,2.245561361312866211e+00,2.245303869247436523e+00,2.245046377182006836e+00,2.244788885116577148e+00,2.244531631469726562e+00,2.244274377822875977e+00,2.244017124176025391e+00,2.076173782348632812e+00,2.051974058151245117e+00,2.042160987854003906e+00,2.242988824844360352e+00,2.242732048034667969e+00,2.242475032806396484e+00,2.242218255996704102e+00,2.241961479187011719e+00,2.241704940795898438e+00,2.241448163986206055e+00,2.241191625595092773e+00,2.240935087203979492e+00,2.240678548812866211e+00,2.240422248840332031e+00,2.240165948867797852e+00,2.239909648895263672e+00,2.239653348922729492e+00,2.239397287368774414e+00,2.239141225814819336e+00,2.238885164260864258e+00,2.238629102706909180e+00,2.238373041152954102e+00,2.238117218017578125e+00,2.237861394882202148e+00,2.237605810165405273e+00,2.237349987030029297e+00,2.237094402313232422e+00,2.236838817596435547e+00,2.236583232879638672e+00,2.236327886581420898e+00,2.236072301864624023e+00,2.235817193984985352e+00,2.235561847686767578e+00,2.235306501388549805e+00,2.235051393508911133e+00,2.234796285629272461e+00,2.234541177749633789e+00
1.987935304641723633e+00,1.987732529640197754e+00,1.987529993057250977e+00,1.987327575683593750e+00,1.987124919891357422e+00,1.986922502517700195e+00,1.986720085144042969e+00,1.986518025398254395e+00,1.986316561698913574e+00,1.986114978790283203e+00,1.985913515090942383e+00,1.985712051391601562e+00,1.985510945320129395e+00,1.985309600830078125e+00,1.985108256340026855e+00,1.984907031059265137e+00,1.984705805778503418e+00,1.984504580497741699e+00,1.984303474426269531e+00,1.984102368354797363e+00,1.983901262283325195e+00,1.983700275421142578e+00,1.983499526977539062e+00,1.983298540115356445e+00,1.983097672462463379e+00,1.982896804809570312e+00,1.982695937156677246e+00,1.982495188713073730e+00,1.982294440269470215e+00,1.982093691825866699e+00,1.981893062591552734e+00,1.981692671775817871e+00,1.981492042541503906e+00,1.981291532516479492e+00,1.981091022491455078e+00,1.980890631675720215e+00,1.980690121650695801e+00,1.980489850044250488e+00,1.980289459228515625e+00,1.980089187622070312e+00,1.979889154434204102e+00,1.979688882827758789e+00,1.979488730430603027e+00,1.979288578033447266e+00,1.979088544845581055e+00,1.978888392448425293e+00,1.978688478469848633e+00,1.978488445281982422e+00,1.978288531303405762e+00,1.978088617324829102e+00,1.977889060974121094e+00,1.977689146995544434e+00,1.977489471435546875e+00,1.977289676666259766e+00,1.977090001106262207e+00,1.976890325546264648e+00,1.976690769195556641e+00,1.976491212844848633e+00,1.976291656494140625e+00,1.976092338562011719e+00,1.975892901420593262e+00,1.975693464279174805e+00,1.975494146347045898e+00,1.975294828414916992e+00,1.975095510482788086e+00,1.974896311759948730e+00,1.974696993827819824e+00,1.974497914314270020e+00,1.974298715591430664e+00,1.974099874496459961e+00,1.973900794982910156e+00,1.973701834678649902e+00,1.973502874374389648e+00,1.973303914070129395e+00,1.973105072975158691e+00,1.972906231880187988e+00,1.972707390785217285e+00,1.972508668899536133e+00,1.972310185432434082e+00,1.972111463546752930e+00
1.777510643005371094e+00,1.777348756790161133e+00,1.777186632156372070e+00,1.777024745941162109e+00,1.776862859725952148e+00,1.776700854301452637e+00,1.776539087295532227e+00,1.776377320289611816e+00,1.776215434074401855e+00,1.776053667068481445e+00,1.775892019271850586e+00,1.775730252265930176e+00,1.775568604469299316e+00,1.775406956672668457e+00,1.775245308876037598e+00,1.775084257125854492e+00,1.774923324584960938e+00,1.774762392044067383e+00,1.774601578712463379e+00,1.774440765380859375e+00,1.774279832839965820e+00,1.774119257926940918e+00,1.773958563804626465e+00,1.773797750473022461e+00,1.773637056350708008e+00,1.773476362228393555e+00,1.773315787315368652e+00,1.773155093193054199e+00,1.772994518280029297e+00,1.772833943367004395e+00,1.772673606872558594e+00,1.772513151168823242e+00,1.772352695465087891e+00,1.772192239761352539e+00,1.772031784057617188e+00,1.771871447563171387e+00,1.771710991859436035e+00,1.771550774574279785e+00,1.771390438079833984e+00,1.771230340003967285e+00,1.771070122718811035e+00,1.770909905433654785e+00,1.770749688148498535e+00,1.770589590072631836e+00,1.770429372787475586e+00,1.770269274711608887e+00,1.770109295845031738e+00,1.769949197769165039e+00,1.769789218902587891e+00,1.769629359245300293e+00,1.769469499588012695e+00,1.769309520721435547e+00,1.769149661064147949e+00,1.768989801406860352e+00,1.768829941749572754e+00,1.768670082092285156e+00,1.768510341644287109e+00,1.768350601196289062e+00,1.768191099166870117e+00,1.768031358718872070e+00,1.767871737480163574e+00,1.767712116241455078e+00,1.767552495002746582e+00,1.767392873764038086e+00,1.767233371734619141e+00,1.767073869705200195e+00,1.766914367675781250e+00,1.766755104064941406e+00,1.766595602035522461e+00,1.766436219215393066e+00,1.766276836395263672e+00,1.766117453575134277e+00,1.765958189964294434e+00,1.765798926353454590e+00,1.765639662742614746e+00,1.765480399131774902e+00,1.765321254730224609e+00,1.765162229537963867e+00,1.765003085136413574e+00,1.764844059944152832e+00
1.607369303703308105e+00,1.607236862182617188e+00,1.607104301452636719e+00,1.606971979141235352e+00,1.606839537620544434e+00,1.606707096099853516e+00,1.606574773788452148e+00,1.606442451477050781e+00,1.606310009956359863e+00,1.606177806854248047e+00,1.606045603752136230e+00,1.605913400650024414e+00,1.605781078338623047e+00,1.605648875236511230e+00,1.605516672134399414e+00,1.605384469032287598e+00,1.605252385139465332e+00,1.605120301246643066e+00,1.604988098144531250e+00,1.604856014251708984e+00,1.604724049568176270e+00,1.604591846466064453e+00,1.604460000991821289e+00,1.604328513145446777e+00,1.604197144508361816e+00,1.604065656661987305e+00,1.603934288024902344e+00,1.603802800178527832e+00,1.603671431541442871e+00,1.603540301322937012e+00,1.603408932685852051e+00,1.603277564048767090e+00,1.603146314620971680e+00,1.603015065193176270e+00,1.602883815765380859e+00,1.602752566337585449e+00,1.602621316909790039e+00,1.602490186691284180e+00,1.602359175682067871e+00,1.602228045463562012e+00,1.602096915245056152e+00,1.601965785026550293e+00,1.601834654808044434e+00,1.601703643798828125e+00,1.601572632789611816e+00,1.601441621780395508e+00,1.601310610771179199e+00,1.601179838180541992e+00,1.601048827171325684e+00,1.600917935371398926e+00,1.600787043571472168e+00,1.600656151771545410e+00,1.600525259971618652e+00,1.600394487380981445e+00,1.600263595581054688e+00,1.600132822990417480e+00,1.600002050399780273e+00,1.599871397018432617e+00,1.599740624427795410e+00,1.599609971046447754e+00,1.599479198455810547e+00,1.599348545074462891e+00,1.599217891693115234e+00,1.599087238311767578e+00,1.598956704139709473e+00,1.598826050758361816e+00,1.598695755004882812e+00,1.598565101623535156e+00,1.598434686660766602e+00,1.598304152488708496e+00,1.598173618316650391e+00,1.598043203353881836e+00,1.597912788391113281e+00,1.597782373428344727e+00,1.597651958465576172e+00,1.597521543502807617e+00,1.597391366958618164e+00,1.597261071205139160e+00,1.597130775451660156e+00,1.597000479698181152e+00
1.466954112052917480e+00,1.466843724250793457e+00,1.466733455657958984e+00,1.466623067855834961e+00,1.466512799263000488e+00,1.466402649879455566e+00,1.466292262077331543e+00,1.466181993484497070e+00,1.466071844100952148e+00,1.465961575508117676e+00,1.465851426124572754e+00,1.465741276741027832e+00,1.465631008148193359e+00,1.465520977973937988e+00,1.465410828590393066e+00,1.465300679206848145e+00,1.465190529823303223e+00,1.465080499649047852e+00,1.464970350265502930e+00,1.464860439300537109e+00,1.464750409126281738e+00,1.464640259742736816e+00,1.464530348777770996e+00,1.464420437812805176e+00,1.464310407638549805e+00,1.464200496673583984e+00,1.464090585708618164e+00,1.463980674743652344e+00,1.463870763778686523e+00,1.463760852813720703e+00,1.463651299476623535e+00,1.463541865348815918e+00,1.463432431221008301e+00,1.463323116302490234e+00,1.463213682174682617e+00,1.463104367256164551e+00,1.462995052337646484e+00,1.462885856628417969e+00,1.462776541709899902e+00,1.462667226791381836e+00,1.462557911872863770e+00,1.462448716163635254e+00,1.462339520454406738e+00,1.462230205535888672e+00,1.462121009826660156e+00,1.462011814117431641e+00,1.461902856826782227e+00,1.461793661117553711e+00,1.461684465408325195e+00,1.461575388908386230e+00,1.461466312408447266e+00,1.461357116699218750e+00,1.461248040199279785e+00,1.461139082908630371e+00,1.461030006408691406e+00,1.460920929908752441e+00,1.460812091827392578e+00,1.460703015327453613e+00,1.460594058036804199e+00,1.460485100746154785e+00,1.460376143455505371e+00,1.460267186164855957e+00,1.460158348083496094e+00,1.460049390792846680e+00,1.459940552711486816e+00,1.459831833839416504e+00,1.459722995758056641e+00,1.459614157676696777e+00,1.459505319595336914e+00,1.459396481513977051e+00,1.459287762641906738e+00,1.459178924560546875e+00,1.459070205688476562e+00,1.458961486816406250e+00,1.458852887153625488e+00,1.458744168281555176e+00,1.458635449409484863e+00,1.458526730537414551e+00,1.458418130874633789e+00,1.458309531211853027e+00
1.349100470542907715e+00,1.349007129669189453e+00,1.348913908004760742e+00,1.348820447921752930e+00,1.348727226257324219e+00,1.348634004592895508e+00,1.348540663719177246e+00,1.348447442054748535e+00,1.348354220390319824e+00,1.348260998725891113e+00,1.348167777061462402e+00,1.348074674606323242e+00,1.347981452941894531e+00,1.347888231277465820e+00,1.347795128822326660e+00,1.347702026367187500e+00,1.347608804702758789e+00,1.347515702247619629e+00,1.347422599792480469e+00,1.347329497337341309e+00,1.347236514091491699e+00,1.347143411636352539e+00,1.347050309181213379e+00,1.346957325935363770e+00,1.346864342689514160e+00,1.346771240234375000e+00,1.346678256988525391e+00,1.346585273742675781e+00,1.346492290496826172e+00,1.346399307250976562e+00,1.346306443214416504e+00,1.346213340759277344e+00,1.346120476722717285e+00,1.346027612686157227e+00,1.345934629440307617e+00,1.345841765403747559e+00,1.345748901367187500e+00,1.345656037330627441e+00,1.345563650131225586e+00,1.345471143722534180e+00,1.345378637313842773e+00,1.345286250114440918e+00,1.345193743705749512e+00,1.345101356506347656e+00,1.345008969306945801e+00,1.344916701316833496e+00,1.344824314117431641e+00,1.344731926918029785e+00,1.344639539718627930e+00,1.344547152519226074e+00,1.344454765319824219e+00,1.344362497329711914e+00,1.344270229339599609e+00,1.344177842140197754e+00,1.344085574150085449e+00,1.343993425369262695e+00,1.343901157379150391e+00,1.343808889389038086e+00,1.343716621398925781e+00,1.343624472618103027e+00,1.343532204627990723e+00,1.343440055847167969e+00,1.343347787857055664e+00,1.343255639076232910e+00,1.343163609504699707e+00,1.343071460723876953e+00,1.342979311943054199e+00,1.342887163162231445e+00,1.342795133590698242e+00,1.342702984809875488e+00,1.342610955238342285e+00,1.342518806457519531e+00,1.342426776885986328e+00,1.342334866523742676e+00,1.342242836952209473e+00,1.342150807380676270e+00,1.342058777809143066e+00,1.341966748237609863e+00,1.341874718666076660e+00,1.341782808303833008e+00
1.248775243759155273e+00,1.248695135116577148e+00,1.248615264892578125e+00,1.248535394668579102e+00,1.248455286026000977e+00,1.248375415802001953e+00,1.248295545578002930e+00,1.248215556144714355e+00,1.248135805130004883e+00,1.248055934906005859e+00,1.247975945472717285e+00,1.247896194458007812e+00,1.247816324234008789e+00,1.247736454010009766e+00,1.247656583786010742e+00,1.247576832771301270e+00,1.247496962547302246e+00,1.247417211532592773e+00,1.247337460517883301e+00,1.247257590293884277e+00,1.247177839279174805e+00,1.247098088264465332e+00,1.247018337249755859e+00,1.246938586235046387e+00,1.246858954429626465e+00,1.246779203414916992e+00,1.246699452400207520e+00,1.246619820594787598e+00,1.246540069580078125e+00,1.246460437774658203e+00,1.246380805969238281e+00,1.246301174163818359e+00,1.246221423149108887e+00,1.246141791343688965e+00,1.246062159538269043e+00,1.245982527732849121e+00,1.245903015136718750e+00,1.245823383331298828e+00,1.245743751525878906e+00,1.245664238929748535e+00,1.245584726333618164e+00,1.245505094528198242e+00,1.245425581932067871e+00,1.245346069335937500e+00,1.245266437530517578e+00,1.245187163352966309e+00,1.245108008384704590e+00,1.245028734207153320e+00,1.244949579238891602e+00,1.244870424270629883e+00,1.244791269302368164e+00,1.244712114334106445e+00,1.244632959365844727e+00,1.244553923606872559e+00,1.244474887847900391e+00,1.244395732879638672e+00,1.244316697120666504e+00,1.244237542152404785e+00,1.244158506393432617e+00,1.244079470634460449e+00,1.244000315666198730e+00,1.243921279907226562e+00,1.243842244148254395e+00,1.243763327598571777e+00,1.243684291839599609e+00,1.243605375289916992e+00,1.243526339530944824e+00,1.243447422981262207e+00,1.243368387222290039e+00,1.243289470672607422e+00,1.243210434913635254e+00,1.243131518363952637e+00,1.243052721023559570e+00,1.242973804473876953e+00,1.242894887924194336e+00,1.242815971374511719e+00,1.242737054824829102e+00,1.242658138275146484e+00,1.242579340934753418e+00,1.242500424385070801e+00
1.162338376045227051e+00,1.162268996238708496e+00,1.162199735641479492e+00,1.162130594253540039e+00,1.162061333656311035e+00,1.161992073059082031e+00,1.161922812461853027e+00,1.161853671073913574e+00,1.161784410476684570e+00,1.161715149879455566e+00,1.161646008491516113e+00,1.161576747894287109e+00,1.161507606506347656e+00,1.161438465118408203e+00,1.161369204521179199e+00,1.161300063133239746e+00,1.161230921745300293e+00,1.161161780357360840e+00,1.161092638969421387e+00,1.161023497581481934e+00,1.160954356193542480e+00,1.160885334014892578e+00,1.160816192626953125e+00,1.160747051239013672e+00,1.160678029060363770e+00,1.160608887672424316e+00,1.160539865493774414e+00,1.160470724105834961e+00,1.160401701927185059e+00,1.160332679748535156e+00,1.160263657569885254e+00,1.160194635391235352e+00,1.160125613212585449e+00,1.160056591033935547e+00,1.159987568855285645e+00,1.159918546676635742e+00,1.159849524497985840e+00,1.159780621528625488e+00,1.159711718559265137e+00,1.159642696380615234e+00,1.159573674201965332e+00,1.159504771232604980e+00,1.159435868263244629e+00,1.159366846084594727e+00,1.159298062324523926e+00,1.159229040145874023e+00,1.159160137176513672e+00,1.159091234207153320e+00,1.159022331237792969e+00,1.158953428268432617e+00,1.158884644508361816e+00,1.158815741539001465e+00,1.158746838569641113e+00,1.158678293228149414e+00,1.158609747886657715e+00,1.158541202545166016e+00,1.158472537994384766e+00,1.158403992652893066e+00,1.158335566520690918e+00,1.158267021179199219e+00,1.158198475837707520e+00,1.158129930496215820e+00,1.158061504364013672e+00,1.157993078231811523e+00,1.157924532890319824e+00,1.157856106758117676e+00,1.157787561416625977e+00,1.157719135284423828e+00,1.157650589942932129e+00,1.157582163810729980e+00,1.157513737678527832e+00,1.157445430755615234e+00,1.157377004623413086e+00,1.157308578491210938e+00,1.157240152359008789e+00,1.157171726226806641e+00,1.157103300094604492e+00,1.157034993171691895e+00,1.156966567039489746e+00,1.156898140907287598e+00
1.087092757225036621e+00,1.087032198905944824e+00,1.086971521377563477e+00,1.086910963058471680e+00,1.086850404739379883e+00,1.086789727210998535e+00,1.086729288101196289e+00,1.086668729782104492e+00,1.086608052253723145e+00,1.086547613143920898e+00,1.086487054824829102e+00,1.086426496505737305e+00,1.086365938186645508e+00,1.086305499076843262e+00,1.086244940757751465e+00,1.086184501647949219e+00,1.086123943328857422e+00,1.086063504219055176e+00,1.086002945899963379e+00,1.085942506790161133e+00,1.085882067680358887e+00,1.085821628570556641e+00,1.085761189460754395e+00,1.085700750350952148e+00,1.085640192031860352e+00,1.085579872131347656e+00,1.085519433021545410e+00,1.085458993911743164e+00,1.085398554801940918e+00,1.085338234901428223e+00,1.085277795791625977e+00,1.085217356681823730e+00,1.085157036781311035e+00,1.085096597671508789e+00,1.085036277770996094e+00,1.084975838661193848e+00,1.084915518760681152e+00,1.084855198860168457e+00,1.084794878959655762e+00,1.084734439849853516e+00,1.084674119949340820e+00,1.084613800048828125e+00,1.084553480148315430e+00,1.084493160247802734e+00,1.084432840347290039e+00,1.084372520446777344e+00,1.084312200546264648e+00,1.084251999855041504e+00,1.084191679954528809e+00,1.084131360054016113e+00,1.084071159362792969e+00,1.084010958671569824e+00,1.083950638771057129e+00,1.083890438079833984e+00,1.083830118179321289e+00,1.083769917488098145e+00,1.083709716796875000e+00,1.083649516105651855e+00,1.083589196205139160e+00,1.083528995513916016e+00,1.083468914031982422e+00,1.083408951759338379e+00,1.083348989486694336e+00,1.083289027214050293e+00,1.083229184150695801e+00,1.083169221878051758e+00,1.083109259605407715e+00,1.083049297332763672e+00,1.082989454269409180e+00,1.082929491996765137e+00,1.082869648933410645e+00,1.082809805870056152e+00,1.082749962806701660e+00,1.082690000534057617e+00,1.082630157470703125e+00,1.082570314407348633e+00,1.082510471343994141e+00,1.082450509071350098e+00,1.082390666007995605e+00,1.082330942153930664e+00
1.020997047424316406e+00,1.020943641662597656e+00,1.020890116691589355e+00,1.020836710929870605e+00,1.020783305168151855e+00,1.020729899406433105e+00,1.020676374435424805e+00,1.020622968673706055e+00,1.020569562911987305e+00,1.020516157150268555e+00,1.020462751388549805e+00,1.020409345626831055e+00,1.020355939865112305e+00,1.020302534103393555e+00,1.020249247550964355e+00,1.020195841789245605e+00,1.020142436027526855e+00,1.020089149475097656e+00,1.020035743713378906e+00,1.019982337951660156e+00,1.019929051399230957e+00,1.019875645637512207e+00,1.019822359085083008e+00,1.019769072532653809e+00,1.019715666770935059e+00,1.019662380218505859e+00,1.019609093666076660e+00,1.019555807113647461e+00,1.019502520561218262e+00,1.019449234008789062e+00,1.019395828247070312e+00,1.019342660903930664e+00,1.019289374351501465e+00,1.019236087799072266e+00,1.019182801246643066e+00,1.019129514694213867e+00,1.019076347351074219e+00,1.019023060798645020e+00,1.018969774246215820e+00,1.018916606903076172e+00,1.018863320350646973e+00,1.018810033798217773e+00,1.018756866455078125e+00,1.018703579902648926e+00,1.018650412559509277e+00,1.018597245216369629e+00,1.018543958663940430e+00,1.018490791320800781e+00,1.018437623977661133e+00,1.018384456634521484e+00,1.018331289291381836e+00,1.018278121948242188e+00,1.018224954605102539e+00,1.018171787261962891e+00,1.018118619918823242e+00,1.018065452575683594e+00,1.018012285232543945e+00,1.017959237098693848e+00,1.017905950546264648e+00,1.017852902412414551e+00,1.017799735069274902e+00,1.017746686935424805e+00,1.017693519592285156e+00,1.017640471458435059e+00,1.017587304115295410e+00,1.017534255981445312e+00,1.017481207847595215e+00,1.017428040504455566e+00,1.017375111579895020e+00,1.017322301864624023e+00,1.017269372940063477e+00,1.017216563224792480e+00,1.017163753509521484e+00,1.017110824584960938e+00,1.017058014869689941e+00,1.017005205154418945e+00,1.016952395439147949e+00,1.016899585723876953e+00,1.016846776008605957e+00,1.016793966293334961e+00
9.624780416488647461e-01,9.624305367469787598e-01,9.623830318450927734e-01,9.623354673385620117e-01,9.622880220413208008e-01,9.622405171394348145e-01,9.621930718421936035e-01,9.621456265449523926e-01,9.620981812477111816e-01,9.620506167411804199e-01,9.620031714439392090e-01,9.619557261466979980e-01,9.619083404541015625e-01,9.618608951568603516e-01,9.618134498596191406e-01,9.617660641670227051e-01,9.617184996604919434e-01,9.616711139678955078e-01,9.616237282752990723e-01,9.615763425827026367e-01,9.615288972854614258e-01,9.614815115928649902e-01,9.614340662956237793e-01,9.613866806030273438e-01,9.613392949104309082e-01,9.612919092178344727e-01,9.612445235252380371e-01,9.611971974372863770e-01,9.611497521400451660e-01,9.611023664474487305e-01,9.610550403594970703e-01,9.610076546669006348e-01,9.609603285789489746e-01,9.609130024909973145e-01,9.608655571937561035e-01,9.608182311058044434e-01,9.607709050178527832e-01,9.607236385345458984e-01,9.606763124465942383e-01,9.606289863586425781e-01,9.605816006660461426e-01,9.605342745780944824e-01,9.604870080947875977e-01,9.604397416114807129e-01,9.603924155235290527e-01,9.603451490402221680e-01,9.602977633476257324e-01,9.602504968643188477e-01,9.602032303810119629e-01,9.601559638977050781e-01,9.601086974143981934e-01,9.600614905357360840e-01,9.600142240524291992e-01,9.599668979644775391e-01,9.599196314811706543e-01,9.598724246025085449e-01,9.598251581192016602e-01,9.597779512405395508e-01,9.597307443618774414e-01,9.596834182739257812e-01,9.596362113952636719e-01,9.595890045166015625e-01,9.595417976379394531e-01,9.594946503639221191e-01,9.594474434852600098e-01,9.594001173973083496e-01,9.593529701232910156e-01,9.593057632446289062e-01,9.592586159706115723e-01,9.592114686965942383e-01,9.591642618179321289e-01,9.591169953346252441e-01,9.590698480606079102e-01,9.590227007865905762e-01,9.589755535125732422e-01,9.589284062385559082e-01,9.588813781738281250e-01,9.588344693183898926e-01,9.587876200675964355e-01,9.587405920028686523e-01
9.103034138679504395e-01,9.102609157562255859e-01,9.102184772491455078e-01,9.101759791374206543e-01,9.101334214210510254e-01,9.100909829139709473e-01,9.100485444068908691e-01,9.100061058998107910e-01,9.099636077880859375e-01,9.099211692810058594e-01,9.098786711692810059e-01,9.098362326622009277e-01,9.097937941551208496e-01,9.097513556480407715e-01,9.097089171409606934e-01,9.096664786338806152e-01,9.096239805221557617e-01,9.095816016197204590e-01,9.095391631126403809e-01,9.094967842102050781e-01,9.094543457031250000e-01,9.094119668006896973e-01,9.093694686889648438e-01,9.093270897865295410e-01,9.092847108840942383e-01,9.092423319816589355e-01,9.091999530792236328e-01,9.091575741767883301e-01,9.091151356697082520e-01,9.090727567672729492e-01,9.090303778648376465e-01,9.089880585670471191e-01,9.089456796646118164e-01,9.089033603668212891e-01,9.088609814643859863e-01,9.088185429573059082e-01,9.087762236595153809e-01,9.087339043617248535e-01,9.086915850639343262e-01,9.086492657661437988e-01,9.086069464683532715e-01,9.085645079612731934e-01,9.085221886634826660e-01,9.084798693656921387e-01,9.084376096725463867e-01,9.083952903747558594e-01,9.083529710769653320e-01,9.083105921745300293e-01,9.082683324813842773e-01,9.082260131835937500e-01,9.081837534904479980e-01,9.081414937973022461e-01,9.080991744995117188e-01,9.080568552017211914e-01,9.080145359039306641e-01,9.079722762107849121e-01,9.079300165176391602e-01,9.078878164291381836e-01,9.078455567359924316e-01,9.078031778335571289e-01,9.077609777450561523e-01,9.077187180519104004e-01,9.076764583587646484e-01,9.076342582702636719e-01,9.075919985771179199e-01,9.075497984886169434e-01,9.075074791908264160e-01,9.074652791023254395e-01,9.074230790138244629e-01,9.073808789253234863e-01,9.073386788368225098e-01,9.072964787483215332e-01,9.072541594505310059e-01,9.072119593620300293e-01,9.071698188781738281e-01,9.071276187896728516e-01,9.070854187011718750e-01,9.070432782173156738e-01,9.070009589195251465e-01,9.069588184356689453e-01
8.634945750236511230e-01,8.634563684463500977e-01,8.634181618690490723e-01,8.633799552917480469e-01,8.633416295051574707e-01,8.633034229278564453e-01,8.632652163505554199e-01,8.632270097732543945e-01,8.631888031959533691e-01,8.631506562232971191e-01,8.631124496459960938e-01,8.630741834640502930e-01,8.630359768867492676e-01,8.629978299140930176e-01,8.629596233367919922e-01,8.629214763641357422e-01,8.628832697868347168e-01,8.628450632095336914e-01,8.628068566322326660e-01,8.627687096595764160e-01,8.627305626869201660e-01,8.626924157142639160e-01,8.626542687416076660e-01,8.626160621643066406e-01,8.625779151916503906e-01,8.625397682189941406e-01,8.625016212463378906e-01,8.624634742736816406e-01,8.624253869056701660e-01,8.623871207237243652e-01,8.623490333557128906e-01,8.623108863830566406e-01,8.622727990150451660e-01,8.622347116470336914e-01,8.621965646743774414e-01,8.621583580970764160e-01,8.621202707290649414e-01,8.620821833610534668e-01,8.620440959930419922e-01,8.620060086250305176e-01,8.619679212570190430e-01,8.619297146797180176e-01,8.618916869163513184e-01,8.618535995483398438e-01,8.618155121803283691e-01,8.617774248123168945e-01,8.617393970489501953e-01,8.617013096809387207e-01,8.616631627082824707e-01,8.616250753402709961e-01,8.615870475769042969e-01,8.615490198135375977e-01,8.615109324455261230e-01,8.614729046821594238e-01,8.614347577095031738e-01,8.613967299461364746e-01,8.613587021827697754e-01,8.613206744194030762e-01,8.612826466560363770e-01,8.612446188926696777e-01,8.612065315246582031e-01,8.611685037612915039e-01,8.611304759979248047e-01,8.610924482345581055e-01,8.610544800758361816e-01,8.610164523124694824e-01,8.609783649444580078e-01,8.609403967857360840e-01,8.609023690223693848e-01,8.608644008636474609e-01,8.608264327049255371e-01,8.607884049415588379e-01,8.607503771781921387e-01,8.607124090194702148e-01,8.606744408607482910e-01,8.606364727020263672e-01,8.605985045433044434e-01,8.605605363845825195e-01,8.605225682258605957e-01,8.604845404624938965e-01
8.212642073631286621e-01,8.212296366691589355e-01,8.211950659751892090e-01,8.211604952812194824e-01,8.211259245872497559e-01,8.210912942886352539e-01,8.210567831993103027e-01,8.210222125053405762e-01,8.209876418113708496e-01,8.209531307220458984e-01,8.209185600280761719e-01,8.208839297294616699e-01,8.208494186401367188e-01,8.208148479461669922e-01,8.207803368568420410e-01,8.207457661628723145e-01,8.207112550735473633e-01,8.206766843795776367e-01,8.206421136856079102e-01,8.206076025962829590e-01,8.205730915069580078e-01,8.205385804176330566e-01,8.205040693283081055e-01,8.204694986343383789e-01,8.204349875450134277e-01,8.204004764556884766e-01,8.203659653663635254e-01,8.203315138816833496e-01,8.202970027923583984e-01,8.202624917030334473e-01,8.202279210090637207e-01,8.201934695243835449e-01,8.201589584350585938e-01,8.201245069503784180e-01,8.200899958610534668e-01,8.200555443763732910e-01,8.200209736824035645e-01,8.199865221977233887e-01,8.199520707130432129e-01,8.199176192283630371e-01,8.198831677436828613e-01,8.198487162590026855e-01,8.198141455650329590e-01,8.197796940803527832e-01,8.197452425956726074e-01,8.197107911109924316e-01,8.196763992309570312e-01,8.196419477462768555e-01,8.196074366569519043e-01,8.195729851722717285e-01,8.195385336875915527e-01,8.195041418075561523e-01,8.194696903228759766e-01,8.194352984428405762e-01,8.194007873535156250e-01,8.193663954734802246e-01,8.193319439888000488e-01,8.192975521087646484e-01,8.192631602287292480e-01,8.192287087440490723e-01,8.191943168640136719e-01,8.191598653793334961e-01,8.191254734992980957e-01,8.190910816192626953e-01,8.190566897392272949e-01,8.190222978591918945e-01,8.189879059791564941e-01,8.189534544944763184e-01,8.189190626144409180e-01,8.188846707344055176e-01,8.188503384590148926e-01,8.188159465789794922e-01,8.187816143035888672e-01,8.187471628189086914e-01,8.187127709388732910e-01,8.186784386634826660e-01,8.186440467834472656e-01,8.186097145080566406e-01,8.185753822326660156e-01,8.185409307479858398e-01
7.829719781875610352e-01,7.829405665397644043e-01,7.829090952873229980e-01,7.828776836395263672e-01,7.828462719917297363e-01,7.828148603439331055e-01,7.827833890914916992e-01,7.827519774436950684e-01,7.827205657958984375e-01,7.826891541481018066e-01,7.826577425003051758e-01,7.826263904571533203e-01,7.825949192047119141e-01,7.825635075569152832e-01,7.825320959091186523e-01,7.825007438659667969e-01,7.824693322181701660e-01,7.824379801750183105e-01,7.824065089225769043e-01,7.823750972747802734e-01,7.823437452316284180e-01,7.823123931884765625e-01,7.822809815406799316e-01,7.822496294975280762e-01,7.822182178497314453e-01,7.821868062019348145e-01,7.821554541587829590e-01,7.821241021156311035e-01,7.820927500724792480e-01,7.820613980293273926e-01,7.820299863815307617e-01,7.819986343383789062e-01,7.819672822952270508e-01,7.819359302520751953e-01,7.819045782089233398e-01,7.818732857704162598e-01,7.818418741226196289e-01,7.818105220794677734e-01,7.817791700363159180e-01,7.817478775978088379e-01,7.817165255546569824e-01,7.816852331161499023e-01,7.816538810729980469e-01,7.816225290298461914e-01,7.815911769866943359e-01,7.815598845481872559e-01,7.815285921096801758e-01,7.814972400665283203e-01,7.814659476280212402e-01,7.814345955848693848e-01,7.814032435417175293e-01,7.813719511032104492e-01,7.813406586647033691e-01,7.813093662261962891e-01,7.812780737876892090e-01,7.812467217445373535e-01,7.812154293060302734e-01,7.811841368675231934e-01,7.811529040336608887e-01,7.811216115951538086e-01,7.810903191566467285e-01,7.810589671134948730e-01,7.810277342796325684e-01,7.809964418411254883e-01,7.809652090072631836e-01,7.809339165687561035e-01,7.809026837348937988e-01,7.808713316917419434e-01,7.808400988578796387e-01,7.808088064193725586e-01,7.807775735855102539e-01,7.807463407516479492e-01,7.807150483131408691e-01,7.806838154792785645e-01,7.806525230407714844e-01,7.806212902069091797e-01,7.805900573730468750e-01,7.805588245391845703e-01,7.805275917053222656e-01,7.804963588714599609e-01
