5.000000000000000000e+00,5.000000000000000000e+00,5.000000000000000000e+00,5.000000000000000000e+00,3.839809656143188477e+00,3.889969825744628906e+00,5.000000000000000000e+00,5.000000000000000000e+00,5.000000000000000000e+00,5.000000000000000000e+00,5.000000000000000000e+00,5.000000000000000000e+00,5.000000000000000000e+00,5.000000000000000000e+00,5.000000000000000000e+00,5.000000000000000000e+00,5.000000000000000000e+00,5.000000000000000000e+00,5.000000000000000000e+00,5.000000000000000000e+00,5.000000000000000000e+00,5.000000000000000000e+00,5.000000000000000000e+00,5.000000000000000000e+00,5.000000000000000000e+00,5.000000000000000000e+00,5.000000000000000000e+00,5.000000000000000000e+00,5.000000000000000000e+00,5.000000000000000000e+00,5.000000000000000000e+00,5.000000000000000000e+00,5.000000000000000000e+00,5.000000000000000000e+00,5.000000000000000000e+00,5.000000000000000000e+00,5.000000000000000000e+00,5.000000000000000000e+00,5.000000000000000000e+00,5.000000000000000000e+00,5.000000000000000000e+00,5.000000000000000000e+00,5.000000000000000000e+00,5.000000000000000000e+00,5.000000000000000000e+00,5.000000000000000000e+00,5.000000000000000000e+00,5.000000000000000000e+00,5.000000000000000000e+00,5.000000000000000000e+00,5.000000000000000000e+00,4.867158412933349609e+00,4.712688922882080078e+00,4.567721843719482422e+00,4.431407928466796875e+00,4.302993774414062500e+00,4.181802749633789062e+00,4.067245483398437500e+00,3.958797216415405273e+00,3.855982065200805664e+00,3.758371829986572266e+00,3.665581703186035156e+00,3.577262878417968750e+00,3.493099927902221680e+00,3.412806272506713867e+00,3.336120843887329102e+00,3.262805938720703125e+00,3.192643880844116211e+00,3.125436067581176758e+00,3.060999631881713867e+00,2.999166011810302734e+00,2.939781427383422852e+00,2.882702589035034180e+00,2.827798128128051758e+00,2.774945974349975586e+00,2.724033355712890625e+00,2.674955129623413086e+00,2.627614021301269531e+00,2.581919670104980469e+00,2.537787199020385742e+00
5.000000000000000000e+00,5.000000000000000000e+00,5.000000000000000000e+00,3.880081892013549805e+00,3.983027696609497070e+00,3.860217571258544922e+00,3.905387163162231445e+00,3.895475625991821289e+00,5.000000000000000000e+00,5.000000000000000000e+00,5.000000000000000000e+00,5.000000000000000000e+00,5.000000000000000000e+00,5.000000000000000000e+00,5.000000000000000000e+00,5.000000000000000000e+00,5.000000000000000000e+00,5.000000000000000000e+00,5.000000000000000000e+00,5.000000000000000000e+00,5.000000000000000000e+00,5.000000000000000000e+00,5.000000000000000000e+00,5.000000000000000000e+00,5.000000000000000000e+00,5.000000000000000000e+00,5.000000000000000000e+00,5.000000000000000000e+00,5.000000000000000000e+00,5.000000000000000000e+00,5.000000000000000000e+00,5.000000000000000000e+00,5.000000000000000000e+00,5.000000000000000000e+00,5.000000000000000000e+00,5.000000000000000000e+00,5.000000000000000000e+00,5.000000000000000000e+00,5.000000000000000000e+00,5.000000000000000000e+00,5.000000000000000000e+00,5.000000000000000000e+00,5.000000000000000000e+00,5.000000000000000000e+00,5.000000000000000000e+00,5.000000000000000000e+00,5.000000000000000000e+00,5.000000000000000000e+00,5.000000000000000000e+00,5.000000000000000000e+00,5.000000000000000000e+00,4.867346763610839844e+00,4.712865352630615234e+00,4.567872047424316406e+00,4.431530952453613281e+00,4.303092479705810547e+00,4.181890010833740234e+00,4.067327499389648438e+00,3.958875179290771484e+00,3.856055974960327148e+00,3.758442163467407227e+00,3.665648698806762695e+00,3.577326536178588867e+00,3.493160724639892578e+00,3.412863969802856445e+00,3.336176156997680664e+00,3.262858867645263672e+00,3.192694664001464844e+00,3.125484704971313477e+00,3.061045885086059570e+00,2.999210596084594727e+00,2.939824104309082031e+00,2.882743835449218750e+00,2.827837944030761719e+00,2.774984359741210938e+00,2.724070310592651367e+00,2.674990653991699219e+00,2.627648353576660156e+00,2.581952810287475586e+00,2.537819147109985352e+00
5.000000000000000000e+00,3.885111331939697266e+00,3.861692905426025391e+00,3.838857650756835938e+00,3.828959465026855469e+00,3.834646701812744141e+00,3.850712776184082031e+00,3.887506961822509766e+00,3.898656845092773438e+00,5.000000000000000000e+00,5.000000000000000000e+00,5.000000000000000000e+00,5.000000000000000000e+00,5.000000000000000000e+00,5.000000000000000000e+00,5.000000000000000000e+00,5.000000000000000000e+00,5.000000000000000000e+00,5.000000000000000000e+00,5.000000000000000000e+00,5.000000000000000000e+00,5.000000000000000000e+00,5.000000000000000000e+00,5.000000000000000000e+00,5.000000000000000000e+00,5.000000000000000000e+00,5.000000000000000000e+00,5.000000000000000000e+00,5.000000000000000000e+00,5.000000000000000000e+00,5.000000000000000000e+00,5.000000000000000000e+00,5.000000000000000000e+00,5.000000000000000000e+00,5.000000000000000000e+00,5.000000000000000000e+00,5.000000000000000000e+00,5.000000000000000000e+00,5.000000000000000000e+00,5.000000000000000000e+00,5.000000000000000000e+00,5.000000000000000000e+00,5.000000000000000000e+00,5.000000000000000000e+00,5.000000000000000000e+00,5.000000000000000000e+00,5.000000000000000000e+00,5.000000000000000000e+00,5.000000000000000000e+00,5.000000000000000000e+00,5.000000000000000000e+00,4.867490291595458984e+00,4.712979316711425781e+00,4.567975521087646484e+00,4.431628227233886719e+00,4.303184986114501953e+00,4.181976795196533203e+00,4.067409992218017578e+00,3.958953142166137695e+00,3.856129646301269531e+00,3.758512496948242188e+00,3.665715456008911133e+00,3.577390193939208984e+00,3.493221521377563477e+00,3.412921905517578125e+00,3.336231470108032227e+00,3.262911558151245117e+00,3.192745447158813477e+00,3.125533342361450195e+00,3.061092615127563477e+00,2.999255418777465820e+00,2.939867258071899414e+00,2.882785320281982422e+00,2.827877521514892578e+00,2.775022506713867188e+00,2.724107265472412109e+00,2.675026178359985352e+00,2.627682685852050781e+00,2.581985950469970703e+00,2.537851333618164062e+00
5.000000000000000000e+00,3.905604839324951172e+00,3.829923629760742188e+00,3.803989171981811523e+00,3.807351589202880859e+00,3.815870761871337891e+00,3.849006414413452148e+00,3.900659561157226562e+00,3.906772375106811523e+00,5.000000000000000000e+00,5.000000000000000000e+00,5.000000000000000000e+00,5.000000000000000000e+00,5.000000000000000000e+00,5.000000000000000000e+00,5.000000000000000000e+00,5.000000000000000000e+00,5.000000000000000000e+00,5.000000000000000000e+00,5.000000000000000000e+00,5.000000000000000000e+00,5.000000000000000000e+00,5.000000000000000000e+00,5.000000000000000000e+00,5.000000000000000000e+00,5.000000000000000000e+00,5.000000000000000000e+00,5.000000000000000000e+00,5.000000000000000000e+00,5.000000000000000000e+00,5.000000000000000000e+00,5.000000000000000000e+00,5.000000000000000000e+00,5.000000000000000000e+00,5.000000000000000000e+00,5.000000000000000000e+00,5.000000000000000000e+00,5.000000000000000000e+00,5.000000000000000000e+00,5.000000000000000000e+00,5.000000000000000000e+00,5.000000000000000000e+00,5.000000000000000000e+00,5.000000000000000000e+00,5.000000000000000000e+00,5.000000000000000000e+00,5.000000000000000000e+00,5.000000000000000000e+00,5.000000000000000000e+00,5.000000000000000000e+00,5.000000000000000000e+00,4.867608547210693359e+00,4.713089942932128906e+00,4.568079471588134766e+00,4.431725978851318359e+00,4.303276538848876953e+00,4.182063579559326172e+00,4.067492485046386719e+00,3.959031105041503906e+00,3.856203556060791016e+00,3.758582830429077148e+00,3.665781974792480469e+00,3.577453851699829102e+00,3.493282079696655273e+00,3.412979841232299805e+00,3.336287021636962891e+00,3.262964487075805664e+00,3.192796230316162109e+00,3.125581741333007812e+00,3.061139345169067383e+00,2.999300241470336914e+00,2.939910173416137695e+00,2.882826566696166992e+00,2.827917337417602539e+00,2.775060892105102539e+00,2.724143743515014648e+00,2.675061941146850586e+00,2.627717256546020508e+00,2.582019090652465820e+00,2.537883281707763672e+00
5.000000000000000000e+00,5.000000000000000000e+00,3.906090736389160156e+00,3.793687820434570312e+00,3.795228004455566406e+00,3.822451114654541016e+00,3.853022336959838867e+00,3.923140287399291992e+00,3.906299352645874023e+00,5.000000000000000000e+00,5.000000000000000000e+00,5.000000000000000000e+00,5.000000000000000000e+00,5.000000000000000000e+00,5.000000000000000000e+00,5.000000000000000000e+00,5.000000000000000000e+00,5.000000000000000000e+00,5.000000000000000000e+00,5.000000000000000000e+00,5.000000000000000000e+00,5.000000000000000000e+00,5.000000000000000000e+00,5.000000000000000000e+00,5.000000000000000000e+00,5.000000000000000000e+00,5.000000000000000000e+00,5.000000000000000000e+00,5.000000000000000000e+00,5.000000000000000000e+00,5.000000000000000000e+00,5.000000000000000000e+00,5.000000000000000000e+00,5.000000000000000000e+00,5.000000000000000000e+00,5.000000000000000000e+00,5.000000000000000000e+00,5.000000000000000000e+00,5.000000000000000000e+00,5.000000000000000000e+00,5.000000000000000000e+00,5.000000000000000000e+00,5.000000000000000000e+00,5.000000000000000000e+00,5.000000000000000000e+00,5.000000000000000000e+00,5.000000000000000000e+00,5.000000000000000000e+00,5.000000000000000000e+00,5.000000000000000000e+00,5.000000000000000000e+00,4.867725849151611328e+00,4.713200092315673828e+00,4.568183422088623047e+00,4.431823730468750000e+00,4.303369045257568359e+00,4.182150840759277344e+00,4.067574501037597656e+00,3.959108829498291016e+00,3.856277704238891602e+00,3.758653163909912109e+00,3.665848970413208008e+00,3.577517509460449219e+00,3.493342638015747070e+00,3.413037776947021484e+00,3.336342096328735352e+00,3.263017654418945312e+00,3.192846775054931641e+00,3.125630378723144531e+00,3.061185836791992188e+00,2.999344825744628906e+00,2.939953088760375977e+00,2.882868051528930664e+00,2.827957153320312500e+00,2.775099277496337891e+00,2.724180698394775391e+00,2.675097465515136719e+00,2.627751350402832031e+00,2.582052230834960938e+00,2.537915468215942383e+00
5.000000000000000000e+00,5.000000000000000000e+00,3.904156923294067383e+00,3.797463417053222656e+00,3.798418998718261719e+00,3.819311618804931641e+00,3.863671064376831055e+00,3.950808286666870117e+00,3.907548904418945312e+00,5.000000000000000000e+00,5.000000000000000000e+00,5.000000000000000000e+00,5.000000000000000000e+00,5.000000000000000000e+00,5.000000000000000000e+00,5.000000000000000000e+00,5.000000000000000000e+00,5.000000000000000000e+00,5.000000000000000000e+00,5.000000000000000000e+00,5.000000000000000000e+00,5.000000000000000000e+00,5.000000000000000000e+00,5.000000000000000000e+00,5.000000000000000000e+00,5.000000000000000000e+00,5.000000000000000000e+00,5.000000000000000000e+00,5.000000000000000000e+00,5.000000000000000000e+00,5.000000000000000000e+00,5.000000000000000000e+00,5.000000000000000000e+00,5.000000000000000000e+00,5.000000000000000000e+00,5.000000000000000000e+00,5.000000000000000000e+00,5.000000000000000000e+00,5.000000000000000000e+00,5.000000000000000000e+00,5.000000000000000000e+00,5.000000000000000000e+00,5.000000000000000000e+00,5.000000000000000000e+00,5.000000000000000000e+00,5.000000000000000000e+00,5.000000000000000000e+00,5.000000000000000000e+00,5.000000000000000000e+00,5.000000000000000000e+00,5.000000000000000000e+00,4.867843627929687500e+00,4.713310718536376953e+00,4.568286895751953125e+00,4.431921005249023438e+00,4.303461074829101562e+00,4.182237625122070312e+00,4.067656993865966797e+00,3.959186792373657227e+00,3.856351613998413086e+00,3.758723020553588867e+00,3.665915727615356445e+00,3.577581405639648438e+00,3.493403196334838867e+00,3.413095712661743164e+00,3.336397409439086914e+00,3.263070583343505859e+00,3.192897319793701172e+00,3.125678777694702148e+00,3.061232566833496094e+00,2.999389410018920898e+00,2.939996242523193359e+00,2.882909059524536133e+00,2.827996969223022461e+00,2.775137662887573242e+00,2.724217653274536133e+00,2.675133228302001953e+00,2.627785682678222656e+00,2.582085371017456055e+00,2.537947177886962891e+00
5.000000000000000000e+00,5.000000000000000000e+00,3.927571535110473633e+00,3.787982463836669922e+00,3.794908761978149414e+00,3.813600778579711914e+00,3.863961935043334961e+00,5.000000000000000000e+00,3.917283773422241211e+00,3.965313911437988281e+00,5.000000000000000000e+00,5.000000000000000000e+00,5.000000000000000000e+00,5.000000000000000000e+00,5.000000000000000000e+00,5.000000000000000000e+00,5.000000000000000000e+00,5.000000000000000000e+00,5.000000000000000000e+00,5.000000000000000000e+00,5.000000000000000000e+00,5.000000000000000000e+00,5.000000000000000000e+00,5.000000000000000000e+00,5.000000000000000000e+00,5.000000000000000000e+00,5.000000000000000000e+00,5.000000000000000000e+00,5.000000000000000000e+00,5.000000000000000000e+00,5.000000000000000000e+00,5.000000000000000000e+00,5.000000000000000000e+00,5.000000000000000000e+00,5.000000000000000000e+00,5.000000000000000000e+00,5.000000000000000000e+00,5.000000000000000000e+00,5.000000000000000000e+00,5.000000000000000000e+00,5.000000000000000000e+00,5.000000000000000000e+00,5.000000000000000000e+00,5.000000000000000000e+00,5.000000000000000000e+00,5.000000000000000000e+00,5.000000000000000000e+00,5.000000000000000000e+00,5.000000000000000000e+00,5.000000000000000000e+00,5.000000000000000000e+00,4.867961883544921875e+00,4.713421344757080078e+00,4.568390846252441406e+00,4.432018756866455078e+00,4.303553104400634766e+00,4.182324409484863281e+00,4.067739009857177734e+00,3.959264755249023438e+00,3.856425523757934570e+00,3.758793354034423828e+00,3.665982723236083984e+00,3.577644586563110352e+00,3.493463993072509766e+00,3.413153648376464844e+00,3.336452722549438477e+00,3.263123512268066406e+00,3.192948102951049805e+00,3.125727415084838867e+00,3.061278820037841797e+00,2.999434232711791992e+00,2.940039157867431641e+00,2.882950305938720703e+00,2.828036785125732422e+00,2.775175571441650391e+00,2.724254608154296875e+00,2.675168514251708984e+00,2.627820014953613281e+00,2.582118511199951172e+00,2.537979364395141602e+00
5.000000000000000000e+00,5.000000000000000000e+00,3.833630561828613281e+00,3.794089317321777344e+00,3.798275470733642578e+00,3.821572303771972656e+00,3.861460685729980469e+00,3.939073801040649414e+00,3.882562875747680664e+00,5.000000000000000000e+00,5.000000000000000000e+00,5.000000000000000000e+00,5.000000000000000000e+00,5.000000000000000000e+00,5.000000000000000000e+00,5.000000000000000000e+00,5.000000000000000000e+00,5.000000000000000000e+00,5.000000000000000000e+00,5.000000000000000000e+00,5.000000000000000000e+00,5.000000000000000000e+00,5.000000000000000000e+00,5.000000000000000000e+00,5.000000000000000000e+00,5.000000000000000000e+00,5.000000000000000000e+00,5.000000000000000000e+00,5.000000000000000000e+00,5.000000000000000000e+00,5.000000000000000000e+00,5.000000000000000000e+00,5.000000000000000000e+00,5.000000000000000000e+00,5.000000000000000000e+00,5.000000000000000000e+00,5.000000000000000000e+00,5.000000000000000000e+00,5.000000000000000000e+00,5.000000000000000000e+00,5.000000000000000000e+00,5.000000000000000000e+00,5.000000000000000000e+00,5.000000000000000000e+00,5.000000000000000000e+00,5.000000000000000000e+00,5.000000000000000000e+00,5.000000000000000000e+00,5.000000000000000000e+00,5.000000000000000000e+00,5.000000000000000000e+00,4.868084430694580078e+00,4.713535308837890625e+00,4.568496227264404297e+00,4.432117462158203125e+00,4.303645133972167969e+00,4.182411670684814453e+00,4.067821502685546875e+00,3.959342718124389648e+00,3.856499195098876953e+00,3.758863687515258789e+00,3.666049718856811523e+00,3.577708244323730469e+00,3.493524789810180664e+00,3.413211345672607422e+00,3.336508274078369141e+00,3.263176441192626953e+00,3.192998886108398438e+00,3.125776052474975586e+00,3.061325550079345703e+00,2.999479055404663086e+00,2.940082073211669922e+00,2.882991790771484375e+00,2.828076601028442383e+00,2.775213956832885742e+00,2.724291563034057617e+00,2.675204038619995117e+00,2.627854347229003906e+00,2.582151651382446289e+00,2.538011312484741211e+00
5.000000000000000000e+00,5.000000000000000000e+00,3.817620515823364258e+00,3.813574790954589844e+00,3.812419891357421875e+00,3.821839570999145508e+00,3.855698347091674805e+00,3.961780309677124023e+00,3.857524633407592773e+00,5.000000000000000000e+00,5.000000000000000000e+00,5.000000000000000000e+00,5.000000000000000000e+00,5.000000000000000000e+00,5.000000000000000000e+00,5.000000000000000000e+00,5.000000000000000000e+00,5.000000000000000000e+00,5.000000000000000000e+00,5.000000000000000000e+00,5.000000000000000000e+00,5.000000000000000000e+00,5.000000000000000000e+00,5.000000000000000000e+00,5.000000000000000000e+00,5.000000000000000000e+00,5.000000000000000000e+00,5.000000000000000000e+00,5.000000000000000000e+00,5.000000000000000000e+00,5.000000000000000000e+00,5.000000000000000000e+00,5.000000000000000000e+00,5.000000000000000000e+00,5.000000000000000000e+00,5.000000000000000000e+00,5.000000000000000000e+00,5.000000000000000000e+00,5.000000000000000000e+00,5.000000000000000000e+00,5.000000000000000000e+00,5.000000000000000000e+00,5.000000000000000000e+00,5.000000000000000000e+00,5.000000000000000000e+00,5.000000000000000000e+00,5.000000000000000000e+00,5.000000000000000000e+00,5.000000000000000000e+00,5.000000000000000000e+00,5.000000000000000000e+00,4.868212699890136719e+00,4.713655471801757812e+00,4.568609714508056641e+00,4.432223796844482422e+00,4.303745269775390625e+00,4.182505130767822266e+00,4.067909240722656250e+00,3.959424972534179688e+00,3.856576919555664062e+00,3.758935928344726562e+00,3.666117668151855469e+00,3.577772855758666992e+00,3.493585586547851562e+00,3.413269281387329102e+00,3.336563587188720703e+00,3.263229131698608398e+00,3.193049430847167969e+00,3.125824689865112305e+00,3.061372041702270508e+00,2.999523878097534180e+00,2.940124988555908203e+00,2.883033037185668945e+00,2.828116178512573242e+00,2.775252342224121094e+00,2.724328517913818359e+00,2.675239801406860352e+00,2.627888679504394531e+00,2.582184791564941406e+00,2.538043498992919922e+00
5.000000000000000000e+00,5.000000000000000000e+00,3.772805929183959961e+00,3.798165798187255859e+00,3.865739822387695312e+00,3.806659936904907227e+00,3.835414171218872070e+00,3.937791824340820312e+00,3.841730594635009766e+00,5.000000000000000000e+00,5.000000000000000000e+00,5.000000000000000000e+00,5.000000000000000000e+00,5.000000000000000000e+00,5.000000000000000000e+00,5.000000000000000000e+00,5.000000000000000000e+00,5.000000000000000000e+00,5.000000000000000000e+00,5.000000000000000000e+00,5.000000000000000000e+00,5.000000000000000000e+00,5.000000000000000000e+00,5.000000000000000000e+00,5.000000000000000000e+00,5.000000000000000000e+00,5.000000000000000000e+00,5.000000000000000000e+00,5.000000000000000000e+00,5.000000000000000000e+00,5.000000000000000000e+00,5.000000000000000000e+00,5.000000000000000000e+00,5.000000000000000000e+00,5.000000000000000000e+00,5.000000000000000000e+00,5.000000000000000000e+00,5.000000000000000000e+00,5.000000000000000000e+00,5.000000000000000000e+00,5.000000000000000000e+00,5.000000000000000000e+00,5.000000000000000000e+00,5.000000000000000000e+00,5.000000000000000000e+00,5.000000000000000000e+00,5.000000000000000000e+00,5.000000000000000000e+00,5.000000000000000000e+00,5.000000000000000000e+00,5.000000000000000000e+00,4.868341445922851562e+00,4.713775634765625000e+00,4.568722724914550781e+00,4.432330608367919922e+00,4.303845882415771484e+00,4.182600021362304688e+00,4.067998886108398438e+00,3.959510087966918945e+00,3.856657505035400391e+00,3.759012699127197266e+00,3.666190624237060547e+00,3.577842235565185547e+00,3.493651390075683594e+00,3.413331747055053711e+00,3.336622714996337891e+00,3.263285398483276367e+00,3.193102359771728516e+00,3.125874757766723633e+00,3.061419963836669922e+00,2.999568939208984375e+00,2.940168142318725586e+00,2.883074522018432617e+00,2.828155994415283203e+00,2.775290727615356445e+00,2.724365234375000000e+00,2.675275325775146484e+00,2.627923250198364258e+00,2.582217931747436523e+00,2.538075447082519531e+00
5.000000000000000000e+00,5.000000000000000000e+00,3.757462263107299805e+00,3.779911756515502930e+00,3.810567617416381836e+00,3.792072057723999023e+00,3.824637651443481445e+00,3.801931858062744141e+00,3.814365386962890625e+00,5.000000000000000000e+00,5.000000000000000000e+00,5.000000000000000000e+00,5.000000000000000000e+00,5.000000000000000000e+00,5.000000000000000000e+00,5.000000000000000000e+00,5.000000000000000000e+00,5.000000000000000000e+00,5.000000000000000000e+00,5.000000000000000000e+00,5.000000000000000000e+00,5.000000000000000000e+00,5.000000000000000000e+00,5.000000000000000000e+00,5.000000000000000000e+00,5.000000000000000000e+00,5.000000000000000000e+00,5.000000000000000000e+00,5.000000000000000000e+00,5.000000000000000000e+00,5.000000000000000000e+00,5.000000000000000000e+00,5.000000000000000000e+00,5.000000000000000000e+00,5.000000000000000000e+00,5.000000000000000000e+00,5.000000000000000000e+00,5.000000000000000000e+00,5.000000000000000000e+00,5.000000000000000000e+00,5.000000000000000000e+00,5.000000000000000000e+00,5.000000000000000000e+00,5.000000000000000000e+00,5.000000000000000000e+00,5.000000000000000000e+00,5.000000000000000000e+00,5.000000000000000000e+00,5.000000000000000000e+00,5.000000000000000000e+00,5.000000000000000000e+00,4.868470191955566406e+00,4.713896274566650391e+00,4.568836212158203125e+00,4.432436943054199219e+00,4.303946018218994141e+00,4.182694911956787109e+00,4.068088531494140625e+00,3.959595203399658203e+00,3.856737613677978516e+00,3.759089231491088867e+00,3.666263580322265625e+00,3.577911615371704102e+00,3.493717670440673828e+00,3.413395166397094727e+00,3.336683034896850586e+00,3.263343095779418945e+00,3.193157672882080078e+00,3.125927925109863281e+00,3.061470746994018555e+00,2.999617815017700195e+00,2.940214872360229492e+00,2.883119106292724609e+00,2.828198671340942383e+00,2.775331020355224609e+00,2.724403858184814453e+00,2.675312280654907227e+00,2.627958059310913086e+00,2.582251548767089844e+00,2.538107633590698242e+00
5.000000000000000000e+00,5.000000000000000000e+00,3.748857736587524414e+00,3.772057533264160156e+00,3.839180707931518555e+00,3.788466930389404297e+00,3.822595357894897461e+00,3.742808103561401367e+00,3.797768354415893555e+00,5.000000000000000000e+00,5.000000000000000000e+00,5.000000000000000000e+00,5.000000000000000000e+00,5.000000000000000000e+00,5.000000000000000000e+00,5.000000000000000000e+00,5.000000000000000000e+00,5.000000000000000000e+00,5.000000000000000000e+00,5.000000000000000000e+00,5.000000000000000000e+00,5.000000000000000000e+00,5.000000000000000000e+00,5.000000000000000000e+00,5.000000000000000000e+00,5.000000000000000000e+00,5.000000000000000000e+00,5.000000000000000000e+00,5.000000000000000000e+00,5.000000000000000000e+00,5.000000000000000000e+00,5.000000000000000000e+00,5.000000000000000000e+00,5.000000000000000000e+00,5.000000000000000000e+00,5.000000000000000000e+00,5.000000000000000000e+00,5.000000000000000000e+00,5.000000000000000000e+00,5.000000000000000000e+00,5.000000000000000000e+00,5.000000000000000000e+00,5.000000000000000000e+00,5.000000000000000000e+00,5.000000000000000000e+00,5.000000000000000000e+00,5.000000000000000000e+00,5.000000000000000000e+00,5.000000000000000000e+00,5.000000000000000000e+00,5.000000000000000000e+00,4.868598461151123047e+00,4.714016914367675781e+00,4.568949222564697266e+00,4.432543754577636719e+00,4.304046630859375000e+00,4.182789802551269531e+00,4.068178176879882812e+00,3.959680080413818359e+00,3.856818437576293945e+00,3.759166002273559570e+00,3.666336297988891602e+00,3.577980995178222656e+00,3.493783712387084961e+00,3.413458347320556641e+00,3.336743354797363281e+00,3.263400554656982422e+00,3.193212985992431641e+00,3.125980854034423828e+00,3.061521530151367188e+00,2.999666452407836914e+00,2.940261840820312500e+00,2.883164167404174805e+00,2.828241825103759766e+00,2.775372743606567383e+00,2.724444150924682617e+00,2.675351142883300781e+00,2.627995729446411133e+00,2.582287788391113281e+00,2.538142442703247070e+00
5.000000000000000000e+00,3.857510089874267578e+00,3.737066745758056641e+00,3.762980461120605469e+00,3.833467960357666016e+00,3.785778760910034180e+00,3.821676254272460938e+00,5.000000000000000000e+00,5.000000000000000000e+00,5.000000000000000000e+00,5.000000000000000000e+00,5.000000000000000000e+00,5.000000000000000000e+00,5.000000000000000000e+00,5.000000000000000000e+00,5.000000000000000000e+00,5.000000000000000000e+00,5.000000000000000000e+00,5.000000000000000000e+00,5.000000000000000000e+00,5.000000000000000000e+00,5.000000000000000000e+00,5.000000000000000000e+00,5.000000000000000000e+00,5.000000000000000000e+00,5.000000000000000000e+00,5.000000000000000000e+00,5.000000000000000000e+00,5.000000000000000000e+00,5.000000000000000000e+00,5.000000000000000000e+00,5.000000000000000000e+00,5.000000000000000000e+00,5.000000000000000000e+00,5.000000000000000000e+00,5.000000000000000000e+00,5.000000000000000000e+00,5.000000000000000000e+00,5.000000000000000000e+00,5.000000000000000000e+00,5.000000000000000000e+00,5.000000000000000000e+00,5.000000000000000000e+00,5.000000000000000000e+00,5.000000000000000000e+00,5.000000000000000000e+00,5.000000000000000000e+00,5.000000000000000000e+00,5.000000000000000000e+00,5.000000000000000000e+00,5.000000000000000000e+00,4.868727207183837891e+00,4.714137554168701172e+00,4.569062709808349609e+00,4.432650089263916016e+00,4.304147243499755859e+00,4.182884693145751953e+00,4.068267822265625000e+00,3.959765195846557617e+00,3.856899023056030273e+00,3.759242534637451172e+00,3.666409254074096680e+00,3.578050613403320312e+00,3.493849992752075195e+00,3.413521528244018555e+00,3.336803913116455078e+00,3.263458490371704102e+00,3.193268299102783203e+00,3.126033782958984375e+00,3.061572313308715820e+00,2.999715328216552734e+00,2.940308809280395508e+00,2.883209228515625000e+00,2.828284978866577148e+00,2.775414705276489258e+00,2.724484443664550781e+00,2.675390005111694336e+00,2.628033161163330078e+00,2.582323789596557617e+00,2.538177490234375000e+00
5.000000000000000000e+00,5.000000000000000000e+00,3.727383613586425781e+00,3.749766588211059570e+00,3.826220512390136719e+00,3.780658006668090820e+00,3.828112125396728516e+00,5.000000000000000000e+00,5.000000000000000000e+00,5.000000000000000000e+00,5.000000000000000000e+00,5.000000000000000000e+00,5.000000000000000000e+00,5.000000000000000000e+00,5.000000000000000000e+00,5.000000000000000000e+00,5.000000000000000000e+00,5.000000000000000000e+00,5.000000000000000000e+00,5.000000000000000000e+00,5.000000000000000000e+00,5.000000000000000000e+00,5.000000000000000000e+00,5.000000000000000000e+00,5.000000000000000000e+00,5.000000000000000000e+00,5.000000000000000000e+00,5.000000000000000000e+00,5.000000000000000000e+00,5.000000000000000000e+00,5.000000000000000000e+00,5.000000000000000000e+00,5.000000000000000000e+00,5.000000000000000000e+00,5.000000000000000000e+00,5.000000000000000000e+00,5.000000000000000000e+00,5.000000000000000000e+00,5.000000000000000000e+00,5.000000000000000000e+00,5.000000000000000000e+00,5.000000000000000000e+00,5.000000000000000000e+00,5.000000000000000000e+00,5.000000000000000000e+00,5.000000000000000000e+00,5.000000000000000000e+00,5.000000000000000000e+00,5.000000000000000000e+00,5.000000000000000000e+00,5.000000000000000000e+00,4.868855476379394531e+00,4.714257717132568359e+00,4.569175720214843750e+00,4.432756900787353516e+00,4.304247856140136719e+00,4.182979583740234375e+00,4.068357467651367188e+00,3.959850311279296875e+00,3.856979846954345703e+00,3.759319305419921875e+00,3.666482210159301758e+00,3.578119993209838867e+00,3.493916273117065430e+00,3.413584709167480469e+00,3.336864233016967773e+00,3.263516187667846680e+00,3.193323612213134766e+00,3.126086950302124023e+00,3.061623334884643555e+00,2.999764204025268555e+00,2.940355539321899414e+00,2.883254289627075195e+00,2.828328371047973633e+00,2.775456428527832031e+00,2.724524736404418945e+00,2.675428628921508789e+00,2.628070592880249023e+00,2.582360029220581055e+00,2.538212299346923828e+00
5.000000000000000000e+00,5.000000000000000000e+00,3.720509529113769531e+00,3.745332241058349609e+00,5.000000000000000000e+00,3.778699874877929688e+00,3.841547250747680664e+00,5.000000000000000000e+00,5.000000000000000000e+00,5.000000000000000000e+00,5.000000000000000000e+00,5.000000000000000000e+00,5.000000000000000000e+00,5.000000000000000000e+00,5.000000000000000000e+00,5.000000000000000000e+00,5.000000000000000000e+00,5.000000000000000000e+00,5.000000000000000000e+00,5.000000000000000000e+00,5.000000000000000000e+00,5.000000000000000000e+00,5.000000000000000000e+00,5.000000000000000000e+00,5.000000000000000000e+00,5.000000000000000000e+00,5.000000000000000000e+00,5.000000000000000000e+00,5.000000000000000000e+00,5.000000000000000000e+00,5.000000000000000000e+00,5.000000000000000000e+00,5.000000000000000000e+00,5.000000000000000000e+00,5.000000000000000000e+00,5.000000000000000000e+00,5.000000000000000000e+00,5.000000000000000000e+00,5.000000000000000000e+00,5.000000000000000000e+00,5.000000000000000000e+00,5.000000000000000000e+00,5.000000000000000000e+00,5.000000000000000000e+00,5.000000000000000000e+00,5.000000000000000000e+00,5.000000000000000000e+00,5.000000000000000000e+00,5.000000000000000000e+00,5.000000000000000000e+00,5.000000000000000000e+00,4.868984222412109375e+00,4.714378356933593750e+00,4.569289207458496094e+00,4.432863235473632812e+00,4.304347991943359375e+00,4.183074474334716797e+00,4.068447589874267578e+00,3.959935188293457031e+00,3.857060432434082031e+00,3.759395837783813477e+00,3.666555166244506836e+00,3.578189373016357422e+00,3.493982315063476562e+00,3.413647890090942383e+00,3.336924552917480469e+00,3.263573884963989258e+00,3.193378925323486328e+00,3.126139879226684570e+00,3.061674118041992188e+00,2.999812841415405273e+00,2.940402507781982422e+00,2.883299589157104492e+00,2.828371763229370117e+00,2.775498151779174805e+00,2.724565029144287109e+00,2.675467491149902344e+00,2.628108024597167969e+00,2.582396268844604492e+00,2.538247346878051758e+00
5.000000000000000000e+00,5.000000000000000000e+00,5.000000000000000000e+00,3.763461828231811523e+00,3.826367855072021484e+00,3.798064231872558594e+00,3.850336790084838867e+00,3.965898513793945312e+00,5.000000000000000000e+00,5.000000000000000000e+00,5.000000000000000000e+00,5.000000000000000000e+00,5.000000000000000000e+00,5.000000000000000000e+00,5.000000000000000000e+00,5.000000000000000000e+00,5.000000000000000000e+00,5.000000000000000000e+00,5.000000000000000000e+00,5.000000000000000000e+00,5.000000000000000000e+00,5.000000000000000000e+00,5.000000000000000000e+00,5.000000000000000000e+00,5.000000000000000000e+00,5.000000000000000000e+00,5.000000000000000000e+00,5.000000000000000000e+00,5.000000000000000000e+00,5.000000000000000000e+00,5.000000000000000000e+00,5.000000000000000000e+00,5.000000000000000000e+00,5.000000000000000000e+00,5.000000000000000000e+00,5.000000000000000000e+00,5.000000000000000000e+00,5.000000000000000000e+00,5.000000000000000000e+00,5.000000000000000000e+00,5.000000000000000000e+00,5.000000000000000000e+00,5.000000000000000000e+00,5.000000000000000000e+00,5.000000000000000000e+00,5.000000000000000000e+00,5.000000000000000000e+00,5.000000000000000000e+00,5.000000000000000000e+00,5.000000000000000000e+00,5.000000000000000000e+00,4.869112968444824219e+00,4.714498996734619141e+00,4.569402217864990234e+00,4.432970046997070312e+00,4.304448604583740234e+00,4.183169364929199219e+00,4.068537235260009766e+00,3.960020303726196289e+00,3.857141017913818359e+00,3.759472608566284180e+00,3.666628122329711914e+00,3.578258991241455078e+00,3.494048595428466797e+00,3.413711071014404297e+00,3.336985111236572266e+00,3.263631582260131836e+00,3.193434238433837891e+00,3.126192808151245117e+00,3.061724901199340820e+00,2.999861717224121094e+00,2.940449476242065430e+00,2.883344650268554688e+00,2.828415155410766602e+00,2.775539875030517578e+00,2.724605321884155273e+00,2.675506353378295898e+00,2.628145456314086914e+00,2.582432508468627930e+00,2.538282394409179688e+00
5.000000000000000000e+00,5.000000000000000000e+00,5.000000000000000000e+00,3.788351297378540039e+00,3.834922552108764648e+00,5.000000000000000000e+00,3.908181905746459961e+00,3.976810693740844727e+00,5.000000000000000000e+00,5.000000000000000000e+00,5.000000000000000000e+00,5.000000000000000000e+00,5.000000000000000000e+00,5.000000000000000000e+00,5.000000000000000000e+00,5.000000000000000000e+00,5.000000000000000000e+00,5.000000000000000000e+00,5.000000000000000000e+00,5.000000000000000000e+00,5.000000000000000000e+00,5.000000000000000000e+00,5.000000000000000000e+00,5.000000000000000000e+00,5.000000000000000000e+00,5.000000000000000000e+00,5.000000000000000000e+00,5.000000000000000000e+00,5.000000000000000000e+00,5.000000000000000000e+00,5.000000000000000000e+00,5.000000000000000000e+00,5.000000000000000000e+00,5.000000000000000000e+00,5.000000000000000000e+00,5.000000000000000000e+00,5.000000000000000000e+00,5.000000000000000000e+00,5.000000000000000000e+00,5.000000000000000000e+00,5.000000000000000000e+00,5.000000000000000000e+00,5.000000000000000000e+00,5.000000000000000000e+00,5.000000000000000000e+00,5.000000000000000000e+00,5.000000000000000000e+00,5.000000000000000000e+00,5.000000000000000000e+00,5.000000000000000000e+00,5.000000000000000000e+00,4.869241237640380859e+00,4.714619636535644531e+00,4.569515705108642578e+00,4.433076381683349609e+00,4.304548740386962891e+00,4.183264255523681641e+00,4.068626880645751953e+00,3.960105419158935547e+00,3.857221841812133789e+00,3.759549140930175781e+00,3.666701078414916992e+00,3.578327894210815430e+00,3.494114875793457031e+00,3.413774490356445312e+00,3.337045431137084961e+00,3.263689517974853516e+00,3.193489551544189453e+00,3.126245975494384766e+00,3.061775922775268555e+00,2.999910593032836914e+00,2.940496206283569336e+00,2.883389711380004883e+00,2.828458547592163086e+00,2.775581836700439453e+00,2.724645614624023438e+00,2.675545215606689453e+00,2.628182888031005859e+00,2.582468509674072266e+00,2.538317203521728516e+00
5.000000000000000000e+00,5.000000000000000000e+00,5.000000000000000000e+00,3.790642261505126953e+00,3.830337762832641602e+00,5.000000000000000000e+00,5.000000000000000000e+00,4.017220020294189453e+00,4.122810840606689453e+00,5.000000000000000000e+00,5.000000000000000000e+00,5.000000000000000000e+00,5.000000000000000000e+00,5.000000000000000000e+00,5.000000000000000000e+00,5.000000000000000000e+00,5.000000000000000000e+00,5.000000000000000000e+00,5.000000000000000000e+00,5.000000000000000000e+00,5.000000000000000000e+00,5.000000000000000000e+00,5.000000000000000000e+00,5.000000000000000000e+00,5.000000000000000000e+00,5.000000000000000000e+00,5.000000000000000000e+00,5.000000000000000000e+00,5.000000000000000000e+00,5.000000000000000000e+00,5.000000000000000000e+00,5.000000000000000000e+00,5.000000000000000000e+00,5.000000000000000000e+00,5.000000000000000000e+00,5.000000000000000000e+00,5.000000000000000000e+00,5.000000000000000000e+00,5.000000000000000000e+00,5.000000000000000000e+00,5.000000000000000000e+00,5.000000000000000000e+00,5.000000000000000000e+00,5.000000000000000000e+00,5.000000000000000000e+00,5.000000000000000000e+00,5.000000000000000000e+00,5.000000000000000000e+00,5.000000000000000000e+00,5.000000000000000000e+00,5.000000000000000000e+00,4.869369983673095703e+00,4.714740276336669922e+00,4.569628238677978516e+00,4.433183193206787109e+00,4.304649353027343750e+00,4.183359146118164062e+00,4.068717002868652344e+00,3.960190534591674805e+00,3.857302427291870117e+00,3.759625911712646484e+00,3.666774034500122070e+00,3.578397512435913086e+00,3.494181156158447266e+00,3.413837671279907227e+00,3.337105751037597656e+00,3.263747215270996094e+00,3.193544864654541016e+00,3.126298904418945312e+00,3.061826467514038086e+00,2.999959468841552734e+00,2.940543174743652344e+00,2.883434772491455078e+00,2.828501939773559570e+00,2.775623559951782227e+00,2.724685907363891602e+00,2.675584077835083008e+00,2.628220319747924805e+00,2.582504749298095703e+00,2.538352251052856445e+00
5.000000000000000000e+00,5.000000000000000000e+00,5.000000000000000000e+00,3.792798042297363281e+00,3.828615903854370117e+00,5.000000000000000000e+00,5.000000000000000000e+00,4.095178604125976562e+00,4.158600330352783203e+00,5.000000000000000000e+00,5.000000000000000000e+00,5.000000000000000000e+00,5.000000000000000000e+00,5.000000000000000000e+00,5.000000000000000000e+00,5.000000000000000000e+00,5.000000000000000000e+00,5.000000000000000000e+00,5.000000000000000000e+00,5.000000000000000000e+00,5.000000000000000000e+00,5.000000000000000000e+00,5.000000000000000000e+00,5.000000000000000000e+00,5.000000000000000000e+00,5.000000000000000000e+00,5.000000000000000000e+00,5.000000000000000000e+00,5.000000000000000000e+00,5.000000000000000000e+00,5.000000000000000000e+00,5.000000000000000000e+00,5.000000000000000000e+00,5.000000000000000000e+00,5.000000000000000000e+00,5.000000000000000000e+00,5.000000000000000000e+00,5.000000000000000000e+00,5.000000000000000000e+00,5.000000000000000000e+00,5.000000000000000000e+00,5.000000000000000000e+00,5.000000000000000000e+00,5.000000000000000000e+00,5.000000000000000000e+00,5.000000000000000000e+00,5.000000000000000000e+00,5.000000000000000000e+00,5.000000000000000000e+00,5.000000000000000000e+00,5.000000000000000000e+00,4.869498729705810547e+00,4.714860916137695312e+00,4.569741725921630859e+00,4.433289527893066406e+00,4.304749965667724609e+00,4.183454036712646484e+00,4.068806648254394531e+00,3.960275650024414062e+00,3.857383251190185547e+00,3.759702682495117188e+00,3.666846752166748047e+00,3.578466892242431641e+00,3.494247198104858398e+00,3.413900852203369141e+00,3.337166309356689453e+00,3.263804912567138672e+00,3.193600177764892578e+00,3.126351833343505859e+00,3.061877250671386719e+00,3.000008106231689453e+00,2.940590143203735352e+00,2.883479833602905273e+00,2.828545331954956055e+00,2.775665283203125000e+00,2.724725961685180664e+00,2.675622940063476562e+00,2.628257751464843750e+00,2.582540988922119141e+00,2.538387060165405273e+00
5.000000000000000000e+00,5.000000000000000000e+00,5.000000000000000000e+00,5.000000000000000000e+00,3.830401420593261719e+00,5.000000000000000000e+00,5.000000000000000000e+00,5.000000000000000000e+00,4.196104049682617188e+00,5.000000000000000000e+00,5.000000000000000000e+00,5.000000000000000000e+00,5.000000000000000000e+00,5.000000000000000000e+00,5.000000000000000000e+00,5.000000000000000000e+00,5.000000000000000000e+00,5.000000000000000000e+00,5.000000000000000000e+00,5.000000000000000000e+00,5.000000000000000000e+00,5.000000000000000000e+00,5.000000000000000000e+00,5.000000000000000000e+00,5.000000000000000000e+00,5.000000000000000000e+00,5.000000000000000000e+00,5.000000000000000000e+00,5.000000000000000000e+00,5.000000000000000000e+00,5.000000000000000000e+00,5.000000000000000000e+00,5.000000000000000000e+00,5.000000000000000000e+00,5.000000000000000000e+00,5.000000000000000000e+00,5.000000000000000000e+00,5.000000000000000000e+00,5.000000000000000000e+00,5.000000000000000000e+00,5.000000000000000000e+00,5.000000000000000000e+00,5.000000000000000000e+00,5.000000000000000000e+00,5.000000000000000000e+00,5.000000000000000000e+00,5.000000000000000000e+00,5.000000000000000000e+00,5.000000000000000000e+00,5.000000000000000000e+00,5.000000000000000000e+00,4.869627475738525391e+00,4.714981079101562500e+00,4.569855213165283203e+00,4.433396339416503906e+00,4.304850578308105469e+00,4.183549404144287109e+00,4.068896293640136719e+00,3.960360527038574219e+00,3.857463836669921875e+00,3.759779214859008789e+00,3.666919708251953125e+00,3.578536272048950195e+00,3.494313478469848633e+00,3.413964033126831055e+00,3.337226629257202148e+00,3.263862848281860352e+00,3.193655490875244141e+00,3.126405000686645508e+00,3.061928033828735352e+00,3.000056982040405273e+00,2.940637111663818359e+00,2.883524894714355469e+00,2.828588724136352539e+00,2.775707244873046875e+00,2.724766254425048828e+00,2.675661563873291016e+00,2.628295421600341797e+00,2.582576990127563477e+00,2.538422107696533203e+00
5.000000000000000000e+00,5.000000000000000000e+00,5.000000000000000000e+00,5.000000000000000000e+00,3.848795652389526367e+00,5.000000000000000000e+00,5.000000000000000000e+00,5.000000000000000000e+00,4.193117141723632812e+00,5.000000000000000000e+00,5.000000000000000000e+00,5.000000000000000000e+00,5.000000000000000000e+00,5.000000000000000000e+00,5.000000000000000000e+00,5.000000000000000000e+00,5.000000000000000000e+00,5.000000000000000000e+00,5.000000000000000000e+00,5.000000000000000000e+00,5.000000000000000000e+00,5.000000000000000000e+00,5.000000000000000000e+00,5.000000000000000000e+00,5.000000000000000000e+00,5.000000000000000000e+00,5.000000000000000000e+00,5.000000000000000000e+00,5.000000000000000000e+00,5.000000000000000000e+00,5.000000000000000000e+00,5.000000000000000000e+00,5.000000000000000000e+00,5.000000000000000000e+00,5.000000000000000000e+00,5.000000000000000000e+00,5.000000000000000000e+00,5.000000000000000000e+00,5.000000000000000000e+00,5.000000000000000000e+00,5.000000000000000000e+00,5.000000000000000000e+00,5.000000000000000000e+00,5.000000000000000000e+00,5.000000000000000000e+00,5.000000000000000000e+00,5.000000000000000000e+00,5.000000000000000000e+00,5.000000000000000000e+00,5.000000000000000000e+00,5.000000000000000000e+00,4.869755744934082031e+00,4.715101718902587891e+00,4.569968223571777344e+00,4.433503150939941406e+00,4.304950714111328125e+00,4.183644294738769531e+00,4.068986415863037109e+00,3.960445642471313477e+00,3.857544660568237305e+00,3.759855985641479492e+00,3.666992664337158203e+00,3.578605890274047852e+00,3.494379758834838867e+00,3.414027214050292969e+00,3.337286949157714844e+00,3.263920545578002930e+00,3.193710803985595703e+00,3.126457929611206055e+00,3.061979055404663086e+00,3.000105857849121094e+00,2.940683841705322266e+00,2.883569955825805664e+00,2.828632116317749023e+00,2.775748968124389648e+00,2.724806547164916992e+00,2.675700426101684570e+00,2.628332853317260742e+00,2.582613229751586914e+00,2.538456916809082031e+00
4.875138282775878906e+00,4.873924255371093750e+00,4.872709751129150391e+00,4.871496200561523438e+00,3.807292222976684570e+00,4.869071006774902344e+00,4.867859363555908203e+00,4.866648197174072266e+00,4.865437507629394531e+00,4.864227771759033203e+00,4.863018035888671875e+00,4.861809730529785156e+00,4.860601425170898438e+00,4.859394073486328125e+00,4.858187198638916016e+00,4.856980800628662109e+00,4.855775356292724609e+00,4.854570388793945312e+00,4.853365421295166016e+00,4.852161884307861328e+00,4.850958347320556641e+00,4.849755764007568359e+00,4.848553657531738281e+00,4.847352027893066406e+00,4.846151351928710938e+00,4.844951152801513672e+00,4.843751430511474609e+00,4.842552185058593750e+00,4.841353416442871094e+00,4.840155601501464844e+00,4.838957786560058594e+00,4.837761402130126953e+00,4.836565017700195312e+00,4.835369586944580078e+00,4.834174156188964844e+00,4.832980155944824219e+00,4.831786155700683594e+00,4.830593109130859375e+00,4.829400539398193359e+00,4.828208446502685547e+00,4.827016830444335938e+00,4.825826168060302734e+00,4.824635982513427734e+00,4.823445796966552734e+00,4.822257041931152344e+00,4.821068763732910156e+00,4.819880485534667969e+00,4.818693161010742188e+00,4.817506313323974609e+00,4.816319942474365234e+00,4.815134525299072266e+00,4.813949584960937500e+00,4.715222358703613281e+00,4.570081710815429688e+00,4.433609485626220703e+00,4.305051326751708984e+00,4.183739185333251953e+00,4.069076061248779297e+00,3.960530281066894531e+00,3.857625484466552734e+00,3.759932518005371094e+00,3.667065620422363281e+00,3.578675270080566406e+00,3.494446039199829102e+00,3.414090394973754883e+00,3.337347507476806641e+00,3.263978481292724609e+00,3.193766117095947266e+00,3.126511096954345703e+00,3.062029838562011719e+00,3.000154733657836914e+00,2.940730810165405273e+00,2.883615255355834961e+00,2.828675746917724609e+00,2.775790691375732422e+00,2.724846839904785156e+00,2.675739049911499023e+00,2.628370285034179688e+00,2.582649469375610352e+00,2.538491964340209961e+00
3.778214454650878906e+00,3.777484893798828125e+00,3.776755332946777344e+00,3.710060834884643555e+00,3.775297880172729492e+00,3.774569034576416016e+00,3.773840904235839844e+00,3.773112773895263672e+00,3.772385358810424805e+00,3.771657943725585938e+00,3.770930767059326172e+00,3.770204067230224609e+00,3.769477128982543945e+00,3.768751144409179688e+00,3.768025398254394531e+00,3.767299413681030273e+00,3.766574144363403320e+00,3.765848875045776367e+00,3.765124082565307617e+00,3.764399528503417969e+00,3.763674974441528320e+00,3.762951135635375977e+00,3.762227296829223633e+00,3.761503934860229492e+00,3.760780811309814453e+00,3.760057687759399414e+00,3.759335279464721680e+00,3.758612632751464844e+00,3.757890701293945312e+00,3.757169008255004883e+00,3.756447315216064453e+00,3.755726337432861328e+00,3.755004882812500000e+00,3.754284381866455078e+00,3.753564119338989258e+00,3.752843856811523438e+00,3.752124071121215820e+00,3.751404285430908203e+00,3.750685214996337891e+00,3.749966144561767578e+00,3.749247312545776367e+00,3.748528957366943359e+00,3.747810363769531250e+00,3.747092723846435547e+00,3.746375083923339844e+00,3.745657444000244141e+00,3.744940519332885742e+00,3.744223833084106445e+00,3.743507146835327148e+00,3.742790937423706055e+00,3.742074728012084961e+00,3.741359233856201172e+00,3.740643739700317383e+00,3.739928483963012695e+00,3.739213705062866211e+00,3.738498926162719727e+00,3.737784624099731445e+00,3.737070560455322266e+00,3.736356496810913086e+00,3.735643148422241211e+00,3.734929561614990234e+00,3.667138576507568359e+00,3.578744649887084961e+00,3.494512319564819336e+00,3.414153575897216797e+00,3.337407827377319336e+00,3.264036178588867188e+00,3.193821430206298828e+00,3.126564025878906250e+00,3.062080621719360352e+00,3.000203371047973633e+00,2.940777778625488281e+00,2.883660316467285156e+00,2.828719139099121094e+00,2.775832414627075195e+00,2.724887132644653320e+00,2.675777912139892578e+00,2.628407716751098633e+00,2.582685708999633789e+00,2.538527011871337891e+00
3.084247589111328125e+00,3.083761453628540039e+00,3.083275079727172852e+00,3.082789421081542969e+00,3.082303285598754883e+00,3.081817865371704102e+00,3.081332445144653320e+00,3.080847024917602539e+00,3.080362081527709961e+00,3.079876899719238281e+00,3.079392194747924805e+00,3.078907489776611328e+00,3.078422784805297852e+00,3.077938556671142578e+00,3.077454090118408203e+00,3.076970100402832031e+00,3.076486349105834961e+00,3.076002359390258789e+00,3.075518846511840820e+00,3.075035095214843750e+00,3.074551820755004883e+00,3.074068784713745117e+00,3.073585510253906250e+00,3.073102712631225586e+00,3.072619915008544922e+00,3.072137355804443359e+00,3.071655035018920898e+00,3.071172714233398438e+00,3.070690631866455078e+00,3.070208549499511719e+00,3.069726705551147461e+00,3.069245338439941406e+00,3.068763494491577148e+00,3.068282365798950195e+00,3.067800998687744141e+00,3.067320108413696289e+00,3.066839218139648438e+00,3.066358327865600586e+00,3.065877676010131836e+00,3.065397262573242188e+00,3.064917087554931641e+00,3.064436912536621094e+00,3.063956737518310547e+00,3.063477039337158203e+00,3.062997102737426758e+00,3.062517642974853516e+00,3.062038421630859375e+00,3.061558961868286133e+00,3.061079978942871094e+00,3.060600996017456055e+00,3.060122251510620117e+00,3.059643745422363281e+00,3.059165000915527344e+00,3.058686733245849609e+00,3.058208227157592773e+00,3.057730436325073242e+00,3.057252645492553711e+00,3.056774616241455078e+00,3.056297063827514648e+00,3.055819749832153320e+00,3.055342197418212891e+00,3.054865121841430664e+00,3.054388046264648438e+00,3.053911209106445312e+00,3.053434371948242188e+00,3.052958011627197266e+00,3.052481651306152344e+00,3.052005290985107422e+00,3.051529169082641602e+00,3.051053285598754883e+00,3.000252246856689453e+00,2.940824508666992188e+00,2.883705377578735352e+00,2.828762531280517578e+00,2.775874376296997070e+00,2.724927425384521484e+00,2.675816774368286133e+00,2.628445148468017578e+00,2.582721710205078125e+00,2.538561820983886719e+00
2.605652093887329102e+00,2.605304718017578125e+00,2.604958057403564453e+00,2.604610919952392578e+00,2.604264259338378906e+00,2.603917598724365234e+00,2.603570938110351562e+00,2.603224515914916992e+00,2.602878093719482422e+00,2.602531909942626953e+00,2.602185726165771484e+00,2.601839303970336914e+00,2.601493358612060547e+00,2.601147651672363281e+00,2.600801706314086914e+00,2.600455999374389648e+00,2.600110054016113281e+00,2.599764585494995117e+00,2.599419355392456055e+00,2.599073648452758789e+00,2.598728418350219727e+00,2.598383188247680664e+00,2.598038196563720703e+00,2.597693204879760742e+00,2.597348213195800781e+00,2.597003459930419922e+00,2.596658468246459961e+00,2.596313953399658203e+00,2.595969438552856445e+00,2.595624923706054688e+00,2.595280647277832031e+00,2.594936132431030273e+00,2.594592094421386719e+00,2.594248056411743164e+00,2.593903779983520508e+00,2.593559980392456055e+00,2.593215942382812500e+00,2.592872381210327148e+00,2.592528820037841797e+00,2.592185020446777344e+00,2.591841697692871094e+00,2.591498136520385742e+00,2.591155052185058594e+00,2.590811967849731445e+00,2.590468645095825195e+00,2.590125799179077148e+00,2.589782714843750000e+00,2.589439868927001953e+00,2.589097261428833008e+00,2.588754415512084961e+00,2.588412046432495117e+00,2.588069438934326172e+00,2.587727069854736328e+00,2.587384939193725586e+00,2.587042570114135742e+00,2.586700677871704102e+00,2.586358547210693359e+00,2.586016654968261719e+00,2.585674762725830078e+00,2.585333108901977539e+00,2.584991455078125000e+00,2.584649801254272461e+00,2.584308385848999023e+00,2.583966970443725586e+00,2.583625555038452148e+00,2.583284616470336914e+00,2.582943201065063477e+00,2.582602262496948242e+00,2.582261562347412109e+00,2.581920623779296875e+00,2.581579923629760742e+00,2.581238985061645508e+00,2.580898523330688477e+00,2.580558061599731445e+00,2.580217599868774414e+00,2.579877376556396484e+00,2.579537153244018555e+00,2.579196929931640625e+00,2.578856945037841797e+00,2.538596868515014648e+00
2.255635499954223633e+00,2.255375385284423828e+00,2.255115509033203125e+00,2.254855394363403320e+00,2.254595518112182617e+00,2.254335641860961914e+00,2.254076004028320312e+00,2.253816366195678711e+00,2.253556489944458008e+00,2.253297090530395508e+00,2.253037452697753906e+00,2.252778053283691406e+00,2.252518653869628906e+00,2.252259254455566406e+00,2.252000093460083008e+00,2.251740694046020508e+00,2.251481533050537109e+00,2.251222372055053711e+00,2.250963211059570312e+00,2.250704288482666016e+00,2.250445365905761719e+00,2.250186443328857422e+00,2.249927759170532227e+00,2.249668836593627930e+00,2.249410390853881836e+00,2.249151706695556641e+00,2.248893022537231445e+00,2.248634576797485352e+00,2.248375892639160156e+00,2.248117685317993164e+00,2.247859239578247070e+00,2.247601032257080078e+00,2.247342824935913086e+00,2.247084617614746094e+00,2.246826410293579102e+00,2.246568441390991211e+00,2.246310472488403320e+00,2.246052503585815430e+00,2.245794534683227539e+00,2.245536804199218750e+00,2.245279073715209961e+00,2.245021343231201172e+00,2.244763851165771484e+00,2.244506120681762695e+00,2.244248628616333008e+00,2.243991136550903320e+00,2.243733882904052734e+00,2.243476390838623047e+00,2.243219137191772461e+00,2.242961883544921875e+00,2.242704868316650391e+00,2.242447614669799805e+00,2.242190599441528320e+00,2.241933584213256836e+00,2.241676807403564453e+00,2.241419792175292969e+00,2.241163015365600586e+00,2.240906238555908203e+00,2.240649461746215820e+00,2.240392923355102539e+00,2.240136384963989258e+00,2.239879846572875977e+00,2.239623546600341797e+00,2.239367008209228516e+00,2.239110708236694336e+00,2.238854408264160156e+00,2.238598108291625977e+00,2.238342046737670898e+00,2.238085746765136719e+00,2.237829923629760742e+00,2.237573862075805664e+00,2.237317800521850586e+00,2.237061977386474609e+00,2.236806154251098633e+00,2.236550569534301758e+00,2.236294746398925781e+00,2.236039161682128906e+00,2.235783576965332031e+00,2.235527992248535156e+00,2.235272645950317383e+00
1.988518476486206055e+00,1.988316535949707031e+00,1.988114356994628906e+00,1.987912178039550781e+00,1.987710356712341309e+00,1.987508296966552734e+00,1.987306356430053711e+00,1.987104415893554688e+00,1.986902713775634766e+00,1.986700892448425293e+00,1.986499071121215820e+00,1.986297488212585449e+00,1.986095666885375977e+00,1.985894083976745605e+00,1.985692620277404785e+00,1.985490918159484863e+00,1.985289454460144043e+00,1.985087871551513672e+00,1.984886646270751953e+00,1.984685182571411133e+00,1.984483718872070312e+00,1.984282493591308594e+00,1.984081149101257324e+00,1.983879923820495605e+00,1.983678936958312988e+00,1.983477711677551270e+00,1.983276486396789551e+00,1.983075380325317383e+00,1.982874512672424316e+00,1.982673406600952148e+00,1.982472419738769531e+00,1.982271671295166016e+00,1.982070803642272949e+00,1.981869935989379883e+00,1.981669306755065918e+00,1.981468439102172852e+00,1.981267690658569336e+00,1.981066942214965820e+00,1.980866551399230957e+00,1.980665802955627441e+00,1.980465292930603027e+00,1.980264902114868164e+00,1.980064392089843750e+00,1.979863882064819336e+00,1.979663729667663574e+00,1.979463219642639160e+00,1.979262948036193848e+00,1.979062795639038086e+00,1.978862524032592773e+00,1.978662252426147461e+00,1.978462100028991699e+00,1.978262186050415039e+00,1.978062033653259277e+00,1.977862000465393066e+00,1.977662205696105957e+00,1.977462172508239746e+00,1.977262139320373535e+00,1.977062463760375977e+00,1.976862668991088867e+00,1.976662755012512207e+00,1.976462960243225098e+00,1.976263403892517090e+00,1.976063728332519531e+00,1.975864052772521973e+00,1.975664615631103516e+00,1.975465059280395508e+00,1.975265502929687500e+00,1.975066184997558594e+00,1.974866747856140137e+00,1.974667310714721680e+00,1.974467873573303223e+00,1.974268794059753418e+00,1.974069476127624512e+00,1.973870158195495605e+00,1.973671197891235352e+00,1.973471999168395996e+00,1.973272800445556641e+00,1.973073959350585938e+00,1.972874879837036133e+00,1.972675800323486328e+00
1.777966737747192383e+00,1.777805328369140625e+00,1.777643799781799316e+00,1.777482628822326660e+00,1.777321219444274902e+00,1.777160167694091797e+00,1.776998758316040039e+00,1.776837348937988281e+00,1.776676058769226074e+00,1.776514649391174316e+00,1.776353240013122559e+00,1.776192069053649902e+00,1.776030778884887695e+00,1.775869488716125488e+00,1.775708198547363281e+00,1.775547146797180176e+00,1.775385975837707520e+00,1.775224804878234863e+00,1.775063872337341309e+00,1.774902701377868652e+00,1.774741649627685547e+00,1.774580717086791992e+00,1.774419665336608887e+00,1.774258732795715332e+00,1.774097681045532227e+00,1.773936986923217773e+00,1.773776054382324219e+00,1.773615121841430664e+00,1.773454427719116211e+00,1.773293614387512207e+00,1.773132801055908203e+00,1.772972226142883301e+00,1.772811532020568848e+00,1.772650837898254395e+00,1.772490143775939941e+00,1.772329568862915039e+00,1.772168993949890137e+00,1.772008419036865234e+00,1.771847963333129883e+00,1.771687507629394531e+00,1.771526932716369629e+00,1.771366715431213379e+00,1.771206259727478027e+00,1.771045804023742676e+00,1.770885348320007324e+00,1.770725250244140625e+00,1.770564913749694824e+00,1.770404577255249023e+00,1.770244479179382324e+00,1.770084261894226074e+00,1.769924044609069824e+00,1.769763946533203125e+00,1.769603848457336426e+00,1.769443750381469727e+00,1.769283533096313477e+00,1.769123673439025879e+00,1.768963694572448730e+00,1.768803596496582031e+00,1.768643856048583984e+00,1.768483877182006836e+00,1.768323898315429688e+00,1.768164277076721191e+00,1.768004298210144043e+00,1.767844557762145996e+00,1.767684698104858398e+00,1.767525076866149902e+00,1.767365336418151855e+00,1.767205595970153809e+00,1.767046093940734863e+00,1.766886472702026367e+00,1.766726732254028320e+00,1.766567349433898926e+00,1.766407728195190430e+00,1.766248226165771484e+00,1.766088843345642090e+00,1.765929341316223145e+00,1.765769958496093750e+00,1.765610456466674805e+00,1.765451312065124512e+00,1.765291929244995117e+00
1.607733249664306641e+00,1.607601404190063477e+00,1.607469439506530762e+00,1.607337474822998047e+00,1.607205629348754883e+00,1.607073664665222168e+00,1.606941938400268555e+00,1.606810092926025391e+00,1.606678128242492676e+00,1.606546521186828613e+00,1.606414675712585449e+00,1.606282830238342285e+00,1.606151223182678223e+00,1.606019496917724609e+00,1.605887889862060547e+00,1.605756163597106934e+00,1.605624318122863770e+00,1.605492472648620605e+00,1.605360746383666992e+00,1.605229020118713379e+00,1.605097174644470215e+00,1.604965448379516602e+00,1.604833960533142090e+00,1.604702234268188477e+00,1.604570508003234863e+00,1.604439020156860352e+00,1.604307413101196289e+00,1.604175806045532227e+00,1.604044318199157715e+00,1.603912711143493652e+00,1.603781223297119141e+00,1.603649735450744629e+00,1.603518366813659668e+00,1.603386878967285156e+00,1.603255391120910645e+00,1.603124141693115234e+00,1.602992653846740723e+00,1.602861285209655762e+00,1.602730035781860352e+00,1.602598667144775391e+00,1.602467298507690430e+00,1.602336049079895020e+00,1.602204918861389160e+00,1.602073669433593750e+00,1.601942420005798340e+00,1.601811289787292480e+00,1.601680159568786621e+00,1.601548910140991211e+00,1.601417899131774902e+00,1.601286768913269043e+00,1.601155638694763184e+00,1.601024508476257324e+00,1.600893616676330566e+00,1.600762605667114258e+00,1.600631594657897949e+00,1.600500702857971191e+00,1.600369691848754883e+00,1.600238680839538574e+00,1.600107908248901367e+00,1.599977016448974609e+00,1.599846005439758301e+00,1.599715232849121094e+00,1.599584460258483887e+00,1.599453568458557129e+00,1.599322795867919922e+00,1.599192142486572266e+00,1.599061369895935059e+00,1.598930597305297852e+00,1.598800063133239746e+00,1.598669290542602539e+00,1.598538637161254883e+00,1.598407983779907227e+00,1.598277449607849121e+00,1.598146796226501465e+00,1.598016262054443359e+00,1.597885847091674805e+00,1.597755312919616699e+00,1.597624659538269043e+00,1.597494363784790039e+00,1.597363829612731934e+00
1.467249870300292969e+00,1.467139959335327148e+00,1.467030167579650879e+00,1.466920256614685059e+00,1.466810345649719238e+00,1.466700553894042969e+00,1.466590642929077148e+00,1.466480970382690430e+00,1.466371059417724609e+00,1.466261267662048340e+00,1.466151595115661621e+00,1.466041803359985352e+00,1.465932011604309082e+00,1.465822339057922363e+00,1.465712547302246094e+00,1.465602993965148926e+00,1.465493321418762207e+00,1.465383529663085938e+00,1.465273976325988770e+00,1.465164303779602051e+00,1.465054750442504883e+00,1.464945197105407715e+00,1.464835524559020996e+00,1.464726090431213379e+00,1.464616417884826660e+00,1.464506864547729492e+00,1.464397192001342773e+00,1.464287519454956055e+00,1.464177846908569336e+00,1.464068293571472168e+00,1.463958740234375000e+00,1.463849186897277832e+00,1.463739633560180664e+00,1.463630080223083496e+00,1.463520526885986328e+00,1.463411211967468262e+00,1.463301658630371094e+00,1.463192105293273926e+00,1.463082671165466309e+00,1.462973356246948242e+00,1.462863922119140625e+00,1.462754487991333008e+00,1.462645173072814941e+00,1.462535738945007324e+00,1.462426424026489258e+00,1.462317109107971191e+00,1.462207794189453125e+00,1.462098479270935059e+00,1.461989164352416992e+00,1.461879968643188477e+00,1.461770772933959961e+00,1.461661458015441895e+00,1.461552381515502930e+00,1.461443066596984863e+00,1.461333870887756348e+00,1.461224794387817383e+00,1.461115598678588867e+00,1.461006402969360352e+00,1.460897326469421387e+00,1.460788249969482422e+00,1.460679173469543457e+00,1.460570096969604492e+00,1.460461139678955078e+00,1.460352063179016113e+00,1.460242986679077148e+00,1.460134029388427734e+00,1.460025072097778320e+00,1.459915995597839355e+00,1.459807038307189941e+00,1.459698200225830078e+00,1.459589242935180664e+00,1.459480285644531250e+00,1.459371447563171387e+00,1.459262609481811523e+00,1.459153652191162109e+00,1.459044933319091797e+00,1.458936095237731934e+00,1.458827257156372070e+00,1.458718419075012207e+00,1.458609700202941895e+00
1.349344372749328613e+00,1.349251389503479004e+00,1.349158406257629395e+00,1.349065542221069336e+00,1.348972678184509277e+00,1.348879694938659668e+00,1.348786830902099609e+00,1.348693966865539551e+00,1.348601102828979492e+00,1.348508238792419434e+00,1.348415374755859375e+00,1.348322629928588867e+00,1.348229765892028809e+00,1.348136901855468750e+00,1.348044157028198242e+00,1.347951412200927734e+00,1.347858667373657227e+00,1.347765922546386719e+00,1.347673058509826660e+00,1.347580432891845703e+00,1.347487688064575195e+00,1.347394943237304688e+00,1.347302317619323730e+00,1.347209572792053223e+00,1.347117066383361816e+00,1.347024321556091309e+00,1.346931695938110352e+00,1.346839070320129395e+00,1.346746444702148438e+00,1.346653938293457031e+00,1.346561312675476074e+00,1.346468687057495117e+00,1.346376180648803711e+00,1.346283435821533203e+00,1.346190810203552246e+00,1.346098184585571289e+00,1.346005558967590332e+00,1.345912933349609375e+00,1.345820307731628418e+00,1.345727801322937012e+00,1.345635175704956055e+00,1.345542550086975098e+00,1.345450043678283691e+00,1.345357537269592285e+00,1.345265030860900879e+00,1.345172405242919922e+00,1.345080018043518066e+00,1.344987511634826660e+00,1.344895005226135254e+00,1.344802618026733398e+00,1.344710111618041992e+00,1.344617605209350586e+00,1.344525337219238281e+00,1.344432830810546875e+00,1.344340443611145020e+00,1.344247937202453613e+00,1.344155669212341309e+00,1.344063282012939453e+00,1.343970894813537598e+00,1.343878626823425293e+00,1.343786358833312988e+00,1.343693971633911133e+00,1.343601703643798828e+00,1.343509435653686523e+00,1.343417167663574219e+00,1.343324780464172363e+00,1.343232631683349609e+00,1.343140363693237305e+00,1.343048095703125000e+00,1.342955946922302246e+00,1.342863798141479492e+00,1.342771530151367188e+00,1.342679500579833984e+00,1.342587232589721680e+00,1.342495083808898926e+00,1.342402935028076172e+00,1.342310905456542969e+00,1.342218756675720215e+00,1.342126607894897461e+00,1.342034578323364258e+00
1.248978734016418457e+00,1.248899221420288086e+00,1.248819470405578613e+00,1.248739838600158691e+00,1.248660326004028320e+00,1.248580694198608398e+00,1.248501062393188477e+00,1.248421549797058105e+00,1.248341917991638184e+00,1.248262405395507812e+00,1.248182773590087891e+00,1.248103260993957520e+00,1.248023748397827148e+00,1.247944235801696777e+00,1.247864723205566406e+00,1.247785210609436035e+00,1.247705698013305664e+00,1.247626304626464844e+00,1.247546792030334473e+00,1.247467279434204102e+00,1.247387886047363281e+00,1.247308373451232910e+00,1.247228980064392090e+00,1.247149586677551270e+00,1.247070074081420898e+00,1.246990799903869629e+00,1.246911406517028809e+00,1.246831893920898438e+00,1.246752619743347168e+00,1.246673226356506348e+00,1.246593832969665527e+00,1.246514558792114258e+00,1.246435165405273438e+00,1.246355891227722168e+00,1.246276617050170898e+00,1.246197223663330078e+00,1.246118068695068359e+00,1.246038675308227539e+00,1.245959520339965820e+00,1.245880246162414551e+00,1.245800971984863281e+00,1.245721697807312012e+00,1.245642304420471191e+00,1.245563030242919922e+00,1.245483756065368652e+00,1.245404362678527832e+00,1.245325207710266113e+00,1.245245814323425293e+00,1.245166540145874023e+00,1.245087265968322754e+00,1.245008111000061035e+00,1.244928836822509766e+00,1.244849562644958496e+00,1.244770407676696777e+00,1.244691133499145508e+00,1.244611978530883789e+00,1.244532823562622070e+00,1.244453668594360352e+00,1.244374394416809082e+00,1.244295358657836914e+00,1.244216203689575195e+00,1.244137048721313477e+00,1.244057893753051758e+00,1.243978738784790039e+00,1.243899703025817871e+00,1.243820548057556152e+00,1.243741512298583984e+00,1.243662357330322266e+00,1.243583321571350098e+00,1.243504285812377930e+00,1.243425250053405762e+00,1.243346214294433594e+00,1.243267178535461426e+00,1.243188142776489258e+00,1.243109107017517090e+00,1.243030071258544922e+00,1.242951154708862305e+00,1.242872238159179688e+00,1.242793202400207520e+00,1.242714285850524902e+00
1.162510156631469727e+00,1.162441134452819824e+00,1.162372231483459473e+00,1.162303209304809570e+00,1.162234187126159668e+00,1.162165284156799316e+00,1.162096261978149414e+00,1.162027239799499512e+00,1.161958456039428711e+00,1.161889433860778809e+00,1.161820530891418457e+00,1.161751627922058105e+00,1.161682724952697754e+00,1.161613821983337402e+00,1.161544919013977051e+00,1.161476016044616699e+00,1.161407113075256348e+00,1.161338210105895996e+00,1.161269426345825195e+00,1.161200523376464844e+00,1.161131739616394043e+00,1.161062955856323242e+00,1.160994052886962891e+00,1.160925149917602539e+00,1.160856485366821289e+00,1.160787582397460938e+00,1.160718917846679688e+00,1.160650014877319336e+00,1.160581231117248535e+00,1.160512566566467285e+00,1.160443782806396484e+00,1.160374999046325684e+00,1.160306215286254883e+00,1.160237431526184082e+00,1.160168766975402832e+00,1.160100102424621582e+00,1.160031318664550781e+00,1.159962654113769531e+00,1.159893870353698730e+00,1.159825325012207031e+00,1.159756541252136230e+00,1.159687876701354980e+00,1.159619212150573730e+00,1.159550547599792480e+00,1.159481883049011230e+00,1.159413337707519531e+00,1.159344673156738281e+00,1.159276008605957031e+00,1.159207463264465332e+00,1.159138798713684082e+00,1.159070134162902832e+00,1.159001469612121582e+00,1.158932805061340332e+00,1.158864140510559082e+00,1.158795475959777832e+00,1.158726811408996582e+00,1.158658146858215332e+00,1.158589601516723633e+00,1.158520936965942383e+00,1.158452272415161133e+00,1.158383727073669434e+00,1.158315181732177734e+00,1.158246517181396484e+00,1.158177971839904785e+00,1.158109426498413086e+00,1.158040881156921387e+00,1.157972216606140137e+00,1.157903790473937988e+00,1.157835245132446289e+00,1.157766699790954590e+00,1.157698154449462891e+00,1.157629609107971191e+00,1.157561063766479492e+00,1.157492637634277344e+00,1.157424211502075195e+00,1.157355666160583496e+00,1.157287120819091797e+00,1.157218694686889648e+00,1.157150268554687500e+00,1.157081842422485352e+00
1.087238907814025879e+00,1.087178587913513184e+00,1.087118268013000488e+00,1.087057948112487793e+00,1.086997509002685547e+00,1.086937189102172852e+00,1.086876988410949707e+00,1.086816549301147461e+00,1.086756229400634766e+00,1.086696028709411621e+00,1.086635708808898926e+00,1.086575508117675781e+00,1.086515188217163086e+00,1.086454868316650391e+00,1.086394667625427246e+00,1.086334347724914551e+00,1.086274027824401855e+00,1.086213827133178711e+00,1.086153626441955566e+00,1.086093425750732422e+00,1.086033105850219727e+00,1.085972905158996582e+00,1.085912704467773438e+00,1.085852503776550293e+00,1.085792303085327148e+00,1.085732102394104004e+00,1.085671901702880859e+00,1.085611820220947266e+00,1.085551619529724121e+00,1.085491418838500977e+00,1.085431337356567383e+00,1.085371136665344238e+00,1.085311055183410645e+00,1.085250854492187500e+00,1.085190653800964355e+00,1.085130572319030762e+00,1.085070490837097168e+00,1.085010290145874023e+00,1.084950327873229980e+00,1.084890127182006836e+00,1.084830164909362793e+00,1.084769964218139648e+00,1.084709882736206055e+00,1.084649801254272461e+00,1.084589719772338867e+00,1.084529638290405273e+00,1.084469676017761230e+00,1.084409594535827637e+00,1.084349632263183594e+00,1.084289550781250000e+00,1.084229469299316406e+00,1.084169507026672363e+00,1.084109425544738770e+00,1.084049463272094727e+00,1.083989500999450684e+00,1.083929419517517090e+00,1.083869576454162598e+00,1.083809494972229004e+00,1.083749532699584961e+00,1.083689451217651367e+00,1.083629488945007324e+00,1.083569407463073730e+00,1.083509445190429688e+00,1.083449363708496094e+00,1.083389401435852051e+00,1.083329319953918457e+00,1.083269357681274414e+00,1.083209395408630371e+00,1.083149433135986328e+00,1.083089470863342285e+00,1.083029508590698242e+00,1.082969546318054199e+00,1.082909584045410156e+00,1.082849621772766113e+00,1.082789659500122070e+00,1.082729697227478027e+00,1.082669734954833984e+00,1.082609891891479492e+00,1.082549929618835449e+00,1.082489967346191406e+00
1.021122455596923828e+00,1.021069169044494629e+00,1.021016001701354980e+00,1.020962715148925781e+00,1.020909547805786133e+00,1.020856261253356934e+00,1.020803093910217285e+00,1.020749926567077637e+00,1.020696640014648438e+00,1.020643472671508789e+00,1.020590305328369141e+00,1.020537137985229492e+00,1.020483970642089844e+00,1.020430803298950195e+00,1.020377635955810547e+00,1.020324468612670898e+00,1.020271301269531250e+00,1.020218133926391602e+00,1.020165085792541504e+00,1.020111918449401855e+00,1.020058751106262207e+00,1.020005702972412109e+00,1.019952535629272461e+00,1.019899487495422363e+00,1.019846320152282715e+00,1.019793152809143066e+00,1.019740104675292969e+00,1.019687056541442871e+00,1.019634008407592773e+00,1.019580841064453125e+00,1.019527792930603027e+00,1.019474744796752930e+00,1.019421577453613281e+00,1.019368648529052734e+00,1.019315600395202637e+00,1.019262433052062988e+00,1.019209504127502441e+00,1.019156455993652344e+00,1.019103407859802246e+00,1.019050359725952148e+00,1.018997311592102051e+00,1.018944382667541504e+00,1.018891334533691406e+00,1.018838286399841309e+00,1.018785357475280762e+00,1.018732309341430664e+00,1.018679261207580566e+00,1.018626332283020020e+00,1.018573403358459473e+00,1.018520474433898926e+00,1.018467426300048828e+00,1.018414497375488281e+00,1.018361568450927734e+00,1.018308520317077637e+00,1.018255591392517090e+00,1.018202662467956543e+00,1.018149733543395996e+00,1.018096923828125000e+00,1.018043875694274902e+00,1.017990946769714355e+00,1.017938137054443359e+00,1.017885208129882812e+00,1.017832279205322266e+00,1.017779469490051270e+00,1.017726540565490723e+00,1.017673611640930176e+00,1.017620801925659180e+00,1.017567873001098633e+00,1.017514944076538086e+00,1.017462015151977539e+00,1.017409086227416992e+00,1.017356157302856445e+00,1.017303228378295898e+00,1.017250299453735352e+00,1.017197489738464355e+00,1.017144560813903809e+00,1.017091631889343262e+00,1.017038822174072266e+00,1.016985893249511719e+00,1.016932964324951172e+00
9.625862836837768555e-01,9.625390172004699707e-01,9.624916315078735352e-01,9.624443650245666504e-01,9.623970985412597656e-01,9.623498320579528809e-01,9.623024463653564453e-01,9.622552394866943359e-01,9.622079730033874512e-01,9.621606469154357910e-01,9.621133804321289062e-01,9.620661735534667969e-01,9.620188474655151367e-01,9.619716405868530273e-01,9.619244337081909180e-01,9.618771076202392578e-01,9.618299007415771484e-01,9.617826938629150391e-01,9.617353677749633789e-01,9.616882205009460449e-01,9.616410136222839355e-01,9.615938663482666016e-01,9.615465402603149414e-01,9.614993929862976074e-01,9.614522457122802734e-01,9.614049792289733887e-01,9.613577723503112793e-01,9.613106250762939453e-01,9.612634181976318359e-01,9.612162709236145020e-01,9.611691236495971680e-01,9.611218571662902832e-01,9.610747098922729492e-01,9.610276222229003906e-01,9.609804749488830566e-01,9.609332680702209473e-01,9.608861804008483887e-01,9.608390331268310547e-01,9.607918262481689453e-01,9.607447385787963867e-01,9.606976509094238281e-01,9.606504440307617188e-01,9.606033563613891602e-01,9.605562686920166016e-01,9.605091214179992676e-01,9.604620337486267090e-01,9.604149460792541504e-01,9.603677988052368164e-01,9.603207707405090332e-01,9.602736830711364746e-01,9.602266550064086914e-01,9.601795077323913574e-01,9.601324796676635742e-01,9.600854516029357910e-01,9.600383043289184570e-01,9.599912762641906738e-01,9.599442481994628906e-01,9.598971009254455566e-01,9.598501324653625488e-01,9.598031044006347656e-01,9.597560167312622070e-01,9.597089886665344238e-01,9.596620202064514160e-01,9.596150517463684082e-01,9.595679640769958496e-01,9.595209360122680664e-01,9.594739675521850586e-01,9.594268798828125000e-01,9.593799710273742676e-01,9.593330025672912598e-01,9.592859148979187012e-01,9.592389464378356934e-01,9.591920375823974609e-01,9.591449499130249023e-01,9.590980410575866699e-01,9.590511322021484375e-01,9.590041041374206543e-01,9.589570164680480957e-01,9.589099884033203125e-01,9.588629603385925293e-01
9.103973507881164551e-01,9.103550910949707031e-01,9.103127717971801758e-01,9.102704524993896484e-01,9.102281332015991211e-01,9.101858735084533691e-01,9.101436138153076172e-01,9.101012349128723145e-01,9.100589752197265625e-01,9.100167155265808105e-01,9.099743962287902832e-01,9.099321365356445312e-01,9.098898768424987793e-01,9.098475575447082520e-01,9.098052978515625000e-01,9.097630977630615234e-01,9.097207784652709961e-01,9.096785187721252441e-01,9.096363186836242676e-01,9.095939993858337402e-01,9.095517992973327637e-01,9.095095992088317871e-01,9.094673991203308105e-01,9.094250798225402832e-01,9.093828797340393066e-01,9.093406796455383301e-01,9.092984199523925781e-01,9.092562198638916016e-01,9.092140793800354004e-01,9.091717600822448730e-01,9.091296195983886719e-01,9.090874195098876953e-01,9.090451598167419434e-01,9.090030193328857422e-01,9.089608788490295410e-01,9.089186787605285645e-01,9.088764786720275879e-01,9.088343381881713867e-01,9.087921977043151855e-01,9.087499380111694336e-01,9.087077975273132324e-01,9.086656570434570312e-01,9.086234569549560547e-01,9.085813164710998535e-01,9.085392355918884277e-01,9.084970355033874512e-01,9.084548950195312500e-01,9.084128141403198242e-01,9.083706140518188477e-01,9.083284735679626465e-01,9.082863926887512207e-01,9.082443118095397949e-01,9.082021117210388184e-01,9.081600308418273926e-01,9.081179499626159668e-01,9.080758094787597656e-01,9.080337285995483398e-01,9.079916477203369141e-01,9.079495072364807129e-01,9.079074263572692871e-01,9.078654050827026367e-01,9.078232645988464355e-01,9.077811837196350098e-01,9.077391624450683594e-01,9.076970815658569336e-01,9.076549410820007324e-01,9.076129198074340820e-01,9.075708985328674316e-01,9.075288176536560059e-01,9.074867963790893555e-01,9.074447751045227051e-01,9.074026346206665039e-01,9.073606133460998535e-01,9.073186516761779785e-01,9.072765707969665527e-01,9.072345495223999023e-01,9.071925282478332520e-01,9.071504473686218262e-01,9.071084856986999512e-01,9.070665240287780762e-01
8.635765910148620605e-01,8.635385036468505859e-01,8.635004162788391113e-01,8.634623885154724121e-01,8.634242415428161621e-01,8.633862137794494629e-01,8.633481860160827637e-01,8.633101582527160645e-01,8.632720708847045898e-01,8.632340431213378906e-01,8.631960153579711914e-01,8.631579279899597168e-01,8.631199002265930176e-01,8.630818724632263184e-01,8.630437850952148438e-01,8.630058169364929199e-01,8.629677891731262207e-01,8.629297018051147461e-01,8.628917336463928223e-01,8.628537654876708984e-01,8.628156781196594238e-01,8.627777099609375000e-01,8.627396821975708008e-01,8.627017140388488770e-01,8.626636862754821777e-01,8.626257181167602539e-01,8.625877499580383301e-01,8.625496625900268555e-01,8.625117540359497070e-01,8.624737858772277832e-01,8.624357581138610840e-01,8.623977899551391602e-01,8.623598217964172363e-01,8.623217940330505371e-01,8.622838854789733887e-01,8.622459173202514648e-01,8.622080087661743164e-01,8.621699810028076172e-01,8.621320724487304688e-01,8.620941638946533203e-01,8.620561361312866211e-01,8.620182275772094727e-01,8.619803190231323242e-01,8.619422912597656250e-01,8.619044423103332520e-01,8.618665337562561035e-01,8.618285059928894043e-01,8.617906570434570312e-01,8.617527484893798828e-01,8.617147803306579590e-01,8.616768717765808105e-01,8.616390228271484375e-01,8.616011142730712891e-01,8.615631461143493652e-01,8.615252971649169922e-01,8.614873886108398438e-01,8.614494800567626953e-01,8.614115715026855469e-01,8.613737225532531738e-01,8.613358139991760254e-01,8.612979650497436523e-01,8.612601161003112793e-01,8.612221479415893555e-01,8.611842989921569824e-01,8.611465096473693848e-01,8.611086606979370117e-01,8.610707521438598633e-01,8.610329031944274902e-01,8.609950542449951172e-01,8.609571456909179688e-01,8.609193563461303711e-01,8.608815670013427734e-01,8.608436584472656250e-01,8.608058094978332520e-01,8.607680201530456543e-01,8.607301115989685059e-01,8.606923222541809082e-01,8.606545329093933105e-01,8.606166839599609375e-01,8.605788946151733398e-01
8.213360905647277832e-01,8.213016986846923828e-01,8.212671875953674316e-01,8.212327957153320312e-01,8.211984038352966309e-01,8.211638927459716797e-01,8.211295008659362793e-01,8.210951089859008789e-01,8.210607171058654785e-01,8.210262060165405273e-01,8.209918141365051270e-01,8.209574222564697266e-01,8.209229707717895508e-01,8.208885788917541504e-01,8.208541870117187500e-01,8.208197355270385742e-01,8.207854032516479492e-01,8.207510113716125488e-01,8.207165598869323730e-01,8.206822276115417480e-01,8.206478357315063477e-01,8.206133842468261719e-01,8.205790519714355469e-01,8.205447196960449219e-01,8.205103278160095215e-01,8.204759359359741211e-01,8.204415440559387207e-01,8.204072117805480957e-01,8.203728199005126953e-01,8.203384876251220703e-01,8.203041553497314453e-01,8.202697038650512695e-01,8.202354311943054199e-01,8.202010989189147949e-01,8.201666474342346191e-01,8.201323747634887695e-01,8.200980424880981445e-01,8.200637102127075195e-01,8.200293183326721191e-01,8.199950456619262695e-01,8.199607133865356445e-01,8.199263215065002441e-01,8.198920488357543945e-01,8.198577165603637695e-01,8.198233842849731445e-01,8.197890520095825195e-01,8.197547793388366699e-01,8.197204470634460449e-01,8.196861743927001953e-01,8.196518421173095703e-01,8.196175098419189453e-01,8.195832371711730957e-01,8.195489645004272461e-01,8.195146918296813965e-01,8.194803595542907715e-01,8.194460868835449219e-01,8.194118142127990723e-01,8.193774819374084473e-01,8.193432688713073730e-01,8.193089962005615234e-01,8.192746639251708984e-01,8.192403912544250488e-01,8.192061781883239746e-01,8.191718459129333496e-01,8.191376328468322754e-01,8.191033601760864258e-01,8.190691471099853516e-01,8.190348744392395020e-01,8.190006017684936523e-01,8.189663887023925781e-01,8.189321160316467285e-01,8.188979029655456543e-01,8.188636898994445801e-01,8.188293576240539551e-01,8.187951445579528809e-01,8.187609910964965820e-01,8.187266588211059570e-01,8.186925053596496582e-01,8.186582922935485840e-01,8.186240196228027344e-01
7.830351591110229492e-01,7.830039262771606445e-01,7.829726338386535645e-01,7.829412817955017090e-01,7.829099893569946289e-01,7.828786969184875488e-01,7.828474044799804688e-01,7.828161120414733887e-01,7.827848196029663086e-01,7.827535867691040039e-01,7.827222347259521484e-01,7.826910018920898438e-01,7.826597094535827637e-01,7.826284170150756836e-01,7.825971841812133789e-01,7.825658917427062988e-01,7.825345993041992188e-01,7.825033664703369141e-01,7.824721336364746094e-01,7.824407815933227539e-01,7.824095487594604492e-01,7.823783159255981445e-01,7.823470234870910645e-01,7.823157906532287598e-01,7.822845578193664551e-01,7.822533249855041504e-01,7.822220325469970703e-01,7.821908593177795410e-01,7.821596264839172363e-01,7.821283340454101562e-01,7.820971012115478516e-01,7.820659279823303223e-01,7.820346355438232422e-01,7.820034623146057129e-01,7.819722294807434082e-01,7.819409966468811035e-01,7.819097638130187988e-01,7.818785905838012695e-01,7.818474173545837402e-01,7.818161249160766602e-01,7.817849516868591309e-01,7.817537784576416016e-01,7.817224860191345215e-01,7.816913127899169922e-01,7.816601395606994629e-01,7.816289067268371582e-01,7.815977334976196289e-01,7.815665602684020996e-01,7.815353274345397949e-01,7.815041542053222656e-01,7.814730405807495117e-01,7.814418077468872070e-01,7.814106345176696777e-01,7.813794612884521484e-01,7.813483476638793945e-01,7.813171148300170898e-01,7.812859416007995605e-01,7.812548279762268066e-01,7.812235951423645020e-01,7.811924815177917480e-01,7.811613082885742188e-01,7.811301350593566895e-01,7.810989618301391602e-01,7.810678482055664062e-01,7.810366749763488770e-01,7.810055613517761230e-01,7.809743881225585938e-01,7.809432744979858398e-01,7.809121012687683105e-01,7.808809876441955566e-01,7.808498740196228027e-01,7.808187007904052734e-01,7.807875871658325195e-01,7.807564735412597656e-01,7.807253003120422363e-01,7.806942462921142578e-01,7.806631326675415039e-01,7.806319594383239746e-01,7.806008458137512207e-01,7.805697917938232422e-01
7.481473088264465332e-01,7.481186389923095703e-01,7.480900883674621582e-01,7.480615377426147461e-01,7.480329275131225586e-01,7.480043768882751465e-01,7.479758262634277344e-01,7.479472160339355469e-01,7.479186654090881348e-01,7.478901743888854980e-01,7.478616237640380859e-01,7.478330135345458984e-01,7.478044629096984863e-01,7.477759718894958496e-01,7.477473616600036621e-01,7.477188110351562500e-01,7.476903200149536133e-01,7.476617097854614258e-01,7.476332187652587891e-01,7.476046681404113770e-01,7.475761175155639648e-01,7.475475668907165527e-01,7.475190758705139160e-01,7.474904656410217285e-01,7.474619746208190918e-01,7.474334836006164551e-01,7.474049925804138184e-01,7.473763823509216309e-01,7.473478913307189941e-01,7.473194003105163574e-01,7.472908496856689453e-01,7.472623586654663086e-01,7.472338676452636719e-01,7.472053170204162598e-01,7.471768260002136230e-01,7.471483349800109863e-01,7.471197843551635742e-01,7.470913529396057129e-01,7.470628619194030762e-01,7.470343708992004395e-01,7.470058202743530273e-01,7.469773888587951660e-01,7.469488978385925293e-01,7.469203472137451172e-01,7.468919157981872559e-01,7.468634247779846191e-01,7.468349337577819824e-01,7.468064427375793457e-01,7.467780113220214844e-01,7.467494606971740723e-01,7.467210292816162109e-01,7.466925978660583496e-01,7.466640472412109375e-01,7.466356158256530762e-01,7.466071844100952148e-01,7.465787529945373535e-01,7.465502619743347168e-01,7.465218305587768555e-01,7.464933395385742188e-01,7.464648485183715820e-01,7.464364171028137207e-01,7.464080452919006348e-01,7.463795542716979980e-01,7.463511228561401367e-01,7.463226914405822754e-01,7.462942004203796387e-01,7.462657690048217773e-01,7.462373971939086914e-01,7.462089657783508301e-01,7.461804747581481934e-01,7.461520433425903320e-01,7.461236715316772461e-01,7.460951805114746094e-01,7.460668087005615234e-01,7.460383772850036621e-01,7.460099458694458008e-01,7.459815144538879395e-01,7.459531426429748535e-01,7.459247112274169922e-01,7.458962798118591309e-01
7.162355780601501465e-01,7.162093520164489746e-01,7.161831259727478027e-01,7.161569595336914062e-01,7.161307930946350098e-01,7.161045670509338379e-01,7.160784006118774414e-01,7.160522341728210449e-01,7.160260081291198730e-01,7.159999012947082520e-01,7.159737348556518555e-01,7.159475684165954590e-01,7.159213423728942871e-01,7.158952355384826660e-01,7.158690690994262695e-01,7.158428430557250977e-01,7.158167362213134766e-01,7.157905697822570801e-01,7.157643437385559082e-01,7.157382369041442871e-01,7.157120704650878906e-01,7.156859040260314941e-01,7.156597375869750977e-01,7.156336307525634766e-01,7.156074643135070801e-01,7.155812978744506836e-01,7.155551910400390625e-01,7.155290842056274414e-01,7.155028581619262695e-01,7.154767513275146484e-01,7.154506444931030273e-01,7.154244780540466309e-01,7.153983712196350098e-01,7.153722643852233887e-01,7.153460979461669922e-01,7.153199911117553711e-01,7.152938842773437500e-01,7.152677178382873535e-01,7.152416110038757324e-01,7.152155041694641113e-01,7.151893973350524902e-01,7.151632308959960938e-01,7.151371240615844727e-01,7.151110768318176270e-01,7.150849103927612305e-01,7.150588035583496094e-01,7.150327563285827637e-01,7.150065898895263672e-01,7.149804830551147461e-01,7.149544358253479004e-01,7.149282693862915039e-01,7.149022221565246582e-01,7.148761153221130371e-01,7.148500084877014160e-01,7.148239016532897949e-01,7.147978544235229492e-01,7.147718071937561035e-01,7.147456407546997070e-01,7.147195935249328613e-01,7.146935462951660156e-01,7.146674394607543945e-01,7.146413326263427734e-01,7.146152853965759277e-01,7.145891785621643066e-01,7.145631313323974609e-01,7.145370841026306152e-01,7.145109772682189941e-01,7.144849300384521484e-01,7.144588828086853027e-01,7.144328355789184570e-01,7.144067287445068359e-01,7.143806815147399902e-01,7.143546342849731445e-01,7.143285870552062988e-01,7.143025398254394531e-01,7.142764925956726074e-01,7.142503857612609863e-01,7.142243981361389160e-01,7.141983509063720703e-01,7.141722440719604492e-01
6.869348287582397461e-01,6.869107484817504883e-01,6.868866682052612305e-01,6.868625283241271973e-01,6.868384480476379395e-01,6.868143677711486816e-01,6.867902874946594238e-01,6.867662072181701660e-01,6.867421269416809082e-01,6.867180466651916504e-01,6.866939663887023926e-01,6.866698861122131348e-01,6.866458654403686523e-01,6.866217255592346191e-01,6.865977048873901367e-01,6.865736246109008789e-01,6.865495443344116211e-01,6.865254640579223633e-01,6.865014433860778809e-01,6.864773035049438477e-01,6.864532828330993652e-01,6.864292621612548828e-01,6.864051222801208496e-01,6.863811016082763672e-01,6.863570809364318848e-01,6.863330006599426270e-01,6.863089799880981445e-01,6.862848997116088867e-01,6.862608790397644043e-01,6.862367987632751465e-01,6.862127780914306641e-01,6.861887574195861816e-01,6.861646771430969238e-01,6.861406564712524414e-01,6.861166357994079590e-01,6.860925555229187012e-01,6.860685348510742188e-01,6.860445141792297363e-01,6.860204339027404785e-01,6.859964728355407715e-01,6.859724521636962891e-01,6.859484314918518066e-01,6.859243512153625488e-01,6.859003901481628418e-01,6.858763694763183594e-01,6.858522891998291016e-01,6.858283281326293945e-01,6.858043074607849121e-01,6.857802271842956543e-01,6.857562661170959473e-01,6.857322454452514648e-01,6.857082247734069824e-01,6.856842041015625000e-01,6.856602430343627930e-01,6.856362223625183105e-01,6.856122016906738281e-01,6.855882406234741211e-01,6.855642795562744141e-01,6.855401992797851562e-01,6.855162382125854492e-01,6.854922771453857422e-01,6.854682564735412598e-01,6.854442358016967773e-01,6.854202747344970703e-01,6.853962540626525879e-01,6.853722929954528809e-01,6.853483319282531738e-01,6.853243112564086914e-01,6.853003501892089844e-01,6.852763891220092773e-01,6.852524280548095703e-01,6.852284073829650879e-01,6.852044463157653809e-01,6.851804852485656738e-01,6.851565241813659668e-01,6.851325631141662598e-01,6.851086020469665527e-01,6.850845813751220703e-01,6.850606799125671387e-01,6.850367188453674316e-01
6.599372625350952148e-01,6.599149703979492188e-01,6.598927378654479980e-01,6.598705053329467773e-01,6.598482728004455566e-01,6.598260402679443359e-01,6.598038673400878906e-01,6.597815752029418945e-01,6.597593426704406738e-01,6.597371697425842285e-01,6.597148776054382324e-01,6.596927046775817871e-01,6.596704721450805664e-01,6.596482992172241211e-01,6.596260666847229004e-01,6.596038341522216797e-01,6.595816612243652344e-01,6.595594286918640137e-01,6.595371961593627930e-01,6.595150232315063477e-01,6.594927906990051270e-01,6.594705581665039062e-01,6.594483852386474609e-01,6.594261527061462402e-01,6.594039797782897949e-01,6.593818068504333496e-01,6.593595743179321289e-01,6.593373417854309082e-01,6.593151688575744629e-01,6.592929959297180176e-01,6.592707633972167969e-01,6.592485904693603516e-01,6.592264175415039062e-01,6.592041850090026855e-01,6.591820120811462402e-01,6.591598987579345703e-01,6.591376662254333496e-01,6.591154932975769043e-01,6.590933203697204590e-01,6.590710878372192383e-01,6.590489745140075684e-01,6.590268015861511230e-01,6.590046286582946777e-01,6.589823961257934570e-01,6.589602828025817871e-01,6.589381098747253418e-01,6.589158773422241211e-01,6.588937640190124512e-01,6.588715910911560059e-01,6.588494181632995605e-01,6.588272452354431152e-01,6.588051319122314453e-01,6.587828993797302246e-01,6.587607860565185547e-01,6.587386131286621094e-01,6.587164402008056641e-01,6.586943268775939941e-01,6.586721539497375488e-01,6.586500406265258789e-01,6.586278676986694336e-01,6.586056947708129883e-01,6.585835814476013184e-01,6.585614085197448730e-01,6.585392951965332031e-01,6.585171222686767578e-01,6.584949493408203125e-01,6.584728360176086426e-01,6.584507226943969727e-01,6.584285497665405273e-01,6.584064364433288574e-01,6.583843231201171875e-01,6.583622097969055176e-01,6.583400368690490723e-01,6.583179235458374023e-01,6.582958102226257324e-01,6.582736372947692871e-01,6.582515239715576172e-01,6.582294106483459473e-01,6.582072973251342773e-01,6.581851840019226074e-01
6.349814534187316895e-01,6.349608898162841797e-01,6.349402666091918945e-01,6.349197030067443848e-01,6.348991394042968750e-01,6.348785161972045898e-01,6.348579525947570801e-01,6.348373889923095703e-01,6.348167657852172852e-01,6.347962021827697754e-01,6.347756385803222656e-01,6.347550749778747559e-01,6.347345113754272461e-01,6.347139477729797363e-01,6.346933841705322266e-01,6.346727609634399414e-01,6.346522569656372070e-01,6.346316933631896973e-01,6.346110701560974121e-01,6.345905661582946777e-01,6.345700025558471680e-01,6.345493793487548828e-01,6.345288753509521484e-01,6.345083117485046387e-01,6.344877481460571289e-01,6.344671845436096191e-01,6.344466805458068848e-01,6.344260573387145996e-01,6.344055533409118652e-01,6.343849897384643555e-01,6.343644857406616211e-01,6.343438625335693359e-01,6.343233585357666016e-01,6.343028545379638672e-01,6.342822313308715820e-01,6.342617273330688477e-01,6.342412233352661133e-01,6.342206597328186035e-01,6.342000961303710938e-01,6.341795921325683594e-01,6.341590285301208496e-01,6.341385245323181152e-01,6.341179609298706055e-01,6.340974569320678711e-01,6.340768933296203613e-01,6.340563893318176270e-01,6.340358853340148926e-01,6.340153217315673828e-01,6.339948177337646484e-01,6.339743137359619141e-01,6.339537501335144043e-01,6.339332461357116699e-01,6.339127421379089355e-01,6.338921785354614258e-01,6.338716745376586914e-01,6.338512301445007324e-01,6.338306665420532227e-01,6.338101625442504883e-01,6.337896585464477539e-01,6.337691545486450195e-01,6.337486505508422852e-01,6.337281465530395508e-01,6.337076425552368164e-01,6.336871385574340820e-01,6.336666345596313477e-01,6.336461305618286133e-01,6.336255669593811035e-01,6.336051225662231445e-01,6.335846185684204102e-01,6.335641145706176758e-01,6.335436105728149414e-01,6.335231661796569824e-01,6.335026621818542480e-01,6.334821581840515137e-01,6.334616541862487793e-01,6.334412097930908203e-01,6.334207057952880859e-01,6.334002017974853516e-01,6.333797574043273926e-01,6.333592534065246582e-01
6.118443608283996582e-01,6.118252277374267578e-01,6.118061542510986328e-01,6.117870211601257324e-01,6.117679476737976074e-01,6.117488145828247070e-01,6.117296814918518066e-01,6.117106080055236816e-01,6.116914749145507812e-01,6.116723418235778809e-01,6.116532683372497559e-01,6.116341948509216309e-01,6.116150617599487305e-01,6.115959882736206055e-01,6.115769147872924805e-01,6.115577816963195801e-01,6.115387082099914551e-01,6.115195751190185547e-01,6.115005016326904297e-01,6.114814281463623047e-01,6.114622950553894043e-01,6.114432215690612793e-01,6.114241480827331543e-01,6.114050745964050293e-01,6.113860011100769043e-01,6.113668680191040039e-01,6.113477945327758789e-01,6.113287210464477539e-01,6.113095879554748535e-01,6.112905740737915039e-01,6.112715005874633789e-01,6.112524271011352539e-01,6.112332940101623535e-01,6.112142801284790039e-01,6.111952066421508789e-01,6.111760735511779785e-01,6.111570596694946289e-01,6.111379861831665039e-01,6.111188530921936035e-01,6.110998392105102539e-01,6.110807657241821289e-01,6.110616922378540039e-01,6.110426187515258789e-01,6.110235452651977539e-01,6.110045313835144043e-01,6.109854578971862793e-01,6.109663844108581543e-01,6.109473109245300293e-01,6.109282374382019043e-01,6.109092235565185547e-01,6.108901500701904297e-01,6.108710765838623047e-01,6.108520627021789551e-01,6.108329892158508301e-01,6.108139157295227051e-01,6.107949018478393555e-01,6.107758283615112305e-01,6.107568144798278809e-01,6.107377409934997559e-01,6.107187271118164062e-01,6.106997132301330566e-01,6.106806397438049316e-01,6.106615662574768066e-01,6.106425523757934570e-01,6.106234788894653320e-01,6.106044650077819824e-01,6.105854511260986328e-01,6.105663776397705078e-01,6.105473637580871582e-01,6.105283498764038086e-01,6.105092763900756836e-01,6.104902625083923340e-01,6.104712486267089844e-01,6.104522347450256348e-01,6.104331612586975098e-01,6.104141473770141602e-01,6.103951334953308105e-01,6.103761196136474609e-01,6.103571057319641113e-01,6.103380918502807617e-01
5.903340578079223633e-01,5.903162956237792969e-01,5.902984738349914551e-01,5.902807116508483887e-01,5.902628898620605469e-01,5.902451276779174805e-01,5.902273654937744141e-01,5.902095437049865723e-01,5.901917815208435059e-01,5.901740193367004395e-01,5.901561975479125977e-01,5.901384353637695312e-01,5.901206135749816895e-01,5.901028513908386230e-01,5.900850892066955566e-01,5.900673270225524902e-01,5.900495648384094238e-01,5.900317430496215820e-01,5.900139808654785156e-01,5.899962186813354492e-01,5.899783968925476074e-01,5.899606347084045410e-01,5.899428725242614746e-01,5.899251103401184082e-01,5.899073481559753418e-01,5.898895859718322754e-01,5.898717641830444336e-01,5.898540616035461426e-01,5.898362994194030762e-01,5.898185372352600098e-01,5.898007750511169434e-01,5.897830128669738770e-01,5.897652506828308105e-01,5.897474884986877441e-01,5.897297263145446777e-01,5.897119641304016113e-01,5.896942019462585449e-01,5.896764397621154785e-01,5.896587371826171875e-01,5.896409749984741211e-01,5.896232128143310547e-01,5.896054506301879883e-01,5.895876884460449219e-01,5.895699858665466309e-01,5.895522236824035645e-01,5.895344614982604980e-01,5.895166993141174316e-01,5.894989967346191406e-01,5.894812345504760742e-01,5.894634723663330078e-01,5.894457697868347168e-01,5.894280076026916504e-01,5.894102454185485840e-01,5.893925428390502930e-01,5.893748402595520020e-01,5.893570780754089355e-01,5.893393158912658691e-01,5.893216133117675781e-01,5.893038511276245117e-01,5.892861485481262207e-01,5.892683863639831543e-01,5.892506837844848633e-01,5.892329216003417969e-01,5.892152190208435059e-01,5.891975164413452148e-01,5.891797542572021484e-01,5.891620516777038574e-01,5.891443490982055664e-01,5.891265869140625000e-01,5.891088843345642090e-01,5.890911817550659180e-01,5.890734195709228516e-01,5.890557169914245605e-01,5.890380144119262695e-01,5.890203118324279785e-01,5.890025496482849121e-01,5.889849066734313965e-01,5.889672040939331055e-01,5.889494419097900391e-01,5.889317393302917480e-01
