3.787540912628173828e+00,3.746935606002807617e+00,3.707191467285156250e+00,3.668281793594360352e+00,3.630180597305297852e+00,3.592862844467163086e+00,3.556303977966308594e+00,3.520482063293457031e+00,3.485374212265014648e+00,3.450960159301757812e+00,3.417218446731567383e+00,3.384130716323852539e+00,3.351677417755126953e+00,3.319840431213378906e+00,3.288602828979492188e+00,3.257947683334350586e+00,3.227858781814575195e+00,3.198320150375366211e+00,3.169317483901977539e+00,3.140836238861083984e+00,3.112862110137939453e+00,3.085381984710693359e+00,3.058382987976074219e+00,3.031852245330810547e+00,3.005777597427368164e+00,2.980147838592529297e+00,2.954951524734497070e+00,2.930177688598632812e+00,2.905815601348876953e+00,2.881855487823486328e+00,2.858287334442138672e+00,2.835101127624511719e+00,2.812288522720336914e+00,2.789839982986450195e+00,2.767746925354003906e+00,2.746001005172729492e+00,2.724594116210937500e+00,2.703518629074096680e+00,2.682766437530517578e+00,2.662330389022827148e+00,2.642203569412231445e+00,2.622378587722778320e+00,2.602848768234252930e+00,2.583608150482177734e+00,2.564649581909179688e+00,2.545967340469360352e+00,2.527554988861083984e+00,2.509407520294189453e+00,2.491518497467041016e+00,2.473882913589477539e+00,2.456494808197021484e+00,2.439349889755249023e+00,2.422442436218261719e+00,2.405767679214477539e+00,2.389321088790893555e+00,2.373097896575927734e+00,2.357093334197998047e+00,2.341303110122680664e+00,2.325723171234130859e+00,2.310349225997924805e+00,2.295177221298217773e+00,2.280203104019165039e+00,2.265423297882080078e+00,2.250833749771118164e+00,2.236430883407592773e+00,2.222211122512817383e+00,2.208171367645263672e+00,2.194307565689086914e+00,2.180616855621337891e+00,2.167095899581909180e+00,2.153741598129272461e+00,9.340423941612243652e-01,2.127520561218261719e+00,9.201149940490722656e-01,2.101930618286132812e+00,9.004190564155578613e-01,2.076948881149291992e+00,7.300086021423339844e-01,7.146171927452087402e-01,6.998613476753234863e-01
3.787542343139648438e+00,3.746937036514282227e+00,3.707193136215209961e+00,3.668283224105834961e+00,3.630181789398193359e+00,3.592863798141479492e+00,3.556304931640625000e+00,3.520483016967773438e+00,3.485375404357910156e+00,3.450961112976074219e+00,3.417219638824462891e+00,3.384131669998168945e+00,3.351678371429443359e+00,3.319841861724853516e+00,3.288603782653808594e+00,3.257948637008666992e+00,3.227859497070312500e+00,3.198321104049682617e+00,3.169318437576293945e+00,3.140837192535400391e+00,3.112863063812255859e+00,3.085382938385009766e+00,3.058383703231811523e+00,3.031852960586547852e+00,3.005778312683105469e+00,2.980148553848266602e+00,2.954952239990234375e+00,2.930178642272949219e+00,2.905816555023193359e+00,2.881856203079223633e+00,2.858288049697875977e+00,2.835102081298828125e+00,2.812289237976074219e+00,2.789840698242187500e+00,2.767747640609741211e+00,2.746001720428466797e+00,2.724594831466674805e+00,2.703519344329833984e+00,2.682767152786254883e+00,2.662331104278564453e+00,2.642204046249389648e+00,2.622379302978515625e+00,2.602849721908569336e+00,2.583608627319335938e+00,2.564650058746337891e+00,2.545967817306518555e+00,2.527555704116821289e+00,2.509407997131347656e+00,2.491518974304199219e+00,2.473883390426635742e+00,2.456495523452758789e+00,2.439350366592407227e+00,2.422443151473999023e+00,2.405768394470214844e+00,2.389321565628051758e+00,2.373098373413085938e+00,2.357093811035156250e+00,2.341303586959838867e+00,2.325723648071289062e+00,2.310349702835083008e+00,2.295177698135375977e+00,2.280203580856323242e+00,2.265423774719238281e+00,2.250834226608276367e+00,2.236431598663330078e+00,2.222211837768554688e+00,2.208171844482421875e+00,2.194308042526245117e+00,2.180617332458496094e+00,2.167096376419067383e+00,2.153742074966430664e+00,9.360691308975219727e-01,2.127521038055419922e+00,9.214104413986206055e-01,9.217650890350341797e-01,9.029202461242675781e-01,8.994693160057067871e-01,7.352294325828552246e-01,7.183277010917663574e-01,7.034198045730590820e-01
3.787543535232543945e+00,3.746938228607177734e+00,3.707194328308105469e+00,3.668284416198730469e+00,3.630182981491088867e+00,3.592864990234375000e+00,3.556306600570678711e+00,3.520484209060668945e+00,3.485376358032226562e+00,3.450962305068969727e+00,3.417220592498779297e+00,3.384132862091064453e+00,3.351679325103759766e+00,3.319842815399169922e+00,3.288604736328125000e+00,3.257949590682983398e+00,3.227860450744628906e+00,3.198322296142578125e+00,3.169319391250610352e+00,3.140838146209716797e+00,3.112864017486572266e+00,3.085383653640747070e+00,3.058384656906127930e+00,3.031853675842285156e+00,3.005779504776000977e+00,2.980149507522583008e+00,2.954953193664550781e+00,2.930179357528686523e+00,2.905817270278930664e+00,2.881856918334960938e+00,2.858288764953613281e+00,2.835102796554565430e+00,2.812289953231811523e+00,2.789841413497924805e+00,2.767748355865478516e+00,2.746002435684204102e+00,2.724595546722412109e+00,2.703519821166992188e+00,2.682767868041992188e+00,2.662331581115722656e+00,2.642204761505126953e+00,2.622380018234252930e+00,2.602850198745727539e+00,2.583609342575073242e+00,2.564650774002075195e+00,2.545968532562255859e+00,2.527556419372558594e+00,2.509408473968505859e+00,2.491519689559936523e+00,2.473883867263793945e+00,2.456496000289916992e+00,2.439350843429565430e+00,2.422443628311157227e+00,2.405768871307373047e+00,2.389322042465209961e+00,2.373098850250244141e+00,2.357094287872314453e+00,2.341304302215576172e+00,2.325724124908447266e+00,2.310350179672241211e+00,2.295178174972534180e+00,2.280204296112060547e+00,2.265424489974975586e+00,2.250834941864013672e+00,2.236432075500488281e+00,2.222212314605712891e+00,2.208172082901000977e+00,2.194308519363403320e+00,2.180617809295654297e+00,2.167096853256225586e+00,2.153742551803588867e+00,9.407845735549926758e-01,9.352029561996459961e-01,9.265742301940917969e-01,9.203608036041259766e-01,9.080265164375305176e-01,8.998053669929504395e-01,2.064680099487304688e+00,7.232650518417358398e-01,7.070147991180419922e-01
3.787544965744018555e+00,3.746939420700073242e+00,3.707195520401000977e+00,3.668285608291625977e+00,3.630184173583984375e+00,3.592866182327270508e+00,3.556307554244995117e+00,3.520485162734985352e+00,3.485377550125122070e+00,3.450963258743286133e+00,3.417222023010253906e+00,3.384133815765380859e+00,3.351680517196655273e+00,3.319843769073486328e+00,3.288605690002441406e+00,3.257950544357299805e+00,3.227861404418945312e+00,3.198323249816894531e+00,3.169320106506347656e+00,3.140838861465454102e+00,3.112864971160888672e+00,3.085384845733642578e+00,3.058385372161865234e+00,3.031854629516601562e+00,3.005780220031738281e+00,2.980150222778320312e+00,2.954953908920288086e+00,2.930180072784423828e+00,2.905818223953247070e+00,2.881857633590698242e+00,2.858289480209350586e+00,2.835103511810302734e+00,2.812290668487548828e+00,2.789842128753662109e+00,2.767749071121215820e+00,2.746003150939941406e+00,2.724596261978149414e+00,2.703520536422729492e+00,2.682768344879150391e+00,2.662332534790039062e+00,2.642205476760864258e+00,2.622380495071411133e+00,2.602850914001464844e+00,2.583609819412231445e+00,2.564651250839233398e+00,2.545969009399414062e+00,2.527556896209716797e+00,2.509409189224243164e+00,2.491520166397094727e+00,2.473884344100952148e+00,2.456496715545654297e+00,2.439351320266723633e+00,2.422444105148315430e+00,2.405769348144531250e+00,2.389322519302368164e+00,2.373099327087402344e+00,2.357094764709472656e+00,2.341304779052734375e+00,2.325724840164184570e+00,2.310350894927978516e+00,2.295178890228271484e+00,2.280205011367797852e+00,2.265424966812133789e+00,2.250835418701171875e+00,2.236432552337646484e+00,2.222212553024291992e+00,2.208172559738159180e+00,2.194308996200561523e+00,2.180618286132812500e+00,2.167097091674804688e+00,2.153742790222167969e+00,2.140552282333374023e+00,2.127521991729736328e+00,2.114649534225463867e+00,9.205194115638732910e-01,2.089366197586059570e+00,9.016687273979187012e-01,2.064680576324462891e+00,7.284605503082275391e-01,7.116838097572326660e-01
3.787546157836914062e+00,3.746940612792968750e+00,3.707196950912475586e+00,3.668287038803100586e+00,3.630185365676879883e+00,3.592867374420166016e+00,3.556308746337890625e+00,3.520486354827880859e+00,3.485378503799438477e+00,3.450964450836181641e+00,3.417222976684570312e+00,3.384134769439697266e+00,3.351681470870971680e+00,3.319844722747802734e+00,3.288606882095336914e+00,3.257951498031616211e+00,3.227862358093261719e+00,3.198324203491210938e+00,3.169321060180664062e+00,3.140839815139770508e+00,3.112865686416625977e+00,3.085385560989379883e+00,3.058386325836181641e+00,3.031855344772338867e+00,3.005781173706054688e+00,2.980151176452636719e+00,2.954954624176025391e+00,2.930180788040161133e+00,2.905818939208984375e+00,2.881858587265014648e+00,2.858290195465087891e+00,2.835104227066040039e+00,2.812291622161865234e+00,2.789842605590820312e+00,2.767749786376953125e+00,2.746003866195678711e+00,2.724596738815307617e+00,2.703521251678466797e+00,2.682769060134887695e+00,2.662333250045776367e+00,2.642205953598022461e+00,2.622381210327148438e+00,2.602851390838623047e+00,2.583610534667968750e+00,2.564651966094970703e+00,2.545969724655151367e+00,2.527557611465454102e+00,2.509409666061401367e+00,2.491520643234252930e+00,2.473885059356689453e+00,2.456497192382812500e+00,2.439352035522460938e+00,2.422444581985473633e+00,2.405769824981689453e+00,2.389323234558105469e+00,2.373100042343139648e+00,2.357095718383789062e+00,2.341305494308471680e+00,2.325725317001342773e+00,2.310351371765136719e+00,2.295179367065429688e+00,2.280205011367797852e+00,2.265425205230712891e+00,2.250835418701171875e+00,2.236432552337646484e+00,2.222212791442871094e+00,2.208172798156738281e+00,2.194308996200561523e+00,2.180618524551391602e+00,2.167097568511962891e+00,2.153743028640747070e+00,2.140552282333374023e+00,2.127522230148315430e+00,2.114649772644042969e+00,9.298222064971923828e-01,2.089366436004638672e+00,9.115290045738220215e-01,2.064680814743041992e+00,2.052555322647094727e+00,7.167137861251831055e-01
3.787547349929809570e+00,3.746942043304443359e+00,3.707198143005371094e+00,3.668288230895996094e+00,3.630186557769775391e+00,3.592868566513061523e+00,3.556309938430786133e+00,3.520487785339355469e+00,3.485379695892333984e+00,3.450965404510498047e+00,3.417224168777465820e+00,3.384135723114013672e+00,3.351682424545288086e+00,3.319845676422119141e+00,3.288607835769653320e+00,3.257952451705932617e+00,3.227863311767578125e+00,3.198324918746948242e+00,3.169322252273559570e+00,3.140840768814086914e+00,3.112866640090942383e+00,3.085386514663696289e+00,3.058387041091918945e+00,3.031856298446655273e+00,3.005781888961791992e+00,2.980152130126953125e+00,2.954955577850341797e+00,2.930181503295898438e+00,2.905819654464721680e+00,2.881859540939331055e+00,2.858290910720825195e+00,2.835104942321777344e+00,2.812292337417602539e+00,2.789843320846557617e+00,2.767750501632690430e+00,2.746004581451416016e+00,2.724597692489624023e+00,2.703521966934204102e+00,2.682769536972045898e+00,2.662333488464355469e+00,2.642206668853759766e+00,2.622381687164306641e+00,2.602852106094360352e+00,2.583611249923706055e+00,2.564652442932128906e+00,2.545970201492309570e+00,2.527558088302612305e+00,2.509410381317138672e+00,2.491521358489990234e+00,2.473885774612426758e+00,2.456497907638549805e+00,2.439352750778198242e+00,2.422445297241210938e+00,2.405770540237426758e+00,2.389323949813842773e+00,2.373100757598876953e+00,2.357096195220947266e+00,2.341305971145629883e+00,2.325726032257080078e+00,2.310352087020874023e+00,2.295180082321166992e+00,2.280205965042114258e+00,2.265426158905029297e+00,2.250836372375488281e+00,2.236433506011962891e+00,2.222213745117187500e+00,2.208173751831054688e+00,2.194309949874877930e+00,2.180619239807128906e+00,2.167098283767700195e+00,2.153743982315063477e+00,2.140553236007690430e+00,2.127522945404052734e+00,2.114650487899780273e+00,2.101933002471923828e+00,2.089367389678955078e+00,2.076951026916503906e+00,2.064681529998779297e+00,2.052556276321411133e+00,5.888265967369079590e-01
3.787549257278442383e+00,3.746943235397338867e+00,3.707199335098266602e+00,3.668289422988891602e+00,3.630187749862670898e+00,3.592869758605957031e+00,3.556311130523681641e+00,3.520488977432250977e+00,3.485380887985229492e+00,3.450966596603393555e+00,3.417225122451782227e+00,3.384137153625488281e+00,3.351683378219604492e+00,3.319846630096435547e+00,3.288609027862548828e+00,3.257953405380249023e+00,3.227864265441894531e+00,3.198325634002685547e+00,3.169322967529296875e+00,3.140841484069824219e+00,3.112867593765258789e+00,3.085387468338012695e+00,3.058388233184814453e+00,3.031857252120971680e+00,3.005782604217529297e+00,2.980152845382690430e+00,2.954956531524658203e+00,2.930182695388793945e+00,2.905820846557617188e+00,2.881860494613647461e+00,2.858292341232299805e+00,2.835105895996093750e+00,2.812293291091918945e+00,2.789844512939453125e+00,2.767751455307006836e+00,2.746005773544311523e+00,2.724598884582519531e+00,2.703523159027099609e+00,2.682770967483520508e+00,2.662334918975830078e+00,2.642207860946655273e+00,2.622383117675781250e+00,2.602853298187255859e+00,2.583612442016601562e+00,2.564653873443603516e+00,2.545971632003784180e+00,2.527559280395507812e+00,2.509411573410034180e+00,2.491522550582885742e+00,2.473886728286743164e+00,2.456499099731445312e+00,2.439353942871093750e+00,2.422446489334106445e+00,2.405771732330322266e+00,2.389324903488159180e+00,2.373101711273193359e+00,2.357097148895263672e+00,2.341306924819946289e+00,2.325727224349975586e+00,2.310353040695190430e+00,2.295181035995483398e+00,2.280206918716430664e+00,2.265426874160766602e+00,2.250837326049804688e+00,2.236434459686279297e+00,2.222214698791503906e+00,2.208174705505371094e+00,2.194310903549194336e+00,2.180620193481445312e+00,2.167099237442016602e+00,2.153744935989379883e+00,2.140554189682006836e+00,2.127523899078369141e+00,2.114651441574096680e+00,2.101933717727661133e+00,2.089368104934692383e+00,2.076951980590820312e+00,2.064682483673095703e+00,5.889499783515930176e-01,5.684220194816589355e-01
3.787550449371337891e+00,3.746944904327392578e+00,3.707201004028320312e+00,3.668291091918945312e+00,3.630189657211303711e+00,3.592871189117431641e+00,3.556312561035156250e+00,3.520490407943725586e+00,3.485382556915283203e+00,3.450968265533447266e+00,3.417226791381835938e+00,3.384138822555541992e+00,3.351685047149658203e+00,3.319848299026489258e+00,3.288610458374023438e+00,3.257955312728881836e+00,3.227866172790527344e+00,3.198327779769897461e+00,3.169325113296508789e+00,3.140843391418457031e+00,3.112869262695312500e+00,3.085389137268066406e+00,3.058389902114868164e+00,3.031858921051025391e+00,3.005784511566162109e+00,2.980154752731323242e+00,2.954958200454711914e+00,2.930184125900268555e+00,2.905822277069091797e+00,2.881861925125122070e+00,2.858293771743774414e+00,2.835107564926147461e+00,2.812294721603393555e+00,2.789845943450927734e+00,2.767752885818481445e+00,2.746006965637207031e+00,2.724600076675415039e+00,2.703524589538574219e+00,2.682772397994995117e+00,2.662336349487304688e+00,2.642209291458129883e+00,2.622384309768676758e+00,2.602854490280151367e+00,2.583613634109497070e+00,2.564655065536499023e+00,2.545972824096679688e+00,2.527560472488403320e+00,2.509413003921508789e+00,2.491523742675781250e+00,2.473887920379638672e+00,2.456500053405761719e+00,2.439354896545410156e+00,2.422447681427001953e+00,2.405772924423217773e+00,2.389326095581054688e+00,2.373102664947509766e+00,2.357098102569580078e+00,2.341308116912841797e+00,2.325728178024291992e+00,2.310353994369506836e+00,2.295181989669799805e+00,2.280207872390747070e+00,2.265427827835083008e+00,2.250838279724121094e+00,2.236435413360595703e+00,2.222215652465820312e+00,2.208175659179687500e+00,2.194311857223510742e+00,2.180621147155761719e+00,2.167099952697753906e+00,2.153745651245117188e+00,2.140554904937744141e+00,2.127524852752685547e+00,2.114652156829833984e+00,2.101934671401977539e+00,2.089369058609008789e+00,2.076952695846557617e+00,5.895236730575561523e-01,5.689492225646972656e-01,5.576503276824951172e-01
3.787553071975708008e+00,3.746947288513183594e+00,3.707203388214111328e+00,3.668293476104736328e+00,3.630192041397094727e+00,3.592873811721801758e+00,3.556315183639526367e+00,3.520492553710937500e+00,3.485384702682495117e+00,3.450970411300659180e+00,3.417228937149047852e+00,3.384140968322753906e+00,3.351687431335449219e+00,3.319850683212280273e+00,3.288612365722656250e+00,3.257957220077514648e+00,3.227868080139160156e+00,3.198329687118530273e+00,3.169326782226562500e+00,3.140845298767089844e+00,3.112871170043945312e+00,3.085390806198120117e+00,3.058391571044921875e+00,3.031860589981079102e+00,3.005786180496215820e+00,2.980156421661376953e+00,2.954959869384765625e+00,2.930186033248901367e+00,2.905823707580566406e+00,2.881863355636596680e+00,2.858295202255249023e+00,2.835108995437622070e+00,2.812296152114868164e+00,2.789847612380981445e+00,2.767754554748535156e+00,2.746008634567260742e+00,2.724601507186889648e+00,2.703525781631469727e+00,2.682773590087890625e+00,2.662337541580200195e+00,2.642210721969604492e+00,2.622385740280151367e+00,2.602855920791625977e+00,2.583614826202392578e+00,2.564656257629394531e+00,2.545973777770996094e+00,2.527561664581298828e+00,2.509413957595825195e+00,2.491524934768676758e+00,2.473889112472534180e+00,2.456501245498657227e+00,2.439356088638305664e+00,2.422448635101318359e+00,2.405773878097534180e+00,2.389327287673950195e+00,2.373103857040405273e+00,2.357099294662475586e+00,2.341309070587158203e+00,2.325729131698608398e+00,2.310354948043823242e+00,2.295182943344116211e+00,2.280208826065063477e+00,2.265429019927978516e+00,2.250839233398437500e+00,2.236436367034912109e+00,2.222216606140136719e+00,2.208176374435424805e+00,2.194312572479248047e+00,2.180622100830078125e+00,2.167100906372070312e+00,2.153746604919433594e+00,2.140555858612060547e+00,2.127525568008422852e+00,2.114653110504150391e+00,2.101935386657714844e+00,2.089369773864746094e+00,5.900985598564147949e-01,5.692973732948303223e-01,5.616531372070312500e-01,5.553921461105346680e-01
3.787555932998657227e+00,3.746950387954711914e+00,3.707205772399902344e+00,3.668295860290527344e+00,3.630194425582885742e+00,3.592876195907592773e+00,3.556317329406738281e+00,3.520495176315307617e+00,3.485387325286865234e+00,3.450972557067871094e+00,3.417231082916259766e+00,3.384143114089965820e+00,3.351689577102661133e+00,3.319852590560913086e+00,3.288614749908447266e+00,3.257959365844726562e+00,3.227869749069213867e+00,3.198331356048583984e+00,3.169328689575195312e+00,3.140847206115722656e+00,3.112873077392578125e+00,3.085392713546752930e+00,3.058393478393554688e+00,3.031862258911132812e+00,3.005787849426269531e+00,2.980157852172851562e+00,2.954961538314819336e+00,2.930187463760375977e+00,2.905825614929199219e+00,2.881865262985229492e+00,2.858296632766723633e+00,2.835110425949096680e+00,2.812297582626342773e+00,2.789849042892456055e+00,2.767755985260009766e+00,2.746010065078735352e+00,2.724602937698364258e+00,2.703527212142944336e+00,2.682774782180786133e+00,2.662338733673095703e+00,2.642211914062500000e+00,2.622386932373046875e+00,2.602857112884521484e+00,2.583616256713867188e+00,2.564657688140869141e+00,2.545974969863891602e+00,2.527562856674194336e+00,2.509415149688720703e+00,2.491526126861572266e+00,2.473890304565429688e+00,2.456502437591552734e+00,2.439357280731201172e+00,2.422449827194213867e+00,2.405774831771850586e+00,2.389328241348266602e+00,2.373104810714721680e+00,2.357100248336791992e+00,2.341310024261474609e+00,2.325730085372924805e+00,2.310355901718139648e+00,2.295183897018432617e+00,2.280209779739379883e+00,2.265429973602294922e+00,2.250840187072753906e+00,2.236437320709228516e+00,2.222217559814453125e+00,2.208177328109741211e+00,2.194313526153564453e+00,2.180622816085815430e+00,2.167101860046386719e+00,2.153747558593750000e+00,2.140556812286376953e+00,2.127526521682739258e+00,2.114653825759887695e+00,6.128724813461303711e-01,5.906745195388793945e-01,5.717855095863342285e-01,5.657138228416442871e-01,5.595397949218750000e-01,5.529183745384216309e-01
3.787558555603027344e+00,3.746952772140502930e+00,3.707208633422851562e+00,3.668298721313476562e+00,3.630196809768676758e+00,3.592878580093383789e+00,3.556319713592529297e+00,3.520497560501098633e+00,3.485389471054077148e+00,3.450974941253662109e+00,3.417233467102050781e+00,3.384145021438598633e+00,3.351691484451293945e+00,3.319854497909545898e+00,3.288616657257080078e+00,3.257961273193359375e+00,3.227872133255004883e+00,3.198333501815795898e+00,3.169330358505249023e+00,3.140848875045776367e+00,3.112874746322631836e+00,3.085394382476806641e+00,3.058395147323608398e+00,3.031864166259765625e+00,3.005789756774902344e+00,2.980159521102905273e+00,2.954962968826293945e+00,2.930189132690429688e+00,2.905827045440673828e+00,2.881866693496704102e+00,2.858298301696777344e+00,2.835112094879150391e+00,2.812299251556396484e+00,2.789850473403930664e+00,2.767757177352905273e+00,2.746011257171630859e+00,2.724604368209838867e+00,2.703528642654418945e+00,2.682776451110839844e+00,2.662340402603149414e+00,2.642213106155395508e+00,2.622388124465942383e+00,2.602858304977416992e+00,2.583617448806762695e+00,2.564658641815185547e+00,2.545976400375366211e+00,2.527564287185668945e+00,2.509416341781616211e+00,2.491527080535888672e+00,2.473891258239746094e+00,2.456503629684448242e+00,2.439358234405517578e+00,2.422451019287109375e+00,2.405776023864746094e+00,2.389329195022583008e+00,2.373105764389038086e+00,2.357101440429687500e+00,2.341311216354370117e+00,2.325731039047241211e+00,2.310357093811035156e+00,2.295185089111328125e+00,2.280210733413696289e+00,2.265430688858032227e+00,2.250841140747070312e+00,2.236438274383544922e+00,2.222218513488769531e+00,2.208178281784057617e+00,2.194314479827880859e+00,2.180623769760131836e+00,2.167102575302124023e+00,2.153748273849487305e+00,2.140557527542114258e+00,2.127527236938476562e+00,6.134938001632690430e-01,5.910562872886657715e-01,5.759946107864379883e-01,5.698336958885192871e-01,5.637499094009399414e-01,5.570290684700012207e-01,5.504665970802307129e-01
3.787561178207397461e+00,3.746955394744873047e+00,3.707211256027221680e+00,3.668301105499267578e+00,3.630199432373046875e+00,3.592881202697753906e+00,3.556321859359741211e+00,3.520499706268310547e+00,3.485391616821289062e+00,3.450977087020874023e+00,3.417235612869262695e+00,3.384147405624389648e+00,3.351693868637084961e+00,3.319856643676757812e+00,3.288618564605712891e+00,3.257963180541992188e+00,3.227873802185058594e+00,3.198335409164428711e+00,3.169332504272460938e+00,3.140851020812988281e+00,3.112876415252685547e+00,3.085396051406860352e+00,3.058396816253662109e+00,3.031865835189819336e+00,3.005791425704956055e+00,2.980161428451538086e+00,2.954964876174926758e+00,2.930190563201904297e+00,2.905828475952148438e+00,2.881868124008178711e+00,2.858299732208251953e+00,2.835113525390625000e+00,2.812300682067871094e+00,2.789851903915405273e+00,2.767758846282958984e+00,2.746012687683105469e+00,2.724605798721313477e+00,2.703529834747314453e+00,2.682777643203735352e+00,2.662341594696044922e+00,2.642214536666870117e+00,2.622389554977416992e+00,2.602859497070312500e+00,2.583618640899658203e+00,2.564659833908081055e+00,2.545977592468261719e+00,2.527565240859985352e+00,2.509417533874511719e+00,2.491528511047363281e+00,2.473892450332641602e+00,2.456504583358764648e+00,2.439359426498413086e+00,2.422451972961425781e+00,2.405777215957641602e+00,2.389330387115478516e+00,2.373106956481933594e+00,2.357102394104003906e+00,2.341312170028686523e+00,2.325732231140136719e+00,2.310358047485351562e+00,2.295186042785644531e+00,2.280211925506591797e+00,2.265431880950927734e+00,2.250842094421386719e+00,2.236439228057861328e+00,2.222219228744506836e+00,2.208179235458374023e+00,2.194315433502197266e+00,2.180624723434448242e+00,2.167103767395019531e+00,2.153749227523803711e+00,2.140558481216430664e+00,6.141164302825927734e-01,5.914320349693298340e-01,5.802661180496215820e-01,5.740139484405517578e-01,5.678950548171997070e-01,5.612013339996337891e-01,5.545407533645629883e-01,5.480364561080932617e-01
3.787564039230346680e+00,3.746957778930664062e+00,3.707213640213012695e+00,3.668303489685058594e+00,3.630201816558837891e+00,3.592883586883544922e+00,3.556324481964111328e+00,3.520502328872680664e+00,3.485393762588500977e+00,3.450979232788085938e+00,3.417237758636474609e+00,3.384149551391601562e+00,3.351695775985717773e+00,3.319858789443969727e+00,3.288620948791503906e+00,3.257965087890625000e+00,3.227875709533691406e+00,3.198337316513061523e+00,3.169334173202514648e+00,3.140852689743041992e+00,3.112878561019897461e+00,3.085398197174072266e+00,3.058398485183715820e+00,3.031867504119873047e+00,3.005792856216430664e+00,2.980162858963012695e+00,2.954966306686401367e+00,2.930192232131958008e+00,2.905830383300781250e+00,2.881869792938232422e+00,2.858301162719726562e+00,2.835115194320678711e+00,2.812302112579345703e+00,2.789853334426879883e+00,2.767760276794433594e+00,2.746014118194580078e+00,2.724607229232788086e+00,2.703531265258789062e+00,2.682779073715209961e+00,2.662342786788940430e+00,2.642215728759765625e+00,2.622390747070312500e+00,2.602860927581787109e+00,2.583620071411132812e+00,2.564661026000976562e+00,2.545978784561157227e+00,2.527566432952880859e+00,2.509418725967407227e+00,2.491529464721679688e+00,2.473893642425537109e+00,2.456505775451660156e+00,2.439360380172729492e+00,2.422452926635742188e+00,2.405778169631958008e+00,2.389331340789794922e+00,2.373108148574829102e+00,2.357103586196899414e+00,2.341313123703002930e+00,2.325733184814453125e+00,2.310359001159667969e+00,2.295186996459960938e+00,2.280212640762329102e+00,2.265432834625244141e+00,2.250843048095703125e+00,2.236440181732177734e+00,2.222220182418823242e+00,2.208180189132690430e+00,2.194316148757934570e+00,2.180625438690185547e+00,2.167104482650756836e+00,2.153750181198120117e+00,6.145445704460144043e-01,5.918082594871520996e-01,5.846014618873596191e-01,5.782560110092163086e-01,5.720467567443847656e-01,5.654365420341491699e-01,5.586756467819213867e-01,5.520746111869812012e-01,5.459938645362854004e-01
3.787566661834716797e+00,3.746960878372192383e+00,3.707216501235961914e+00,3.668305873870849609e+00,3.630204200744628906e+00,3.592885732650756836e+00,3.556326866149902344e+00,3.520504474639892578e+00,3.485396385192871094e+00,3.450981855392456055e+00,3.417239665985107422e+00,3.384151458740234375e+00,3.351697921752929688e+00,3.319860935211181641e+00,3.288622856140136719e+00,3.257967233657836914e+00,3.227877855300903320e+00,3.198338985443115234e+00,3.169336080551147461e+00,3.140854597091674805e+00,3.112880229949951172e+00,3.085399866104125977e+00,3.058400392532348633e+00,3.031869411468505859e+00,3.005794525146484375e+00,2.980164527893066406e+00,2.954967975616455078e+00,2.930193901062011719e+00,2.905831813812255859e+00,2.881871461868286133e+00,2.858302831649780273e+00,2.835116863250732422e+00,2.812303543090820312e+00,2.789854764938354492e+00,2.767761707305908203e+00,2.746015548706054688e+00,2.724608659744262695e+00,2.703532695770263672e+00,2.682780504226684570e+00,2.662344217300415039e+00,2.642217159271240234e+00,2.622391939163208008e+00,2.602862119674682617e+00,2.583621263504028320e+00,2.564662456512451172e+00,2.545979976654052734e+00,2.527567625045776367e+00,2.509419918060302734e+00,2.491530656814575195e+00,2.473894834518432617e+00,2.456506967544555664e+00,2.439361810684204102e+00,2.422454357147216797e+00,2.405779123306274414e+00,2.389332532882690430e+00,2.373109102249145508e+00,2.357104539871215820e+00,2.341314315795898438e+00,2.325734138488769531e+00,2.310360193252563477e+00,2.295187950134277344e+00,2.280213594436645508e+00,2.265433788299560547e+00,2.250844001770019531e+00,2.236441135406494141e+00,2.222221136093139648e+00,2.208181142807006836e+00,2.194317102432250977e+00,2.180626392364501953e+00,6.394958496093750000e-01,6.149508357048034668e-01,5.955869555473327637e-01,5.890020728111267090e-01,5.825612545013427734e-01,5.762597322463989258e-01,5.697361826896667480e-01,5.628727078437805176e-01,5.561726689338684082e-01,5.512679219245910645e-01,5.487698316574096680e-01
3.787569284439086914e+00,3.746963262557983398e+00,3.707218885421752930e+00,3.668308734893798828e+00,3.630207061767578125e+00,3.592888116836547852e+00,3.556329011917114258e+00,3.520506620407104492e+00,3.485398530960083008e+00,3.450984001159667969e+00,3.417242288589477539e+00,3.384153842926025391e+00,3.351699829101562500e+00,3.319862842559814453e+00,3.288624763488769531e+00,3.257969141006469727e+00,3.227879762649536133e+00,3.198341131210327148e+00,3.169338226318359375e+00,3.140856266021728516e+00,3.112881898880004883e+00,3.085401535034179688e+00,3.058402061462402344e+00,3.031871080398559570e+00,3.005796432495117188e+00,2.980166435241699219e+00,2.954969644546508789e+00,2.930195331573486328e+00,2.905833244323730469e+00,2.881872892379760742e+00,2.858304500579833984e+00,2.835118293762207031e+00,2.812305212020874023e+00,2.789856433868408203e+00,2.767762899398803711e+00,2.746016979217529297e+00,2.724609851837158203e+00,2.703534126281738281e+00,2.682781696319580078e+00,2.662345647811889648e+00,2.642218589782714844e+00,2.622393131256103516e+00,2.602863311767578125e+00,2.583622455596923828e+00,2.564663648605346680e+00,2.545981168746948242e+00,2.527569055557250977e+00,2.509421110153198242e+00,2.491531848907470703e+00,2.473896026611328125e+00,2.456507921218872070e+00,2.439362764358520508e+00,2.422455310821533203e+00,2.405780553817749023e+00,2.389333724975585938e+00,2.373110055923461914e+00,2.357105493545532227e+00,2.341315269470214844e+00,2.325735092163085938e+00,2.310361146926879883e+00,2.295188903808593750e+00,2.280214786529541016e+00,2.265434503555297852e+00,2.250844955444335938e+00,2.236441850662231445e+00,2.222222089767456055e+00,2.208181858062744141e+00,2.194318056106567383e+00,6.399769783020019531e-01,6.153575181961059570e-01,6.001551151275634766e-01,5.934694409370422363e-01,5.869310498237609863e-01,5.805351734161376953e-01,5.741016864776611328e-01,5.671333074569702148e-01,5.603320598602294922e-01,5.566448569297790527e-01,5.540978908538818359e-01,5.515741705894470215e-01
3.787571668624877930e+00,3.746965885162353516e+00,3.707221508026123047e+00,3.668311119079589844e+00,3.630209445953369141e+00,3.592890739440917969e+00,3.556331634521484375e+00,3.520509004592895508e+00,3.485400676727294922e+00,3.450986146926879883e+00,3.417244195938110352e+00,3.384155988693237305e+00,3.351702213287353516e+00,3.319864988327026367e+00,3.288626670837402344e+00,3.257971048355102539e+00,3.227881669998168945e+00,3.198343038558959961e+00,3.169339895248413086e+00,3.140858411788940430e+00,3.112884044647216797e+00,3.085403203964233398e+00,3.058403730392456055e+00,3.031872749328613281e+00,3.005798101425170898e+00,2.980167865753173828e+00,2.954971313476562500e+00,2.930197238922119141e+00,2.905835151672363281e+00,2.881874322891235352e+00,2.858305931091308594e+00,2.835119724273681641e+00,2.812306642532348633e+00,2.789857864379882812e+00,2.767764568328857422e+00,2.746018409729003906e+00,2.724611282348632812e+00,2.703535318374633789e+00,2.682783126831054688e+00,2.662346839904785156e+00,2.642219781875610352e+00,2.622394561767578125e+00,2.602864742279052734e+00,2.583623647689819336e+00,2.564664840698242188e+00,2.545982360839843750e+00,2.527570009231567383e+00,2.509422302246093750e+00,2.491533041000366211e+00,2.473897218704223633e+00,2.456509113311767578e+00,2.439363956451416016e+00,2.422456264495849609e+00,2.405781507492065430e+00,2.389334678649902344e+00,2.373111248016357422e+00,2.357106685638427734e+00,2.341316223144531250e+00,2.325736045837402344e+00,2.310362100601196289e+00,2.295189857482910156e+00,2.280215740203857422e+00,2.265435695648193359e+00,2.250845909118652344e+00,2.236442804336547852e+00,2.222223043441772461e+00,2.208182811737060547e+00,6.403889060020446777e-01,6.157627701759338379e-01,6.047939658164978027e-01,5.980050563812255859e-01,5.913669466972351074e-01,5.848745703697204590e-01,5.785231590270996094e-01,5.714588761329650879e-01,5.647492408752441406e-01,5.621277689933776855e-01,5.595305562019348145e-01,5.569571256637573242e-01,5.544073581695556641e-01
3.787574768066406250e+00,3.746968746185302734e+00,3.707223892211914062e+00,3.668313503265380859e+00,3.630211591720581055e+00,3.592893123626708984e+00,3.556334018707275391e+00,3.520511388778686523e+00,3.485403299331665039e+00,3.450988292694091797e+00,3.417246341705322266e+00,3.384158134460449219e+00,3.351704120635986328e+00,3.319867134094238281e+00,3.288628816604614258e+00,3.257973432540893555e+00,3.227883577346801758e+00,3.198344945907592773e+00,3.169341802597045898e+00,3.140860080718994141e+00,3.112885713577270508e+00,3.085405349731445312e+00,3.058405876159667969e+00,3.031874418258666992e+00,3.005799770355224609e+00,2.980169534683227539e+00,2.954972982406616211e+00,2.930198669433593750e+00,2.905836582183837891e+00,2.881875991821289062e+00,2.858307600021362305e+00,2.835121154785156250e+00,2.812308073043823242e+00,2.789859294891357422e+00,2.767765998840332031e+00,2.746019840240478516e+00,2.724612712860107422e+00,2.703536987304687500e+00,2.682784318923950195e+00,2.662348031997680664e+00,2.642220973968505859e+00,2.622395992279052734e+00,2.602865934371948242e+00,2.583625078201293945e+00,2.564666271209716797e+00,2.545983552932739258e+00,2.527571201324462891e+00,2.509423494338989258e+00,2.491534233093261719e+00,2.473898410797119141e+00,2.456510305404663086e+00,2.439365148544311523e+00,2.422457456588745117e+00,2.405782461166381836e+00,2.389335632324218750e+00,2.373112201690673828e+00,2.357107639312744141e+00,2.341317415237426758e+00,2.325737237930297852e+00,2.310363054275512695e+00,2.295190811157226562e+00,2.280216693878173828e+00,2.265436649322509766e+00,2.250846862792968750e+00,2.236443996429443359e+00,2.222223997116088867e+00,6.407742500305175781e-01,6.177984476089477539e-01,6.098713874816894531e-01,6.026105880737304688e-01,5.958703756332397461e-01,5.892792940139770508e-01,5.828323960304260254e-01,5.758509635925292969e-01,5.703937411308288574e-01,5.677197575569152832e-01,5.650706887245178223e-01,5.624462366104125977e-01,5.598773360252380371e-01,5.573593974113464355e-01
3.787577390670776367e+00,3.746971130371093750e+00,3.707226753234863281e+00,3.668316364288330078e+00,3.630213975906372070e+00,3.592895507812500000e+00,3.556336164474487305e+00,3.520513772964477539e+00,3.485405445098876953e+00,3.450990676879882812e+00,3.417248725891113281e+00,3.384160041809082031e+00,3.351706266403198242e+00,3.319869041442871094e+00,3.288630723953247070e+00,3.257975339889526367e+00,3.227885723114013672e+00,3.198346853256225586e+00,3.169343471527099609e+00,3.140861749649047852e+00,3.112887382507324219e+00,3.085407018661499023e+00,3.058407545089721680e+00,3.031876325607299805e+00,3.005801439285278320e+00,2.980171442031860352e+00,2.954974412918090820e+00,2.930200338363647461e+00,2.905838012695312500e+00,2.881877660751342773e+00,2.858309030532836914e+00,2.835122823715209961e+00,2.812309741973876953e+00,2.789860486984252930e+00,2.767767429351806641e+00,2.746021270751953125e+00,2.724614143371582031e+00,2.703538179397583008e+00,2.682785749435424805e+00,2.662349700927734375e+00,2.642222166061401367e+00,2.622397184371948242e+00,2.602867364883422852e+00,2.583626270294189453e+00,2.564667463302612305e+00,2.545984983444213867e+00,2.527572631835937500e+00,2.509424448013305664e+00,2.491535425186157227e+00,2.473899364471435547e+00,2.456511497497558594e+00,2.439366102218627930e+00,2.422458648681640625e+00,2.405783653259277344e+00,2.389336585998535156e+00,2.373113155364990234e+00,2.357108592987060547e+00,2.341318368911743164e+00,2.325738191604614258e+00,2.310364007949829102e+00,2.295192003250122070e+00,2.280217647552490234e+00,2.265437602996826172e+00,2.250847816467285156e+00,2.236444711685180664e+00,6.411600112915039062e-01,6.228027343750000000e-01,6.155148148536682129e-01,6.079495549201965332e-01,6.005680561065673828e-01,5.937508344650268555e-01,5.872063040733337402e-01,5.803110599517822266e-01,5.761522650718688965e-01,5.734240412712097168e-01,5.707400441169738770e-01,5.681236386299133301e-01,5.655310750007629395e-01,5.629621148109436035e-01,5.604164004325866699e-01
3.787580013275146484e+00,3.746973752975463867e+00,3.707229137420654297e+00,3.668318748474121094e+00,3.630216836929321289e+00,3.592898130416870117e+00,3.556338548660278320e+00,3.520515918731689453e+00,3.485407590866088867e+00,3.450992822647094727e+00,3.417250871658325195e+00,3.384162425994873047e+00,3.351708650588989258e+00,3.319870948791503906e+00,3.288632869720458984e+00,3.257977247238159180e+00,3.227887630462646484e+00,3.198348760604858398e+00,3.169345617294311523e+00,3.140863895416259766e+00,3.112889051437377930e+00,3.085408687591552734e+00,3.058409214019775391e+00,3.031877994537353516e+00,3.005803108215332031e+00,2.980172872543334961e+00,2.954976320266723633e+00,2.930202007293701172e+00,2.905839681625366211e+00,2.881879091262817383e+00,2.858310461044311523e+00,2.835124254226684570e+00,2.812311172485351562e+00,2.789862155914306641e+00,2.767768859863281250e+00,2.746022462844848633e+00,2.724615335464477539e+00,2.703539609909057617e+00,2.682787179946899414e+00,2.662350893020629883e+00,2.642223834991455078e+00,2.622398614883422852e+00,2.602868556976318359e+00,2.583627462387084961e+00,2.564668655395507812e+00,2.545985937118530273e+00,2.527573823928833008e+00,2.509425878524780273e+00,2.491536617279052734e+00,2.473900556564331055e+00,2.456512451171875000e+00,2.439367294311523438e+00,2.422459602355957031e+00,2.405784845352172852e+00,2.389337778091430664e+00,2.373114347457885742e+00,2.357109785079956055e+00,2.341319561004638672e+00,2.325739383697509766e+00,2.310365200042724609e+00,2.295193195343017578e+00,2.280218839645385742e+00,2.265438795089721680e+00,6.683228015899658203e-01,6.415462493896484375e-01,6.284181475639343262e-01,6.212511062622070312e-01,6.135573387145996094e-01,6.060399413108825684e-01,5.987043976783752441e-01,5.916463732719421387e-01,5.848408341407775879e-01,5.820325613021850586e-01,5.793118476867675781e-01,5.766164064407348633e-01,5.739459991455078125e-01,5.713002085685729980e-01,5.686786770820617676e-01,5.660811066627502441e-01,5.635071396827697754e-01
3.787582874298095703e+00,3.746976375579833984e+00,3.707231760025024414e+00,3.668321132659912109e+00,3.630219221115112305e+00,3.592900514602661133e+00,3.556341171264648438e+00,3.520518541336059570e+00,3.485409736633300781e+00,3.450994968414306641e+00,3.417253017425537109e+00,3.384164571762084961e+00,3.351710557937622070e+00,3.319873332977294922e+00,3.288635015487670898e+00,3.257978916168212891e+00,3.227889537811279297e+00,3.198350667953491211e+00,3.169347524642944336e+00,3.140865564346313477e+00,3.112891197204589844e+00,3.085410594940185547e+00,3.058411121368408203e+00,3.031879425048828125e+00,3.005804777145385742e+00,2.980174541473388672e+00,2.954977750778198242e+00,2.930203676223754883e+00,2.905841350555419922e+00,2.881880760192871094e+00,2.858311891555786133e+00,2.835125684738159180e+00,2.812312602996826172e+00,2.789863586425781250e+00,2.767770290374755859e+00,2.746024131774902344e+00,2.724617242813110352e+00,2.703541040420532227e+00,2.682788610458374023e+00,2.662352323532104492e+00,2.642225265502929688e+00,2.622400045394897461e+00,2.602870225906372070e+00,2.583628892898559570e+00,2.564670085906982422e+00,2.545987367630004883e+00,2.527575016021728516e+00,2.509427309036254883e+00,2.491538047790527344e+00,2.473901987075805664e+00,2.456514120101928711e+00,2.439368486404418945e+00,2.422461032867431641e+00,2.405786037445068359e+00,2.389339208602905273e+00,2.373115777969360352e+00,2.357110977172851562e+00,2.341320753097534180e+00,2.325740337371826172e+00,2.310366153717041016e+00,2.295194149017333984e+00,2.280219793319702148e+00,6.687424778938293457e-01,6.462323069572448730e-01,6.342100501060485840e-01,6.269111037254333496e-01,6.192695498466491699e-01,6.116123199462890625e-01,6.041421294212341309e-01,5.968523025512695312e-01,5.910512804985046387e-01,5.881450772285461426e-01,5.853670239448547363e-01,5.826151371002197266e-01,5.798889994621276855e-01,5.771882534027099609e-01,5.745124816894531250e-01,5.718614459037780762e-01,5.692347884178161621e-01,5.666321516036987305e-01
3.787585496902465820e+00,3.746979236602783203e+00,3.707234621047973633e+00,3.668323516845703125e+00,3.630221605300903320e+00,3.592902660369873047e+00,3.556343555450439453e+00,3.520520687103271484e+00,3.485412359237670898e+00,3.450997352600097656e+00,3.417255163192749023e+00,3.384166479110717773e+00,3.351712465286254883e+00,3.319875240325927734e+00,3.288636922836303711e+00,3.257981300354003906e+00,3.227891921997070312e+00,3.198352575302124023e+00,3.169349431991577148e+00,3.140867710113525391e+00,3.112893104553222656e+00,3.085412502288818359e+00,3.058413028717041016e+00,3.031881570816040039e+00,3.005806922912597656e+00,2.980176448822021484e+00,2.954979658126831055e+00,2.930205345153808594e+00,2.905843019485473633e+00,2.881882429122924805e+00,2.858313798904418945e+00,2.835127592086791992e+00,2.812314271926879883e+00,2.789865255355834961e+00,2.767771959304809570e+00,2.746025800704956055e+00,2.724618434906005859e+00,2.703542470932006836e+00,2.682790040969848633e+00,2.662353754043579102e+00,2.642226457595825195e+00,2.622401237487792969e+00,2.602871417999267578e+00,2.583630084991455078e+00,2.564671277999877930e+00,2.545988798141479492e+00,2.527576208114624023e+00,2.509428262710571289e+00,2.491539001464843750e+00,2.473903179168701172e+00,2.456515073776245117e+00,2.439369678497314453e+00,2.422462224960327148e+00,2.405786991119384766e+00,2.389340162277221680e+00,2.373116731643676758e+00,2.357111930847167969e+00,2.341321706771850586e+00,2.325741529464721680e+00,2.310367345809936523e+00,2.295194864273071289e+00,6.691626906394958496e-01,6.517098546028137207e-01,6.401097178459167480e-01,6.326751112937927246e-01,6.250890493392944336e-01,6.172881722450256348e-01,6.096795797348022461e-01,6.022562980651855469e-01,5.977327823638916016e-01,5.947096943855285645e-01,5.917170047760009766e-01,5.887543559074401855e-01,5.859563350677490234e-01,5.831989049911499023e-01,5.804672837257385254e-01,5.777611136436462402e-01,5.750800967216491699e-01,5.730429887771606445e-01,5.726445317268371582e-01
3.787588357925415039e+00,3.746981859207153320e+00,3.707237243652343750e+00,3.668326616287231445e+00,3.630224466323852539e+00,3.592905282974243164e+00,3.556345939636230469e+00,3.520523071289062500e+00,3.485414743423461914e+00,3.450999736785888672e+00,3.417257785797119141e+00,3.384169101715087891e+00,3.351714849472045898e+00,3.319877386093139648e+00,3.288639068603515625e+00,3.257983446121215820e+00,3.227893590927124023e+00,3.198354721069335938e+00,3.169351577758789062e+00,3.140869379043579102e+00,3.112894773483276367e+00,3.085414171218872070e+00,3.058414697647094727e+00,3.031883239746093750e+00,3.005808591842651367e+00,2.980178356170654297e+00,2.954981565475463867e+00,2.930207014083862305e+00,2.905844688415527344e+00,2.881883859634399414e+00,2.858315467834472656e+00,2.835129022598266602e+00,2.812315702438354492e+00,2.789866924285888672e+00,2.767773151397705078e+00,2.746026992797851562e+00,2.724619865417480469e+00,2.703543901443481445e+00,2.682791471481323242e+00,2.662355184555053711e+00,2.642227888107299805e+00,2.622402429580688477e+00,2.602872610092163086e+00,2.583631277084350586e+00,2.564672470092773438e+00,2.545989990234375000e+00,2.527577638626098633e+00,2.509429693222045898e+00,2.491540193557739258e+00,2.473904132843017578e+00,2.456516265869140625e+00,2.439370870590209961e+00,2.422463178634643555e+00,2.405788183212280273e+00,2.389341354370117188e+00,2.373117685317993164e+00,2.357112884521484375e+00,2.341322660446166992e+00,2.325742483139038086e+00,2.310368299484252930e+00,6.714935898780822754e-01,6.572810411453247070e-01,6.461201906204223633e-01,6.385461688041687012e-01,6.310190558433532715e-01,6.230704188346862793e-01,6.153194904327392578e-01,6.077590584754943848e-01,6.045669913291931152e-01,6.014745831489562988e-01,5.984136462211608887e-01,5.953836441040039062e-01,5.923842191696166992e-01,5.894148349761962891e-01,5.865467786788940430e-01,5.837838053703308105e-01,5.810467004776000977e-01,5.797013044357299805e-01,5.792934894561767578e-01,5.788863897323608398e-01
3.787590742111206055e+00,3.746984481811523438e+00,3.707239627838134766e+00,3.668329000473022461e+00,3.630226850509643555e+00,3.592907905578613281e+00,3.556348562240600586e+00,3.520525455474853516e+00,3.485416889190673828e+00,3.451001882553100586e+00,3.417259931564331055e+00,3.384171247482299805e+00,3.351717233657836914e+00,3.319879770278930664e+00,3.288640975952148438e+00,3.257985353469848633e+00,3.227895498275756836e+00,3.198356628417968750e+00,3.169353485107421875e+00,3.140871524810791016e+00,3.112896919250488281e+00,3.085416316986083984e+00,3.058416366577148438e+00,3.031884908676147461e+00,3.005810022354125977e+00,2.980179786682128906e+00,2.954982995986938477e+00,2.930208683013916016e+00,2.905846357345581055e+00,2.881885528564453125e+00,2.858316898345947266e+00,2.835130453109741211e+00,2.812317132949829102e+00,2.789868116378784180e+00,2.767774820327758789e+00,2.746028661727905273e+00,2.724621295928955078e+00,2.703545093536376953e+00,2.682792663574218750e+00,2.662356376647949219e+00,2.642229080200195312e+00,2.622403860092163086e+00,2.602874040603637695e+00,2.583632469177246094e+00,2.564673662185668945e+00,2.545991182327270508e+00,2.527578592300415039e+00,2.509430646896362305e+00,2.491541385650634766e+00,2.473905563354492188e+00,2.456517219543457031e+00,2.439371824264526367e+00,2.422464370727539062e+00,2.405789375305175781e+00,2.389342308044433594e+00,2.373118877410888672e+00,2.357114076614379883e+00,2.341323614120483398e+00,2.325743436813354492e+00,6.774097084999084473e-01,6.629483103752136230e-01,6.522446274757385254e-01,6.445271372795104980e-01,6.369901299476623535e-01,6.289619207382202148e-01,6.210646629333496094e-01,6.147566437721252441e-01,6.115593910217285156e-01,6.083951592445373535e-01,6.052635908126831055e-01,6.021639704704284668e-01,5.990960001945495605e-01,5.960591435432434082e-01,5.930529236793518066e-01,5.900768637657165527e-01,5.871384739875793457e-01,5.865161418914794922e-01,5.860987305641174316e-01,5.856819748878479004e-01,5.869312882423400879e-01
3.787593841552734375e+00,3.746987342834472656e+00,3.707242250442504883e+00,3.668331384658813477e+00,3.630229234695434570e+00,3.592910289764404297e+00,3.556350946426391602e+00,3.520528078079223633e+00,3.485419511795043945e+00,3.451004028320312500e+00,3.417261838912963867e+00,3.384173393249511719e+00,3.351719141006469727e+00,3.319881677627563477e+00,3.288643360137939453e+00,3.257987499237060547e+00,3.227897405624389648e+00,3.198358535766601562e+00,3.169355154037475586e+00,3.140873193740844727e+00,3.112898588180541992e+00,3.085417985916137695e+00,3.058418273925781250e+00,3.031886816024780273e+00,3.005811691284179688e+00,2.980181455612182617e+00,2.954984664916992188e+00,2.930210351943969727e+00,2.905847787857055664e+00,2.881887197494506836e+00,2.858318567276000977e+00,2.835131883621215820e+00,2.812318563461303711e+00,2.789869546890258789e+00,2.767776250839233398e+00,2.746030092239379883e+00,2.724622726440429688e+00,2.703546762466430664e+00,2.682794094085693359e+00,2.662357568740844727e+00,2.642230510711669922e+00,2.622405052185058594e+00,2.602875232696533203e+00,2.583633899688720703e+00,2.564675092697143555e+00,2.545992374420166016e+00,2.527579784393310547e+00,2.509431838989257812e+00,2.491542577743530273e+00,2.473906517028808594e+00,2.456518411636352539e+00,2.439373016357421875e+00,2.422465324401855469e+00,2.405790328979492188e+00,2.389343500137329102e+00,2.373119831085205078e+00,2.357115030288696289e+00,2.341324806213378906e+00,2.325744628906250000e+00,6.687141656875610352e-01,6.584863066673278809e-01,6.506212353706359863e-01,6.429419517517089844e-01,6.349659562110900879e-01,6.269181370735168457e-01,6.219881176948547363e-01,6.187153458595275879e-01,6.154769062995910645e-01,6.122721433639526367e-01,6.091005206108093262e-01,6.059616804122924805e-01,6.028549671173095703e-01,5.997979044914245605e-01,5.968059897422790527e-01,5.961232781410217285e-01,5.944913029670715332e-01,5.930657386779785156e-01,5.926390290260314941e-01,6.791134476661682129e-01,6.721391677856445312e-01
3.787596464157104492e+00,3.746989965438842773e+00,3.707245111465454102e+00,3.668334245681762695e+00,3.630231618881225586e+00,3.592912673950195312e+00,3.556353092193603516e+00,3.520530223846435547e+00,3.485421657562255859e+00,3.451006412506103516e+00,3.417264223098754883e+00,3.384175300598144531e+00,3.351721286773681641e+00,3.319883823394775391e+00,3.288645267486572266e+00,3.257989406585693359e+00,3.227899551391601562e+00,3.198360681533813477e+00,3.169357299804687500e+00,3.140875101089477539e+00,3.112900257110595703e+00,3.085419654846191406e+00,3.058419942855834961e+00,3.031888484954833984e+00,3.005813598632812500e+00,2.980183362960815430e+00,2.954986095428466797e+00,2.930211782455444336e+00,2.905849456787109375e+00,2.881888628005981445e+00,2.858319997787475586e+00,2.835133552551269531e+00,2.812320232391357422e+00,2.789870977401733398e+00,2.767777681350708008e+00,2.746031284332275391e+00,2.724624156951904297e+00,2.703547954559326172e+00,2.682795524597167969e+00,2.662359237670898438e+00,2.642231702804565430e+00,2.622406482696533203e+00,2.602876424789428711e+00,2.583635091781616211e+00,2.564676284790039062e+00,2.545993566513061523e+00,2.527581214904785156e+00,2.509433031082153320e+00,2.491543769836425781e+00,2.473907709121704102e+00,2.456519603729248047e+00,2.439374208450317383e+00,2.422466516494750977e+00,2.405791521072387695e+00,2.389344453811645508e+00,2.373120784759521484e+00,2.357116222381591797e+00,2.341325759887695312e+00,2.325745582580566406e+00,6.648484468460083008e-01,6.568316817283630371e-01,6.490059494972229004e-01,6.410856842994689941e-01,6.328830718994140625e-01,6.293916702270507812e-01,6.260408163070678711e-01,6.227253675460815430e-01,6.194448471069335938e-01,6.161987781524658203e-01,6.130348443984985352e-01,6.099097728729248047e-01,6.068164110183715820e-01,6.037542223930358887e-01,6.056347489356994629e-01,6.039503216743469238e-01,6.022753715515136719e-01,6.006095409393310547e-01,6.854918003082275391e-01,6.783866286277770996e-01,6.714271306991577148e-01
3.787598848342895508e+00,3.746992349624633789e+00,3.707247495651245117e+00,3.668336629867553711e+00,3.630234241485595703e+00,3.592915296554565430e+00,3.556355237960815430e+00,3.520532369613647461e+00,3.485423803329467773e+00,3.451008558273315430e+00,3.417266368865966797e+00,3.384177684783935547e+00,3.351723432540893555e+00,3.319885730743408203e+00,3.288647174835205078e+00,3.257991313934326172e+00,3.227901458740234375e+00,3.198362350463867188e+00,3.169358968734741211e+00,3.140877008438110352e+00,3.112902402877807617e+00,3.085421323776245117e+00,3.058421611785888672e+00,3.031890153884887695e+00,3.005815267562866211e+00,2.980184793472290039e+00,2.954988002777099609e+00,2.930213451385498047e+00,2.905850887298583984e+00,2.881890058517456055e+00,2.858321428298950195e+00,2.835134983062744141e+00,2.812321662902832031e+00,2.789872646331787109e+00,2.767779111862182617e+00,2.746032714843750000e+00,2.724625349044799805e+00,2.703549385070800781e+00,2.682796716690063477e+00,2.662360429763793945e+00,2.642233133316040039e+00,2.622407913208007812e+00,2.602877616882324219e+00,2.583636283874511719e+00,2.564677476882934570e+00,2.545994758605957031e+00,2.527582168579101562e+00,2.509434223175048828e+00,2.491544723510742188e+00,2.473908662796020508e+00,2.456520557403564453e+00,2.439375162124633789e+00,2.422467470169067383e+00,2.405792236328125000e+00,2.389345169067382812e+00,2.373121738433837891e+00,2.357116699218750000e+00,7.124462723731994629e-01,6.995038390159606934e-01,6.859307289123535156e-01,6.551854610443115234e-01,6.473245620727539062e-01,6.404429674148559570e-01,6.369736790657043457e-01,6.335417628288269043e-01,6.301709413528442383e-01,6.268692016601562500e-01,6.236018538475036621e-01,6.203684210777282715e-01,6.171683073043823242e-01,6.140010356903076172e-01,6.150089502334594727e-01,6.154546141624450684e-01,6.137152910232543945e-01,6.119856834411621094e-01,7.148014307022094727e-01,6.987661123275756836e-01,6.847512722015380859e-01,6.776612997055053711e-01,6.707166433334350586e-01
3.787601947784423828e+00,3.746994972229003906e+00,3.707249879837036133e+00,3.668339014053344727e+00,3.630236625671386719e+00,3.592917680740356445e+00,3.556358098983764648e+00,3.520534992218017578e+00,3.485425949096679688e+00,3.451010704040527344e+00,3.417268514633178711e+00,3.384179830551147461e+00,3.351725578308105469e+00,3.319888114929199219e+00,3.288649320602416992e+00,3.257993221282958984e+00,3.227903366088867188e+00,3.198364257812500000e+00,3.169360876083374023e+00,3.140878915786743164e+00,3.112904071807861328e+00,3.085423231124877930e+00,3.058423519134521484e+00,3.031891822814941406e+00,3.005816936492919922e+00,2.980186462402343750e+00,2.954989194869995117e+00,2.930214881896972656e+00,2.905852317810058594e+00,2.881891727447509766e+00,2.858322620391845703e+00,2.835136175155639648e+00,2.812322854995727539e+00,2.789873600006103516e+00,2.767780065536499023e+00,2.746033906936645508e+00,2.724626541137695312e+00,2.703550100326538086e+00,2.682797670364379883e+00,2.662361145019531250e+00,2.642233848571777344e+00,2.622408390045166016e+00,2.602878332138061523e+00,2.583637237548828125e+00,2.564677953720092773e+00,2.545995473861694336e+00,2.527582883834838867e+00,2.509434700012207031e+00,2.491545438766479492e+00,2.473909378051757812e+00,2.456521272659301758e+00,2.439375638961791992e+00,2.422467947006225586e+00,2.405792951583862305e+00,7.328120470046997070e-01,7.212362885475158691e-01,7.124972343444824219e-01,7.018206119537353516e-01,6.895538568496704102e-01,6.771680116653442383e-01,6.535474658012390137e-01,6.482951641082763672e-01,6.447987556457519531e-01,6.413423418998718262e-01,6.379228234291076660e-01,6.345395445823669434e-01,6.311919689178466797e-01,6.278795003890991211e-01,6.246016621589660645e-01,6.213578581809997559e-01,6.274056434631347656e-01,6.255982518196105957e-01,6.238011121749877930e-01,2.114667415618896484e+00,7.279751300811767578e-01,7.113501429557800293e-01,6.954675912857055664e-01,6.840122938156127930e-01,6.769375801086425781e-01,6.700076460838317871e-01
3.787604570388793945e+00,3.746997833251953125e+00,3.707252740859985352e+00,3.668341398239135742e+00,3.630239009857177734e+00,3.592919826507568359e+00,3.556360244750976562e+00,3.520536899566650391e+00,3.485428094863891602e+00,3.451012849807739258e+00,3.417270183563232422e+00,3.384181499481201172e+00,3.351727247238159180e+00,3.319889545440673828e+00,3.288650751113891602e+00,3.257994651794433594e+00,3.227904796600341797e+00,3.198365449905395508e+00,3.169362068176269531e+00,3.140880107879638672e+00,3.112905263900756836e+00,3.085424184799194336e+00,3.058424472808837891e+00,3.031893014907836914e+00,3.005817651748657227e+00,2.980187177658081055e+00,2.954990386962890625e+00,2.930215597152709961e+00,2.905853271484375000e+00,2.881892442703247070e+00,2.858323574066162109e+00,2.835136890411376953e+00,2.812323570251464844e+00,2.789874553680419922e+00,2.767780780792236328e+00,2.746034383773803711e+00,2.724627256393432617e+00,2.703551054000854492e+00,2.682798385620117188e+00,2.662361860275268555e+00,2.642234563827514648e+00,2.622409105300903320e+00,2.602879047393798828e+00,2.583637714385986328e+00,2.564678907394409180e+00,2.545995950698852539e+00,2.527583360671997070e+00,2.509435415267944336e+00,2.491545915603637695e+00,2.473909854888916016e+00,2.456521749496459961e+00,2.439376354217529297e+00,2.422468423843383789e+00,7.303490638732910156e-01,7.190730571746826172e-01,7.117685675621032715e-01,7.031297087669372559e-01,6.916089057922363281e-01,6.829523444175720215e-01,6.738257408142089844e-01,6.668964028358459473e-01,6.529170274734497070e-01,6.493732929229736328e-01,6.458678245544433594e-01,6.423999071121215820e-01,6.389691233634948730e-01,6.355748176574707031e-01,6.322163343429565430e-01,6.323838233947753906e-01,6.379504203796386719e-01,6.360817551612854004e-01,2.140571117401123047e+00,2.127540588378906250e+00,2.114667892456054688e+00,7.243956923484802246e-01,7.079319953918457031e-01,6.921999454498291016e-01,6.832749247550964355e-01,6.762212514877319336e-01,6.693136096000671387e-01
3.787606239318847656e+00,3.746999025344848633e+00,3.707253932952880859e+00,3.668343067169189453e+00,3.630240201950073242e+00,3.592921018600463867e+00,3.556361436843872070e+00,3.520538330078125000e+00,3.485429286956787109e+00,3.451014041900634766e+00,3.417271614074707031e+00,3.384182453155517578e+00,3.351728200912475586e+00,3.319890737533569336e+00,3.288651943206787109e+00,3.257995605468750000e+00,3.227905750274658203e+00,3.198366641998291016e+00,3.169363021850585938e+00,3.140880823135375977e+00,3.112906217575073242e+00,3.085425376892089844e+00,3.058425188064575195e+00,3.031893730163574219e+00,3.005818843841552734e+00,2.980188131332397461e+00,2.954991102218627930e+00,2.930216550827026367e+00,2.905854225158691406e+00,2.881893157958984375e+00,2.858324289321899414e+00,2.835137844085693359e+00,2.812324285507202148e+00,2.789875268936157227e+00,2.767781734466552734e+00,2.746035337448120117e+00,2.724627733230590820e+00,2.703551769256591797e+00,2.682799100875854492e+00,2.662362575531005859e+00,2.642235279083251953e+00,2.622409820556640625e+00,2.602879762649536133e+00,2.583638429641723633e+00,2.564679384231567383e+00,2.545996665954589844e+00,2.527584075927734375e+00,2.509436130523681641e+00,2.491546630859375000e+00,2.473910331726074219e+00,2.456522226333618164e+00,2.439376831054687500e+00,2.422469139099121094e+00,7.210998535156250000e-01,7.131793498992919922e-01,7.056037783622741699e-01,6.966338157653808594e-01,6.883805990219116211e-01,6.797931790351867676e-01,6.740409135818481445e-01,6.683716773986816406e-01,6.656818389892578125e-01,6.540131568908691406e-01,6.504575014114379883e-01,6.469403505325317383e-01,6.434610486030578613e-01,6.400189399719238281e-01,6.470738649368286133e-01,6.488556265830993652e-01,2.167117118835449219e+00,2.153762340545654297e+00,2.140571355819702148e+00,2.127541065216064453e+00,2.114668369293212891e+00,7.216363549232482910e-01,7.052906751632690430e-01,6.901866793632507324e-01,6.826820969581604004e-01,6.756426095962524414e-01,6.687467694282531738e-01
3.787607431411743164e+00,3.747000694274902344e+00,3.707255363464355469e+00,3.668344259262084961e+00,3.630241870880126953e+00,3.592922687530517578e+00,3.556362628936767578e+00,3.520539522171020508e+00,3.485430717468261719e+00,3.451014995574951172e+00,3.417272806167602539e+00,3.384183883666992188e+00,3.351729631423950195e+00,3.319891691207885742e+00,3.288652896881103516e+00,3.257997035980224609e+00,3.227906703948974609e+00,3.198367595672607422e+00,3.169364213943481445e+00,3.140881776809692383e+00,3.112906932830810547e+00,3.085426092147827148e+00,3.058426380157470703e+00,3.031894445419311523e+00,3.005819559097290039e+00,2.980189085006713867e+00,2.954991817474365234e+00,2.930217504501342773e+00,2.905854940414428711e+00,2.881894111633300781e+00,2.858325004577636719e+00,2.835138559341430664e+00,2.812325239181518555e+00,2.789875984191894531e+00,2.767782449722290039e+00,2.746036052703857422e+00,2.724628686904907227e+00,2.703552484512329102e+00,2.682799816131591797e+00,2.662363290786743164e+00,2.642235755920410156e+00,2.622410535812377930e+00,2.602880477905273438e+00,2.583639144897460938e+00,2.564679861068725586e+00,2.545997381210327148e+00,2.527584791183471680e+00,2.509436607360839844e+00,2.491547107696533203e+00,2.473911046981811523e+00,2.456522941589355469e+00,2.439377307891845703e+00,2.422469615936279297e+00,7.165003418922424316e-01,7.086055874824523926e-01,7.015187740325927734e-01,6.932709217071533203e-01,6.851804852485656738e-01,6.800682544708251953e-01,6.751426458358764648e-01,6.712323427200317383e-01,6.709349751472473145e-01,6.707940101623535156e-01,6.551129817962646484e-01,6.515454053878784180e-01,6.507688760757446289e-01,6.621530652046203613e-01,2.194329738616943359e+00,2.180638790130615234e+00,2.167117595672607422e+00,2.153762817382812500e+00,2.140571832656860352e+00,2.127541542053222656e+00,2.114668846130371094e+00,7.189326286315917969e-01,7.027078866958618164e-01,6.897468566894531250e-01,6.820923686027526855e-01,6.750648617744445801e-01,6.681807637214660645e-01
3.787608861923217773e+00,3.747002124786376953e+00,3.707256793975830078e+00,3.668345451354980469e+00,3.630243062973022461e+00,3.592923879623413086e+00,3.556364059448242188e+00,3.520540475845336914e+00,3.485431671142578125e+00,3.451016426086425781e+00,3.417273759841918945e+00,3.384184837341308594e+00,3.351730585098266602e+00,3.319892883300781250e+00,3.288653850555419922e+00,3.257997989654541016e+00,3.227907896041870117e+00,3.198368549346923828e+00,3.169365167617797852e+00,3.140882968902587891e+00,3.112908124923706055e+00,3.085427045822143555e+00,3.058427095413208008e+00,3.031895637512207031e+00,3.005820274353027344e+00,2.980189800262451172e+00,2.954993009567260742e+00,2.930218458175659180e+00,2.905855655670166016e+00,2.881894826889038086e+00,2.858325958251953125e+00,2.835139274597167969e+00,2.812325954437255859e+00,2.789876937866210938e+00,2.767783403396606445e+00,2.746036767959594727e+00,2.724629402160644531e+00,2.703553199768066406e+00,2.682800531387329102e+00,2.662364006042480469e+00,2.642236709594726562e+00,2.622411012649536133e+00,2.602880954742431641e+00,2.583639621734619141e+00,2.564680814743041992e+00,2.545997858047485352e+00,2.527585268020629883e+00,2.509437322616577148e+00,2.491547822952270508e+00,2.473911762237548828e+00,2.456523656845092773e+00,2.439378023147583008e+00,2.422470331192016602e+00,7.144672870635986328e-01,7.048736810684204102e-01,6.980081796646118164e-01,6.907273530960083008e-01,6.841920614242553711e-01,6.806070804595947266e-01,6.758679151535034180e-01,6.770114898681640625e-01,6.769481897354125977e-01,6.766868829727172852e-01,2.250857591629028320e+00,6.663359999656677246e-01,2.222234487533569336e+00,2.208194017410278320e+00,2.194330215454101562e+00,2.180639266967773438e+00,2.167117834091186523e+00,2.153763294219970703e+00,2.140572309494018555e+00,2.127542018890380859e+00,2.114669084548950195e+00,7.162491083145141602e-01,7.001439332962036133e-01,6.893075108528137207e-01,6.815035939216613770e-01,6.744882464408874512e-01,6.676158308982849121e-01
3.777879953384399414e+00,3.747003316879272461e+00,3.707258224487304688e+00,3.668347120285034180e+00,3.630244493484497070e+00,3.592924833297729492e+00,3.556365251541137695e+00,3.520542144775390625e+00,3.485432863235473633e+00,3.451017618179321289e+00,3.417275190353393555e+00,3.384185791015625000e+00,3.351731538772583008e+00,3.319893836975097656e+00,3.288655281066894531e+00,3.257998943328857422e+00,3.227908849716186523e+00,3.198369741439819336e+00,3.169365882873535156e+00,3.140883922576904297e+00,3.112909078598022461e+00,3.085428237915039062e+00,3.058428049087524414e+00,3.031896591186523438e+00,3.005821466445922852e+00,2.980190753936767578e+00,2.954993724822998047e+00,2.930219173431396484e+00,2.905856609344482422e+00,2.881895542144775391e+00,2.858326911926269531e+00,2.835140228271484375e+00,2.812326669692993164e+00,2.789877414703369141e+00,2.767783880233764648e+00,2.746037721633911133e+00,2.724630117416381836e+00,2.703553915023803711e+00,2.682801246643066406e+00,2.662364721298217773e+00,2.642237186431884766e+00,2.622411966323852539e+00,2.602881908416748047e+00,2.583640336990356445e+00,2.564681291580200195e+00,2.545998573303222656e+00,2.527585983276367188e+00,2.509437799453735352e+00,2.491548538208007812e+00,2.473912477493286133e+00,2.456524133682250977e+00,2.439378499984741211e+00,2.422471046447753906e+00,2.405795574188232422e+00,7.019475102424621582e-01,6.949003338813781738e-01,6.891429424285888672e-01,6.828417778015136719e-01,6.806820631027221680e-01,6.798968315124511719e-01,6.811409592628479004e-01,6.822236180305480957e-01,6.898638010025024414e-01,2.250858068466186523e+00,2.236454963684082031e+00,2.222234964370727539e+00,2.208194732666015625e+00,2.194330453872680664e+00,2.180639743804931641e+00,2.167118549346923828e+00,2.153763771057128906e+00,2.140572786331176758e+00,2.127542495727539062e+00,2.114669799804687500e+00,7.135856151580810547e-01,6.975986361503601074e-01,6.888688206672668457e-01,6.809158325195312500e-01,6.739124655723571777e-01,6.670517325401306152e-01
3.084028005599975586e+00,3.083541393280029297e+00,3.083054780960083008e+00,3.082568407058715820e+00,3.082082033157348633e+00,3.081595897674560547e+00,3.081110239028930664e+00,3.080624103546142578e+00,3.080138683319091797e+00,3.079653024673461914e+00,3.079167604446411133e+00,3.078682422637939453e+00,3.078197479248046875e+00,3.077712535858154297e+00,3.077227592468261719e+00,3.076743125915527344e+00,3.076258659362792969e+00,3.075774431228637695e+00,3.075290203094482422e+00,3.074806213378906250e+00,3.074322223663330078e+00,3.073838710784912109e+00,3.058429241180419922e+00,3.031897306442260742e+00,3.005822181701660156e+00,2.980191707611083984e+00,2.954994678497314453e+00,2.930219888687133789e+00,2.905857563018798828e+00,2.881896495819091797e+00,2.858327627182006836e+00,2.835140943527221680e+00,2.812327623367309570e+00,2.789878129959106445e+00,2.767784595489501953e+00,2.746038198471069336e+00,2.724630832672119141e+00,2.703554630279541016e+00,2.682801961898803711e+00,2.662365436553955078e+00,2.642237901687622070e+00,2.622412443161010742e+00,2.602882385253906250e+00,2.583641052246093750e+00,2.564682006835937500e+00,2.545999288558959961e+00,2.527586698532104492e+00,2.509438514709472656e+00,2.491549015045166016e+00,2.473912954330444336e+00,2.456524848937988281e+00,2.439379215240478516e+00,2.422471523284912109e+00,2.405796289443969727e+00,7.006251811981201172e-01,6.912755966186523438e-01,6.862992644309997559e-01,6.814967393875122070e-01,6.801270842552185059e-01,6.790395379066467285e-01,6.815475225448608398e-01,6.886661648750305176e-01,2.265448570251464844e+00,2.250858783721923828e+00,2.236455678939819336e+00,2.222235441207885742e+00,2.208195209503173828e+00,2.194331169128417969e+00,2.180639982223510742e+00,2.167118787765502930e+00,2.153764247894287109e+00,2.140573263168334961e+00,2.127542734146118164e+00,2.114670038223266602e+00,7.109418511390686035e-01,6.965910792350769043e-01,6.884307265281677246e-01,6.804593205451965332e-01,6.733378171920776367e-01,6.664886474609375000e-01
2.605497837066650391e+00,2.605150222778320312e+00,2.604803085327148438e+00,2.604455947875976562e+00,2.604108572006225586e+00,2.603761672973632812e+00,2.603414535522460938e+00,2.603067874908447266e+00,2.602720975875854492e+00,2.602374315261840820e+00,2.602027893066406250e+00,2.601681232452392578e+00,2.601335048675537109e+00,2.600988626480102539e+00,2.600642442703247070e+00,2.600296258926391602e+00,2.599950313568115234e+00,2.599604368209838867e+00,2.599258422851562500e+00,2.598912715911865234e+00,2.598567008972167969e+00,2.598221302032470703e+00,2.597875833511352539e+00,2.597530603408813477e+00,2.597185373306274414e+00,2.596839904785156250e+00,2.596494913101196289e+00,2.596149921417236328e+00,2.595804929733276367e+00,2.595459938049316406e+00,2.595115423202514648e+00,2.594770908355712891e+00,2.594426155090332031e+00,2.594081640243530273e+00,2.593737125396728516e+00,2.593393087387084961e+00,2.593048810958862305e+00,2.592704772949218750e+00,2.592360496520996094e+00,2.592016696929931641e+00,2.591672897338867188e+00,2.591329097747802734e+00,2.590985536575317383e+00,2.583641767501831055e+00,2.564682722091674805e+00,2.545999765396118164e+00,2.527587175369262695e+00,2.509439229965209961e+00,2.491549730300903320e+00,2.473913431167602539e+00,2.456525325775146484e+00,2.439379930496215820e+00,2.422472000122070312e+00,2.405797004699707031e+00,2.389349937438964844e+00,6.883679628372192383e-01,6.822649836540222168e-01,6.799449324607849121e-01,6.790768504142761230e-01,6.784704923629760742e-01,6.806845664978027344e-01,6.910426020622253418e-01,2.265449047088623047e+00,2.250859260559082031e+00,2.236456155776977539e+00,2.222236156463623047e+00,2.208195686340332031e+00,2.194331645965576172e+00,2.180640697479248047e+00,2.167119264602661133e+00,2.153764724731445312e+00,2.140573740005493164e+00,2.127543449401855469e+00,7.349700927734375000e-01,7.083175182342529297e-01,6.961430311203002930e-01,6.879931092262268066e-01,6.800318360328674316e-01,6.727640628814697266e-01,6.659265160560607910e-01
2.255522012710571289e+00,2.255261421203613281e+00,2.255001306533813477e+00,2.254740953445434570e+00,2.254480838775634766e+00,2.254220724105834961e+00,2.253960609436035156e+00,2.253700733184814453e+00,2.253440618515014648e+00,2.253180742263793945e+00,2.252920866012573242e+00,2.252661228179931641e+00,2.252401590347290039e+00,2.252141952514648438e+00,2.251882314682006836e+00,2.251622915267944336e+00,2.251363515853881836e+00,2.251103878021240234e+00,2.250844717025756836e+00,2.250585317611694336e+00,2.250326156616210938e+00,2.250066995620727539e+00,2.249807834625244141e+00,2.249548912048339844e+00,2.249289751052856445e+00,2.249030828475952148e+00,2.248771905899047852e+00,2.248513221740722656e+00,2.248254537582397461e+00,2.247995853424072266e+00,2.247737169265747070e+00,2.247478723526000977e+00,2.247220277786254883e+00,2.246961593627929688e+00,2.246703386306762695e+00,2.246444940567016602e+00,2.246186733245849609e+00,2.245928525924682617e+00,2.245670318603515625e+00,2.245412349700927734e+00,2.245154142379760742e+00,2.244896173477172852e+00,2.244638442993164062e+00,2.244380474090576172e+00,2.244122743606567383e+00,2.243865013122558594e+00,2.243607282638549805e+00,2.243349552154541016e+00,2.243092060089111328e+00,2.242834568023681641e+00,2.242577075958251953e+00,2.242319822311401367e+00,2.242062330245971680e+00,2.241805315017700195e+00,2.241547822952270508e+00,6.867787837982177734e-01,6.790038943290710449e-01,6.774185895919799805e-01,6.777046322822570801e-01,6.780013442039489746e-01,6.802209615707397461e-01,6.928793191909790039e-01,2.239492416381835938e+00,2.239235877990722656e+00,2.236456394195556641e+00,2.222236394882202148e+00,2.208196163177490234e+00,2.194331884384155273e+00,2.180641174316406250e+00,2.167119979858398438e+00,2.153765201568603516e+00,2.140574216842651367e+00,2.127543687820434570e+00,7.310044169425964355e-01,7.057126164436340332e-01,6.956956386566162109e-01,6.875560879707336426e-01,6.796048879623413086e-01,6.721912622451782227e-01,6.653653383255004883e-01
1.988431453704833984e+00,1.988229274749755859e+00,1.988026976585388184e+00,1.987824559211730957e+00,1.987622499465942383e+00,1.987420320510864258e+00,1.987218022346496582e+00,1.987015843391418457e+00,1.986814022064208984e+00,1.986611962318420410e+00,1.986409902572631836e+00,1.986208081245422363e+00,1.986006140708923340e+00,1.985804200172424316e+00,1.985602378845214844e+00,1.985400795936584473e+00,1.985198974609375000e+00,1.984997153282165527e+00,1.984795689582824707e+00,1.984594106674194336e+00,1.984392404556274414e+00,1.984190821647644043e+00,1.983989477157592773e+00,1.983787894248962402e+00,1.983586430549621582e+00,1.983385324478149414e+00,1.983183860778808594e+00,1.982982516288757324e+00,1.982781291007995605e+00,1.982580184936523438e+00,1.982378959655761719e+00,1.982177853584289551e+00,1.981976866722106934e+00,1.981775760650634766e+00,1.981574773788452148e+00,1.981373667716979980e+00,1.981172919273376465e+00,1.980972051620483398e+00,1.980771064758300781e+00,1.980570435523986816e+00,1.980369687080383301e+00,1.980168819427490234e+00,1.979968070983886719e+00,1.979767680168151855e+00,1.979566931724548340e+00,1.979366421699523926e+00,1.979166030883789062e+00,1.978965520858764648e+00,1.978765010833740234e+00,1.978564500808715820e+00,1.978364348411560059e+00,1.978163957595825195e+00,1.977963685989379883e+00,1.977763533592224121e+00,1.977563261985778809e+00,6.851685643196105957e-01,6.763879656791687012e-01,6.748073697090148926e-01,6.755180358886718750e-01,6.778237819671630859e-01,6.809386610984802246e-01,6.948530673980712891e-01,1.975963234901428223e+00,1.975763320922851562e+00,1.975563645362854004e+00,1.975363850593566895e+00,1.975164055824279785e+00,1.974964618682861328e+00,1.974764943122863770e+00,1.974565267562866211e+00,1.974365711212158203e+00,1.974166274070739746e+00,1.973966836929321289e+00,7.270813584327697754e-01,7.035725116729736328e-01,6.952487826347351074e-01,6.871196627616882324e-01,6.791784167289733887e-01,6.716194748878479004e-01,6.648051142692565918e-01
1.777899503707885742e+00,1.777737855911254883e+00,1.777576088905334473e+00,1.777414321899414062e+00,1.777252554893493652e+00,1.777091026306152344e+00,1.776929378509521484e+00,1.776767730712890625e+00,1.776606321334838867e+00,1.776444673538208008e+00,1.776283144950866699e+00,1.776121616363525391e+00,1.775960326194763184e+00,1.775798797607421875e+00,1.775637388229370117e+00,1.775476098060607910e+00,1.775314807891845703e+00,1.775153398513793945e+00,1.774992108345031738e+00,1.774830937385559082e+00,1.774669647216796875e+00,1.774508476257324219e+00,1.774347424507141113e+00,1.774186253547668457e+00,1.774025082588195801e+00,1.773864030838012695e+00,1.773703098297119141e+00,1.773542046546936035e+00,1.773380994796752930e+00,1.773220181465148926e+00,1.773059129714965820e+00,1.772898197174072266e+00,1.772737264633178711e+00,1.772576570510864258e+00,1.772415757179260254e+00,1.772254943847656250e+00,1.772094249725341797e+00,1.771933555603027344e+00,1.771772742271423340e+00,1.771612048149108887e+00,1.771451592445373535e+00,1.771290898323059082e+00,1.771130323410034180e+00,1.770969867706298828e+00,1.770809292793273926e+00,1.770648717880249023e+00,1.770488262176513672e+00,1.770327925682067871e+00,1.770167469978332520e+00,1.770007133483886719e+00,1.769846916198730469e+00,1.769686579704284668e+00,1.769526124000549316e+00,1.769365906715393066e+00,1.769205808639526367e+00,6.850925683975219727e-01,6.730772256851196289e-01,6.711522936820983887e-01,6.735045313835144043e-01,6.771430969238281250e-01,6.824585795402526855e-01,1.768085002899169922e+00,1.767925024032592773e+00,1.767764925956726074e+00,1.767605185508728027e+00,1.767445206642150879e+00,1.767285227775573730e+00,1.767125368118286133e+00,1.766965746879577637e+00,1.766805887222290039e+00,1.766646027565002441e+00,1.766486406326293945e+00,1.766326665878295898e+00,7.232002019882202148e-01,7.031154632568359375e-01,6.948024630546569824e-01,6.866837143898010254e-01,6.787525415420532227e-01,6.710486412048339844e-01,6.642457842826843262e-01
1.607680797576904297e+00,1.607548475265502930e+00,1.607416272163391113e+00,1.607284069061279297e+00,1.607151746749877930e+00,1.607019662857055664e+00,1.606887459754943848e+00,1.606755256652832031e+00,1.606623053550720215e+00,1.606491088867187500e+00,1.606359004974365234e+00,1.606226921081542969e+00,1.606094956398010254e+00,1.605962872505187988e+00,1.605830788612365723e+00,1.605698823928833008e+00,1.605566978454589844e+00,1.605435013771057129e+00,1.605303049087524414e+00,1.605171203613281250e+00,1.605039358139038086e+00,1.604907512664794922e+00,1.604775547981262207e+00,1.604643940925598145e+00,1.604512095451354980e+00,1.604380249977111816e+00,1.604248642921447754e+00,1.604116916656494141e+00,1.603985190391540527e+00,1.603853464126586914e+00,1.603721857070922852e+00,1.603590250015258789e+00,1.603458523750305176e+00,1.603327035903930664e+00,1.603195428848266602e+00,1.603063941001892090e+00,1.602932333946228027e+00,1.602800965309143066e+00,1.602669358253479004e+00,1.602537870407104492e+00,1.602406620979309082e+00,1.602275133132934570e+00,1.602143645286560059e+00,1.602012276649475098e+00,1.601881027221679688e+00,1.601749658584594727e+00,1.601618289947509766e+00,1.601487159729003906e+00,1.601355910301208496e+00,1.601224541664123535e+00,1.601093292236328125e+00,1.600962281227111816e+00,1.600831031799316406e+00,1.600699782371520996e+00,1.600568771362304688e+00,1.600437641143798828e+00,6.688339114189147949e-01,6.665042042732238770e-01,6.696266531944274902e-01,6.758275032043457031e-01,6.817942261695861816e-01,6.980780959129333496e-01,1.599520444869995117e+00,1.599389433860778809e+00,1.599258422851562500e+00,1.599127650260925293e+00,1.598996758460998535e+00,1.598865866661071777e+00,1.598735213279724121e+00,1.598604321479797363e+00,1.598473668098449707e+00,1.598343014717102051e+00,1.598212361335754395e+00,7.193601727485656738e-01,7.026590704917907715e-01,6.943567991256713867e-01,6.862483620643615723e-01,6.783271431922912598e-01,6.705867052078247070e-01,6.636874079704284668e-01
1.467208027839660645e+00,1.467097878456115723e+00,1.466987848281860352e+00,1.466877579689025879e+00,1.466767430305480957e+00,1.466657280921936035e+00,1.466547369956970215e+00,1.466437220573425293e+00,1.466327071189880371e+00,1.466217160224914551e+00,1.466107130050659180e+00,1.465997099876403809e+00,1.465887069702148438e+00,1.465777158737182617e+00,1.465667128562927246e+00,1.465557098388671875e+00,1.465447306632995605e+00,1.465337395668029785e+00,1.465227484703063965e+00,1.465117573738098145e+00,1.465007781982421875e+00,1.464897871017456055e+00,1.464787960052490234e+00,1.464678287506103516e+00,1.464568495750427246e+00,1.464458584785461426e+00,1.464348793029785156e+00,1.464239239692687988e+00,1.464129447937011719e+00,1.464019656181335449e+00,1.463910102844238281e+00,1.463800311088562012e+00,1.463690638542175293e+00,1.463580965995788574e+00,1.463471412658691406e+00,1.463361740112304688e+00,1.463252186775207520e+00,1.463142633438110352e+00,1.463033080101013184e+00,1.462923407554626465e+00,1.462813854217529297e+00,1.462704420089721680e+00,1.462594985961914062e+00,1.462485432624816895e+00,1.462375998497009277e+00,1.462266564369201660e+00,1.462157130241394043e+00,1.462047696113586426e+00,1.461938381195068359e+00,1.461828947067260742e+00,1.461719512939453125e+00,1.461610317230224609e+00,1.461500883102416992e+00,1.461391568183898926e+00,1.461282253265380859e+00,1.461173057556152344e+00,6.680362224578857422e-01,6.630991101264953613e-01,6.655815839767456055e-01,6.737616062164306641e-01,6.807283759117126465e-01,6.970821022987365723e-01,1.460408687591552734e+00,1.460299611091613770e+00,1.460190653800964355e+00,1.460081577301025391e+00,1.459972620010375977e+00,1.459863543510437012e+00,1.459754586219787598e+00,1.459645628929138184e+00,1.459536671638488770e+00,1.459427714347839355e+00,1.459318757057189941e+00,1.459209918975830078e+00,7.022032141685485840e-01,6.939116120338439941e-01,6.858135461807250977e-01,6.779023408889770508e-01,6.701714992523193359e-01,6.631300449371337891e-01
1.349310636520385742e+00,1.349217534065246582e+00,1.349124312400817871e+00,1.349031209945678711e+00,1.348937988281250000e+00,1.348844885826110840e+00,1.348751783370971680e+00,1.348658680915832520e+00,1.348565578460693359e+00,1.348472595214843750e+00,1.348379492759704590e+00,1.348286390304565430e+00,1.348193287849426270e+00,1.348100423812866211e+00,1.348007321357727051e+00,1.347914338111877441e+00,1.347821354866027832e+00,1.347728371620178223e+00,1.347635388374328613e+00,1.347542405128479004e+00,1.347449541091918945e+00,1.347356677055358887e+00,1.347263693809509277e+00,1.347170829772949219e+00,1.347077965736389160e+00,1.346985101699829102e+00,1.346892237663269043e+00,1.346799373626708984e+00,1.346706509590148926e+00,1.346613764762878418e+00,1.346520900726318359e+00,1.346428155899047852e+00,1.346335291862487793e+00,1.346242547035217285e+00,1.346149921417236328e+00,1.346057057380676270e+00,1.345964312553405762e+00,1.345871567726135254e+00,1.345778942108154297e+00,1.345686197280883789e+00,1.345593571662902832e+00,1.345500946044921875e+00,1.345408201217651367e+00,1.345315575599670410e+00,1.345222949981689453e+00,1.345130324363708496e+00,1.345037698745727539e+00,1.344945073127746582e+00,1.344852566719055176e+00,1.344760060310363770e+00,1.344667673110961914e+00,1.344575166702270508e+00,1.344482779502868652e+00,1.344390273094177246e+00,1.344297885894775391e+00,1.344205498695373535e+00,6.686634421348571777e-01,6.608591079711914062e-01,6.604259014129638672e-01,6.707980632781982422e-01,6.798020601272583008e-01,6.970174908638000488e-01,1.343558907508850098e+00,1.343466639518737793e+00,1.343374252319335938e+00,1.343281865119934082e+00,1.343189597129821777e+00,1.343097329139709473e+00,1.343005180358886719e+00,1.342912912368774414e+00,1.342820644378662109e+00,1.342728495597839355e+00,1.342636227607727051e+00,1.342544078826904297e+00,7.119419574737548828e-01,7.030088305473327637e-01,6.942449808120727539e-01,6.774780154228210449e-01,6.697567701339721680e-01,6.632259488105773926e-01
1.248951315879821777e+00,1.248871445655822754e+00,1.248791575431823730e+00,1.248711943626403809e+00,1.248632073402404785e+00,1.248552203178405762e+00,1.248472571372985840e+00,1.248392701148986816e+00,1.248312950134277344e+00,1.248233199119567871e+00,1.248153448104858398e+00,1.248073697090148926e+00,1.247993946075439453e+00,1.247914314270019531e+00,1.247834563255310059e+00,1.247754931449890137e+00,1.247675180435180664e+00,1.247595548629760742e+00,1.247515916824340820e+00,1.247436165809631348e+00,1.247356534004211426e+00,1.247277021408081055e+00,1.247197270393371582e+00,1.247117638587951660e+00,1.247038125991821289e+00,1.246958494186401367e+00,1.246878981590270996e+00,1.246799468994140625e+00,1.246719837188720703e+00,1.246640205383300781e+00,1.246560692787170410e+00,1.246481180191040039e+00,1.246401667594909668e+00,1.246322154998779297e+00,1.246242642402648926e+00,1.246163249015808105e+00,1.246083736419677734e+00,1.246004223823547363e+00,1.245924949645996094e+00,1.245845556259155273e+00,1.245766162872314453e+00,1.245686769485473633e+00,1.245607376098632812e+00,1.245527982711791992e+00,1.245448708534240723e+00,1.245369315147399902e+00,1.245290040969848633e+00,1.245210766792297363e+00,1.245131373405456543e+00,1.245052099227905273e+00,1.244972825050354004e+00,1.244893670082092285e+00,1.244814395904541016e+00,1.244735121726989746e+00,1.244655847549438477e+00,1.244576692581176758e+00,1.244497418403625488e+00,6.637476682662963867e-01,6.581349968910217285e-01,6.579067111015319824e-01,6.746311187744140625e-01,6.942046284675598145e-01,1.244022369384765625e+00,1.243943333625793457e+00,1.243864178657531738e+00,1.243785023689270020e+00,1.243705868721008301e+00,1.243626832962036133e+00,1.243547677993774414e+00,1.243468642234802246e+00,1.243389606475830078e+00,1.243310570716857910e+00,1.243231534957885742e+00,1.243152379989624023e+00,7.100480198860168457e-01,7.001240849494934082e-01,6.915366053581237793e-01,6.837018728256225586e-01,6.765493750572204590e-01,6.727758049964904785e-01
1.162487626075744629e+00,1.162418365478515625e+00,1.162349224090576172e+00,1.162280201911926270e+00,1.162210941314697266e+00,1.162141799926757812e+00,1.162072658538818359e+00,1.162003636360168457e+00,1.161934494972229004e+00,1.161865353584289551e+00,1.161796331405639648e+00,1.161727190017700195e+00,1.161658167839050293e+00,1.161589026451110840e+00,1.161520004272460938e+00,1.161450982093811035e+00,1.161381959915161133e+00,1.161312937736511230e+00,1.161243915557861328e+00,1.161174893379211426e+00,1.161105871200561523e+00,1.161036849021911621e+00,1.160967826843261719e+00,1.160898804664611816e+00,1.160829901695251465e+00,1.160760998725891113e+00,1.160691976547241211e+00,1.160623073577880859e+00,1.160554170608520508e+00,1.160485267639160156e+00,1.160416483879089355e+00,1.160347580909729004e+00,1.160278677940368652e+00,1.160209894180297852e+00,1.160140991210937500e+00,1.160072207450866699e+00,1.160003423690795898e+00,1.159934520721435547e+00,1.159865736961364746e+00,1.159796953201293945e+00,1.159728169441223145e+00,1.159659385681152344e+00,1.159590601921081543e+00,1.159521818161010742e+00,1.159453153610229492e+00,1.159384369850158691e+00,1.159315586090087891e+00,1.159246921539306641e+00,1.159178137779235840e+00,1.159109473228454590e+00,1.159040808677673340e+00,1.158972024917602539e+00,1.158903360366821289e+00,1.158834576606750488e+00,1.158765912055969238e+00,1.158697247505187988e+00,1.158628582954406738e+00,1.158559918403625488e+00,6.581291556358337402e-01,6.549233198165893555e-01,6.637892127037048340e-01,6.851606965065002441e-01,7.049162983894348145e-01,1.158148288726806641e+00,1.158079624176025391e+00,1.158011078834533691e+00,1.157942533493041992e+00,1.157873988151550293e+00,1.157805442810058594e+00,1.157736897468566895e+00,1.157668352127075195e+00,1.157599806785583496e+00,1.157531261444091797e+00,7.187680602073669434e-01,7.066095471382141113e-01,6.965121030807495117e-01,6.870979070663452148e-01,6.809262633323669434e-01,6.748744845390319824e-01,6.712985038757324219e-01
1.087220311164855957e+00,1.087159752845764160e+00,1.087099313735961914e+00,1.087038755416870117e+00,1.086978316307067871e+00,1.086917877197265625e+00,1.086857318878173828e+00,1.086796998977661133e+00,1.086736440658569336e+00,1.086676001548767090e+00,1.086615562438964844e+00,1.086555242538452148e+00,1.086494684219360352e+00,1.086434245109558105e+00,1.086373925209045410e+00,1.086313486099243164e+00,1.086253166198730469e+00,1.086192846298217773e+00,1.086132526397705078e+00,1.086072206497192383e+00,1.086011886596679688e+00,1.085951566696166992e+00,1.085891246795654297e+00,1.085830926895141602e+00,1.085770606994628906e+00,1.085710406303405762e+00,1.085650086402893066e+00,1.085589766502380371e+00,1.085529565811157227e+00,1.085469245910644531e+00,1.085409045219421387e+00,1.085348844528198242e+00,1.085288524627685547e+00,1.085228204727172852e+00,1.085168004035949707e+00,1.085107803344726562e+00,1.085047602653503418e+00,1.084987401962280273e+00,1.084927201271057129e+00,1.084867000579833984e+00,1.084806799888610840e+00,1.084746599197387695e+00,1.084686398506164551e+00,1.084626317024230957e+00,1.084566116333007812e+00,1.084505915641784668e+00,1.084445834159851074e+00,1.084385633468627930e+00,1.084325551986694336e+00,1.084265470504760742e+00,1.084205269813537598e+00,1.084145188331604004e+00,1.084085106849670410e+00,1.084025025367736816e+00,1.083964943885803223e+00,1.083904862403869629e+00,1.083844780921936035e+00,1.083784699440002441e+00,6.586006879806518555e-01,6.567245125770568848e-01,6.629129648208618164e-01,6.727560758590698242e-01,6.998426914215087891e-01,1.083424329757690430e+00,1.083364248275756836e+00,1.083304286003112793e+00,1.083244204521179199e+00,1.083184242248535156e+00,1.083124279975891113e+00,1.083064198493957520e+00,1.083004236221313477e+00,1.082944273948669434e+00,1.082884311676025391e+00,7.135056853294372559e-01,7.027191519737243652e-01,6.930904388427734375e-01,6.857085227966308594e-01,6.790881156921386719e-01,6.727742552757263184e-01,6.699131727218627930e-01
1.021106839179992676e+00,1.021053552627563477e+00,1.021000146865844727e+00,1.020946860313415527e+00,1.020893573760986328e+00,1.020840167999267578e+00,1.020786881446838379e+00,1.020733594894409180e+00,1.020680308341979980e+00,1.020627140998840332e+00,1.020573735237121582e+00,1.020520448684692383e+00,1.020467281341552734e+00,1.020413994789123535e+00,1.020360708236694336e+00,1.020307540893554688e+00,1.020254254341125488e+00,1.020200967788696289e+00,1.020147800445556641e+00,1.020094633102416992e+00,1.020041346549987793e+00,1.019988179206848145e+00,1.019935011863708496e+00,1.019881725311279297e+00,1.019828557968139648e+00,1.019775390625000000e+00,1.019722223281860352e+00,1.019669055938720703e+00,1.019615888595581055e+00,1.019562721252441406e+00,1.019509553909301758e+00,1.019456386566162109e+00,1.019403219223022461e+00,1.019350051879882812e+00,1.019297003746032715e+00,1.019243836402893066e+00,1.019190669059753418e+00,1.019137620925903320e+00,1.019084453582763672e+00,1.019031405448913574e+00,1.018978238105773926e+00,1.018925070762634277e+00,1.018872022628784180e+00,1.018818974494934082e+00,1.018765807151794434e+00,1.018712759017944336e+00,1.018659710884094238e+00,1.018606662750244141e+00,1.018553614616394043e+00,1.018500566482543945e+00,1.018447518348693848e+00,1.018394470214843750e+00,1.018341422080993652e+00,1.018288373947143555e+00,1.018235325813293457e+00,1.018182277679443359e+00,1.018129348754882812e+00,1.018076300621032715e+00,1.018023252487182617e+00,6.646775007247924805e-01,6.714786887168884277e-01,6.811212897300720215e-01,7.014310956001281738e-01,1.017758369445800781e+00,1.017705440521240234e+00,1.017652392387390137e+00,1.017599463462829590e+00,1.017546534538269043e+00,1.017493605613708496e+00,1.017440676689147949e+00,1.017387628555297852e+00,1.017334699630737305e+00,7.234597802162170410e-01,7.091914415359497070e-01,7.007336020469665527e-01,6.931220293045043945e-01,6.858710050582885742e-01,6.789575219154357910e-01,6.719288825988769531e-01,6.668467521667480469e-01
9.625735878944396973e-01,9.625262022018432617e-01,9.624788165092468262e-01,9.624314308166503906e-01,9.623840451240539551e-01,9.623366594314575195e-01,9.622893333435058594e-01,9.622419476509094238e-01,9.621946215629577637e-01,9.621472954750061035e-01,9.620999097824096680e-01,9.620525836944580078e-01,9.620052576065063477e-01,9.619579315185546875e-01,9.619106054306030273e-01,9.618633389472961426e-01,9.618160128593444824e-01,9.617686867713928223e-01,9.617214202880859375e-01,9.616740942001342773e-01,9.616268277168273926e-01,9.615795016288757324e-01,9.615322351455688477e-01,9.614849686622619629e-01,9.614377021789550781e-01,9.613904356956481934e-01,9.613431692123413086e-01,9.612959027290344238e-01,9.612486362457275391e-01,9.612013697624206543e-01,9.611541032791137695e-01,9.611068964004516602e-01,9.610596299171447754e-01,9.610124230384826660e-01,9.609652161598205566e-01,9.609179496765136719e-01,9.608707427978515625e-01,9.608235359191894531e-01,9.607763290405273438e-01,9.607291221618652344e-01,9.606819152832031250e-01,9.606347084045410156e-01,9.605875611305236816e-01,9.605403542518615723e-01,9.604931473731994629e-01,9.604460000991821289e-01,9.603987932205200195e-01,9.603516459465026855e-01,9.603044986724853516e-01,9.602572917938232422e-01,9.602101445198059082e-01,9.601628780364990234e-01,9.601157307624816895e-01,9.600686430931091309e-01,9.600214958190917969e-01,9.599743485450744629e-01,9.599272012710571289e-01,9.598801136016845703e-01,9.598329663276672363e-01,9.597858786582946777e-01,6.706424951553344727e-01,6.814260482788085938e-01,6.967279314994812012e-01,9.595974683761596680e-01,9.595503807067871094e-01,9.595032930374145508e-01,9.594562053680419922e-01,9.594091176986694336e-01,9.593620896339416504e-01,9.593150019645690918e-01,9.592679142951965332e-01,9.592208862304687500e-01,7.139549255371093750e-01,7.048204541206359863e-01,6.975687742233276367e-01,6.908560395240783691e-01,6.845105290412902832e-01,6.777884960174560547e-01,6.708878874778747559e-01,6.651603579521179199e-01
9.103872179985046387e-01,9.103447794914245605e-01,9.103024005889892578e-01,9.102600812911987305e-01,9.102177023887634277e-01,9.101753234863281250e-01,9.101329445838928223e-01,9.100905656814575195e-01,9.100482463836669922e-01,9.100058674812316895e-01,9.099635481834411621e-01,9.099211692810058594e-01,9.098788499832153320e-01,9.098365306854248047e-01,9.097941517829895020e-01,9.097518324851989746e-01,9.097095131874084473e-01,9.096671938896179199e-01,9.096248745918273926e-01,9.095825552940368652e-01,9.095402359962463379e-01,9.094979763031005859e-01,9.094556570053100586e-01,9.094133377075195312e-01,9.093710780143737793e-01,9.093287587165832520e-01,9.092864990234375000e-01,9.092442393302917480e-01,9.092019200325012207e-01,9.091596603393554688e-01,9.091172814369201660e-01,9.090750217437744141e-01,9.090327620506286621e-01,9.089905023574829102e-01,9.089482426643371582e-01,9.089059829711914062e-01,9.088637828826904297e-01,9.088215231895446777e-01,9.087792634963989258e-01,9.087370634078979492e-01,9.086948037147521973e-01,9.086526036262512207e-01,9.086103439331054688e-01,9.085681438446044922e-01,9.085259437561035156e-01,9.084837436676025391e-01,9.084415435791015625e-01,9.083993434906005859e-01,9.083571434020996094e-01,9.083149433135986328e-01,9.082727432250976562e-01,9.082305431365966797e-01,9.081883430480957031e-01,9.081462025642395020e-01,9.081040024757385254e-01,9.080618619918823242e-01,9.080196619033813477e-01,9.079775214195251465e-01,9.079353809356689453e-01,9.078931808471679688e-01,9.078510403633117676e-01,6.964529156684875488e-01,6.945380568504333496e-01,9.077246189117431641e-01,9.076824784278869629e-01,9.076403379440307617e-01,9.075981974601745605e-01,9.075561165809631348e-01,9.075139760971069336e-01,9.074718356132507324e-01,9.074297547340393066e-01,9.073876142501831055e-01,7.092550396919250488e-01,7.009041905403137207e-01,6.947757005691528320e-01,6.887680888175964355e-01,6.823357343673706055e-01,6.758189201354980469e-01,6.706517338752746582e-01,6.644350290298461914e-01
8.635684251785278320e-01,8.635302782058715820e-01,8.634921908378601074e-01,8.634540438652038574e-01,8.634158968925476074e-01,8.633778095245361328e-01,8.633396625518798828e-01,8.633015751838684082e-01,8.632633686065673828e-01,8.632252216339111328e-01,8.631871342658996582e-01,8.631490468978881836e-01,8.631109595298767090e-01,8.630728125572204590e-01,8.630347251892089844e-01,8.629966378211975098e-01,8.629585504531860352e-01,8.629204630851745605e-01,8.628824353218078613e-01,8.628443479537963867e-01,8.628062605857849121e-01,8.627681732177734375e-01,8.627301454544067383e-01,8.626920580863952637e-01,8.626540303230285645e-01,8.626159429550170898e-01,8.625779151916503906e-01,8.625398278236389160e-01,8.625018000602722168e-01,8.624637722969055176e-01,8.624257445335388184e-01,8.623876571655273438e-01,8.623496294021606445e-01,8.623116016387939453e-01,8.622735738754272461e-01,8.622355461120605469e-01,8.621975779533386230e-01,8.621595501899719238e-01,8.621215224266052246e-01,8.620834946632385254e-01,8.620455265045166016e-01,8.620074987411499023e-01,8.619695305824279785e-01,8.619315028190612793e-01,8.618935346603393555e-01,8.618555068969726562e-01,8.618175387382507324e-01,8.617795705795288086e-01,8.617416024208068848e-01,8.617036342620849609e-01,8.616656661033630371e-01,8.616276383399963379e-01,8.615897297859191895e-01,8.615517616271972656e-01,8.615137934684753418e-01,8.614758253097534180e-01,8.614378571510314941e-01,8.613999485969543457e-01,8.613619804382324219e-01,8.613240122795104980e-01,8.612861037254333496e-01,8.612481355667114258e-01,8.612102270126342773e-01,8.611723184585571289e-01,8.611343502998352051e-01,8.610964417457580566e-01,8.610585331916809082e-01,8.610206246376037598e-01,8.609827160835266113e-01,8.609448075294494629e-01,8.609068989753723145e-01,8.608689308166503906e-01,7.097066044807434082e-01,6.993610262870788574e-01,6.929450035095214844e-01,6.866928339004516602e-01,6.810168027877807617e-01,6.757701039314270020e-01,6.706035733222961426e-01,6.645587086677551270e-01
