5.000000000000000000e+00,5.000000000000000000e+00,5.000000000000000000e+00,5.000000000000000000e+00,5.000000000000000000e+00,5.000000000000000000e+00,5.000000000000000000e+00,5.000000000000000000e+00,5.000000000000000000e+00,5.000000000000000000e+00,5.000000000000000000e+00,5.000000000000000000e+00,5.000000000000000000e+00,5.000000000000000000e+00,5.000000000000000000e+00,5.000000000000000000e+00,5.000000000000000000e+00,5.000000000000000000e+00,5.000000000000000000e+00,5.000000000000000000e+00,5.000000000000000000e+00,5.000000000000000000e+00,5.000000000000000000e+00,5.000000000000000000e+00,5.000000000000000000e+00,5.000000000000000000e+00,5.000000000000000000e+00,5.000000000000000000e+00,5.000000000000000000e+00,5.000000000000000000e+00,5.000000000000000000e+00,5.000000000000000000e+00,5.000000000000000000e+00,5.000000000000000000e+00,5.000000000000000000e+00,5.000000000000000000e+00,5.000000000000000000e+00,5.000000000000000000e+00,5.000000000000000000e+00,5.000000000000000000e+00,5.000000000000000000e+00,5.000000000000000000e+00,5.000000000000000000e+00,5.000000000000000000e+00,5.000000000000000000e+00,5.000000000000000000e+00,5.000000000000000000e+00,5.000000000000000000e+00,5.000000000000000000e+00,5.000000000000000000e+00,5.000000000000000000e+00,5.000000000000000000e+00,5.000000000000000000e+00,5.000000000000000000e+00,5.000000000000000000e+00,5.000000000000000000e+00,5.000000000000000000e+00,5.000000000000000000e+00,5.000000000000000000e+00,4.278642654418945312e+00,4.130299568176269531e+00,3.991897821426391602e+00,3.862470865249633789e+00,3.741173505783081055e+00,3.627262353897094727e+00,3.520082712173461914e+00,3.419055461883544922e+00,3.323665380477905273e+00,3.233453512191772461e+00,3.148009061813354492e+00,3.066964626312255859e+00,2.989988327026367188e+00,2.916781187057495117e+00,2.847063779830932617e+00,2.780584812164306641e+00,2.717139720916748047e+00,2.656525135040283203e+00,2.598556280136108398e+00,2.543082714080810547e+00,2.489929676055908203e+00
5.000000000000000000e+00,5.000000000000000000e+00,5.000000000000000000e+00,5.000000000000000000e+00,5.000000000000000000e+00,5.000000000000000000e+00,5.000000000000000000e+00,5.000000000000000000e+00,5.000000000000000000e+00,5.000000000000000000e+00,5.000000000000000000e+00,5.000000000000000000e+00,5.000000000000000000e+00,5.000000000000000000e+00,5.000000000000000000e+00,5.000000000000000000e+00,5.000000000000000000e+00,5.000000000000000000e+00,5.000000000000000000e+00,5.000000000000000000e+00,5.000000000000000000e+00,5.000000000000000000e+00,5.000000000000000000e+00,5.000000000000000000e+00,5.000000000000000000e+00,5.000000000000000000e+00,5.000000000000000000e+00,5.000000000000000000e+00,5.000000000000000000e+00,5.000000000000000000e+00,5.000000000000000000e+00,5.000000000000000000e+00,5.000000000000000000e+00,5.000000000000000000e+00,5.000000000000000000e+00,5.000000000000000000e+00,5.000000000000000000e+00,5.000000000000000000e+00,5.000000000000000000e+00,5.000000000000000000e+00,5.000000000000000000e+00,5.000000000000000000e+00,5.000000000000000000e+00,5.000000000000000000e+00,5.000000000000000000e+00,5.000000000000000000e+00,5.000000000000000000e+00,5.000000000000000000e+00,5.000000000000000000e+00,5.000000000000000000e+00,5.000000000000000000e+00,5.000000000000000000e+00,5.000000000000000000e+00,5.000000000000000000e+00,5.000000000000000000e+00,5.000000000000000000e+00,5.000000000000000000e+00,5.000000000000000000e+00,4.438172340393066406e+00,4.278767108917236328e+00,4.130415439605712891e+00,3.992006540298461914e+00,3.862572669982910156e+00,3.741268634796142578e+00,3.627351760864257812e+00,3.520167350769042969e+00,3.419135093688964844e+00,3.323740720748901367e+00,3.233524799346923828e+00,3.148076772689819336e+00,3.067028760910034180e+00,2.990036249160766602e+00,2.916799068450927734e+00,2.847063302993774414e+00,2.780584573745727539e+00,2.717139482498168945e+00,2.656548023223876953e+00,2.598600387573242188e+00,2.543126583099365234e+00,2.489971637725830078e+00
5.000000000000000000e+00,5.000000000000000000e+00,5.000000000000000000e+00,5.000000000000000000e+00,5.000000000000000000e+00,5.000000000000000000e+00,5.000000000000000000e+00,5.000000000000000000e+00,5.000000000000000000e+00,5.000000000000000000e+00,5.000000000000000000e+00,5.000000000000000000e+00,5.000000000000000000e+00,5.000000000000000000e+00,5.000000000000000000e+00,5.000000000000000000e+00,5.000000000000000000e+00,5.000000000000000000e+00,5.000000000000000000e+00,5.000000000000000000e+00,5.000000000000000000e+00,5.000000000000000000e+00,5.000000000000000000e+00,5.000000000000000000e+00,5.000000000000000000e+00,5.000000000000000000e+00,5.000000000000000000e+00,5.000000000000000000e+00,5.000000000000000000e+00,5.000000000000000000e+00,5.000000000000000000e+00,5.000000000000000000e+00,5.000000000000000000e+00,5.000000000000000000e+00,5.000000000000000000e+00,5.000000000000000000e+00,5.000000000000000000e+00,5.000000000000000000e+00,5.000000000000000000e+00,5.000000000000000000e+00,5.000000000000000000e+00,5.000000000000000000e+00,5.000000000000000000e+00,5.000000000000000000e+00,5.000000000000000000e+00,5.000000000000000000e+00,5.000000000000000000e+00,5.000000000000000000e+00,5.000000000000000000e+00,5.000000000000000000e+00,5.000000000000000000e+00,5.000000000000000000e+00,5.000000000000000000e+00,5.000000000000000000e+00,5.000000000000000000e+00,5.000000000000000000e+00,5.000000000000000000e+00,4.610059261322021484e+00,4.438306808471679688e+00,4.278892040252685547e+00,4.130531787872314453e+00,3.992115259170532227e+00,3.862674474716186523e+00,3.741364240646362305e+00,3.627441406250000000e+00,3.520251512527465820e+00,3.419214963912963867e+00,3.323816061019897461e+00,3.233596086502075195e+00,3.148127317428588867e+00,3.067045688629150391e+00,2.990035772323608398e+00,2.916798591613769531e+00,2.847064971923828125e+00,2.780611276626586914e+00,2.717189311981201172e+00,2.656595945358276367e+00,2.598645925521850586e+00,2.543170452117919922e+00,2.490013837814331055e+00
4.884169101715087891e+00,5.000000000000000000e+00,5.000000000000000000e+00,5.000000000000000000e+00,5.000000000000000000e+00,5.000000000000000000e+00,5.000000000000000000e+00,5.000000000000000000e+00,5.000000000000000000e+00,5.000000000000000000e+00,5.000000000000000000e+00,5.000000000000000000e+00,5.000000000000000000e+00,5.000000000000000000e+00,5.000000000000000000e+00,5.000000000000000000e+00,5.000000000000000000e+00,5.000000000000000000e+00,5.000000000000000000e+00,5.000000000000000000e+00,5.000000000000000000e+00,5.000000000000000000e+00,5.000000000000000000e+00,5.000000000000000000e+00,5.000000000000000000e+00,5.000000000000000000e+00,5.000000000000000000e+00,5.000000000000000000e+00,5.000000000000000000e+00,5.000000000000000000e+00,5.000000000000000000e+00,5.000000000000000000e+00,5.000000000000000000e+00,5.000000000000000000e+00,5.000000000000000000e+00,5.000000000000000000e+00,5.000000000000000000e+00,5.000000000000000000e+00,5.000000000000000000e+00,5.000000000000000000e+00,5.000000000000000000e+00,5.000000000000000000e+00,5.000000000000000000e+00,5.000000000000000000e+00,5.000000000000000000e+00,5.000000000000000000e+00,5.000000000000000000e+00,5.000000000000000000e+00,5.000000000000000000e+00,5.000000000000000000e+00,5.000000000000000000e+00,5.000000000000000000e+00,5.000000000000000000e+00,5.000000000000000000e+00,5.000000000000000000e+00,5.000000000000000000e+00,4.795796871185302734e+00,4.610204219818115234e+00,4.438441276550292969e+00,4.279016971588134766e+00,4.130648612976074219e+00,3.992223978042602539e+00,3.862776279449462891e+00,3.741459608078002930e+00,3.627531290054321289e+00,3.520336151123046875e+00,3.419294357299804688e+00,3.323869466781616211e+00,3.233612060546875000e+00,3.148127079010009766e+00,3.067045211791992188e+00,2.990039825439453125e+00,2.916830062866210938e+00,2.847119808197021484e+00,2.780663967132568359e+00,2.717239379882812500e+00,2.656643867492675781e+00,2.598691940307617188e+00,2.543214321136474609e+00,2.490055799484252930e+00
4.884041786193847656e+00,5.000000000000000000e+00,5.000000000000000000e+00,5.000000000000000000e+00,5.000000000000000000e+00,5.000000000000000000e+00,5.000000000000000000e+00,5.000000000000000000e+00,5.000000000000000000e+00,5.000000000000000000e+00,5.000000000000000000e+00,5.000000000000000000e+00,5.000000000000000000e+00,5.000000000000000000e+00,5.000000000000000000e+00,5.000000000000000000e+00,5.000000000000000000e+00,5.000000000000000000e+00,5.000000000000000000e+00,5.000000000000000000e+00,5.000000000000000000e+00,5.000000000000000000e+00,5.000000000000000000e+00,5.000000000000000000e+00,5.000000000000000000e+00,5.000000000000000000e+00,5.000000000000000000e+00,5.000000000000000000e+00,5.000000000000000000e+00,5.000000000000000000e+00,5.000000000000000000e+00,5.000000000000000000e+00,5.000000000000000000e+00,5.000000000000000000e+00,5.000000000000000000e+00,5.000000000000000000e+00,5.000000000000000000e+00,5.000000000000000000e+00,5.000000000000000000e+00,5.000000000000000000e+00,5.000000000000000000e+00,5.000000000000000000e+00,5.000000000000000000e+00,5.000000000000000000e+00,5.000000000000000000e+00,5.000000000000000000e+00,5.000000000000000000e+00,5.000000000000000000e+00,5.000000000000000000e+00,5.000000000000000000e+00,5.000000000000000000e+00,5.000000000000000000e+00,5.000000000000000000e+00,5.000000000000000000e+00,5.000000000000000000e+00,4.997129440307617188e+00,4.795953750610351562e+00,4.610349178314208984e+00,4.438575744628906250e+00,4.279141902923583984e+00,4.130764484405517578e+00,3.992332458496093750e+00,3.862878322601318359e+00,3.741555213928222656e+00,3.627621173858642578e+00,3.520392656326293945e+00,3.419309377670288086e+00,3.323868751525878906e+00,3.233611822128295898e+00,3.148133754730224609e+00,3.067082881927490234e+00,2.990100622177124023e+00,2.916887998580932617e+00,2.847174882888793945e+00,2.780716180801391602e+00,2.717289447784423828e+00,2.656691551208496094e+00,2.598737478256225586e+00,2.543257951736450195e+00,2.490097761154174805e+00
4.883914947509765625e+00,5.000000000000000000e+00,5.000000000000000000e+00,5.000000000000000000e+00,5.000000000000000000e+00,5.000000000000000000e+00,5.000000000000000000e+00,5.000000000000000000e+00,5.000000000000000000e+00,5.000000000000000000e+00,5.000000000000000000e+00,5.000000000000000000e+00,5.000000000000000000e+00,5.000000000000000000e+00,5.000000000000000000e+00,5.000000000000000000e+00,5.000000000000000000e+00,5.000000000000000000e+00,5.000000000000000000e+00,5.000000000000000000e+00,5.000000000000000000e+00,5.000000000000000000e+00,5.000000000000000000e+00,5.000000000000000000e+00,5.000000000000000000e+00,5.000000000000000000e+00,5.000000000000000000e+00,5.000000000000000000e+00,5.000000000000000000e+00,5.000000000000000000e+00,5.000000000000000000e+00,5.000000000000000000e+00,5.000000000000000000e+00,5.000000000000000000e+00,5.000000000000000000e+00,5.000000000000000000e+00,5.000000000000000000e+00,5.000000000000000000e+00,5.000000000000000000e+00,5.000000000000000000e+00,5.000000000000000000e+00,5.000000000000000000e+00,5.000000000000000000e+00,5.000000000000000000e+00,5.000000000000000000e+00,5.000000000000000000e+00,5.000000000000000000e+00,5.000000000000000000e+00,5.000000000000000000e+00,5.000000000000000000e+00,5.000000000000000000e+00,5.000000000000000000e+00,5.000000000000000000e+00,5.000000000000000000e+00,5.000000000000000000e+00,4.997299194335937500e+00,4.796110630035400391e+00,4.610494136810302734e+00,4.438709735870361328e+00,4.279266357421875000e+00,4.130881309509277344e+00,3.992441177368164062e+00,3.862979650497436523e+00,3.741614818572998047e+00,3.627634048461914062e+00,3.520391941070556641e+00,3.419308662414550781e+00,3.323879241943359375e+00,3.233655929565429688e+00,3.148200750350952148e+00,3.067146539688110352e+00,2.990160942077636719e+00,2.916945457458496094e+00,2.847229719161987305e+00,2.780768632888793945e+00,2.717339515686035156e+00,2.656739473342895508e+00,2.598783493041992188e+00,2.543302059173583984e+00,2.490139722824096680e+00
4.883788108825683594e+00,5.000000000000000000e+00,5.000000000000000000e+00,5.000000000000000000e+00,5.000000000000000000e+00,5.000000000000000000e+00,5.000000000000000000e+00,5.000000000000000000e+00,5.000000000000000000e+00,5.000000000000000000e+00,5.000000000000000000e+00,5.000000000000000000e+00,5.000000000000000000e+00,5.000000000000000000e+00,5.000000000000000000e+00,5.000000000000000000e+00,5.000000000000000000e+00,5.000000000000000000e+00,5.000000000000000000e+00,5.000000000000000000e+00,5.000000000000000000e+00,5.000000000000000000e+00,5.000000000000000000e+00,5.000000000000000000e+00,5.000000000000000000e+00,5.000000000000000000e+00,5.000000000000000000e+00,5.000000000000000000e+00,5.000000000000000000e+00,5.000000000000000000e+00,5.000000000000000000e+00,5.000000000000000000e+00,5.000000000000000000e+00,5.000000000000000000e+00,5.000000000000000000e+00,5.000000000000000000e+00,5.000000000000000000e+00,5.000000000000000000e+00,5.000000000000000000e+00,5.000000000000000000e+00,5.000000000000000000e+00,5.000000000000000000e+00,5.000000000000000000e+00,5.000000000000000000e+00,5.000000000000000000e+00,5.000000000000000000e+00,5.000000000000000000e+00,5.000000000000000000e+00,5.000000000000000000e+00,5.000000000000000000e+00,5.000000000000000000e+00,5.000000000000000000e+00,5.000000000000000000e+00,5.000000000000000000e+00,5.000000000000000000e+00,4.997469902038574219e+00,4.796267032623291016e+00,4.610639095306396484e+00,4.438844203948974609e+00,4.279391765594482422e+00,4.130997180938720703e+00,3.992505311965942383e+00,3.862990379333496094e+00,3.741614341735839844e+00,3.627633333206176758e+00,3.520406723022460938e+00,3.419360876083374023e+00,3.323954105377197266e+00,3.233726739883422852e+00,3.148268222808837891e+00,3.067210435867309570e+00,2.990221738815307617e+00,2.917003393173217773e+00,2.847284793853759766e+00,2.780821084976196289e+00,2.717389583587646484e+00,2.656787395477294922e+00,2.598829030990600586e+00,2.543345689773559570e+00,2.490181922912597656e+00
4.883660793304443359e+00,5.000000000000000000e+00,5.000000000000000000e+00,5.000000000000000000e+00,5.000000000000000000e+00,5.000000000000000000e+00,5.000000000000000000e+00,5.000000000000000000e+00,5.000000000000000000e+00,5.000000000000000000e+00,5.000000000000000000e+00,5.000000000000000000e+00,5.000000000000000000e+00,5.000000000000000000e+00,5.000000000000000000e+00,5.000000000000000000e+00,5.000000000000000000e+00,5.000000000000000000e+00,5.000000000000000000e+00,5.000000000000000000e+00,5.000000000000000000e+00,5.000000000000000000e+00,5.000000000000000000e+00,5.000000000000000000e+00,5.000000000000000000e+00,5.000000000000000000e+00,5.000000000000000000e+00,5.000000000000000000e+00,5.000000000000000000e+00,5.000000000000000000e+00,5.000000000000000000e+00,5.000000000000000000e+00,5.000000000000000000e+00,5.000000000000000000e+00,5.000000000000000000e+00,5.000000000000000000e+00,5.000000000000000000e+00,5.000000000000000000e+00,5.000000000000000000e+00,5.000000000000000000e+00,5.000000000000000000e+00,5.000000000000000000e+00,5.000000000000000000e+00,5.000000000000000000e+00,5.000000000000000000e+00,5.000000000000000000e+00,5.000000000000000000e+00,5.000000000000000000e+00,5.000000000000000000e+00,5.000000000000000000e+00,5.000000000000000000e+00,5.000000000000000000e+00,5.000000000000000000e+00,5.000000000000000000e+00,5.000000000000000000e+00,4.997640132904052734e+00,4.796424388885498047e+00,4.610784053802490234e+00,4.438978195190429688e+00,4.279459953308105469e+00,4.131004810333251953e+00,3.992504358291625977e+00,3.862989902496337891e+00,3.741634368896484375e+00,3.627695560455322266e+00,3.520490884780883789e+00,3.419440507888793945e+00,3.324029207229614258e+00,3.233797788619995117e+00,3.148335218429565430e+00,3.067274093627929688e+00,2.990282297134399414e+00,2.917060852050781250e+00,2.847339630126953125e+00,2.780873537063598633e+00,2.717439651489257812e+00,2.656835317611694336e+00,2.598875045776367188e+00,2.543389797210693359e+00,2.490223884582519531e+00
4.883533954620361328e+00,5.000000000000000000e+00,5.000000000000000000e+00,5.000000000000000000e+00,5.000000000000000000e+00,5.000000000000000000e+00,5.000000000000000000e+00,5.000000000000000000e+00,5.000000000000000000e+00,5.000000000000000000e+00,5.000000000000000000e+00,5.000000000000000000e+00,5.000000000000000000e+00,5.000000000000000000e+00,5.000000000000000000e+00,5.000000000000000000e+00,5.000000000000000000e+00,5.000000000000000000e+00,5.000000000000000000e+00,5.000000000000000000e+00,5.000000000000000000e+00,5.000000000000000000e+00,5.000000000000000000e+00,5.000000000000000000e+00,5.000000000000000000e+00,5.000000000000000000e+00,5.000000000000000000e+00,5.000000000000000000e+00,5.000000000000000000e+00,5.000000000000000000e+00,5.000000000000000000e+00,5.000000000000000000e+00,5.000000000000000000e+00,5.000000000000000000e+00,5.000000000000000000e+00,5.000000000000000000e+00,5.000000000000000000e+00,5.000000000000000000e+00,5.000000000000000000e+00,5.000000000000000000e+00,5.000000000000000000e+00,5.000000000000000000e+00,5.000000000000000000e+00,5.000000000000000000e+00,5.000000000000000000e+00,5.000000000000000000e+00,5.000000000000000000e+00,5.000000000000000000e+00,5.000000000000000000e+00,5.000000000000000000e+00,5.000000000000000000e+00,5.000000000000000000e+00,5.000000000000000000e+00,5.000000000000000000e+00,5.000000000000000000e+00,4.997810363769531250e+00,4.796579360961914062e+00,4.610857486724853516e+00,4.438981533050537109e+00,4.279458999633789062e+00,4.131004333496093750e+00,3.992531538009643555e+00,3.863064050674438477e+00,3.741729497909545898e+00,3.627784729003906250e+00,3.520574808120727539e+00,3.419519424438476562e+00,3.324103832244873047e+00,3.233868598937988281e+00,3.148402690887451172e+00,3.067337989807128906e+00,2.990343093872070312e+00,2.917118787765502930e+00,2.847394704818725586e+00,2.780925989151000977e+00,2.717489719390869141e+00,2.656883001327514648e+00,2.598920822143554688e+00,2.543433427810668945e+00,2.490266084671020508e+00
4.883407115936279297e+00,5.000000000000000000e+00,5.000000000000000000e+00,5.000000000000000000e+00,5.000000000000000000e+00,5.000000000000000000e+00,5.000000000000000000e+00,5.000000000000000000e+00,5.000000000000000000e+00,5.000000000000000000e+00,5.000000000000000000e+00,5.000000000000000000e+00,5.000000000000000000e+00,5.000000000000000000e+00,5.000000000000000000e+00,5.000000000000000000e+00,5.000000000000000000e+00,5.000000000000000000e+00,5.000000000000000000e+00,5.000000000000000000e+00,5.000000000000000000e+00,5.000000000000000000e+00,5.000000000000000000e+00,5.000000000000000000e+00,5.000000000000000000e+00,5.000000000000000000e+00,5.000000000000000000e+00,5.000000000000000000e+00,5.000000000000000000e+00,5.000000000000000000e+00,5.000000000000000000e+00,5.000000000000000000e+00,5.000000000000000000e+00,5.000000000000000000e+00,5.000000000000000000e+00,5.000000000000000000e+00,5.000000000000000000e+00,5.000000000000000000e+00,5.000000000000000000e+00,5.000000000000000000e+00,5.000000000000000000e+00,5.000000000000000000e+00,5.000000000000000000e+00,5.000000000000000000e+00,5.000000000000000000e+00,3.989053010940551758e+00,3.984608173370361328e+00,5.000000000000000000e+00,5.000000000000000000e+00,5.000000000000000000e+00,5.000000000000000000e+00,5.000000000000000000e+00,5.000000000000000000e+00,5.000000000000000000e+00,5.000000000000000000e+00,4.997889995574951172e+00,4.796578407287597656e+00,4.610856533050537109e+00,4.438980579376220703e+00,4.279494285583496094e+00,4.131093025207519531e+00,3.992639303207397461e+00,3.863165140151977539e+00,3.741824388504028320e+00,3.627874135971069336e+00,3.520658969879150391e+00,3.419599056243896484e+00,3.324178934097290039e+00,3.233939647674560547e+00,3.148469686508178711e+00,3.067401647567749023e+00,2.990403413772583008e+00,2.917176246643066406e+00,2.847449541091918945e+00,2.780978441238403320e+00,2.717539787292480469e+00,2.656930923461914062e+00,2.598966598510742188e+00,2.543477535247802734e+00,2.490308046340942383e+00
4.883291244506835938e+00,5.000000000000000000e+00,5.000000000000000000e+00,5.000000000000000000e+00,5.000000000000000000e+00,5.000000000000000000e+00,5.000000000000000000e+00,5.000000000000000000e+00,5.000000000000000000e+00,5.000000000000000000e+00,5.000000000000000000e+00,5.000000000000000000e+00,5.000000000000000000e+00,5.000000000000000000e+00,5.000000000000000000e+00,5.000000000000000000e+00,5.000000000000000000e+00,5.000000000000000000e+00,5.000000000000000000e+00,5.000000000000000000e+00,5.000000000000000000e+00,5.000000000000000000e+00,5.000000000000000000e+00,5.000000000000000000e+00,5.000000000000000000e+00,5.000000000000000000e+00,5.000000000000000000e+00,5.000000000000000000e+00,5.000000000000000000e+00,5.000000000000000000e+00,5.000000000000000000e+00,5.000000000000000000e+00,5.000000000000000000e+00,5.000000000000000000e+00,5.000000000000000000e+00,5.000000000000000000e+00,5.000000000000000000e+00,5.000000000000000000e+00,5.000000000000000000e+00,5.000000000000000000e+00,5.000000000000000000e+00,5.000000000000000000e+00,5.000000000000000000e+00,5.000000000000000000e+00,5.000000000000000000e+00,3.964403152465820312e+00,3.958908081054687500e+00,5.000000000000000000e+00,5.000000000000000000e+00,5.000000000000000000e+00,5.000000000000000000e+00,5.000000000000000000e+00,5.000000000000000000e+00,5.000000000000000000e+00,5.000000000000000000e+00,4.997889041900634766e+00,4.796577453613281250e+00,4.610903263092041016e+00,4.439088344573974609e+00,4.279618740081787109e+00,4.131208896636962891e+00,3.992747545242309570e+00,3.863266468048095703e+00,3.741919517517089844e+00,3.627963066101074219e+00,3.520742893218994141e+00,3.419678211212158203e+00,3.324253797531127930e+00,3.234010457992553711e+00,3.148536920547485352e+00,3.067465543746948242e+00,2.990464210510253906e+00,2.917234182357788086e+00,2.847504615783691406e+00,2.781030893325805664e+00,2.717589855194091797e+00,2.656978607177734375e+00,2.599012374877929688e+00,2.543521165847778320e+00,2.490350008010864258e+00
4.883176326751708984e+00,5.000000000000000000e+00,5.000000000000000000e+00,5.000000000000000000e+00,5.000000000000000000e+00,5.000000000000000000e+00,5.000000000000000000e+00,5.000000000000000000e+00,5.000000000000000000e+00,5.000000000000000000e+00,5.000000000000000000e+00,5.000000000000000000e+00,5.000000000000000000e+00,5.000000000000000000e+00,5.000000000000000000e+00,5.000000000000000000e+00,5.000000000000000000e+00,5.000000000000000000e+00,5.000000000000000000e+00,5.000000000000000000e+00,5.000000000000000000e+00,5.000000000000000000e+00,5.000000000000000000e+00,5.000000000000000000e+00,5.000000000000000000e+00,5.000000000000000000e+00,5.000000000000000000e+00,5.000000000000000000e+00,5.000000000000000000e+00,5.000000000000000000e+00,5.000000000000000000e+00,5.000000000000000000e+00,5.000000000000000000e+00,5.000000000000000000e+00,5.000000000000000000e+00,5.000000000000000000e+00,5.000000000000000000e+00,5.000000000000000000e+00,5.000000000000000000e+00,5.000000000000000000e+00,5.000000000000000000e+00,5.000000000000000000e+00,5.000000000000000000e+00,5.000000000000000000e+00,5.000000000000000000e+00,3.953900337219238281e+00,3.954512596130371094e+00,5.000000000000000000e+00,5.000000000000000000e+00,5.000000000000000000e+00,5.000000000000000000e+00,5.000000000000000000e+00,5.000000000000000000e+00,5.000000000000000000e+00,5.000000000000000000e+00,4.997949600219726562e+00,4.796709060668945312e+00,4.611047267913818359e+00,4.439222335815429688e+00,4.279742717742919922e+00,4.131324768066406250e+00,3.992855548858642578e+00,3.863367557525634766e+00,3.742014169692993164e+00,3.628052473068237305e+00,3.520827054977416992e+00,3.419757604598999023e+00,3.324328899383544922e+00,3.234081506729125977e+00,3.148604154586791992e+00,3.067529201507568359e+00,2.990524768829345703e+00,2.917291641235351562e+00,2.847559452056884766e+00,2.781083345413208008e+00,2.717639923095703125e+00,2.657026767730712891e+00,2.599058151245117188e+00,2.543565273284912109e+00,2.490392208099365234e+00
4.883061885833740234e+00,5.000000000000000000e+00,5.000000000000000000e+00,5.000000000000000000e+00,5.000000000000000000e+00,5.000000000000000000e+00,5.000000000000000000e+00,5.000000000000000000e+00,5.000000000000000000e+00,5.000000000000000000e+00,5.000000000000000000e+00,5.000000000000000000e+00,5.000000000000000000e+00,5.000000000000000000e+00,5.000000000000000000e+00,5.000000000000000000e+00,5.000000000000000000e+00,5.000000000000000000e+00,5.000000000000000000e+00,5.000000000000000000e+00,5.000000000000000000e+00,5.000000000000000000e+00,5.000000000000000000e+00,5.000000000000000000e+00,5.000000000000000000e+00,5.000000000000000000e+00,5.000000000000000000e+00,5.000000000000000000e+00,5.000000000000000000e+00,5.000000000000000000e+00,5.000000000000000000e+00,5.000000000000000000e+00,5.000000000000000000e+00,5.000000000000000000e+00,5.000000000000000000e+00,5.000000000000000000e+00,5.000000000000000000e+00,5.000000000000000000e+00,5.000000000000000000e+00,5.000000000000000000e+00,5.000000000000000000e+00,5.000000000000000000e+00,5.000000000000000000e+00,5.000000000000000000e+00,5.000000000000000000e+00,3.936691761016845703e+00,3.931245088577270508e+00,5.000000000000000000e+00,5.000000000000000000e+00,5.000000000000000000e+00,5.000000000000000000e+00,5.000000000000000000e+00,5.000000000000000000e+00,5.000000000000000000e+00,5.000000000000000000e+00,4.998118877410888672e+00,4.796864986419677734e+00,4.611191272735595703e+00,4.439355850219726562e+00,4.279867172241210938e+00,4.131440162658691406e+00,3.992963790893554688e+00,3.863468885421752930e+00,3.742109298706054688e+00,3.628141641616821289e+00,3.520910978317260742e+00,3.419836759567260742e+00,3.324403524398803711e+00,3.234152078628540039e+00,3.148671388626098633e+00,3.067593097686767578e+00,2.990585565567016602e+00,2.917349576950073242e+00,2.847614765167236328e+00,2.781135797500610352e+00,2.717689990997314453e+00,2.657074451446533203e+00,2.599103927612304688e+00,2.543608903884887695e+00,2.490434169769287109e+00
4.882947444915771484e+00,5.000000000000000000e+00,5.000000000000000000e+00,5.000000000000000000e+00,5.000000000000000000e+00,5.000000000000000000e+00,5.000000000000000000e+00,5.000000000000000000e+00,5.000000000000000000e+00,5.000000000000000000e+00,5.000000000000000000e+00,5.000000000000000000e+00,5.000000000000000000e+00,5.000000000000000000e+00,5.000000000000000000e+00,5.000000000000000000e+00,5.000000000000000000e+00,5.000000000000000000e+00,5.000000000000000000e+00,5.000000000000000000e+00,5.000000000000000000e+00,5.000000000000000000e+00,5.000000000000000000e+00,5.000000000000000000e+00,5.000000000000000000e+00,5.000000000000000000e+00,5.000000000000000000e+00,5.000000000000000000e+00,5.000000000000000000e+00,5.000000000000000000e+00,5.000000000000000000e+00,5.000000000000000000e+00,5.000000000000000000e+00,5.000000000000000000e+00,5.000000000000000000e+00,5.000000000000000000e+00,5.000000000000000000e+00,5.000000000000000000e+00,5.000000000000000000e+00,5.000000000000000000e+00,5.000000000000000000e+00,5.000000000000000000e+00,3.940948724746704102e+00,3.903778553009033203e+00,3.896559476852416992e+00,3.893931865692138672e+00,3.909488916397094727e+00,3.913980245590209961e+00,3.936989068984985352e+00,3.983274459838867188e+00,5.000000000000000000e+00,5.000000000000000000e+00,5.000000000000000000e+00,5.000000000000000000e+00,5.000000000000000000e+00,4.998288154602050781e+00,4.797021389007568359e+00,4.611335754394531250e+00,4.439489841461181641e+00,4.279991149902343750e+00,4.131556034088134766e+00,3.993071556091308594e+00,3.863569974899291992e+00,3.742204189300537109e+00,3.628231048583984375e+00,3.520995140075683594e+00,3.419916152954101562e+00,3.324478626251220703e+00,3.234223365783691406e+00,3.148738622665405273e+00,3.067656755447387695e+00,2.990646123886108398e+00,2.917407035827636719e+00,2.847669601440429688e+00,2.781188249588012695e+00,2.717740297317504883e+00,2.657122373580932617e+00,2.599149942398071289e+00,2.543653011322021484e+00,2.490476369857788086e+00
4.882832527160644531e+00,5.000000000000000000e+00,5.000000000000000000e+00,5.000000000000000000e+00,5.000000000000000000e+00,5.000000000000000000e+00,5.000000000000000000e+00,5.000000000000000000e+00,5.000000000000000000e+00,5.000000000000000000e+00,5.000000000000000000e+00,5.000000000000000000e+00,5.000000000000000000e+00,5.000000000000000000e+00,5.000000000000000000e+00,5.000000000000000000e+00,5.000000000000000000e+00,5.000000000000000000e+00,5.000000000000000000e+00,5.000000000000000000e+00,5.000000000000000000e+00,5.000000000000000000e+00,5.000000000000000000e+00,5.000000000000000000e+00,5.000000000000000000e+00,5.000000000000000000e+00,5.000000000000000000e+00,5.000000000000000000e+00,5.000000000000000000e+00,5.000000000000000000e+00,5.000000000000000000e+00,5.000000000000000000e+00,5.000000000000000000e+00,5.000000000000000000e+00,5.000000000000000000e+00,5.000000000000000000e+00,5.000000000000000000e+00,5.000000000000000000e+00,5.000000000000000000e+00,5.000000000000000000e+00,5.000000000000000000e+00,5.000000000000000000e+00,3.936748266220092773e+00,3.934981822967529297e+00,3.895369291305541992e+00,3.891784191131591797e+00,3.898414373397827148e+00,3.903782367706298828e+00,3.927345037460327148e+00,3.962357997894287109e+00,5.000000000000000000e+00,5.000000000000000000e+00,5.000000000000000000e+00,5.000000000000000000e+00,5.000000000000000000e+00,4.998457431793212891e+00,4.797177314758300781e+00,4.611479759216308594e+00,4.439623355865478516e+00,4.280115127563476562e+00,4.131671905517578125e+00,3.993180036544799805e+00,3.863671302795410156e+00,3.742299318313598633e+00,3.628320217132568359e+00,3.521079063415527344e+00,3.419995307922363281e+00,3.324553489685058594e+00,3.234293937683105469e+00,3.148805856704711914e+00,3.067720651626586914e+00,2.990706920623779297e+00,2.917464971542358398e+00,2.847724676132202148e+00,2.781240701675415039e+00,2.717790126800537109e+00,2.657170295715332031e+00,2.599195480346679688e+00,2.543696641921997070e+00,2.490518331527709961e+00
4.882717609405517578e+00,5.000000000000000000e+00,5.000000000000000000e+00,5.000000000000000000e+00,5.000000000000000000e+00,5.000000000000000000e+00,5.000000000000000000e+00,5.000000000000000000e+00,5.000000000000000000e+00,5.000000000000000000e+00,5.000000000000000000e+00,5.000000000000000000e+00,5.000000000000000000e+00,5.000000000000000000e+00,5.000000000000000000e+00,5.000000000000000000e+00,5.000000000000000000e+00,5.000000000000000000e+00,5.000000000000000000e+00,5.000000000000000000e+00,5.000000000000000000e+00,5.000000000000000000e+00,5.000000000000000000e+00,5.000000000000000000e+00,5.000000000000000000e+00,5.000000000000000000e+00,5.000000000000000000e+00,5.000000000000000000e+00,5.000000000000000000e+00,5.000000000000000000e+00,5.000000000000000000e+00,5.000000000000000000e+00,5.000000000000000000e+00,5.000000000000000000e+00,5.000000000000000000e+00,5.000000000000000000e+00,5.000000000000000000e+00,5.000000000000000000e+00,5.000000000000000000e+00,5.000000000000000000e+00,5.000000000000000000e+00,5.000000000000000000e+00,3.938762187957763672e+00,3.925507545471191406e+00,3.913835048675537109e+00,3.902999401092529297e+00,3.908874273300170898e+00,3.915460109710693359e+00,3.948891162872314453e+00,5.000000000000000000e+00,5.000000000000000000e+00,5.000000000000000000e+00,5.000000000000000000e+00,5.000000000000000000e+00,5.000000000000000000e+00,4.998627185821533203e+00,4.797333240509033203e+00,4.611623764038085938e+00,4.439756870269775391e+00,4.280239582061767578e+00,4.131787300109863281e+00,3.993287801742553711e+00,3.863772392272949219e+00,3.742393970489501953e+00,3.628409624099731445e+00,3.521163225173950195e+00,3.420074701309204102e+00,3.324628591537475586e+00,3.234365224838256836e+00,3.148873329162597656e+00,3.067784309387207031e+00,2.990767240524291992e+00,2.917522430419921875e+00,2.847779512405395508e+00,2.781293153762817383e+00,2.717840433120727539e+00,2.657218217849731445e+00,2.599241495132446289e+00,2.543740749359130859e+00,2.490560531616210938e+00
4.882603645324707031e+00,5.000000000000000000e+00,5.000000000000000000e+00,5.000000000000000000e+00,5.000000000000000000e+00,5.000000000000000000e+00,5.000000000000000000e+00,5.000000000000000000e+00,5.000000000000000000e+00,5.000000000000000000e+00,5.000000000000000000e+00,5.000000000000000000e+00,5.000000000000000000e+00,5.000000000000000000e+00,5.000000000000000000e+00,5.000000000000000000e+00,5.000000000000000000e+00,5.000000000000000000e+00,5.000000000000000000e+00,5.000000000000000000e+00,5.000000000000000000e+00,5.000000000000000000e+00,5.000000000000000000e+00,5.000000000000000000e+00,5.000000000000000000e+00,5.000000000000000000e+00,5.000000000000000000e+00,5.000000000000000000e+00,5.000000000000000000e+00,5.000000000000000000e+00,5.000000000000000000e+00,5.000000000000000000e+00,5.000000000000000000e+00,5.000000000000000000e+00,5.000000000000000000e+00,5.000000000000000000e+00,5.000000000000000000e+00,5.000000000000000000e+00,5.000000000000000000e+00,5.000000000000000000e+00,5.000000000000000000e+00,5.000000000000000000e+00,3.934751510620117188e+00,3.927978754043579102e+00,3.936232328414916992e+00,3.928541183471679688e+00,3.934736013412475586e+00,3.942398548126220703e+00,3.948672771453857422e+00,5.000000000000000000e+00,5.000000000000000000e+00,5.000000000000000000e+00,5.000000000000000000e+00,5.000000000000000000e+00,5.000000000000000000e+00,4.998796463012695312e+00,4.797489166259765625e+00,4.611768245697021484e+00,4.439890384674072266e+00,4.280363559722900391e+00,4.131903171539306641e+00,3.993396282196044922e+00,3.863873720169067383e+00,3.742489099502563477e+00,3.628498554229736328e+00,3.521247148513793945e+00,3.420153856277465820e+00,3.324703216552734375e+00,3.234435796737670898e+00,3.148940324783325195e+00,3.067848443984985352e+00,2.990828037261962891e+00,2.917580366134643555e+00,2.847834587097167969e+00,2.781345605850219727e+00,2.717890262603759766e+00,2.657265901565551758e+00,2.599287271499633789e+00,2.543784379959106445e+00,2.490602493286132812e+00
4.882488727569580078e+00,5.000000000000000000e+00,5.000000000000000000e+00,5.000000000000000000e+00,5.000000000000000000e+00,5.000000000000000000e+00,5.000000000000000000e+00,5.000000000000000000e+00,5.000000000000000000e+00,5.000000000000000000e+00,5.000000000000000000e+00,5.000000000000000000e+00,5.000000000000000000e+00,5.000000000000000000e+00,5.000000000000000000e+00,5.000000000000000000e+00,5.000000000000000000e+00,5.000000000000000000e+00,5.000000000000000000e+00,5.000000000000000000e+00,5.000000000000000000e+00,5.000000000000000000e+00,5.000000000000000000e+00,5.000000000000000000e+00,5.000000000000000000e+00,5.000000000000000000e+00,5.000000000000000000e+00,5.000000000000000000e+00,5.000000000000000000e+00,5.000000000000000000e+00,5.000000000000000000e+00,5.000000000000000000e+00,5.000000000000000000e+00,5.000000000000000000e+00,5.000000000000000000e+00,5.000000000000000000e+00,5.000000000000000000e+00,5.000000000000000000e+00,5.000000000000000000e+00,5.000000000000000000e+00,5.000000000000000000e+00,5.000000000000000000e+00,3.930080890655517578e+00,3.931729555130004883e+00,3.957153558731079102e+00,3.944275617599487305e+00,3.951792955398559570e+00,3.970243215560913086e+00,3.949400663375854492e+00,5.000000000000000000e+00,5.000000000000000000e+00,5.000000000000000000e+00,5.000000000000000000e+00,5.000000000000000000e+00,5.000000000000000000e+00,4.998992443084716797e+00,4.797664165496826172e+00,4.611925125122070312e+00,4.440031051635742188e+00,4.280490398406982422e+00,4.132019042968750000e+00,3.993504047393798828e+00,3.863974809646606445e+00,3.742583990097045898e+00,3.628588199615478516e+00,3.521331548690795898e+00,3.420233488082885742e+00,3.324778318405151367e+00,3.234507083892822266e+00,3.149007797241210938e+00,3.067912101745605469e+00,2.990888595581054688e+00,2.917638063430786133e+00,2.847889423370361328e+00,2.781398057937622070e+00,2.717940568923950195e+00,2.657313823699951172e+00,2.599333047866821289e+00,2.543828487396240234e+00,2.490644454956054688e+00
4.882374286651611328e+00,5.000000000000000000e+00,5.000000000000000000e+00,5.000000000000000000e+00,5.000000000000000000e+00,5.000000000000000000e+00,5.000000000000000000e+00,5.000000000000000000e+00,5.000000000000000000e+00,5.000000000000000000e+00,5.000000000000000000e+00,5.000000000000000000e+00,5.000000000000000000e+00,5.000000000000000000e+00,5.000000000000000000e+00,5.000000000000000000e+00,5.000000000000000000e+00,5.000000000000000000e+00,5.000000000000000000e+00,5.000000000000000000e+00,5.000000000000000000e+00,5.000000000000000000e+00,5.000000000000000000e+00,5.000000000000000000e+00,5.000000000000000000e+00,5.000000000000000000e+00,5.000000000000000000e+00,5.000000000000000000e+00,5.000000000000000000e+00,5.000000000000000000e+00,5.000000000000000000e+00,5.000000000000000000e+00,5.000000000000000000e+00,5.000000000000000000e+00,5.000000000000000000e+00,5.000000000000000000e+00,5.000000000000000000e+00,5.000000000000000000e+00,5.000000000000000000e+00,5.000000000000000000e+00,5.000000000000000000e+00,5.000000000000000000e+00,3.934587001800537109e+00,3.939594745635986328e+00,3.945156097412109375e+00,3.929044008255004883e+00,3.935063123703002930e+00,3.956872940063476562e+00,3.950724840164184570e+00,5.000000000000000000e+00,5.000000000000000000e+00,5.000000000000000000e+00,5.000000000000000000e+00,5.000000000000000000e+00,5.000000000000000000e+00,4.999200344085693359e+00,4.797855377197265625e+00,4.612101554870605469e+00,4.440195083618164062e+00,4.280642986297607422e+00,4.132159233093261719e+00,3.993631601333618164e+00,3.864090442657470703e+00,3.742689132690429688e+00,3.628683805465698242e+00,3.521418571472167969e+00,3.420312404632568359e+00,3.324853181838989258e+00,3.234577655792236328e+00,3.149074792861938477e+00,3.067975997924804688e+00,2.990949392318725586e+00,2.917695760726928711e+00,2.847944498062133789e+00,2.781450510025024414e+00,2.717990398406982422e+00,2.657361745834350586e+00,2.599378824234008789e+00,2.543872117996215820e+00,2.490686416625976562e+00
4.882259368896484375e+00,5.000000000000000000e+00,5.000000000000000000e+00,5.000000000000000000e+00,5.000000000000000000e+00,5.000000000000000000e+00,5.000000000000000000e+00,5.000000000000000000e+00,5.000000000000000000e+00,5.000000000000000000e+00,5.000000000000000000e+00,5.000000000000000000e+00,5.000000000000000000e+00,5.000000000000000000e+00,5.000000000000000000e+00,5.000000000000000000e+00,5.000000000000000000e+00,5.000000000000000000e+00,5.000000000000000000e+00,5.000000000000000000e+00,5.000000000000000000e+00,5.000000000000000000e+00,5.000000000000000000e+00,5.000000000000000000e+00,5.000000000000000000e+00,5.000000000000000000e+00,5.000000000000000000e+00,5.000000000000000000e+00,5.000000000000000000e+00,5.000000000000000000e+00,5.000000000000000000e+00,5.000000000000000000e+00,5.000000000000000000e+00,5.000000000000000000e+00,5.000000000000000000e+00,5.000000000000000000e+00,5.000000000000000000e+00,5.000000000000000000e+00,5.000000000000000000e+00,5.000000000000000000e+00,5.000000000000000000e+00,5.000000000000000000e+00,3.950329065322875977e+00,5.000000000000000000e+00,3.930765390396118164e+00,3.906823873519897461e+00,3.918930768966674805e+00,3.944881916046142578e+00,3.972932100296020508e+00,5.000000000000000000e+00,5.000000000000000000e+00,5.000000000000000000e+00,5.000000000000000000e+00,5.000000000000000000e+00,5.000000000000000000e+00,4.999407768249511719e+00,4.798047065734863281e+00,4.612278461456298828e+00,4.440358638763427734e+00,4.280795097351074219e+00,4.132301330566406250e+00,3.993764162063598633e+00,3.864214658737182617e+00,3.742805480957031250e+00,3.628793239593505859e+00,3.521521806716918945e+00,3.420410156250000000e+00,3.324942827224731445e+00,3.234660148620605469e+00,3.149150371551513672e+00,3.068045616149902344e+00,2.991013288497924805e+00,2.917754650115966797e+00,2.847999334335327148e+00,2.781502962112426758e+00,2.718040704727172852e+00,2.657409667968750000e+00,2.599424600601196289e+00,2.543916225433349609e+00,2.490728616714477539e+00
4.882144927978515625e+00,5.000000000000000000e+00,5.000000000000000000e+00,5.000000000000000000e+00,5.000000000000000000e+00,5.000000000000000000e+00,5.000000000000000000e+00,5.000000000000000000e+00,5.000000000000000000e+00,5.000000000000000000e+00,5.000000000000000000e+00,5.000000000000000000e+00,5.000000000000000000e+00,5.000000000000000000e+00,5.000000000000000000e+00,5.000000000000000000e+00,5.000000000000000000e+00,5.000000000000000000e+00,5.000000000000000000e+00,5.000000000000000000e+00,5.000000000000000000e+00,5.000000000000000000e+00,5.000000000000000000e+00,5.000000000000000000e+00,5.000000000000000000e+00,5.000000000000000000e+00,5.000000000000000000e+00,5.000000000000000000e+00,5.000000000000000000e+00,5.000000000000000000e+00,5.000000000000000000e+00,5.000000000000000000e+00,5.000000000000000000e+00,5.000000000000000000e+00,5.000000000000000000e+00,5.000000000000000000e+00,5.000000000000000000e+00,5.000000000000000000e+00,5.000000000000000000e+00,5.000000000000000000e+00,5.000000000000000000e+00,5.000000000000000000e+00,3.964882135391235352e+00,5.000000000000000000e+00,3.932044982910156250e+00,3.919963598251342773e+00,3.929090976715087891e+00,3.944790840148925781e+00,4.011216640472412109e+00,5.000000000000000000e+00,5.000000000000000000e+00,5.000000000000000000e+00,5.000000000000000000e+00,5.000000000000000000e+00,5.000000000000000000e+00,4.999615669250488281e+00,4.798238277435302734e+00,4.612455368041992188e+00,4.440522670745849609e+00,4.280947208404541016e+00,4.132442951202392578e+00,3.993896245956420898e+00,3.864338636398315430e+00,3.742922067642211914e+00,3.628902912139892578e+00,3.521624803543090820e+00,3.420507431030273438e+00,3.325034856796264648e+00,3.234747171401977539e+00,3.149232864379882812e+00,3.068123817443847656e+00,2.991087675094604492e+00,2.917825460433959961e+00,2.848066091537475586e+00,2.781564712524414062e+00,2.718097925186157227e+00,2.657462596893310547e+00,2.599473953247070312e+00,2.543961763381958008e+00,2.490771055221557617e+00
4.882030487060546875e+00,5.000000000000000000e+00,5.000000000000000000e+00,5.000000000000000000e+00,5.000000000000000000e+00,5.000000000000000000e+00,5.000000000000000000e+00,5.000000000000000000e+00,5.000000000000000000e+00,5.000000000000000000e+00,5.000000000000000000e+00,5.000000000000000000e+00,5.000000000000000000e+00,5.000000000000000000e+00,5.000000000000000000e+00,5.000000000000000000e+00,5.000000000000000000e+00,5.000000000000000000e+00,5.000000000000000000e+00,5.000000000000000000e+00,5.000000000000000000e+00,5.000000000000000000e+00,5.000000000000000000e+00,5.000000000000000000e+00,5.000000000000000000e+00,5.000000000000000000e+00,5.000000000000000000e+00,5.000000000000000000e+00,5.000000000000000000e+00,5.000000000000000000e+00,5.000000000000000000e+00,5.000000000000000000e+00,5.000000000000000000e+00,5.000000000000000000e+00,5.000000000000000000e+00,5.000000000000000000e+00,5.000000000000000000e+00,5.000000000000000000e+00,5.000000000000000000e+00,5.000000000000000000e+00,5.000000000000000000e+00,5.000000000000000000e+00,4.001597404479980469e+00,4.050684452056884766e+00,3.964525461196899414e+00,3.964908123016357422e+00,3.965559244155883789e+00,3.984736204147338867e+00,4.044499874114990234e+00,5.000000000000000000e+00,5.000000000000000000e+00,5.000000000000000000e+00,5.000000000000000000e+00,5.000000000000000000e+00,5.000000000000000000e+00,4.999823093414306641e+00,4.798429965972900391e+00,4.612632274627685547e+00,4.440686702728271484e+00,4.281099796295166016e+00,4.132585048675537109e+00,3.994028806686401367e+00,3.864462375640869141e+00,3.743038177490234375e+00,3.629012346267700195e+00,3.521728038787841797e+00,3.420604705810546875e+00,3.325126647949218750e+00,3.234833955764770508e+00,3.149315357208251953e+00,3.068202018737792969e+00,2.991162061691284180e+00,2.917896270751953125e+00,2.848133563995361328e+00,2.781629085540771484e+00,2.718159437179565430e+00,2.657521486282348633e+00,2.599529981613159180e+00,2.544015407562255859e+00,2.490822315216064453e+00
4.881915569305419922e+00,5.000000000000000000e+00,5.000000000000000000e+00,5.000000000000000000e+00,5.000000000000000000e+00,5.000000000000000000e+00,5.000000000000000000e+00,5.000000000000000000e+00,5.000000000000000000e+00,5.000000000000000000e+00,5.000000000000000000e+00,5.000000000000000000e+00,5.000000000000000000e+00,5.000000000000000000e+00,5.000000000000000000e+00,5.000000000000000000e+00,5.000000000000000000e+00,5.000000000000000000e+00,5.000000000000000000e+00,5.000000000000000000e+00,5.000000000000000000e+00,5.000000000000000000e+00,5.000000000000000000e+00,5.000000000000000000e+00,5.000000000000000000e+00,5.000000000000000000e+00,5.000000000000000000e+00,5.000000000000000000e+00,5.000000000000000000e+00,5.000000000000000000e+00,5.000000000000000000e+00,5.000000000000000000e+00,5.000000000000000000e+00,5.000000000000000000e+00,5.000000000000000000e+00,5.000000000000000000e+00,5.000000000000000000e+00,5.000000000000000000e+00,5.000000000000000000e+00,5.000000000000000000e+00,5.000000000000000000e+00,5.000000000000000000e+00,4.062993049621582031e+00,4.089869976043701172e+00,3.999353170394897461e+00,4.019679546356201172e+00,4.046654701232910156e+00,4.047255039215087891e+00,4.077813625335693359e+00,5.000000000000000000e+00,5.000000000000000000e+00,5.000000000000000000e+00,5.000000000000000000e+00,5.000000000000000000e+00,5.000000000000000000e+00,5.000000000000000000e+00,4.798621177673339844e+00,4.612808704376220703e+00,4.440850734710693359e+00,4.281251907348632812e+00,4.132726669311523438e+00,3.994161605834960938e+00,3.864586591720581055e+00,3.743154525756835938e+00,3.629121541976928711e+00,3.521830797195434570e+00,3.420701980590820312e+00,3.325218677520751953e+00,3.234920978546142578e+00,3.149397850036621094e+00,3.068280458450317383e+00,2.991236686706542969e+00,2.917967081069946289e+00,2.848201036453247070e+00,2.781693458557128906e+00,2.718220710754394531e+00,2.657580137252807617e+00,2.599586248397827148e+00,2.544069290161132812e+00,2.490874052047729492e+00
4.881801128387451172e+00,5.000000000000000000e+00,5.000000000000000000e+00,5.000000000000000000e+00,5.000000000000000000e+00,5.000000000000000000e+00,5.000000000000000000e+00,5.000000000000000000e+00,5.000000000000000000e+00,5.000000000000000000e+00,5.000000000000000000e+00,5.000000000000000000e+00,5.000000000000000000e+00,5.000000000000000000e+00,5.000000000000000000e+00,5.000000000000000000e+00,5.000000000000000000e+00,5.000000000000000000e+00,5.000000000000000000e+00,5.000000000000000000e+00,5.000000000000000000e+00,5.000000000000000000e+00,5.000000000000000000e+00,5.000000000000000000e+00,5.000000000000000000e+00,5.000000000000000000e+00,5.000000000000000000e+00,5.000000000000000000e+00,5.000000000000000000e+00,5.000000000000000000e+00,5.000000000000000000e+00,5.000000000000000000e+00,5.000000000000000000e+00,5.000000000000000000e+00,5.000000000000000000e+00,5.000000000000000000e+00,5.000000000000000000e+00,5.000000000000000000e+00,5.000000000000000000e+00,5.000000000000000000e+00,5.000000000000000000e+00,5.000000000000000000e+00,5.000000000000000000e+00,5.000000000000000000e+00,4.018801689147949219e+00,4.038141250610351562e+00,4.088845729827880859e+00,4.086120128631591797e+00,4.156075954437255859e+00,5.000000000000000000e+00,5.000000000000000000e+00,5.000000000000000000e+00,5.000000000000000000e+00,5.000000000000000000e+00,5.000000000000000000e+00,5.000000000000000000e+00,4.798812389373779297e+00,4.612985610961914062e+00,4.441014289855957031e+00,4.281404018402099609e+00,4.132868766784667969e+00,3.994294166564941406e+00,3.864710807800292969e+00,3.743271112442016602e+00,3.629230976104736328e+00,3.521933794021606445e+00,3.420799016952514648e+00,3.325310230255126953e+00,3.235008001327514648e+00,3.149480342864990234e+00,3.068358659744262695e+00,2.991311073303222656e+00,2.918037891387939453e+00,2.848268508911132812e+00,2.781757831573486328e+00,2.718282222747802734e+00,2.657638788223266602e+00,2.599642515182495117e+00,2.544123172760009766e+00,2.490925550460815430e+00
4.881686687469482422e+00,5.000000000000000000e+00,5.000000000000000000e+00,5.000000000000000000e+00,5.000000000000000000e+00,5.000000000000000000e+00,5.000000000000000000e+00,5.000000000000000000e+00,5.000000000000000000e+00,5.000000000000000000e+00,5.000000000000000000e+00,5.000000000000000000e+00,5.000000000000000000e+00,5.000000000000000000e+00,5.000000000000000000e+00,5.000000000000000000e+00,5.000000000000000000e+00,5.000000000000000000e+00,5.000000000000000000e+00,5.000000000000000000e+00,5.000000000000000000e+00,5.000000000000000000e+00,5.000000000000000000e+00,5.000000000000000000e+00,5.000000000000000000e+00,5.000000000000000000e+00,5.000000000000000000e+00,5.000000000000000000e+00,5.000000000000000000e+00,5.000000000000000000e+00,5.000000000000000000e+00,5.000000000000000000e+00,5.000000000000000000e+00,5.000000000000000000e+00,5.000000000000000000e+00,5.000000000000000000e+00,5.000000000000000000e+00,5.000000000000000000e+00,5.000000000000000000e+00,5.000000000000000000e+00,5.000000000000000000e+00,5.000000000000000000e+00,5.000000000000000000e+00,5.000000000000000000e+00,4.039166927337646484e+00,4.055489540100097656e+00,4.123406887054443359e+00,4.132742404937744141e+00,5.000000000000000000e+00,5.000000000000000000e+00,5.000000000000000000e+00,5.000000000000000000e+00,5.000000000000000000e+00,5.000000000000000000e+00,5.000000000000000000e+00,5.000000000000000000e+00,4.799004077911376953e+00,4.613162517547607422e+00,4.441178321838378906e+00,4.281556606292724609e+00,4.133010864257812500e+00,3.994426727294921875e+00,3.864835023880004883e+00,3.743387699127197266e+00,3.629340410232543945e+00,3.522037029266357422e+00,3.420896291732788086e+00,3.325402259826660156e+00,3.235094785690307617e+00,3.149562597274780273e+00,3.068436861038208008e+00,2.991385459899902344e+00,2.918108701705932617e+00,2.848335981369018555e+00,2.781821966171264648e+00,2.718343734741210938e+00,2.657697677612304688e+00,2.599698543548583984e+00,2.544176816940307617e+00,2.490977287292480469e+00
4.881571769714355469e+00,5.000000000000000000e+00,5.000000000000000000e+00,5.000000000000000000e+00,5.000000000000000000e+00,5.000000000000000000e+00,5.000000000000000000e+00,5.000000000000000000e+00,5.000000000000000000e+00,5.000000000000000000e+00,5.000000000000000000e+00,5.000000000000000000e+00,5.000000000000000000e+00,5.000000000000000000e+00,5.000000000000000000e+00,5.000000000000000000e+00,5.000000000000000000e+00,5.000000000000000000e+00,5.000000000000000000e+00,5.000000000000000000e+00,5.000000000000000000e+00,5.000000000000000000e+00,5.000000000000000000e+00,5.000000000000000000e+00,5.000000000000000000e+00,5.000000000000000000e+00,5.000000000000000000e+00,5.000000000000000000e+00,5.000000000000000000e+00,5.000000000000000000e+00,5.000000000000000000e+00,5.000000000000000000e+00,5.000000000000000000e+00,5.000000000000000000e+00,5.000000000000000000e+00,5.000000000000000000e+00,5.000000000000000000e+00,5.000000000000000000e+00,5.000000000000000000e+00,5.000000000000000000e+00,5.000000000000000000e+00,5.000000000000000000e+00,5.000000000000000000e+00,5.000000000000000000e+00,4.061125755310058594e+00,4.086843013763427734e+00,4.171971321105957031e+00,4.182795047760009766e+00,5.000000000000000000e+00,5.000000000000000000e+00,5.000000000000000000e+00,5.000000000000000000e+00,5.000000000000000000e+00,5.000000000000000000e+00,5.000000000000000000e+00,5.000000000000000000e+00,4.799195289611816406e+00,4.613339424133300781e+00,4.441342353820800781e+00,4.281709194183349609e+00,4.133152484893798828e+00,3.994559526443481445e+00,3.864959239959716797e+00,3.743504047393798828e+00,3.629450082778930664e+00,3.522140264511108398e+00,3.420993566513061523e+00,3.325494050979614258e+00,3.235181808471679688e+00,3.149645090103149414e+00,3.068515062332153320e+00,2.991459608078002930e+00,2.918179512023925781e+00,2.848403453826904297e+00,2.781886339187622070e+00,2.718405008316040039e+00,2.657756328582763672e+00,2.599754810333251953e+00,2.544230699539184570e+00,2.491028785705566406e+00
4.881448268890380859e+00,5.000000000000000000e+00,5.000000000000000000e+00,5.000000000000000000e+00,5.000000000000000000e+00,5.000000000000000000e+00,5.000000000000000000e+00,5.000000000000000000e+00,5.000000000000000000e+00,5.000000000000000000e+00,5.000000000000000000e+00,5.000000000000000000e+00,5.000000000000000000e+00,5.000000000000000000e+00,5.000000000000000000e+00,5.000000000000000000e+00,5.000000000000000000e+00,5.000000000000000000e+00,5.000000000000000000e+00,5.000000000000000000e+00,5.000000000000000000e+00,5.000000000000000000e+00,5.000000000000000000e+00,5.000000000000000000e+00,5.000000000000000000e+00,5.000000000000000000e+00,5.000000000000000000e+00,5.000000000000000000e+00,5.000000000000000000e+00,5.000000000000000000e+00,5.000000000000000000e+00,5.000000000000000000e+00,5.000000000000000000e+00,5.000000000000000000e+00,5.000000000000000000e+00,5.000000000000000000e+00,5.000000000000000000e+00,5.000000000000000000e+00,5.000000000000000000e+00,5.000000000000000000e+00,5.000000000000000000e+00,5.000000000000000000e+00,5.000000000000000000e+00,5.000000000000000000e+00,4.045210361480712891e+00,4.048247814178466797e+00,4.064574718475341797e+00,4.064554214477539062e+00,5.000000000000000000e+00,5.000000000000000000e+00,5.000000000000000000e+00,5.000000000000000000e+00,5.000000000000000000e+00,5.000000000000000000e+00,5.000000000000000000e+00,5.000000000000000000e+00,4.799386501312255859e+00,4.613516330718994141e+00,4.441506385803222656e+00,4.281861305236816406e+00,4.133294582366943359e+00,3.994692087173461914e+00,3.865083456039428711e+00,3.743620634078979492e+00,3.629559516906738281e+00,3.522243261337280273e+00,3.421090841293334961e+00,3.325586080551147461e+00,3.235268831253051758e+00,3.149727582931518555e+00,3.068593263626098633e+00,2.991533994674682617e+00,2.918250083923339844e+00,2.848470687866210938e+00,2.781950712203979492e+00,2.718466520309448242e+00,2.657814979553222656e+00,2.599811077117919922e+00,2.544284582138061523e+00,2.491080284118652344e+00
4.881321430206298828e+00,5.000000000000000000e+00,5.000000000000000000e+00,5.000000000000000000e+00,5.000000000000000000e+00,5.000000000000000000e+00,5.000000000000000000e+00,5.000000000000000000e+00,5.000000000000000000e+00,5.000000000000000000e+00,5.000000000000000000e+00,5.000000000000000000e+00,5.000000000000000000e+00,5.000000000000000000e+00,5.000000000000000000e+00,5.000000000000000000e+00,5.000000000000000000e+00,5.000000000000000000e+00,5.000000000000000000e+00,5.000000000000000000e+00,5.000000000000000000e+00,5.000000000000000000e+00,5.000000000000000000e+00,5.000000000000000000e+00,5.000000000000000000e+00,5.000000000000000000e+00,5.000000000000000000e+00,5.000000000000000000e+00,5.000000000000000000e+00,5.000000000000000000e+00,5.000000000000000000e+00,5.000000000000000000e+00,5.000000000000000000e+00,5.000000000000000000e+00,5.000000000000000000e+00,5.000000000000000000e+00,5.000000000000000000e+00,5.000000000000000000e+00,5.000000000000000000e+00,5.000000000000000000e+00,5.000000000000000000e+00,5.000000000000000000e+00,5.000000000000000000e+00,5.000000000000000000e+00,4.014616966247558594e+00,4.011460781097412109e+00,4.001350879669189453e+00,3.988324165344238281e+00,5.000000000000000000e+00,5.000000000000000000e+00,5.000000000000000000e+00,5.000000000000000000e+00,5.000000000000000000e+00,5.000000000000000000e+00,5.000000000000000000e+00,5.000000000000000000e+00,4.799578189849853516e+00,4.613693237304687500e+00,4.441669940948486328e+00,4.282013893127441406e+00,4.133436679840087891e+00,3.994824886322021484e+00,3.865207672119140625e+00,3.743737220764160156e+00,3.629669189453125000e+00,3.522346496582031250e+00,3.421188116073608398e+00,3.325678110122680664e+00,3.235355854034423828e+00,3.149810075759887695e+00,3.068671464920043945e+00,2.991608381271362305e+00,2.918320894241333008e+00,2.848538160324096680e+00,2.782014846801757812e+00,2.718528032302856445e+00,2.657873868942260742e+00,2.599867105484008789e+00,2.544338464736938477e+00,2.491132020950317383e+00
4.881195068359375000e+00,5.000000000000000000e+00,5.000000000000000000e+00,5.000000000000000000e+00,5.000000000000000000e+00,5.000000000000000000e+00,5.000000000000000000e+00,5.000000000000000000e+00,5.000000000000000000e+00,5.000000000000000000e+00,5.000000000000000000e+00,5.000000000000000000e+00,5.000000000000000000e+00,5.000000000000000000e+00,5.000000000000000000e+00,5.000000000000000000e+00,5.000000000000000000e+00,5.000000000000000000e+00,5.000000000000000000e+00,5.000000000000000000e+00,5.000000000000000000e+00,5.000000000000000000e+00,5.000000000000000000e+00,5.000000000000000000e+00,5.000000000000000000e+00,5.000000000000000000e+00,5.000000000000000000e+00,5.000000000000000000e+00,5.000000000000000000e+00,5.000000000000000000e+00,5.000000000000000000e+00,5.000000000000000000e+00,5.000000000000000000e+00,5.000000000000000000e+00,5.000000000000000000e+00,5.000000000000000000e+00,5.000000000000000000e+00,5.000000000000000000e+00,5.000000000000000000e+00,5.000000000000000000e+00,5.000000000000000000e+00,5.000000000000000000e+00,5.000000000000000000e+00,5.000000000000000000e+00,4.015893936157226562e+00,3.994977951049804688e+00,3.960298299789428711e+00,3.919858694076538086e+00,5.000000000000000000e+00,5.000000000000000000e+00,5.000000000000000000e+00,5.000000000000000000e+00,5.000000000000000000e+00,5.000000000000000000e+00,5.000000000000000000e+00,5.000000000000000000e+00,4.799769878387451172e+00,4.613870143890380859e+00,4.441833972930908203e+00,4.282166004180908203e+00,4.133578777313232422e+00,3.994957685470581055e+00,3.865331888198852539e+00,3.743853807449340820e+00,3.629778623580932617e+00,3.522449731826782227e+00,3.421285390853881836e+00,3.325769901275634766e+00,3.235442876815795898e+00,3.149892568588256836e+00,3.068749904632568359e+00,2.991682767868041992e+00,2.918391704559326172e+00,2.848605632781982422e+00,2.782079219818115234e+00,2.718589305877685547e+00,2.657932281494140625e+00,2.599923372268676758e+00,2.544392347335815430e+00,2.491183519363403320e+00
4.881068706512451172e+00,5.000000000000000000e+00,5.000000000000000000e+00,5.000000000000000000e+00,5.000000000000000000e+00,5.000000000000000000e+00,5.000000000000000000e+00,5.000000000000000000e+00,5.000000000000000000e+00,5.000000000000000000e+00,5.000000000000000000e+00,5.000000000000000000e+00,5.000000000000000000e+00,5.000000000000000000e+00,5.000000000000000000e+00,5.000000000000000000e+00,5.000000000000000000e+00,5.000000000000000000e+00,5.000000000000000000e+00,5.000000000000000000e+00,5.000000000000000000e+00,5.000000000000000000e+00,5.000000000000000000e+00,5.000000000000000000e+00,5.000000000000000000e+00,5.000000000000000000e+00,5.000000000000000000e+00,5.000000000000000000e+00,5.000000000000000000e+00,5.000000000000000000e+00,5.000000000000000000e+00,5.000000000000000000e+00,5.000000000000000000e+00,5.000000000000000000e+00,5.000000000000000000e+00,5.000000000000000000e+00,5.000000000000000000e+00,5.000000000000000000e+00,5.000000000000000000e+00,5.000000000000000000e+00,5.000000000000000000e+00,5.000000000000000000e+00,5.000000000000000000e+00,5.000000000000000000e+00,4.022276878356933594e+00,3.971518754959106445e+00,5.000000000000000000e+00,3.941839694976806641e+00,5.000000000000000000e+00,5.000000000000000000e+00,5.000000000000000000e+00,5.000000000000000000e+00,5.000000000000000000e+00,5.000000000000000000e+00,5.000000000000000000e+00,5.000000000000000000e+00,4.799961090087890625e+00,4.614047050476074219e+00,4.441998004913330078e+00,4.282318592071533203e+00,4.133720397949218750e+00,3.995089769363403320e+00,3.865455627441406250e+00,3.743970394134521484e+00,3.629888296127319336e+00,3.522552728652954102e+00,3.421382904052734375e+00,3.325861930847167969e+00,3.235529899597167969e+00,3.149975061416625977e+00,3.068828105926513672e+00,2.991757154464721680e+00,2.918462514877319336e+00,2.848673105239868164e+00,2.782143592834472656e+00,2.718650579452514648e+00,2.657991170883178711e+00,2.599979400634765625e+00,2.544445753097534180e+00,2.491235256195068359e+00
4.880942344665527344e+00,5.000000000000000000e+00,5.000000000000000000e+00,5.000000000000000000e+00,5.000000000000000000e+00,5.000000000000000000e+00,5.000000000000000000e+00,5.000000000000000000e+00,5.000000000000000000e+00,5.000000000000000000e+00,5.000000000000000000e+00,5.000000000000000000e+00,5.000000000000000000e+00,5.000000000000000000e+00,5.000000000000000000e+00,5.000000000000000000e+00,5.000000000000000000e+00,5.000000000000000000e+00,5.000000000000000000e+00,5.000000000000000000e+00,5.000000000000000000e+00,5.000000000000000000e+00,5.000000000000000000e+00,5.000000000000000000e+00,5.000000000000000000e+00,5.000000000000000000e+00,5.000000000000000000e+00,5.000000000000000000e+00,5.000000000000000000e+00,5.000000000000000000e+00,5.000000000000000000e+00,5.000000000000000000e+00,5.000000000000000000e+00,5.000000000000000000e+00,5.000000000000000000e+00,5.000000000000000000e+00,5.000000000000000000e+00,5.000000000000000000e+00,5.000000000000000000e+00,5.000000000000000000e+00,5.000000000000000000e+00,5.000000000000000000e+00,5.000000000000000000e+00,5.000000000000000000e+00,5.000000000000000000e+00,3.960410594940185547e+00,5.000000000000000000e+00,3.857938051223754883e+00,5.000000000000000000e+00,5.000000000000000000e+00,5.000000000000000000e+00,5.000000000000000000e+00,5.000000000000000000e+00,5.000000000000000000e+00,5.000000000000000000e+00,5.000000000000000000e+00,4.800152301788330078e+00,4.614224433898925781e+00,4.442162513732910156e+00,4.282471179962158203e+00,4.133862495422363281e+00,3.995222568511962891e+00,3.865579843521118164e+00,3.744086503982543945e+00,3.629997253417968750e+00,3.522655963897705078e+00,3.421480178833007812e+00,3.325953960418701172e+00,3.235616922378540039e+00,3.150057554244995117e+00,3.068906545639038086e+00,2.991831541061401367e+00,2.918533325195312500e+00,2.848740577697753906e+00,2.782207965850830078e+00,2.718712091445922852e+00,2.658049821853637695e+00,2.600035667419433594e+00,2.544499635696411133e+00,2.491286516189575195e+00
4.880894184112548828e+00,5.000000000000000000e+00,5.000000000000000000e+00,5.000000000000000000e+00,5.000000000000000000e+00,5.000000000000000000e+00,5.000000000000000000e+00,5.000000000000000000e+00,5.000000000000000000e+00,5.000000000000000000e+00,5.000000000000000000e+00,5.000000000000000000e+00,5.000000000000000000e+00,5.000000000000000000e+00,5.000000000000000000e+00,5.000000000000000000e+00,5.000000000000000000e+00,5.000000000000000000e+00,5.000000000000000000e+00,5.000000000000000000e+00,5.000000000000000000e+00,5.000000000000000000e+00,5.000000000000000000e+00,5.000000000000000000e+00,5.000000000000000000e+00,5.000000000000000000e+00,5.000000000000000000e+00,5.000000000000000000e+00,5.000000000000000000e+00,5.000000000000000000e+00,5.000000000000000000e+00,5.000000000000000000e+00,5.000000000000000000e+00,5.000000000000000000e+00,5.000000000000000000e+00,5.000000000000000000e+00,5.000000000000000000e+00,5.000000000000000000e+00,5.000000000000000000e+00,5.000000000000000000e+00,5.000000000000000000e+00,5.000000000000000000e+00,5.000000000000000000e+00,5.000000000000000000e+00,5.000000000000000000e+00,3.958559513092041016e+00,3.923115730285644531e+00,3.901351690292358398e+00,5.000000000000000000e+00,5.000000000000000000e+00,5.000000000000000000e+00,5.000000000000000000e+00,5.000000000000000000e+00,5.000000000000000000e+00,5.000000000000000000e+00,5.000000000000000000e+00,4.800343990325927734e+00,4.614400863647460938e+00,4.442326068878173828e+00,4.282623767852783203e+00,4.134004592895507812e+00,3.995355367660522461e+00,3.865704059600830078e+00,3.744203090667724609e+00,3.630106925964355469e+00,3.522758722305297852e+00,3.421577215194702148e+00,3.326045989990234375e+00,3.235704183578491211e+00,3.150140047073364258e+00,3.068984746932983398e+00,2.991905927658081055e+00,2.918604135513305664e+00,2.848808050155639648e+00,2.782272338867187500e+00,2.718773603439331055e+00,2.658108472824096680e+00,2.600091934204101562e+00,2.544553518295288086e+00,2.491338253021240234e+00
4.872890949249267578e+00,4.871673107147216797e+00,4.870455741882324219e+00,4.869238853454589844e+00,4.868022441864013672e+00,4.866806983947753906e+00,4.865592002868652344e+00,4.864377975463867188e+00,4.863163948059082031e+00,4.861950874328613281e+00,4.860738277435302734e+00,4.859526157379150391e+00,4.858314990997314453e+00,4.857104301452636719e+00,4.855894088745117188e+00,4.854684829711914062e+00,4.853476047515869141e+00,4.852267742156982422e+00,4.851059913635253906e+00,4.849852561950683594e+00,4.848646163940429688e+00,4.847440242767333984e+00,4.846235275268554688e+00,4.845030307769775391e+00,4.843826293945312500e+00,4.842622756958007812e+00,4.841419696807861328e+00,4.840217590332031250e+00,4.839015483856201172e+00,4.837814331054687500e+00,4.836614131927490234e+00,4.835413932800292969e+00,4.834214687347412109e+00,4.833015918731689453e+00,4.831817626953125000e+00,4.830620288848876953e+00,4.829423427581787109e+00,4.828227043151855469e+00,4.827031135559082031e+00,4.825835704803466797e+00,4.824641227722167969e+00,4.823447227478027344e+00,4.822254180908203125e+00,4.821061134338378906e+00,4.819869041442871094e+00,3.940976381301879883e+00,4.817486286163330078e+00,4.816295623779296875e+00,4.815105915069580078e+00,4.813916683197021484e+00,4.812727928161621094e+00,4.811539649963378906e+00,4.810351848602294922e+00,4.809165000915527344e+00,4.807978630065917969e+00,4.806793212890625000e+00,4.800535678863525391e+00,4.614578247070312500e+00,4.442490100860595703e+00,4.282775878906250000e+00,4.134146690368652344e+00,3.995487928390502930e+00,3.865828514099121094e+00,3.744319438934326172e+00,3.630216598510742188e+00,3.522861957550048828e+00,3.421674489974975586e+00,3.326137542724609375e+00,3.235790729522705078e+00,3.150222539901733398e+00,3.069062948226928711e+00,2.991980552673339844e+00,2.918674945831298828e+00,2.848875522613525391e+00,2.782336711883544922e+00,2.718835115432739258e+00,2.658167362213134766e+00,2.600147962570190430e+00,2.544607400894165039e+00,2.491389751434326172e+00
3.776866674423217773e+00,3.776134729385375977e+00,3.775403499603271484e+00,3.774672269821166992e+00,3.773941516876220703e+00,3.773210763931274414e+00,3.772480249404907227e+00,3.771750450134277344e+00,3.771020412445068359e+00,3.770291328430175781e+00,3.769562005996704102e+00,3.768832921981811523e+00,3.768104553222656250e+00,3.767375946044921875e+00,3.766648054122924805e+00,3.765920162200927734e+00,3.765192508697509766e+00,3.764465570449829102e+00,3.763738393783569336e+00,3.763011932373046875e+00,3.762285470962524414e+00,3.761559247970581055e+00,3.760833501815795898e+00,3.760107755661010742e+00,3.759382963180541992e+00,3.758657693862915039e+00,3.757932901382446289e+00,3.757208585739135742e+00,3.756484270095825195e+00,3.755760192871093750e+00,3.755036830902099609e+00,3.754313468933105469e+00,3.753590583801269531e+00,3.752867698669433594e+00,3.752145051956176758e+00,3.751423120498657227e+00,3.750700950622558594e+00,3.749979734420776367e+00,3.749258041381835938e+00,3.748536825180053711e+00,3.747816324234008789e+00,3.747095584869384766e+00,3.746375560760498047e+00,3.745655298233032227e+00,3.744935512542724609e+00,3.744216442108154297e+00,3.743497133255004883e+00,3.742778539657592773e+00,3.742059707641601562e+00,3.741341114044189453e+00,3.740623474121093750e+00,3.739905595779418945e+00,3.739188194274902344e+00,3.738470792770385742e+00,3.737753868103027344e+00,3.737037181854248047e+00,3.736320734024047852e+00,3.735604763031005859e+00,3.734888792037963867e+00,3.734173059463500977e+00,3.733458042144775391e+00,3.732743024826049805e+00,3.732028484344482422e+00,3.731313705444335938e+00,3.630326032638549805e+00,3.522965192794799805e+00,3.421771764755249023e+00,3.326229572296142578e+00,3.235877990722656250e+00,3.150304794311523438e+00,3.069141149520874023e+00,2.992054939270019531e+00,2.918745756149291992e+00,2.848942995071411133e+00,2.782401084899902344e+00,2.718896627426147461e+00,2.658226013183593750e+00,2.600204229354858398e+00,2.544661283493041992e+00,2.491441488265991211e+00
3.083350896835327148e+00,3.082863330841064453e+00,3.082375526428222656e+00,3.081888198852539062e+00,3.081401109695434570e+00,3.080913782119750977e+00,3.080426931381225586e+00,3.079940080642700195e+00,3.079453468322753906e+00,3.078967094421386719e+00,3.078480720520019531e+00,3.077994346618652344e+00,3.077508449554443359e+00,3.077022552490234375e+00,3.076536893844604492e+00,3.076051235198974609e+00,3.075565814971923828e+00,3.075080633163452148e+00,3.074595451354980469e+00,3.074110746383666992e+00,3.073625802993774414e+00,3.073141098022460938e+00,3.072656869888305664e+00,3.072172403335571289e+00,3.071688413619995117e+00,3.071204185485839844e+00,3.070720195770263672e+00,3.070236682891845703e+00,3.069752931594848633e+00,3.069269657135009766e+00,3.068786382675170898e+00,3.068303108215332031e+00,3.067820310592651367e+00,3.067337274551391602e+00,3.066854953765869141e+00,3.066372394561767578e+00,3.065889835357666016e+00,3.065407752990722656e+00,3.064925670623779297e+00,3.064444065093994141e+00,3.063962221145629883e+00,3.063480377197265625e+00,3.062999248504638672e+00,3.062517642974853516e+00,3.062036752700805664e+00,3.061555624008178711e+00,3.061074733734130859e+00,3.060594320297241211e+00,3.060113668441772461e+00,3.059633255004882812e+00,3.059153079986572266e+00,3.058672666549682617e+00,3.058192968368530273e+00,3.057713031768798828e+00,3.057233572006225586e+00,3.056754112243652344e+00,3.056274652481079102e+00,3.055795669555664062e+00,3.055316448211669922e+00,3.054837703704833984e+00,3.054358959197998047e+00,3.053880214691162109e+00,3.053401947021484375e+00,3.052923440933227539e+00,3.052445173263549805e+00,3.051967382431030273e+00,3.051489591598510742e+00,3.051012039184570312e+00,3.050534248352050781e+00,3.050056934356689453e+00,3.049579858779907227e+00,2.992129087448120117e+00,2.918816328048706055e+00,2.849010467529296875e+00,2.782465457916259766e+00,2.718957901000976562e+00,2.658284902572631836e+00,2.600260496139526367e+00,2.544715166091918945e+00,2.491492986679077148e+00
2.605012893676757812e+00,2.604665040969848633e+00,2.604316711425781250e+00,2.603968858718872070e+00,2.603621006011962891e+00,2.603273153305053711e+00,2.602925777435302734e+00,2.602577924728393555e+00,2.602230548858642578e+00,2.601883172988891602e+00,2.601535797119140625e+00,2.601188659667968750e+00,2.600841522216796875e+00,2.600494384765625000e+00,2.600147724151611328e+00,2.599800825119018555e+00,2.599454164505004883e+00,2.599107265472412109e+00,2.598760604858398438e+00,2.598414421081542969e+00,2.598067998886108398e+00,2.597721815109252930e+00,2.597375392913818359e+00,2.597029209136962891e+00,2.596683502197265625e+00,2.596337556838989258e+00,2.595991849899291992e+00,2.595645904541015625e+00,2.595300197601318359e+00,2.594954729080200195e+00,2.594609260559082031e+00,2.594264030456542969e+00,2.593918800354003906e+00,2.593573331832885742e+00,2.593228578567504883e+00,2.592883348464965820e+00,2.592538595199584961e+00,2.592193841934204102e+00,2.591848850250244141e+00,2.591504335403442383e+00,2.591159820556640625e+00,2.590815544128417969e+00,2.590471029281616211e+00,2.590126752853393555e+00,2.589782714843750000e+00,2.589438438415527344e+00,2.589094400405883789e+00,2.588750839233398438e+00,2.588406801223754883e+00,2.588063240051269531e+00,2.587719678878784180e+00,2.587375879287719727e+00,2.587032556533813477e+00,2.586689233779907227e+00,2.586346149444580078e+00,2.586002826690673828e+00,2.585659742355346680e+00,2.585316896438598633e+00,2.584973812103271484e+00,2.584631204605102539e+00,2.584288358688354492e+00,2.583945751190185547e+00,2.583603382110595703e+00,2.583260774612426758e+00,2.582918643951416016e+00,2.582576274871826172e+00,2.582234144210815430e+00,2.581892013549804688e+00,2.581550121307373047e+00,2.581208229064941406e+00,2.580866336822509766e+00,2.580524682998657227e+00,2.580183029174804688e+00,2.579841613769531250e+00,2.579500198364257812e+00,2.579158782958984375e+00,2.578817367553710938e+00,2.578476428985595703e+00,2.544768810272216797e+00,2.491544723510742188e+00
2.255157470703125000e+00,2.254896640777587891e+00,2.254635810852050781e+00,2.254374980926513672e+00,2.254114389419555664e+00,2.253853559494018555e+00,2.253592967987060547e+00,2.253332376480102539e+00,2.253072023391723633e+00,2.252811670303344727e+00,2.252551078796386719e+00,2.252290964126586914e+00,2.252030611038208008e+00,2.251770496368408203e+00,2.251510381698608398e+00,2.251250267028808594e+00,2.250990390777587891e+00,2.250730276107788086e+00,2.250470638275146484e+00,2.250210762023925781e+00,2.249950885772705078e+00,2.249691247940063477e+00,2.249431610107421875e+00,2.249171972274780273e+00,2.248912572860717773e+00,2.248652935028076172e+00,2.248393535614013672e+00,2.248134136199951172e+00,2.247874975204467773e+00,2.247615814208984375e+00,2.247356414794921875e+00,2.247097492218017578e+00,2.246838331222534180e+00,2.246579408645629883e+00,2.246320486068725586e+00,2.246061563491821289e+00,2.245802879333496094e+00,2.245543956756591797e+00,2.245285272598266602e+00,2.245026826858520508e+00,2.244768142700195312e+00,2.244509696960449219e+00,2.244251251220703125e+00,2.243992805480957031e+00,2.243734598159790039e+00,2.243476152420043945e+00,2.243217945098876953e+00,2.242959737777709961e+00,2.242701768875122070e+00,2.242443799972534180e+00,2.242185831069946289e+00,2.241927862167358398e+00,2.241669893264770508e+00,2.241412162780761719e+00,2.241154432296752930e+00,2.240896701812744141e+00,2.240639209747314453e+00,2.240381479263305664e+00,2.240123987197875977e+00,2.239866733551025391e+00,2.239609241485595703e+00,2.239351987838745117e+00,2.239094734191894531e+00,2.238837480545043945e+00,2.238580465316772461e+00,2.238323211669921875e+00,2.238066196441650391e+00,2.237809181213378906e+00,2.237552404403686523e+00,2.237295627593994141e+00,2.237038612365722656e+00,2.236782073974609375e+00,2.236525297164916992e+00,2.236268520355224609e+00,2.236012220382690430e+00,2.235755443572998047e+00,2.235499143600463867e+00,2.235242843627929688e+00,2.234986305236816406e+00,2.234730243682861328e+00
1.988147735595703125e+00,1.987944960594177246e+00,1.987742185592651367e+00,1.987539410591125488e+00,1.987336754798889160e+00,1.987134099006652832e+00,1.986931681632995605e+00,1.986729025840759277e+00,1.986526489257812500e+00,1.986324071884155273e+00,1.986121535301208496e+00,1.985919356346130371e+00,1.985717058181762695e+00,1.985514760017395020e+00,1.985312461853027344e+00,1.985110163688659668e+00,1.984908223152160645e+00,1.984706044197082520e+00,1.984503865242004395e+00,1.984301805496215820e+00,1.984099745750427246e+00,1.983897924423217773e+00,1.983695983886718750e+00,1.983494043350219727e+00,1.983292222023010254e+00,1.983090400695800781e+00,1.982888817787170410e+00,1.982686996459960938e+00,1.982485294342041016e+00,1.982283711433410645e+00,1.982082009315490723e+00,1.981880664825439453e+00,1.981679081916809082e+00,1.981477618217468262e+00,1.981276154518127441e+00,1.981074690818786621e+00,1.980873465538024902e+00,1.980672121047973633e+00,1.980470895767211914e+00,1.980269551277160645e+00,1.980068325996398926e+00,1.979867458343505859e+00,1.979666233062744141e+00,1.979465126991271973e+00,1.979264140129089355e+00,1.979063034057617188e+00,1.978862285614013672e+00,1.978661417961120605e+00,1.978460431098937988e+00,1.978259563446044922e+00,1.978058815002441406e+00,1.977858185768127441e+00,1.977657437324523926e+00,1.977456808090209961e+00,1.977256178855895996e+00,1.977055549621582031e+00,1.976855158805847168e+00,1.976654648780822754e+00,1.976454138755798340e+00,1.976253628730773926e+00,1.976053237915039062e+00,1.975853085517883301e+00,1.975652813911437988e+00,1.975452542304992676e+00,1.975252270698547363e+00,1.975051999092102051e+00,1.974852085113525391e+00,1.974651932716369629e+00,1.974451899528503418e+00,1.974251866340637207e+00,1.974051833152770996e+00,1.973852038383483887e+00,1.973652124404907227e+00,1.973452210426330566e+00,1.973252415657043457e+00,1.973052620887756348e+00,1.972853064537048340e+00,1.972653388977050781e+00,1.972453713417053223e+00,1.972254037857055664e+00
1.777671933174133301e+00,1.777509689331054688e+00,1.777347564697265625e+00,1.777185678482055664e+00,1.777023673057556152e+00,1.776861548423767090e+00,1.776699542999267578e+00,1.776537656784057617e+00,1.776375889778137207e+00,1.776213884353637695e+00,1.776051998138427734e+00,1.775890111923217773e+00,1.775728344917297363e+00,1.775566697120666504e+00,1.775404930114746094e+00,1.775243163108825684e+00,1.775081515312194824e+00,1.774919748306274414e+00,1.774758338928222656e+00,1.774596691131591797e+00,1.774435043334960938e+00,1.774273514747619629e+00,1.774111986160278320e+00,1.773950695991516113e+00,1.773789167404174805e+00,1.773627758026123047e+00,1.773466229438781738e+00,1.773304820060729980e+00,1.773143649101257324e+00,1.772982358932495117e+00,1.772821068763732910e+00,1.772659778594970703e+00,1.772498488426208496e+00,1.772337436676025391e+00,1.772176265716552734e+00,1.772015094757080078e+00,1.771854043006896973e+00,1.771692872047424316e+00,1.771532058715820312e+00,1.771371006965637207e+00,1.771209955215454102e+00,1.771049022674560547e+00,1.770887970924377441e+00,1.770727276802062988e+00,1.770566344261169434e+00,1.770405530929565430e+00,1.770244598388671875e+00,1.770083904266357422e+00,1.769923210144042969e+00,1.769762516021728516e+00,1.769601821899414062e+00,1.769441127777099609e+00,1.769280433654785156e+00,1.769119977951049805e+00,1.768959403038024902e+00,1.768798828125000000e+00,1.768638253211975098e+00,1.768477678298950195e+00,1.768317461013793945e+00,1.768157005310058594e+00,1.767996549606323242e+00,1.767836093902587891e+00,1.767675757408142090e+00,1.767515540122985840e+00,1.767355322837829590e+00,1.767194986343383789e+00,1.767034769058227539e+00,1.766874551773071289e+00,1.766714453697204590e+00,1.766554355621337891e+00,1.766394138336181641e+00,1.766234040260314941e+00,1.766074061393737793e+00,1.765914082527160645e+00,1.765754103660583496e+00,1.765594124794006348e+00,1.765434145927429199e+00,1.765274286270141602e+00,1.765114545822143555e+00,1.764954686164855957e+00
1.607494235038757324e+00,1.607361674308776855e+00,1.607228994369506836e+00,1.607096433639526367e+00,1.606963992118835449e+00,1.606831550598144531e+00,1.606699109077453613e+00,1.606566667556762695e+00,1.606434226036071777e+00,1.606301784515380859e+00,1.606169462203979492e+00,1.606037139892578125e+00,1.605904817581176758e+00,1.605772376060485840e+00,1.605640053749084473e+00,1.605507969856262207e+00,1.605375647544860840e+00,1.605243444442749023e+00,1.605111241340637207e+00,1.604979038238525391e+00,1.604846954345703125e+00,1.604714751243591309e+00,1.604582667350769043e+00,1.604450583457946777e+00,1.604318380355834961e+00,1.604186534881591797e+00,1.604054450988769531e+00,1.603922367095947266e+00,1.603790402412414551e+00,1.603658437728881836e+00,1.603526592254638672e+00,1.603394627571105957e+00,1.603262782096862793e+00,1.603130817413330078e+00,1.602998971939086914e+00,1.602867245674133301e+00,1.602735400199890137e+00,1.602603554725646973e+00,1.602471828460693359e+00,1.602339982986450195e+00,1.602208375930786133e+00,1.602076649665832520e+00,1.601945042610168457e+00,1.601813316345214844e+00,1.601681590080261230e+00,1.601550102233886719e+00,1.601418495178222656e+00,1.601286888122558594e+00,1.601155400276184082e+00,1.601023793220520020e+00,1.600892424583435059e+00,1.600760936737060547e+00,1.600629448890686035e+00,1.600497961044311523e+00,1.600366473197937012e+00,1.600235223770141602e+00,1.600103855133056641e+00,1.599972367286682129e+00,1.599840998649597168e+00,1.599709630012512207e+00,1.599578499794006348e+00,1.599447250366210938e+00,1.599316000938415527e+00,1.599184751510620117e+00,1.599053502082824707e+00,1.598922371864318848e+00,1.598791241645812988e+00,1.598659992218017578e+00,1.598528861999511719e+00,1.598397731781005859e+00,1.598266720771789551e+00,1.598135709762573242e+00,1.598004698753356934e+00,1.597873687744140625e+00,1.597742676734924316e+00,1.597611665725708008e+00,1.597480773925781250e+00,1.597349882125854492e+00,1.597218871116638184e+00,1.597087979316711426e+00
1.467052221298217773e+00,1.466941714286804199e+00,1.466831445693969727e+00,1.466721057891845703e+00,1.466610670089721680e+00,1.466500282287597656e+00,1.466389894485473633e+00,1.466279745101928711e+00,1.466169357299804688e+00,1.466059088706970215e+00,1.465948700904846191e+00,1.465838432312011719e+00,1.465728282928466797e+00,1.465618133544921875e+00,1.465507864952087402e+00,1.465397596359252930e+00,1.465287446975708008e+00,1.465177416801452637e+00,1.465067267417907715e+00,1.464957118034362793e+00,1.464846968650817871e+00,1.464736819267272949e+00,1.464626908302307129e+00,1.464516758918762207e+00,1.464406728744506836e+00,1.464296698570251465e+00,1.464186668395996094e+00,1.464076757431030273e+00,1.463966727256774902e+00,1.463856816291809082e+00,1.463746786117553711e+00,1.463636875152587891e+00,1.463527083396911621e+00,1.463417172431945801e+00,1.463307261466979980e+00,1.463197350502014160e+00,1.463087558746337891e+00,1.462977766990661621e+00,1.462867975234985352e+00,1.462758183479309082e+00,1.462648391723632812e+00,1.462538599967956543e+00,1.462428927421569824e+00,1.462319254875183105e+00,1.462209463119506836e+00,1.462099790573120117e+00,1.461990118026733398e+00,1.461880564689636230e+00,1.461770892143249512e+00,1.461661219596862793e+00,1.461551547050476074e+00,1.461441993713378906e+00,1.461332321166992188e+00,1.461222887039184570e+00,1.461113333702087402e+00,1.461003780364990234e+00,1.460894227027893066e+00,1.460784673690795898e+00,1.460675358772277832e+00,1.460565924644470215e+00,1.460456371307373047e+00,1.460346937179565430e+00,1.460237503051757812e+00,1.460128188133239746e+00,1.460018754005432129e+00,1.459909439086914062e+00,1.459800004959106445e+00,1.459690690040588379e+00,1.459581494331359863e+00,1.459472179412841797e+00,1.459362864494323730e+00,1.459253549575805664e+00,1.459144234657287598e+00,1.459035158157348633e+00,1.458925962448120117e+00,1.458816647529602051e+00,1.458707451820373535e+00,1.458598256111145020e+00,1.458489298820495605e+00,1.458380103111267090e+00
1.349178552627563477e+00,1.349085092544555664e+00,1.348991751670837402e+00,1.348898291587829590e+00,1.348805069923400879e+00,1.348711729049682617e+00,1.348618388175964355e+00,1.348525047302246094e+00,1.348431706428527832e+00,1.348338484764099121e+00,1.348245263099670410e+00,1.348151922225952148e+00,1.348058700561523438e+00,1.347965478897094727e+00,1.347872257232666016e+00,1.347779035568237305e+00,1.347685813903808594e+00,1.347592711448669434e+00,1.347499489784240723e+00,1.347406387329101562e+00,1.347313284873962402e+00,1.347220063209533691e+00,1.347126960754394531e+00,1.347033858299255371e+00,1.346940875053405762e+00,1.346847772598266602e+00,1.346754670143127441e+00,1.346661567687988281e+00,1.346568584442138672e+00,1.346475481986999512e+00,1.346382617950439453e+00,1.346289515495300293e+00,1.346196532249450684e+00,1.346103549003601074e+00,1.346010565757751465e+00,1.345917701721191406e+00,1.345824718475341797e+00,1.345731735229492188e+00,1.345638871192932129e+00,1.345545887947082520e+00,1.345453143119812012e+00,1.345360279083251953e+00,1.345267295837402344e+00,1.345174431800842285e+00,1.345081567764282227e+00,1.344988942146301270e+00,1.344896078109741211e+00,1.344803214073181152e+00,1.344710469245910645e+00,1.344617605209350586e+00,1.344524979591369629e+00,1.344432234764099121e+00,1.344339489936828613e+00,1.344246745109558105e+00,1.344154000282287598e+00,1.344061374664306641e+00,1.343968629837036133e+00,1.343876004219055176e+00,1.343783259391784668e+00,1.343690633773803711e+00,1.343598127365112305e+00,1.343505382537841797e+00,1.343412756919860840e+00,1.343320250511169434e+00,1.343227624893188477e+00,1.343135118484497070e+00,1.343042492866516113e+00,1.342949986457824707e+00,1.342857480049133301e+00,1.342764854431152344e+00,1.342672467231750488e+00,1.342579960823059082e+00,1.342487454414367676e+00,1.342394948005676270e+00,1.342302441596984863e+00,1.342210173606872559e+00,1.342117667198181152e+00,1.342025279998779297e+00,1.341932892799377441e+00,1.341840386390686035e+00
1.248837709426879883e+00,1.248757839202880859e+00,1.248677849769592285e+00,1.248597741127014160e+00,1.248517751693725586e+00,1.248437762260437012e+00,1.248357892036437988e+00,1.248277902603149414e+00,1.248197913169860840e+00,1.248118042945861816e+00,1.248038053512573242e+00,1.247958183288574219e+00,1.247878313064575195e+00,1.247798442840576172e+00,1.247718453407287598e+00,1.247638583183288574e+00,1.247558712959289551e+00,1.247478961944580078e+00,1.247399091720581055e+00,1.247319221496582031e+00,1.247239470481872559e+00,1.247159600257873535e+00,1.247079849243164062e+00,1.247000098228454590e+00,1.246920228004455566e+00,1.246840476989746094e+00,1.246760725975036621e+00,1.246680974960327148e+00,1.246601223945617676e+00,1.246521472930908203e+00,1.246441721916198730e+00,1.246362090110778809e+00,1.246282458305358887e+00,1.246202707290649414e+00,1.246123075485229492e+00,1.246043324470520020e+00,1.245963692665100098e+00,1.245884060859680176e+00,1.245804429054260254e+00,1.245724797248840332e+00,1.245645165443420410e+00,1.245565533638000488e+00,1.245486021041870117e+00,1.245406389236450195e+00,1.245326757431030273e+00,1.245247244834899902e+00,1.245167613029479980e+00,1.245088219642639160e+00,1.245008587837219238e+00,1.244929075241088867e+00,1.244849562644958496e+00,1.244770050048828125e+00,1.244690656661987305e+00,1.244611144065856934e+00,1.244531631469726562e+00,1.244452118873596191e+00,1.244372725486755371e+00,1.244293332099914551e+00,1.244213819503784180e+00,1.244134426116943359e+00,1.244055032730102539e+00,1.243975520133972168e+00,1.243896245956420898e+00,1.243816852569580078e+00,1.243737459182739258e+00,1.243658065795898438e+00,1.243578672409057617e+00,1.243499398231506348e+00,1.243420124053955078e+00,1.243340730667114258e+00,1.243261456489562988e+00,1.243182063102722168e+00,1.243102908134460449e+00,1.243023633956909180e+00,1.242944240570068359e+00,1.242864966392517090e+00,1.242785811424255371e+00,1.242706537246704102e+00,1.242627382278442383e+00,1.242548108100891113e+00
1.162388920783996582e+00,1.162319540977478027e+00,1.162250280380249023e+00,1.162180900573730469e+00,1.162111759185791016e+00,1.162042379379272461e+00,1.161973118782043457e+00,1.161903858184814453e+00,1.161834597587585449e+00,1.161765336990356445e+00,1.161696076393127441e+00,1.161626815795898438e+00,1.161557555198669434e+00,1.161488413810729980e+00,1.161419272422790527e+00,1.161350011825561523e+00,1.161280751228332520e+00,1.161211609840393066e+00,1.161142349243164062e+00,1.161073327064514160e+00,1.161004066467285156e+00,1.160934925079345703e+00,1.160865783691406250e+00,1.160796642303466797e+00,1.160727500915527344e+00,1.160658359527587891e+00,1.160589218139648438e+00,1.160520195960998535e+00,1.160451054573059082e+00,1.160382032394409180e+00,1.160312891006469727e+00,1.160243868827819824e+00,1.160174727439880371e+00,1.160105705261230469e+00,1.160036683082580566e+00,1.159967660903930664e+00,1.159898519515991211e+00,1.159829497337341309e+00,1.159760475158691406e+00,1.159691572189331055e+00,1.159622550010681152e+00,1.159553527832031250e+00,1.159484505653381348e+00,1.159415483474731445e+00,1.159346580505371094e+00,1.159277677536010742e+00,1.159208655357360840e+00,1.159139752388000488e+00,1.159070730209350586e+00,1.159001946449279785e+00,1.158933043479919434e+00,1.158864021301269531e+00,1.158795118331909180e+00,1.158726215362548828e+00,1.158657431602478027e+00,1.158588528633117676e+00,1.158519625663757324e+00,1.158450722694396973e+00,1.158381938934326172e+00,1.158313155174255371e+00,1.158244252204895020e+00,1.158175468444824219e+00,1.158106565475463867e+00,1.158037781715393066e+00,1.157968997955322266e+00,1.157900214195251465e+00,1.157831430435180664e+00,1.157762646675109863e+00,1.157693862915039062e+00,1.157625198364257812e+00,1.157556414604187012e+00,1.157487630844116211e+00,1.157418847084045410e+00,1.157350182533264160e+00,1.157281517982482910e+00,1.157212734222412109e+00,1.157144069671630859e+00,1.157075285911560059e+00,1.157006621360778809e+00,1.156937956809997559e+00
1.087133765220642090e+00,1.087073087692260742e+00,1.087012529373168945e+00,1.086951851844787598e+00,1.086891174316406250e+00,1.086830615997314453e+00,1.086770057678222656e+00,1.086709499359130859e+00,1.086648821830749512e+00,1.086588263511657715e+00,1.086527705192565918e+00,1.086467146873474121e+00,1.086406588554382324e+00,1.086346030235290527e+00,1.086285471916198730e+00,1.086224913597106934e+00,1.086164474487304688e+00,1.086103916168212891e+00,1.086043357849121094e+00,1.085982799530029297e+00,1.085922360420227051e+00,1.085861802101135254e+00,1.085801362991333008e+00,1.085740804672241211e+00,1.085680365562438965e+00,1.085619926452636719e+00,1.085559487342834473e+00,1.085499048233032227e+00,1.085438489913940430e+00,1.085378050804138184e+00,1.085317611694335938e+00,1.085257291793823242e+00,1.085196852684020996e+00,1.085136413574218750e+00,1.085075974464416504e+00,1.085015535354614258e+00,1.084955215454101562e+00,1.084894776344299316e+00,1.084834337234497070e+00,1.084774017333984375e+00,1.084713578224182129e+00,1.084653258323669434e+00,1.084592938423156738e+00,1.084532499313354492e+00,1.084472179412841797e+00,1.084411859512329102e+00,1.084351539611816406e+00,1.084291219711303711e+00,1.084230899810791016e+00,1.084170579910278320e+00,1.084110260009765625e+00,1.084050059318542480e+00,1.083989739418029785e+00,1.083929419517517090e+00,1.083869099617004395e+00,1.083808779716491699e+00,1.083748579025268555e+00,1.083688378334045410e+00,1.083628058433532715e+00,1.083567857742309570e+00,1.083507537841796875e+00,1.083447337150573730e+00,1.083387136459350586e+00,1.083326935768127441e+00,1.083266735076904297e+00,1.083206534385681152e+00,1.083146333694458008e+00,1.083086133003234863e+00,1.083025932312011719e+00,1.082965731620788574e+00,1.082905530929565430e+00,1.082845449447631836e+00,1.082785248756408691e+00,1.082725048065185547e+00,1.082664966583251953e+00,1.082604765892028809e+00,1.082544684410095215e+00,1.082484602928161621e+00,1.082424402236938477e+00,1.082364320755004883e+00
1.021030426025390625e+00,1.020976901054382324e+00,1.020923376083374023e+00,1.020869970321655273e+00,1.020816445350646973e+00,1.020763039588928223e+00,1.020709514617919922e+00,1.020656108856201172e+00,1.020602703094482422e+00,1.020549178123474121e+00,1.020495772361755371e+00,1.020442366600036621e+00,1.020388960838317871e+00,1.020335555076599121e+00,1.020282149314880371e+00,1.020228743553161621e+00,1.020175337791442871e+00,1.020121812820434570e+00,1.020068526268005371e+00,1.020015120506286621e+00,1.019961714744567871e+00,1.019908308982849121e+00,1.019855022430419922e+00,1.019801616668701172e+00,1.019748330116271973e+00,1.019694924354553223e+00,1.019641637802124023e+00,1.019588232040405273e+00,1.019534945487976074e+00,1.019481658935546875e+00,1.019428253173828125e+00,1.019374966621398926e+00,1.019321560859680176e+00,1.019268393516540527e+00,1.019214987754821777e+00,1.019161701202392578e+00,1.019108414649963379e+00,1.019055128097534180e+00,1.019001960754394531e+00,1.018948674201965332e+00,1.018895387649536133e+00,1.018842101097106934e+00,1.018788814544677734e+00,1.018735647201538086e+00,1.018682360649108887e+00,1.018629074096679688e+00,1.018575787544250488e+00,1.018522620201110840e+00,1.018469452857971191e+00,1.018416166305541992e+00,1.018362998962402344e+00,1.018309712409973145e+00,1.018256545066833496e+00,1.018203377723693848e+00,1.018150210380554199e+00,1.018097043037414551e+00,1.018043756484985352e+00,1.017990589141845703e+00,1.017937421798706055e+00,1.017884373664855957e+00,1.017831206321716309e+00,1.017778038978576660e+00,1.017724871635437012e+00,1.017671704292297363e+00,1.017618656158447266e+00,1.017565488815307617e+00,1.017512321472167969e+00,1.017459154129028320e+00,1.017406105995178223e+00,1.017353057861328125e+00,1.017299890518188477e+00,1.017246842384338379e+00,1.017193675041198730e+00,1.017140626907348633e+00,1.017087578773498535e+00,1.017034530639648438e+00,1.016981363296508789e+00,1.016928315162658691e+00,1.016875267028808594e+00,1.016822218894958496e+00
9.625052213668823242e-01,9.624575972557067871e-01,9.624100923538208008e-01,9.623625278472900391e-01,9.623150229454040527e-01,9.622675776481628418e-01,9.622200131416320801e-01,9.621725678443908691e-01,9.621250033378601074e-01,9.620775580406188965e-01,9.620301127433776855e-01,9.619825482368469238e-01,9.619351029396057129e-01,9.618875980377197266e-01,9.618401527404785156e-01,9.617927074432373047e-01,9.617452025413513184e-01,9.616978168487548828e-01,9.616503119468688965e-01,9.616028666496276855e-01,9.615554809570312500e-01,9.615079760551452637e-01,9.614605903625488281e-01,9.614130854606628418e-01,9.613657593727111816e-01,9.613183736801147461e-01,9.612708687782287598e-01,9.612235426902770996e-01,9.611760377883911133e-01,9.611287117004394531e-01,9.610813260078430176e-01,9.610338807106018066e-01,9.609865546226501465e-01,9.609391093254089355e-01,9.608917832374572754e-01,9.608444571495056152e-01,9.607970118522644043e-01,9.607496857643127441e-01,9.607023000717163086e-01,9.606549739837646484e-01,9.606075286865234375e-01,9.605602622032165527e-01,9.605129361152648926e-01,9.604655504226684570e-01,9.604182839393615723e-01,9.603708982467651367e-01,9.603236317634582520e-01,9.602763652801513672e-01,9.602289795875549316e-01,9.601817131042480469e-01,9.601343274116516113e-01,9.600870609283447266e-01,9.600398540496826172e-01,9.599924683570861816e-01,9.599452614784240723e-01,9.598978757858276367e-01,9.598506689071655273e-01,9.598034620285034180e-01,9.597561359405517578e-01,9.597088694572448730e-01,9.596616029739379883e-01,9.596143960952758789e-01,9.595671892166137695e-01,9.595198631286621094e-01,9.594726562500000000e-01,9.594253897666931152e-01,9.593781828880310059e-01,9.593310356140136719e-01,9.592837095260620117e-01,9.592365622520446777e-01,9.591892957687377930e-01,9.591421484947204590e-01,9.590949416160583496e-01,9.590477347373962402e-01,9.590005874633789062e-01,9.589533209800720215e-01,9.589061737060546875e-01,9.588590264320373535e-01,9.588118195533752441e-01,9.587646722793579102e-01
