1.934224486351013184e+00,1.960958361625671387e+00,1.988441109657287598e+00,2.016705513000488281e+00,2.045784950256347656e+00,2.075715303421020508e+00,2.106534481048583984e+00,2.138282537460327148e+00,2.171002149581909180e+00,2.204738616943359375e+00,2.239540338516235352e+00,2.275458097457885742e+00,2.312546968460083008e+00,2.350864887237548828e+00,2.390474081039428711e+00,2.431440830230712891e+00,2.473827600479125977e+00,2.517704963684082031e+00,2.563167095184326172e+00,2.610301256179809570e+00,2.659201145172119141e+00,2.709968328475952148e+00,2.762717723846435547e+00,2.817582607269287109e+00,2.874670743942260742e+00,2.934120416641235352e+00,2.996080636978149414e+00,3.060714244842529297e+00,3.128198146820068359e+00,3.198724508285522461e+00,3.272504806518554688e+00,3.349768638610839844e+00,3.430769681930541992e+00,3.515784502029418945e+00,3.605120182037353516e+00,3.699113845825195312e+00,3.798140287399291992e+00,3.902614355087280273e+00,4.012998580932617188e+00,4.129829406738281250e+00,4.253672122955322266e+00,4.385172367095947266e+00,4.525062561035156250e+00,4.674171924591064453e+00,4.833442687988281250e+00,5.000000000000000000e+00,5.000000000000000000e+00,5.000000000000000000e+00,5.000000000000000000e+00,5.000000000000000000e+00,5.000000000000000000e+00,5.000000000000000000e+00,5.000000000000000000e+00,5.000000000000000000e+00,5.000000000000000000e+00,5.000000000000000000e+00,4.258671283721923828e+00,4.306206226348876953e+00,5.000000000000000000e+00,5.000000000000000000e+00,5.000000000000000000e+00,5.000000000000000000e+00,5.000000000000000000e+00,5.000000000000000000e+00,5.000000000000000000e+00,5.000000000000000000e+00,5.000000000000000000e+00,5.000000000000000000e+00,5.000000000000000000e+00,5.000000000000000000e+00,5.000000000000000000e+00,5.000000000000000000e+00,5.000000000000000000e+00,5.000000000000000000e+00,5.000000000000000000e+00,5.000000000000000000e+00,5.000000000000000000e+00,5.000000000000000000e+00,5.000000000000000000e+00,5.000000000000000000e+00
1.934196233749389648e+00,1.960929155349731445e+00,1.988411188125610352e+00,2.016674757003784180e+00,2.045753479003906250e+00,2.075682640075683594e+00,2.106500864028930664e+00,2.138247966766357422e+00,2.170966625213623047e+00,2.204701900482177734e+00,2.239502429962158203e+00,2.275418996810913086e+00,2.312506437301635742e+00,2.350823163986206055e+00,2.390430927276611328e+00,2.431396007537841797e+00,2.473789691925048828e+00,2.517688274383544922e+00,2.563167095184326172e+00,2.610301256179809570e+00,2.659201145172119141e+00,2.709968328475952148e+00,2.762711524963378906e+00,2.817548513412475586e+00,2.874608278274536133e+00,2.934055328369140625e+00,2.996012687683105469e+00,3.060643672943115234e+00,3.128123998641967773e+00,3.198647499084472656e+00,3.272423744201660156e+00,3.349684000015258789e+00,3.430680513381958008e+00,3.515691280364990234e+00,3.605021715164184570e+00,3.699010610580444336e+00,3.798031091690063477e+00,3.902499437332153320e+00,4.012876510620117188e+00,4.129680156707763672e+00,4.253505229949951172e+00,4.384994983673095703e+00,4.524873256683349609e+00,4.673969745635986328e+00,4.833226680755615234e+00,5.000000000000000000e+00,5.000000000000000000e+00,5.000000000000000000e+00,5.000000000000000000e+00,5.000000000000000000e+00,5.000000000000000000e+00,5.000000000000000000e+00,5.000000000000000000e+00,5.000000000000000000e+00,5.000000000000000000e+00,5.000000000000000000e+00,4.279921531677246094e+00,4.325113296508789062e+00,5.000000000000000000e+00,5.000000000000000000e+00,5.000000000000000000e+00,5.000000000000000000e+00,5.000000000000000000e+00,5.000000000000000000e+00,5.000000000000000000e+00,5.000000000000000000e+00,5.000000000000000000e+00,5.000000000000000000e+00,5.000000000000000000e+00,5.000000000000000000e+00,5.000000000000000000e+00,5.000000000000000000e+00,5.000000000000000000e+00,5.000000000000000000e+00,5.000000000000000000e+00,5.000000000000000000e+00,5.000000000000000000e+00,5.000000000000000000e+00,5.000000000000000000e+00,5.000000000000000000e+00
1.934167861938476562e+00,1.960900068283081055e+00,1.988381505012512207e+00,2.016644001007080078e+00,2.045721769332885742e+00,2.075649976730346680e+00,2.106467247009277344e+00,2.138213396072387695e+00,2.170930862426757812e+00,2.204665184020996094e+00,2.239464282989501953e+00,2.275379896163940430e+00,2.312466144561767578e+00,2.350781440734863281e+00,2.390387535095214844e+00,2.431351184844970703e+00,2.473743677139282227e+00,2.517640113830566406e+00,2.563122987747192383e+00,2.610279321670532227e+00,2.659201145172119141e+00,2.709968328475952148e+00,2.762711524963378906e+00,2.817548513412475586e+00,2.874606609344482422e+00,2.934023380279541016e+00,2.995948076248168945e+00,3.060572624206542969e+00,3.128050327301025391e+00,3.198570013046264648e+00,3.272342920303344727e+00,3.349599123001098633e+00,3.430591821670532227e+00,3.515597581863403320e+00,3.604923725128173828e+00,3.698907136917114258e+00,3.797922372817993164e+00,3.902384281158447266e+00,4.012754917144775391e+00,4.129551410675048828e+00,4.253349781036376953e+00,4.384817123413085938e+00,4.524684429168701172e+00,4.673768043518066406e+00,4.833010673522949219e+00,5.000000000000000000e+00,5.000000000000000000e+00,5.000000000000000000e+00,5.000000000000000000e+00,5.000000000000000000e+00,5.000000000000000000e+00,5.000000000000000000e+00,5.000000000000000000e+00,5.000000000000000000e+00,5.000000000000000000e+00,4.315288543701171875e+00,4.292678356170654297e+00,4.234453201293945312e+00,4.206470489501953125e+00,4.181266307830810547e+00,5.000000000000000000e+00,5.000000000000000000e+00,5.000000000000000000e+00,5.000000000000000000e+00,5.000000000000000000e+00,5.000000000000000000e+00,5.000000000000000000e+00,5.000000000000000000e+00,5.000000000000000000e+00,5.000000000000000000e+00,5.000000000000000000e+00,5.000000000000000000e+00,5.000000000000000000e+00,5.000000000000000000e+00,5.000000000000000000e+00,5.000000000000000000e+00,5.000000000000000000e+00,5.000000000000000000e+00,5.000000000000000000e+00,5.000000000000000000e+00
1.934139609336853027e+00,1.960870981216430664e+00,1.988351583480834961e+00,2.016613245010375977e+00,2.045690059661865234e+00,2.075617551803588867e+00,2.106433868408203125e+00,2.138178825378417969e+00,2.170895099639892578e+00,2.204628229141235352e+00,2.239426612854003906e+00,2.275340795516967773e+00,2.312425613403320312e+00,2.350739479064941406e+00,2.390344381332397461e+00,2.431306600570678711e+00,2.473697185516357422e+00,2.517592191696166992e+00,2.563073158264160156e+00,2.610227823257446289e+00,2.659149885177612305e+00,2.709940671920776367e+00,2.762709617614746094e+00,2.817548513412475586e+00,2.874606609344482422e+00,2.934023380279541016e+00,2.995948076248168945e+00,3.060543298721313477e+00,3.127985239028930664e+00,3.198492765426635742e+00,3.272262334823608398e+00,3.349514484405517578e+00,3.430502891540527344e+00,3.515504360198974609e+00,3.604825735092163086e+00,3.698803901672363281e+00,3.797813653945922852e+00,3.902269363403320312e+00,4.012633800506591797e+00,4.129422664642333984e+00,4.253213405609130859e+00,4.384655475616455078e+00,4.524495124816894531e+00,4.673566341400146484e+00,4.832795619964599609e+00,5.000000000000000000e+00,5.000000000000000000e+00,5.000000000000000000e+00,5.000000000000000000e+00,5.000000000000000000e+00,5.000000000000000000e+00,5.000000000000000000e+00,5.000000000000000000e+00,5.000000000000000000e+00,4.370982646942138672e+00,4.288641929626464844e+00,4.226489067077636719e+00,4.203871250152587891e+00,4.210926055908203125e+00,4.198502540588378906e+00,5.000000000000000000e+00,5.000000000000000000e+00,5.000000000000000000e+00,5.000000000000000000e+00,5.000000000000000000e+00,5.000000000000000000e+00,5.000000000000000000e+00,5.000000000000000000e+00,5.000000000000000000e+00,5.000000000000000000e+00,5.000000000000000000e+00,5.000000000000000000e+00,5.000000000000000000e+00,5.000000000000000000e+00,5.000000000000000000e+00,5.000000000000000000e+00,5.000000000000000000e+00,5.000000000000000000e+00,5.000000000000000000e+00,5.000000000000000000e+00
1.934111475944519043e+00,1.960841894149780273e+00,1.988321661949157715e+00,2.016582489013671875e+00,2.045658349990844727e+00,2.075584888458251953e+00,2.106400251388549805e+00,2.138144254684448242e+00,2.170859575271606445e+00,2.204591751098632812e+00,2.239388704299926758e+00,2.275301694869995117e+00,2.312385320663452148e+00,2.350697755813598633e+00,2.390301227569580078e+00,2.431262016296386719e+00,2.473650932312011719e+00,2.517544269561767578e+00,2.563023567199707031e+00,2.610176324844360352e+00,2.659096240997314453e+00,2.709885120391845703e+00,2.762651920318603516e+00,2.817514657974243164e+00,2.874600172042846680e+00,2.934023380279541016e+00,2.995948076248168945e+00,3.060543298721313477e+00,3.127985239028930664e+00,3.198466300964355469e+00,3.272197246551513672e+00,3.349429845809936523e+00,3.430413961410522461e+00,3.515411376953125000e+00,3.604727506637573242e+00,3.698700666427612305e+00,3.797704458236694336e+00,3.902154684066772461e+00,4.012512207031250000e+00,4.129293918609619141e+00,4.253076553344726562e+00,4.384510517120361328e+00,4.524326801300048828e+00,4.673364639282226562e+00,4.832579612731933594e+00,5.000000000000000000e+00,5.000000000000000000e+00,5.000000000000000000e+00,5.000000000000000000e+00,5.000000000000000000e+00,5.000000000000000000e+00,5.000000000000000000e+00,5.000000000000000000e+00,5.000000000000000000e+00,4.382628917694091797e+00,4.270682811737060547e+00,4.227658748626708984e+00,4.215968132019042969e+00,4.231654644012451172e+00,4.204987049102783203e+00,5.000000000000000000e+00,5.000000000000000000e+00,5.000000000000000000e+00,5.000000000000000000e+00,5.000000000000000000e+00,5.000000000000000000e+00,5.000000000000000000e+00,5.000000000000000000e+00,5.000000000000000000e+00,5.000000000000000000e+00,5.000000000000000000e+00,5.000000000000000000e+00,5.000000000000000000e+00,5.000000000000000000e+00,5.000000000000000000e+00,5.000000000000000000e+00,5.000000000000000000e+00,5.000000000000000000e+00,5.000000000000000000e+00,5.000000000000000000e+00
1.934083223342895508e+00,1.960812807083129883e+00,1.988291740417480469e+00,2.016551733016967773e+00,2.045626878738403320e+00,2.075552463531494141e+00,2.106366634368896484e+00,2.138109445571899414e+00,2.170824050903320312e+00,2.204554796218872070e+00,2.239350557327270508e+00,2.275262355804443359e+00,2.312344789505004883e+00,2.350656032562255859e+00,2.390258073806762695e+00,2.431217193603515625e+00,2.473604679107666016e+00,2.517496347427368164e+00,2.562973976135253906e+00,2.610124826431274414e+00,2.659042835235595703e+00,2.709829568862915039e+00,2.762594461441040039e+00,2.817454576492309570e+00,2.874537706375122070e+00,2.933981657028198242e+00,2.995936393737792969e+00,3.060543298721313477e+00,3.127985239028930664e+00,3.198466300964355469e+00,3.272197246551513672e+00,3.349407196044921875e+00,3.430349111557006836e+00,3.515317678451538086e+00,3.604629516601562500e+00,3.698597192764282227e+00,3.797595739364624023e+00,3.902039289474487305e+00,4.012390136718750000e+00,4.129165172576904297e+00,4.252940177917480469e+00,4.384365081787109375e+00,4.524171829223632812e+00,4.673188209533691406e+00,4.832364082336425781e+00,5.000000000000000000e+00,5.000000000000000000e+00,5.000000000000000000e+00,5.000000000000000000e+00,5.000000000000000000e+00,5.000000000000000000e+00,5.000000000000000000e+00,5.000000000000000000e+00,5.000000000000000000e+00,4.421336174011230469e+00,4.273599147796630859e+00,4.224638462066650391e+00,4.208645343780517578e+00,4.249326705932617188e+00,4.208623409271240234e+00,4.228557586669921875e+00,5.000000000000000000e+00,5.000000000000000000e+00,5.000000000000000000e+00,5.000000000000000000e+00,5.000000000000000000e+00,5.000000000000000000e+00,5.000000000000000000e+00,5.000000000000000000e+00,5.000000000000000000e+00,5.000000000000000000e+00,5.000000000000000000e+00,5.000000000000000000e+00,5.000000000000000000e+00,5.000000000000000000e+00,5.000000000000000000e+00,5.000000000000000000e+00,5.000000000000000000e+00,5.000000000000000000e+00,5.000000000000000000e+00
1.934054851531982422e+00,1.960783600807189941e+00,1.988261818885803223e+00,2.016520977020263672e+00,2.045595169067382812e+00,2.075519800186157227e+00,2.106333017349243164e+00,2.138075113296508789e+00,2.170788288116455078e+00,2.204518079757690430e+00,2.239312648773193359e+00,2.275223255157470703e+00,2.312304496765136719e+00,2.350614070892333984e+00,2.390214681625366211e+00,2.431172370910644531e+00,2.473558425903320312e+00,2.517448425292968750e+00,2.562924146652221680e+00,2.610073089599609375e+00,2.658989429473876953e+00,2.709774255752563477e+00,2.762536525726318359e+00,2.817394495010375977e+00,2.874475002288818359e+00,2.933916807174682617e+00,2.995868444442749023e+00,3.060493230819702148e+00,3.127967119216918945e+00,3.198466300964355469e+00,3.272197246551513672e+00,3.349407196044921875e+00,3.430349111557006836e+00,3.515299797058105469e+00,3.604565143585205078e+00,3.698493957519531250e+00,3.797486543655395508e+00,3.901924610137939453e+00,4.012268543243408203e+00,4.129036426544189453e+00,4.252803325653076172e+00,4.384220123291015625e+00,4.524017333984375000e+00,4.673023223876953125e+00,4.832179546356201172e+00,5.000000000000000000e+00,5.000000000000000000e+00,5.000000000000000000e+00,5.000000000000000000e+00,5.000000000000000000e+00,5.000000000000000000e+00,5.000000000000000000e+00,5.000000000000000000e+00,5.000000000000000000e+00,4.424446105957031250e+00,4.269277095794677734e+00,4.225174427032470703e+00,4.204929351806640625e+00,4.256182193756103516e+00,4.228695869445800781e+00,4.239672660827636719e+00,5.000000000000000000e+00,5.000000000000000000e+00,5.000000000000000000e+00,5.000000000000000000e+00,5.000000000000000000e+00,5.000000000000000000e+00,5.000000000000000000e+00,5.000000000000000000e+00,5.000000000000000000e+00,5.000000000000000000e+00,5.000000000000000000e+00,5.000000000000000000e+00,5.000000000000000000e+00,5.000000000000000000e+00,5.000000000000000000e+00,5.000000000000000000e+00,5.000000000000000000e+00,5.000000000000000000e+00,5.000000000000000000e+00
1.934026598930358887e+00,1.960754752159118652e+00,1.988231897354125977e+00,2.016490221023559570e+00,2.045563459396362305e+00,2.075487375259399414e+00,2.106299638748168945e+00,2.138040542602539062e+00,2.170752525329589844e+00,2.204481363296508789e+00,2.239274978637695312e+00,2.275184154510498047e+00,2.312263965606689453e+00,2.350572347640991211e+00,2.390171527862548828e+00,2.431127786636352539e+00,2.473512172698974609e+00,2.517400503158569336e+00,2.562874555587768555e+00,2.610021829605102539e+00,2.658936023712158203e+00,2.709718704223632812e+00,2.762478828430175781e+00,2.817334413528442383e+00,2.874412775039672852e+00,2.933851718902587891e+00,2.995800495147705078e+00,3.060422182083129883e+00,3.127893447875976562e+00,3.198406219482421875e+00,3.272171735763549805e+00,3.349407196044921875e+00,3.430349111557006836e+00,3.515299797058105469e+00,3.604565143585205078e+00,3.698481798171997070e+00,3.797423362731933594e+00,3.901809692382812500e+00,4.012147426605224609e+00,4.128907680511474609e+00,4.252666950225830078e+00,4.384075164794921875e+00,4.523862838745117188e+00,4.672858715057373047e+00,4.832003593444824219e+00,5.000000000000000000e+00,5.000000000000000000e+00,5.000000000000000000e+00,5.000000000000000000e+00,5.000000000000000000e+00,5.000000000000000000e+00,5.000000000000000000e+00,5.000000000000000000e+00,5.000000000000000000e+00,4.447536468505859375e+00,4.272167682647705078e+00,4.227279186248779297e+00,4.214825153350830078e+00,4.242328166961669922e+00,4.198144435882568359e+00,5.000000000000000000e+00,5.000000000000000000e+00,5.000000000000000000e+00,5.000000000000000000e+00,5.000000000000000000e+00,5.000000000000000000e+00,5.000000000000000000e+00,5.000000000000000000e+00,5.000000000000000000e+00,5.000000000000000000e+00,5.000000000000000000e+00,5.000000000000000000e+00,5.000000000000000000e+00,5.000000000000000000e+00,5.000000000000000000e+00,5.000000000000000000e+00,5.000000000000000000e+00,5.000000000000000000e+00,5.000000000000000000e+00,5.000000000000000000e+00
1.933998227119445801e+00,1.960725665092468262e+00,1.988201975822448730e+00,2.016459465026855469e+00,2.045531988143920898e+00,2.075454711914062500e+00,2.106266021728515625e+00,2.138005971908569336e+00,2.170717000961303711e+00,2.204444646835327148e+00,2.239236831665039062e+00,2.275145053863525391e+00,2.312223434448242188e+00,2.350530624389648438e+00,2.390128374099731445e+00,2.431083202362060547e+00,2.473465919494628906e+00,2.517352581024169922e+00,2.562824964523315430e+00,2.609970331192016602e+00,2.658882379531860352e+00,2.709662914276123047e+00,2.762421131134033203e+00,2.817274570465087891e+00,2.874350309371948242e+00,2.933786630630493164e+00,2.995732545852661133e+00,3.060351610183715820e+00,3.127819299697875977e+00,3.198328733444213867e+00,3.272090673446655273e+00,3.349334955215454102e+00,3.430315017700195312e+00,3.515299797058105469e+00,3.604565143585205078e+00,3.698481798171997070e+00,3.797423362731933594e+00,3.901804685592651367e+00,4.012085914611816406e+00,4.128782749176025391e+00,4.252530574798583984e+00,4.383929729461669922e+00,4.523708343505859375e+00,4.672693729400634766e+00,4.831827163696289062e+00,5.000000000000000000e+00,5.000000000000000000e+00,5.000000000000000000e+00,5.000000000000000000e+00,5.000000000000000000e+00,5.000000000000000000e+00,5.000000000000000000e+00,5.000000000000000000e+00,5.000000000000000000e+00,4.359898567199707031e+00,4.288182735443115234e+00,4.246277332305908203e+00,4.207579612731933594e+00,4.238522052764892578e+00,4.167012691497802734e+00,5.000000000000000000e+00,5.000000000000000000e+00,5.000000000000000000e+00,5.000000000000000000e+00,5.000000000000000000e+00,5.000000000000000000e+00,5.000000000000000000e+00,5.000000000000000000e+00,5.000000000000000000e+00,5.000000000000000000e+00,5.000000000000000000e+00,5.000000000000000000e+00,5.000000000000000000e+00,5.000000000000000000e+00,5.000000000000000000e+00,5.000000000000000000e+00,5.000000000000000000e+00,5.000000000000000000e+00,5.000000000000000000e+00,5.000000000000000000e+00
1.933969974517822266e+00,1.960696578025817871e+00,1.988172054290771484e+00,2.016428709030151367e+00,2.045500278472900391e+00,2.075422048568725586e+00,2.106232404708862305e+00,2.137971162796020508e+00,2.170681476593017578e+00,2.204407930374145508e+00,2.239198923110961914e+00,2.275105714797973633e+00,2.312183141708374023e+00,2.350488901138305664e+00,2.390085220336914062e+00,2.431038379669189453e+00,2.473419427871704102e+00,2.517304658889770508e+00,2.562775373458862305e+00,2.609918594360351562e+00,2.658828973770141602e+00,2.709607601165771484e+00,2.762363433837890625e+00,2.817214488983154297e+00,2.874287605285644531e+00,2.933721303939819336e+00,2.995665073394775391e+00,3.060280799865722656e+00,3.127745151519775391e+00,3.198251485824584961e+00,3.272009611129760742e+00,3.349250316619873047e+00,3.430225849151611328e+00,3.515213966369628906e+00,3.604520320892333984e+00,3.698481798171997070e+00,3.797423362731933594e+00,3.901804685592651367e+00,4.012085914611816406e+00,4.128782749176025391e+00,4.252471923828125000e+00,4.383800029754638672e+00,4.523553848266601562e+00,4.672528743743896484e+00,4.831650733947753906e+00,5.000000000000000000e+00,5.000000000000000000e+00,5.000000000000000000e+00,5.000000000000000000e+00,5.000000000000000000e+00,5.000000000000000000e+00,5.000000000000000000e+00,5.000000000000000000e+00,5.000000000000000000e+00,4.329180717468261719e+00,4.279766082763671875e+00,4.218377590179443359e+00,4.161085605621337891e+00,4.191435337066650391e+00,4.150135993957519531e+00,5.000000000000000000e+00,5.000000000000000000e+00,5.000000000000000000e+00,5.000000000000000000e+00,5.000000000000000000e+00,5.000000000000000000e+00,5.000000000000000000e+00,5.000000000000000000e+00,5.000000000000000000e+00,5.000000000000000000e+00,5.000000000000000000e+00,5.000000000000000000e+00,5.000000000000000000e+00,5.000000000000000000e+00,5.000000000000000000e+00,5.000000000000000000e+00,5.000000000000000000e+00,5.000000000000000000e+00,5.000000000000000000e+00,5.000000000000000000e+00
1.933941602706909180e+00,1.960667490959167480e+00,1.988142371177673340e+00,2.016397953033447266e+00,2.045468568801879883e+00,2.075389385223388672e+00,2.106199026107788086e+00,2.137936830520629883e+00,2.170645713806152344e+00,2.204371213912963867e+00,2.239161014556884766e+00,2.275066852569580078e+00,2.312142610549926758e+00,2.350446939468383789e+00,2.390041828155517578e+00,2.430993556976318359e+00,2.473373413085937500e+00,2.517256736755371094e+00,2.562725543975830078e+00,2.609867095947265625e+00,2.658775568008422852e+00,2.709552049636840820e+00,2.762305736541748047e+00,2.817154407501220703e+00,2.874225139617919922e+00,2.933656454086303711e+00,2.995597124099731445e+00,3.060209751129150391e+00,3.127671241760253906e+00,3.198174238204956055e+00,3.271928787231445312e+00,3.349165439605712891e+00,3.430136919021606445e+00,3.515120267868041992e+00,3.604422330856323242e+00,3.698379516601562500e+00,3.797366142272949219e+00,3.901797533035278320e+00,4.012085914611816406e+00,4.128782749176025391e+00,4.252471923828125000e+00,4.383800029754638672e+00,4.523499011993408203e+00,4.672394275665283203e+00,4.831474781036376953e+00,5.000000000000000000e+00,5.000000000000000000e+00,5.000000000000000000e+00,5.000000000000000000e+00,5.000000000000000000e+00,5.000000000000000000e+00,5.000000000000000000e+00,5.000000000000000000e+00,5.000000000000000000e+00,4.319977283477783203e+00,4.263943672180175781e+00,4.188911914825439453e+00,4.140561103820800781e+00,4.179618835449218750e+00,4.105101108551025391e+00,5.000000000000000000e+00,5.000000000000000000e+00,5.000000000000000000e+00,5.000000000000000000e+00,5.000000000000000000e+00,5.000000000000000000e+00,5.000000000000000000e+00,5.000000000000000000e+00,5.000000000000000000e+00,5.000000000000000000e+00,5.000000000000000000e+00,5.000000000000000000e+00,5.000000000000000000e+00,5.000000000000000000e+00,5.000000000000000000e+00,5.000000000000000000e+00,5.000000000000000000e+00,5.000000000000000000e+00,5.000000000000000000e+00,5.000000000000000000e+00
1.933913230895996094e+00,1.960638403892517090e+00,1.988112449645996094e+00,2.016367197036743164e+00,2.045436859130859375e+00,2.075356960296630859e+00,2.106165409088134766e+00,2.137902259826660156e+00,2.170610189437866211e+00,2.204334259033203125e+00,2.239123106002807617e+00,2.275027513504028320e+00,2.312102317810058594e+00,2.350405216217041016e+00,2.389998912811279297e+00,2.430949211120605469e+00,2.473327159881591797e+00,2.517208814620971680e+00,2.562675714492797852e+00,2.609815835952758789e+00,2.658722162246704102e+00,2.709496498107910156e+00,2.762248039245605469e+00,2.817094326019287109e+00,2.874162912368774414e+00,2.933591365814208984e+00,2.995529174804687500e+00,3.060138940811157227e+00,3.127597332000732422e+00,3.198096990585327148e+00,3.271847724914550781e+00,3.349080562591552734e+00,3.430047750473022461e+00,3.515027284622192383e+00,3.604323863983154297e+00,3.698276042938232422e+00,3.797257184982299805e+00,3.901682615280151367e+00,4.012013435363769531e+00,4.128765583038330078e+00,4.252471923828125000e+00,4.383800029754638672e+00,4.523499011993408203e+00,4.672394275665283203e+00,4.831424713134765625e+00,5.000000000000000000e+00,5.000000000000000000e+00,5.000000000000000000e+00,5.000000000000000000e+00,5.000000000000000000e+00,5.000000000000000000e+00,5.000000000000000000e+00,5.000000000000000000e+00,4.391502857208251953e+00,4.324149608612060547e+00,4.261935234069824219e+00,4.165953159332275391e+00,4.123651981353759766e+00,4.222104072570800781e+00,5.000000000000000000e+00,5.000000000000000000e+00,5.000000000000000000e+00,5.000000000000000000e+00,5.000000000000000000e+00,5.000000000000000000e+00,5.000000000000000000e+00,5.000000000000000000e+00,5.000000000000000000e+00,5.000000000000000000e+00,5.000000000000000000e+00,5.000000000000000000e+00,5.000000000000000000e+00,5.000000000000000000e+00,5.000000000000000000e+00,5.000000000000000000e+00,5.000000000000000000e+00,5.000000000000000000e+00,5.000000000000000000e+00,5.000000000000000000e+00,5.000000000000000000e+00
1.933885216712951660e+00,1.960609316825866699e+00,1.988082528114318848e+00,2.016336441040039062e+00,2.045405387878417969e+00,2.075324296951293945e+00,2.106131792068481445e+00,2.137867689132690430e+00,2.170574426651000977e+00,2.204297780990600586e+00,2.239085197448730469e+00,2.274988412857055664e+00,2.312061786651611328e+00,2.350363492965698242e+00,2.389955520629882812e+00,2.430904388427734375e+00,2.473280906677246094e+00,2.517160892486572266e+00,2.562626361846923828e+00,2.609764099121093750e+00,2.658668518066406250e+00,2.709440946578979492e+00,2.762190580368041992e+00,2.817034482955932617e+00,2.874100446701049805e+00,2.933526277542114258e+00,2.995461225509643555e+00,3.060068368911743164e+00,3.127523422241210938e+00,3.198019504547119141e+00,3.271766901016235352e+00,3.348995685577392578e+00,3.429959058761596680e+00,3.514933586120605469e+00,3.604225635528564453e+00,3.698172330856323242e+00,3.797148466110229492e+00,3.901567459106445312e+00,4.011891841888427734e+00,4.128636837005615234e+00,4.252380371093750000e+00,4.383770942687988281e+00,4.523499011993408203e+00,4.672394275665283203e+00,4.831424713134765625e+00,5.000000000000000000e+00,5.000000000000000000e+00,5.000000000000000000e+00,5.000000000000000000e+00,5.000000000000000000e+00,5.000000000000000000e+00,5.000000000000000000e+00,5.000000000000000000e+00,4.429895401000976562e+00,5.000000000000000000e+00,4.257374286651611328e+00,4.145302295684814453e+00,4.102902412414550781e+00,5.000000000000000000e+00,5.000000000000000000e+00,5.000000000000000000e+00,5.000000000000000000e+00,5.000000000000000000e+00,5.000000000000000000e+00,5.000000000000000000e+00,5.000000000000000000e+00,5.000000000000000000e+00,5.000000000000000000e+00,5.000000000000000000e+00,5.000000000000000000e+00,5.000000000000000000e+00,5.000000000000000000e+00,5.000000000000000000e+00,5.000000000000000000e+00,5.000000000000000000e+00,5.000000000000000000e+00,5.000000000000000000e+00,5.000000000000000000e+00,5.000000000000000000e+00,5.000000000000000000e+00
1.933856844902038574e+00,1.960580229759216309e+00,1.988052606582641602e+00,2.016305685043334961e+00,2.045373678207397461e+00,2.075291872024536133e+00,2.106098175048828125e+00,2.137833118438720703e+00,2.170538902282714844e+00,2.204260826110839844e+00,2.239047288894653320e+00,2.274949312210083008e+00,2.312021493911743164e+00,2.350321769714355469e+00,2.389912366867065430e+00,2.430859565734863281e+00,2.473234415054321289e+00,2.517113208770751953e+00,2.562576532363891602e+00,2.609712600708007812e+00,2.658615112304687500e+00,2.709385633468627930e+00,2.762132644653320312e+00,2.816974401473999023e+00,2.874037742614746094e+00,2.933460950851440430e+00,2.995393514633178711e+00,3.059997558593750000e+00,3.127449274063110352e+00,3.197942018508911133e+00,3.271686077117919922e+00,3.348911046981811523e+00,3.429870128631591797e+00,3.514840126037597656e+00,3.604127407073974609e+00,3.698069334030151367e+00,3.797039270401000977e+00,3.901452302932739258e+00,4.011769771575927734e+00,4.128508090972900391e+00,4.252243995666503906e+00,4.383625507354736328e+00,4.523385047912597656e+00,4.672348976135253906e+00,4.831424713134765625e+00,5.000000000000000000e+00,5.000000000000000000e+00,5.000000000000000000e+00,5.000000000000000000e+00,5.000000000000000000e+00,5.000000000000000000e+00,5.000000000000000000e+00,5.000000000000000000e+00,5.000000000000000000e+00,5.000000000000000000e+00,4.250300884246826172e+00,4.124471187591552734e+00,4.092045307159423828e+00,5.000000000000000000e+00,5.000000000000000000e+00,5.000000000000000000e+00,5.000000000000000000e+00,5.000000000000000000e+00,5.000000000000000000e+00,5.000000000000000000e+00,5.000000000000000000e+00,5.000000000000000000e+00,5.000000000000000000e+00,5.000000000000000000e+00,5.000000000000000000e+00,5.000000000000000000e+00,5.000000000000000000e+00,5.000000000000000000e+00,5.000000000000000000e+00,5.000000000000000000e+00,5.000000000000000000e+00,5.000000000000000000e+00,5.000000000000000000e+00,5.000000000000000000e+00,5.000000000000000000e+00
1.933828592300415039e+00,1.960551142692565918e+00,1.988022685050964355e+00,2.016274929046630859e+00,2.045341968536376953e+00,2.075259208679199219e+00,2.106064796447753906e+00,2.137798547744750977e+00,2.170503139495849609e+00,2.204224109649658203e+00,2.239009380340576172e+00,2.274910211563110352e+00,2.311980962753295898e+00,2.350280046463012695e+00,2.389869213104248047e+00,2.430814981460571289e+00,2.473188400268554688e+00,2.517065048217773438e+00,2.562526941299438477e+00,2.609661102294921875e+00,2.658561706542968750e+00,2.709330081939697266e+00,2.762074947357177734e+00,2.816914319992065430e+00,2.873975276947021484e+00,2.933396100997924805e+00,2.995325565338134766e+00,3.059926509857177734e+00,3.127375364303588867e+00,3.197865009307861328e+00,3.271605014801025391e+00,3.348826169967651367e+00,3.429780960083007812e+00,3.514746665954589844e+00,3.604029417037963867e+00,3.697965860366821289e+00,3.796930074691772461e+00,3.901337146759033203e+00,4.011648178100585938e+00,4.128379344940185547e+00,4.252106666564941406e+00,4.383480072021484375e+00,4.523230075836181641e+00,4.672183990478515625e+00,4.831282138824462891e+00,5.000000000000000000e+00,5.000000000000000000e+00,5.000000000000000000e+00,5.000000000000000000e+00,5.000000000000000000e+00,5.000000000000000000e+00,5.000000000000000000e+00,5.000000000000000000e+00,5.000000000000000000e+00,5.000000000000000000e+00,4.260975837707519531e+00,4.284954071044921875e+00,4.111082553863525391e+00,5.000000000000000000e+00,5.000000000000000000e+00,5.000000000000000000e+00,5.000000000000000000e+00,5.000000000000000000e+00,5.000000000000000000e+00,5.000000000000000000e+00,5.000000000000000000e+00,5.000000000000000000e+00,5.000000000000000000e+00,5.000000000000000000e+00,5.000000000000000000e+00,5.000000000000000000e+00,5.000000000000000000e+00,5.000000000000000000e+00,5.000000000000000000e+00,5.000000000000000000e+00,5.000000000000000000e+00,5.000000000000000000e+00,5.000000000000000000e+00,5.000000000000000000e+00,5.000000000000000000e+00
1.933800220489501953e+00,1.960522174835205078e+00,1.987992763519287109e+00,2.016244173049926758e+00,2.045310258865356445e+00,2.075226783752441406e+00,2.106031179428100586e+00,2.137763977050781250e+00,2.170467615127563477e+00,2.204187393188476562e+00,2.238971471786499023e+00,2.274871110916137695e+00,2.311940431594848633e+00,2.350238084793090820e+00,2.389826059341430664e+00,2.430770397186279297e+00,2.473142147064208984e+00,2.517017126083374023e+00,2.562477111816406250e+00,2.609609842300415039e+00,2.658508300781250000e+00,2.709274530410766602e+00,2.762017250061035156e+00,2.816854476928710938e+00,2.873913049697875977e+00,2.933331012725830078e+00,2.995257616043090820e+00,3.059855699539184570e+00,3.127301454544067383e+00,3.197787523269653320e+00,3.271523952484130859e+00,3.348741292953491211e+00,3.429692029953002930e+00,3.514653444290161133e+00,3.603930950164794922e+00,3.697862386703491211e+00,3.796820878982543945e+00,3.901222229003906250e+00,4.011526584625244141e+00,4.128250598907470703e+00,4.251970291137695312e+00,4.383334636688232422e+00,4.523075580596923828e+00,4.672019004821777344e+00,4.831106185913085938e+00,5.000000000000000000e+00,5.000000000000000000e+00,5.000000000000000000e+00,5.000000000000000000e+00,5.000000000000000000e+00,5.000000000000000000e+00,5.000000000000000000e+00,5.000000000000000000e+00,5.000000000000000000e+00,5.000000000000000000e+00,4.310387134552001953e+00,4.306457996368408203e+00,4.196145534515380859e+00,4.232690334320068359e+00,5.000000000000000000e+00,5.000000000000000000e+00,5.000000000000000000e+00,5.000000000000000000e+00,5.000000000000000000e+00,5.000000000000000000e+00,5.000000000000000000e+00,5.000000000000000000e+00,5.000000000000000000e+00,5.000000000000000000e+00,5.000000000000000000e+00,5.000000000000000000e+00,5.000000000000000000e+00,5.000000000000000000e+00,5.000000000000000000e+00,5.000000000000000000e+00,5.000000000000000000e+00,5.000000000000000000e+00,5.000000000000000000e+00,5.000000000000000000e+00,5.000000000000000000e+00
1.933771967887878418e+00,1.960493087768554688e+00,1.987962841987609863e+00,2.016213417053222656e+00,2.045278787612915039e+00,2.075194120407104492e+00,2.105997562408447266e+00,2.137729406356811523e+00,2.170431852340698242e+00,2.204150676727294922e+00,2.238933563232421875e+00,2.274832010269165039e+00,2.311900138854980469e+00,2.350196361541748047e+00,2.389782905578613281e+00,2.430725574493408203e+00,2.473095893859863281e+00,2.516969203948974609e+00,2.562427759170532227e+00,2.609558105468750000e+00,2.658454895019531250e+00,2.709218978881835938e+00,2.761959791183471680e+00,2.816794395446777344e+00,2.873850584030151367e+00,2.933265924453735352e+00,2.995189905166625977e+00,3.059785127639770508e+00,3.127227544784545898e+00,3.197710037231445312e+00,3.271443128585815430e+00,3.348656654357910156e+00,3.429603338241577148e+00,3.514559984207153320e+00,3.603832721710205078e+00,3.697758674621582031e+00,3.796712160110473633e+00,3.901107072830200195e+00,4.011404991149902344e+00,4.128121376037597656e+00,4.251833438873291016e+00,4.383189678192138672e+00,4.522920608520507812e+00,4.671854019165039062e+00,4.830929279327392578e+00,5.000000000000000000e+00,5.000000000000000000e+00,5.000000000000000000e+00,5.000000000000000000e+00,5.000000000000000000e+00,5.000000000000000000e+00,5.000000000000000000e+00,5.000000000000000000e+00,5.000000000000000000e+00,5.000000000000000000e+00,4.345766544342041016e+00,4.309706687927246094e+00,4.283055782318115234e+00,4.275220870971679688e+00,5.000000000000000000e+00,5.000000000000000000e+00,5.000000000000000000e+00,5.000000000000000000e+00,5.000000000000000000e+00,5.000000000000000000e+00,5.000000000000000000e+00,5.000000000000000000e+00,5.000000000000000000e+00,5.000000000000000000e+00,5.000000000000000000e+00,5.000000000000000000e+00,5.000000000000000000e+00,5.000000000000000000e+00,5.000000000000000000e+00,5.000000000000000000e+00,5.000000000000000000e+00,5.000000000000000000e+00,5.000000000000000000e+00,5.000000000000000000e+00,5.000000000000000000e+00
1.933743715286254883e+00,1.960464000701904297e+00,1.987932920455932617e+00,2.016182899475097656e+00,2.045247077941894531e+00,2.075161457061767578e+00,2.105964183807373047e+00,2.137694835662841797e+00,2.170396327972412109e+00,2.204113960266113281e+00,2.238895654678344727e+00,2.274792671203613281e+00,2.311859846115112305e+00,2.350154638290405273e+00,2.389739513397216797e+00,2.430680990219116211e+00,2.473049640655517578e+00,2.516921520233154297e+00,2.562377929687500000e+00,2.609506607055664062e+00,2.658401250839233398e+00,2.709163427352905273e+00,2.761901855468750000e+00,2.816734313964843750e+00,2.873787879943847656e+00,2.933200836181640625e+00,2.995122194290161133e+00,3.059714317321777344e+00,3.127153396606445312e+00,3.197632789611816406e+00,3.271362304687500000e+00,3.348571777343750000e+00,3.429514169692993164e+00,3.514466524124145508e+00,3.603734493255615234e+00,3.697655677795410156e+00,3.796603202819824219e+00,3.900991916656494141e+00,4.011282920837402344e+00,4.127992630004882812e+00,4.251697063446044922e+00,4.383044242858886719e+00,4.522766113281250000e+00,4.671688556671142578e+00,4.830752849578857422e+00,5.000000000000000000e+00,5.000000000000000000e+00,5.000000000000000000e+00,5.000000000000000000e+00,5.000000000000000000e+00,5.000000000000000000e+00,5.000000000000000000e+00,5.000000000000000000e+00,5.000000000000000000e+00,5.000000000000000000e+00,5.000000000000000000e+00,4.317709445953369141e+00,5.000000000000000000e+00,4.324079990386962891e+00,5.000000000000000000e+00,5.000000000000000000e+00,5.000000000000000000e+00,5.000000000000000000e+00,5.000000000000000000e+00,5.000000000000000000e+00,5.000000000000000000e+00,5.000000000000000000e+00,5.000000000000000000e+00,5.000000000000000000e+00,5.000000000000000000e+00,5.000000000000000000e+00,5.000000000000000000e+00,5.000000000000000000e+00,5.000000000000000000e+00,5.000000000000000000e+00,5.000000000000000000e+00,5.000000000000000000e+00,5.000000000000000000e+00,5.000000000000000000e+00,5.000000000000000000e+00
1.933715343475341797e+00,1.960434913635253906e+00,1.987903237342834473e+00,2.016152143478393555e+00,2.045215368270874023e+00,2.075128793716430664e+00,2.105930566787719727e+00,2.137660264968872070e+00,2.170360803604125977e+00,2.204077243804931641e+00,2.238857746124267578e+00,2.274753808975219727e+00,2.311819314956665039e+00,2.350112915039062500e+00,2.389696359634399414e+00,2.430636405944824219e+00,2.473003387451171875e+00,2.516873598098754883e+00,2.562328338623046875e+00,2.609455108642578125e+00,2.658348083496093750e+00,2.709107875823974609e+00,2.761844158172607422e+00,2.816674232482910156e+00,2.873725652694702148e+00,2.933135986328125000e+00,2.995054244995117188e+00,3.059643268585205078e+00,3.127079486846923828e+00,3.197555541992187500e+00,3.271281242370605469e+00,3.348486900329589844e+00,3.429425239562988281e+00,3.514373064041137695e+00,3.603636503219604492e+00,3.697552204132080078e+00,3.796494007110595703e+00,3.900876760482788086e+00,4.011161327362060547e+00,4.127863883972167969e+00,4.251560211181640625e+00,4.382899284362792969e+00,4.522611141204833984e+00,4.671524047851562500e+00,4.830576419830322266e+00,5.000000000000000000e+00,5.000000000000000000e+00,5.000000000000000000e+00,5.000000000000000000e+00,5.000000000000000000e+00,5.000000000000000000e+00,5.000000000000000000e+00,5.000000000000000000e+00,5.000000000000000000e+00,5.000000000000000000e+00,5.000000000000000000e+00,4.327894687652587891e+00,5.000000000000000000e+00,4.382274150848388672e+00,5.000000000000000000e+00,5.000000000000000000e+00,5.000000000000000000e+00,5.000000000000000000e+00,5.000000000000000000e+00,5.000000000000000000e+00,5.000000000000000000e+00,5.000000000000000000e+00,5.000000000000000000e+00,5.000000000000000000e+00,5.000000000000000000e+00,5.000000000000000000e+00,5.000000000000000000e+00,5.000000000000000000e+00,5.000000000000000000e+00,5.000000000000000000e+00,5.000000000000000000e+00,5.000000000000000000e+00,5.000000000000000000e+00,5.000000000000000000e+00,5.000000000000000000e+00
1.933687329292297363e+00,1.960405826568603516e+00,1.987873315811157227e+00,2.016121149063110352e+00,2.045183658599853516e+00,2.075096368789672852e+00,2.105896949768066406e+00,2.137625694274902344e+00,2.170325040817260742e+00,2.204040288925170898e+00,2.238819837570190430e+00,2.274714469909667969e+00,2.311778783798217773e+00,2.350070953369140625e+00,2.389653444290161133e+00,2.430591583251953125e+00,2.472957134246826172e+00,2.516825437545776367e+00,2.562278509140014648e+00,2.609403848648071289e+00,2.658294439315795898e+00,2.709052324295043945e+00,2.761786460876464844e+00,2.816614389419555664e+00,2.873663187026977539e+00,2.933070898056030273e+00,2.994986295700073242e+00,3.059572458267211914e+00,3.127005815505981445e+00,3.197478294372558594e+00,3.271200418472290039e+00,3.348402261734008789e+00,3.429336547851562500e+00,3.514279842376708984e+00,3.603538274765014648e+00,3.697448730468750000e+00,3.796384811401367188e+00,3.900761842727661133e+00,4.011039733886718750e+00,4.127735137939453125e+00,4.251423358917236328e+00,4.382753849029541016e+00,4.522456645965576172e+00,4.671358585357666016e+00,4.830399990081787109e+00,5.000000000000000000e+00,5.000000000000000000e+00,5.000000000000000000e+00,5.000000000000000000e+00,5.000000000000000000e+00,5.000000000000000000e+00,5.000000000000000000e+00,5.000000000000000000e+00,5.000000000000000000e+00,5.000000000000000000e+00,5.000000000000000000e+00,4.357708454132080078e+00,5.000000000000000000e+00,4.358466625213623047e+00,5.000000000000000000e+00,5.000000000000000000e+00,5.000000000000000000e+00,5.000000000000000000e+00,5.000000000000000000e+00,5.000000000000000000e+00,5.000000000000000000e+00,5.000000000000000000e+00,5.000000000000000000e+00,5.000000000000000000e+00,5.000000000000000000e+00,5.000000000000000000e+00,5.000000000000000000e+00,5.000000000000000000e+00,5.000000000000000000e+00,5.000000000000000000e+00,5.000000000000000000e+00,5.000000000000000000e+00,5.000000000000000000e+00,5.000000000000000000e+00,5.000000000000000000e+00
1.933658957481384277e+00,1.960376739501953125e+00,1.987843394279479980e+00,2.016090393066406250e+00,2.045152187347412109e+00,2.075063943862915039e+00,2.105863571166992188e+00,2.137591123580932617e+00,2.170289516448974609e+00,2.204003810882568359e+00,2.238781929016113281e+00,2.274675369262695312e+00,2.311738491058349609e+00,2.350029468536376953e+00,2.389610052108764648e+00,2.430546998977661133e+00,2.472910881042480469e+00,2.516777753829956055e+00,2.562229156494140625e+00,2.609352111816406250e+00,2.658241033554077148e+00,2.708996772766113281e+00,2.761729001998901367e+00,2.816554307937622070e+00,2.873600721359252930e+00,2.933005571365356445e+00,2.994918584823608398e+00,3.059501886367797852e+00,3.126931667327880859e+00,3.197400808334350586e+00,3.271119356155395508e+00,3.348317623138427734e+00,3.429247617721557617e+00,3.514186382293701172e+00,3.603439807891845703e+00,3.697345256805419922e+00,3.796276330947875977e+00,3.900646686553955078e+00,4.010918140411376953e+00,4.127605915069580078e+00,4.251286983489990234e+00,4.382608413696289062e+00,4.522301673889160156e+00,4.671193599700927734e+00,4.821178913116455078e+00,4.819991588592529297e+00,4.818805217742919922e+00,4.817619323730468750e+00,4.816433906555175781e+00,4.815249443054199219e+00,4.814065456390380859e+00,4.812881469726562500e+00,4.811698436737060547e+00,4.810515880584716797e+00,4.809334278106689453e+00,4.808153152465820312e+00,4.271416187286376953e+00,4.805792331695556641e+00,4.804613113403320312e+00,4.803433895111083984e+00,4.802255630493164062e+00,4.801077842712402344e+00,4.799900531768798828e+00,4.798723697662353516e+00,4.797547817230224609e+00,4.796372413635253906e+00,4.795197486877441406e+00,4.794023513793945312e+00,4.792849540710449219e+00,4.791676521301269531e+00,4.790503978729248047e+00,4.789332389831542969e+00,4.788160324096679688e+00,4.786989688873291016e+00,4.785819530487060547e+00,4.784649848937988281e+00,4.783480644226074219e+00,4.782311916351318359e+00,4.781144142150878906e+00,4.779976844787597656e+00
1.933630704879760742e+00,1.960347652435302734e+00,1.987813472747802734e+00,2.016059875488281250e+00,2.045120477676391602e+00,2.075031280517578125e+00,2.105829954147338867e+00,2.137556791305541992e+00,2.170253992080688477e+00,2.203967094421386719e+00,2.238744020462036133e+00,2.274636268615722656e+00,2.311698198318481445e+00,2.349987506866455078e+00,2.389566898345947266e+00,2.430502176284790039e+00,2.472864627838134766e+00,2.516729831695556641e+00,2.562179327011108398e+00,2.609300613403320312e+00,2.658187627792358398e+00,2.708941698074340820e+00,2.761671304702758789e+00,2.816494226455688477e+00,2.873538255691528320e+00,2.932940721511840820e+00,2.994850873947143555e+00,3.059431076049804688e+00,3.126857757568359375e+00,3.197323560714721680e+00,3.271038532257080078e+00,3.348232746124267578e+00,3.429158449172973633e+00,3.514092922210693359e+00,3.603341579437255859e+00,3.697242021560668945e+00,3.751464605331420898e+00,3.750746011734008789e+00,3.750026941299438477e+00,3.749308824539184570e+00,3.748590946197509766e+00,3.747872829437255859e+00,3.747155427932739258e+00,3.746437788009643555e+00,3.745721101760864258e+00,3.745004415512084961e+00,3.744288206100463867e+00,3.743572235107421875e+00,3.742856502532958984e+00,3.742141008377075195e+00,3.741425991058349609e+00,3.740710973739624023e+00,3.739996433258056641e+00,3.739282131195068359e+00,3.738567590713500977e+00,3.737853765487670898e+00,3.737140178680419922e+00,3.736426830291748047e+00,3.735713958740234375e+00,3.735001087188720703e+00,3.734288692474365234e+00,3.733576536178588867e+00,3.732864618301391602e+00,3.732152938842773438e+00,3.731441497802734375e+00,3.730730533599853516e+00,3.730019569396972656e+00,3.729309082031250000e+00,3.728598833084106445e+00,3.727888822555541992e+00,3.727179050445556641e+00,3.726469516754150391e+00,3.725760221481323242e+00,3.725051403045654297e+00,3.724342346191406250e+00,3.723633766174316406e+00,3.722925662994384766e+00,3.722217798233032227e+00,3.721510171890258789e+00,3.720803022384643555e+00
1.933602333068847656e+00,1.960318803787231445e+00,1.987783670425415039e+00,2.016029119491577148e+00,2.045089006423950195e+00,2.074998617172241211e+00,2.105796575546264648e+00,2.137521982192993164e+00,2.170218229293823242e+00,2.203930139541625977e+00,2.238706111907958984e+00,2.274597167968750000e+00,2.311657667160034180e+00,2.349945783615112305e+00,2.389523744583129883e+00,2.430457592010498047e+00,2.472818374633789062e+00,2.516681909561157227e+00,2.562129735946655273e+00,2.609249114990234375e+00,2.658134222030639648e+00,2.708886146545410156e+00,2.761613368988037109e+00,2.816434383392333984e+00,2.873476028442382812e+00,2.932875633239746094e+00,2.994782924652099609e+00,3.059360265731811523e+00,3.070245027542114258e+00,3.069763660430908203e+00,3.069282054901123047e+00,3.068800926208496094e+00,3.068320035934448242e+00,3.067838907241821289e+00,3.067358016967773438e+00,3.066877365112304688e+00,3.066396951675415039e+00,3.065916776657104492e+00,3.065436363220214844e+00,3.064956426620483398e+00,3.064476490020751953e+00,3.063996791839599609e+00,3.063517332077026367e+00,3.063037633895874023e+00,3.062558650970458984e+00,3.062079191207885742e+00,3.061600446701049805e+00,3.061121702194213867e+00,3.060642719268798828e+00,3.060164451599121094e+00,3.059685945510864258e+00,3.059207916259765625e+00,3.058729887008666992e+00,3.058252096176147461e+00,3.057774305343627930e+00,3.057296752929687500e+00,3.056819200515747070e+00,3.056341886520385742e+00,3.055864810943603516e+00,3.055387973785400391e+00,3.054911136627197266e+00,3.054434537887573242e+00,3.053957939147949219e+00,3.053481578826904297e+00,3.053005456924438477e+00,3.052529335021972656e+00,3.052053451538085938e+00,3.051577806472778320e+00,3.051102161407470703e+00,3.050626754760742188e+00,3.050151348114013672e+00,3.049676179885864258e+00,3.049201250076293945e+00,3.048726320266723633e+00,3.048251628875732422e+00,3.047777175903320312e+00,3.047302722930908203e+00,3.046828269958496094e+00,3.046354055404663086e+00,3.045880079269409180e+00
1.933574080467224121e+00,1.960289716720581055e+00,1.987753748893737793e+00,2.015998363494873047e+00,2.045057296752929688e+00,2.074966192245483398e+00,2.105762958526611328e+00,2.137487411499023438e+00,2.170182704925537109e+00,2.203893661499023438e+00,2.238668441772460938e+00,2.274558067321777344e+00,2.311617136001586914e+00,2.349904060363769531e+00,2.389480590820312500e+00,2.430413007736206055e+00,2.472772121429443359e+00,2.516633987426757812e+00,2.562079906463623047e+00,2.598751544952392578e+00,2.598406553268432617e+00,2.598061561584472656e+00,2.597716808319091797e+00,2.597372055053710938e+00,2.597027540206909180e+00,2.596682786941528320e+00,2.596338510513305664e+00,2.595993995666503906e+00,2.595649719238281250e+00,2.595305681228637695e+00,2.594961404800415039e+00,2.594617605209350586e+00,2.594273567199707031e+00,2.593929767608642578e+00,2.593585968017578125e+00,2.593242406845092773e+00,2.592898845672607422e+00,2.592555284500122070e+00,2.592211961746215820e+00,2.591868877410888672e+00,2.591525554656982422e+00,2.591182470321655273e+00,2.590839385986328125e+00,2.590496540069580078e+00,2.590153694152832031e+00,2.589810848236083984e+00,2.589468240737915039e+00,2.589125633239746094e+00,2.588783264160156250e+00,2.588440895080566406e+00,2.588098526000976562e+00,2.587756395339965820e+00,2.587414264678955078e+00,2.587072372436523438e+00,2.586730480194091797e+00,2.586388826370239258e+00,2.586047172546386719e+00,2.585705518722534180e+00,2.585364103317260742e+00,2.585022449493408203e+00,2.584681272506713867e+00,2.584340095520019531e+00,2.583998918533325195e+00,2.583657979965209961e+00,2.583317041397094727e+00,2.582976102828979492e+00,2.582635402679443359e+00,2.582294702529907227e+00,2.581954002380371094e+00,2.581613540649414062e+00,2.581273317337036133e+00,2.580932855606079102e+00,2.580592632293701172e+00,2.580252647399902344e+00,2.579912424087524414e+00,2.579572677612304688e+00,2.579232692718505859e+00,2.578892946243286133e+00,2.578553199768066406e+00,2.578213453292846680e+00
1.933545708656311035e+00,1.960260629653930664e+00,1.987723827362060547e+00,2.015967607498168945e+00,2.045025825500488281e+00,2.074933528900146484e+00,2.105729341506958008e+00,2.137452840805053711e+00,2.170147180557250977e+00,2.203856945037841797e+00,2.238630294799804688e+00,2.252533912658691406e+00,2.252274751663208008e+00,2.252015590667724609e+00,2.251756429672241211e+00,2.251497507095336914e+00,2.251238584518432617e+00,2.250979423522949219e+00,2.250720739364624023e+00,2.250461816787719727e+00,2.250203132629394531e+00,2.249944448471069336e+00,2.249685764312744141e+00,2.249427318572998047e+00,2.249168634414672852e+00,2.248910427093505859e+00,2.248651981353759766e+00,2.248393535614013672e+00,2.248135328292846680e+00,2.247877120971679688e+00,2.247619152069091797e+00,2.247360944747924805e+00,2.247102975845336914e+00,2.246845006942749023e+00,2.246587038040161133e+00,2.246329307556152344e+00,2.246071577072143555e+00,2.245813608169555664e+00,2.245556116104125977e+00,2.245298385620117188e+00,2.245040893554687500e+00,2.244783401489257812e+00,2.244525909423828125e+00,2.244268655776977539e+00,2.244011163711547852e+00,2.243753910064697266e+00,2.243496894836425781e+00,2.243239641189575195e+00,2.242982625961303711e+00,2.242725610733032227e+00,2.242468595504760742e+00,2.242211818695068359e+00,2.241954803466796875e+00,2.241698026657104492e+00,2.241441249847412109e+00,2.241184711456298828e+00,2.240927934646606445e+00,2.240671634674072266e+00,2.240415096282958984e+00,2.240158796310424805e+00,2.239902496337890625e+00,2.239646196365356445e+00,2.239389896392822266e+00,2.239133596420288086e+00,2.238877534866333008e+00,2.238621473312377930e+00,2.238365650177001953e+00,2.238109827041625977e+00,2.237853765487670898e+00,2.237598180770874023e+00,2.237342357635498047e+00,2.237086772918701172e+00,2.236831188201904297e+00,2.236575603485107422e+00,2.236320018768310547e+00,2.236064672470092773e+00,2.235809326171875000e+00,2.235553979873657227e+00,2.235298633575439453e+00,2.235043525695800781e+00
1.933517456054687500e+00,1.960231542587280273e+00,1.987694144248962402e+00,1.987720489501953125e+00,1.987518668174743652e+00,1.987316966056823730e+00,1.987115025520324707e+00,1.986913323402404785e+00,1.986711621284484863e+00,1.986510038375854492e+00,1.986308574676513672e+00,1.986106753349304199e+00,1.985905289649963379e+00,1.985703825950622559e+00,1.985502481460571289e+00,1.985301136970520020e+00,1.985099554061889648e+00,1.984898328781127930e+00,1.984697103500366211e+00,1.984495878219604492e+00,1.984294772148132324e+00,1.984093427658081055e+00,1.983892321586608887e+00,1.983691334724426270e+00,1.983490347862243652e+00,1.983289361000061035e+00,1.983088254928588867e+00,1.982887387275695801e+00,1.982686638832092285e+00,1.982485771179199219e+00,1.982285022735595703e+00,1.982084155082702637e+00,1.981883406639099121e+00,1.981682896614074707e+00,1.981482267379760742e+00,1.981281757354736328e+00,1.981081008911132812e+00,1.980880498886108398e+00,1.980680108070373535e+00,1.980479717254638672e+00,1.980279445648193359e+00,1.980078935623168945e+00,1.979878664016723633e+00,1.979678392410278320e+00,1.979478240013122559e+00,1.979278087615966797e+00,1.979077816009521484e+00,1.978877663612365723e+00,1.978677749633789062e+00,1.978477716445922852e+00,1.978277802467346191e+00,1.978077650070190430e+00,1.977877855300903320e+00,1.977677941322326660e+00,1.977478265762329102e+00,1.977278470993041992e+00,1.977078557014465332e+00,1.976878881454467773e+00,1.976679325103759766e+00,1.976479768753051758e+00,1.976279973983764648e+00,1.976080536842346191e+00,1.975880980491638184e+00,1.975681662559509277e+00,1.975482225418090820e+00,1.975282907485961914e+00,1.975083708763122559e+00,1.974884390830993652e+00,1.974685192108154297e+00,1.974485993385314941e+00,1.974286913871765137e+00,1.974087834358215332e+00,1.973888754844665527e+00,1.973689794540405273e+00,1.973490834236145020e+00,1.973291873931884766e+00,1.973093032836914062e+00,1.972894191741943359e+00,1.972695350646972656e+00,1.972496628761291504e+00
1.777813792228698730e+00,1.777652144432067871e+00,1.777490735054016113e+00,1.777329325675964355e+00,1.777168035507202148e+00,1.777006745338439941e+00,1.776845216751098633e+00,1.776683926582336426e+00,1.776522755622863770e+00,1.776361584663391113e+00,1.776200413703918457e+00,1.776039004325866699e+00,1.775877952575683594e+00,1.775716900825500488e+00,1.775555849075317383e+00,1.775394797325134277e+00,1.775233626365661621e+00,1.775072693824768066e+00,1.774911761283874512e+00,1.774750828742980957e+00,1.774589896202087402e+00,1.774428844451904297e+00,1.774268031120300293e+00,1.774107336997985840e+00,1.773946523666381836e+00,1.773785829544067383e+00,1.773624897003173828e+00,1.773464202880859375e+00,1.773303508758544922e+00,1.773142933845520020e+00,1.772982120513916016e+00,1.772821664810180664e+00,1.772661089897155762e+00,1.772500634193420410e+00,1.772340059280395508e+00,1.772179484367370605e+00,1.772019028663635254e+00,1.771858692169189453e+00,1.771698355674743652e+00,1.771538019180297852e+00,1.771377563476562500e+00,1.771217226982116699e+00,1.771057009696960449e+00,1.770896792411804199e+00,1.770736575126647949e+00,1.770576238632202148e+00,1.770416140556335449e+00,1.770256042480468750e+00,1.770095944404602051e+00,1.769935965538024902e+00,1.769775748252868652e+00,1.769615769386291504e+00,1.769455790519714355e+00,1.769295930862426758e+00,1.769136071205139160e+00,1.768975973129272461e+00,1.768816113471984863e+00,1.768656373023986816e+00,1.768496513366699219e+00,1.768336772918701172e+00,1.768176913261413574e+00,1.768017172813415527e+00,1.767857551574707031e+00,1.767697930335998535e+00,1.767538070678710938e+00,1.767378568649291992e+00,1.767219066619873047e+00,1.767059445381164551e+00,1.766899943351745605e+00,1.766740560531616211e+00,1.766581058502197266e+00,1.766421675682067871e+00,1.766262292861938477e+00,1.766103029251098633e+00,1.765943646430969238e+00,1.765784382820129395e+00,1.765625119209289551e+00,1.765465974807739258e+00,1.765306830406188965e+00,1.765147566795349121e+00
1.607609152793884277e+00,1.607477068901062012e+00,1.607345104217529297e+00,1.607213139533996582e+00,1.607081294059753418e+00,1.606949210166931152e+00,1.606817245483398438e+00,1.606685400009155273e+00,1.606553554534912109e+00,1.606421709060668945e+00,1.606289744377136230e+00,1.606158018112182617e+00,1.606026172637939453e+00,1.605894446372985840e+00,1.605762720108032227e+00,1.605630874633789062e+00,1.605499148368835449e+00,1.605367541313171387e+00,1.605235934257507324e+00,1.605104327201843262e+00,1.604972600936889648e+00,1.604840993881225586e+00,1.604709386825561523e+00,1.604577898979187012e+00,1.604446411132812500e+00,1.604314804077148438e+00,1.604183316230773926e+00,1.604051828384399414e+00,1.603920459747314453e+00,1.603788971900939941e+00,1.603657484054565430e+00,1.603526115417480469e+00,1.603394865989685059e+00,1.603263497352600098e+00,1.603132247924804688e+00,1.603000760078430176e+00,1.602869510650634766e+00,1.602738261222839355e+00,1.602607131004333496e+00,1.602475881576538086e+00,1.602344632148742676e+00,1.602213501930236816e+00,1.602082371711730957e+00,1.601951241493225098e+00,1.601820230484008789e+00,1.601688981056213379e+00,1.601557970046997070e+00,1.601426959037780762e+00,1.601295948028564453e+00,1.601164937019348145e+00,1.601033926010131836e+00,1.600902915000915527e+00,1.600772023200988770e+00,1.600641131401062012e+00,1.600510358810424805e+00,1.600379347801208496e+00,1.600248456001281738e+00,1.600117683410644531e+00,1.599986910820007324e+00,1.599856138229370117e+00,1.599725246429443359e+00,1.599594473838806152e+00,1.599463820457458496e+00,1.599333167076110840e+00,1.599202394485473633e+00,1.599071741104125977e+00,1.598941206932067871e+00,1.598810553550720215e+00,1.598680019378662109e+00,1.598549365997314453e+00,1.598418831825256348e+00,1.598288297653198242e+00,1.598157763481140137e+00,1.598027348518371582e+00,1.597896933555603027e+00,1.597766518592834473e+00,1.597636103630065918e+00,1.597505688667297363e+00,1.597375392913818359e+00,1.597245097160339355e+00
1.467147231101989746e+00,1.467037320137023926e+00,1.466927409172058105e+00,1.466817498207092285e+00,1.466707468032836914e+00,1.466597557067871094e+00,1.466487765312194824e+00,1.466377854347229004e+00,1.466268062591552734e+00,1.466158032417297363e+00,1.466048240661621094e+00,1.465938448905944824e+00,1.465828776359558105e+00,1.465718984603881836e+00,1.465609073638916016e+00,1.465499401092529297e+00,1.465389728546142578e+00,1.465280055999755859e+00,1.465170383453369141e+00,1.465060591697692871e+00,1.464950919151306152e+00,1.464841365814208984e+00,1.464731693267822266e+00,1.464622139930725098e+00,1.464512467384338379e+00,1.464402914047241211e+00,1.464293360710144043e+00,1.464183807373046875e+00,1.464074373245239258e+00,1.463964700698852539e+00,1.463855266571044922e+00,1.463745832443237305e+00,1.463636398315429688e+00,1.463526964187622070e+00,1.463417410850524902e+00,1.463308095932006836e+00,1.463198661804199219e+00,1.463089346885681152e+00,1.462979912757873535e+00,1.462870478630065918e+00,1.462761163711547852e+00,1.462651968002319336e+00,1.462542653083801270e+00,1.462433457374572754e+00,1.462324023246765137e+00,1.462214827537536621e+00,1.462105631828308105e+00,1.461996436119079590e+00,1.461887240409851074e+00,1.461777925491333008e+00,1.461668848991394043e+00,1.461559653282165527e+00,1.461450576782226562e+00,1.461341500282287598e+00,1.461232304573059082e+00,1.461123228073120117e+00,1.461014151573181152e+00,1.460905194282531738e+00,1.460796117782592773e+00,1.460687041282653809e+00,1.460578083992004395e+00,1.460469126701354980e+00,1.460360169410705566e+00,1.460251212120056152e+00,1.460142135620117188e+00,1.460033297538757324e+00,1.459924459457397461e+00,1.459815502166748047e+00,1.459706664085388184e+00,1.459597706794738770e+00,1.459488868713378906e+00,1.459380149841308594e+00,1.459271311759948730e+00,1.459162473678588867e+00,1.459053635597229004e+00,1.458944916725158691e+00,1.458836197853088379e+00,1.458727478981018066e+00,1.458618879318237305e+00,1.458510160446166992e+00
1.349258303642272949e+00,1.349165320396423340e+00,1.349072337150573730e+00,1.348979353904724121e+00,1.348886251449584961e+00,1.348793387413024902e+00,1.348700404167175293e+00,1.348607540130615234e+00,1.348514676094055176e+00,1.348421692848205566e+00,1.348328828811645508e+00,1.348235964775085449e+00,1.348143100738525391e+00,1.348050236701965332e+00,1.347957372665405273e+00,1.347864508628845215e+00,1.347771763801574707e+00,1.347678899765014648e+00,1.347586154937744141e+00,1.347493290901184082e+00,1.347400546073913574e+00,1.347307920455932617e+00,1.347215175628662109e+00,1.347122430801391602e+00,1.347029685974121094e+00,1.346936941146850586e+00,1.346844315528869629e+00,1.346751689910888672e+00,1.346658945083618164e+00,1.346566319465637207e+00,1.346473693847656250e+00,1.346381068229675293e+00,1.346288442611694336e+00,1.346195936203002930e+00,1.346103191375732422e+00,1.346010684967041016e+00,1.345918059349060059e+00,1.345825552940368652e+00,1.345732927322387695e+00,1.345640420913696289e+00,1.345548033714294434e+00,1.345455527305603027e+00,1.345363020896911621e+00,1.345270514488220215e+00,1.345178008079528809e+00,1.345085620880126953e+00,1.344993233680725098e+00,1.344900846481323242e+00,1.344808340072631836e+00,1.344715952873229980e+00,1.344623565673828125e+00,1.344531178474426270e+00,1.344438910484313965e+00,1.344346404075622559e+00,1.344254136085510254e+00,1.344161868095397949e+00,1.344069600105285645e+00,1.343977212905883789e+00,1.343884944915771484e+00,1.343792676925659180e+00,1.343700408935546875e+00,1.343608140945434570e+00,1.343515992164611816e+00,1.343423724174499512e+00,1.343331456184387207e+00,1.343239307403564453e+00,1.343147158622741699e+00,1.343055009841918945e+00,1.342962741851806641e+00,1.342870593070983887e+00,1.342778563499450684e+00,1.342686414718627930e+00,1.342594385147094727e+00,1.342502117156982422e+00,1.342410087585449219e+00,1.342318058013916016e+00,1.342226028442382812e+00,1.342133879661560059e+00,1.342041850090026855e+00,1.341949939727783203e+00
1.248905539512634277e+00,1.248825907707214355e+00,1.248746275901794434e+00,1.248666524887084961e+00,1.248586893081665039e+00,1.248507261276245117e+00,1.248427629470825195e+00,1.248347997665405273e+00,1.248268365859985352e+00,1.248188734054565430e+00,1.248109221458435059e+00,1.248029589653015137e+00,1.247950077056884766e+00,1.247870445251464844e+00,1.247790932655334473e+00,1.247711420059204102e+00,1.247631788253784180e+00,1.247552394866943359e+00,1.247472763061523438e+00,1.247393250465393066e+00,1.247313737869262695e+00,1.247234344482421875e+00,1.247154831886291504e+00,1.247075319290161133e+00,1.246995925903320312e+00,1.246916413307189941e+00,1.246837019920349121e+00,1.246757626533508301e+00,1.246678113937377930e+00,1.246598720550537109e+00,1.246519327163696289e+00,1.246440052986145020e+00,1.246360659599304199e+00,1.246281266212463379e+00,1.246201872825622559e+00,1.246122598648071289e+00,1.246043205261230469e+00,1.245963931083679199e+00,1.245884537696838379e+00,1.245805263519287109e+00,1.245725989341735840e+00,1.245646715164184570e+00,1.245567440986633301e+00,1.245488166809082031e+00,1.245408892631530762e+00,1.245329737663269043e+00,1.245250463485717773e+00,1.245171308517456055e+00,1.245091915130615234e+00,1.245012760162353516e+00,1.244933605194091797e+00,1.244854450225830078e+00,1.244775295257568359e+00,1.244696021080017090e+00,1.244616985321044922e+00,1.244537830352783203e+00,1.244458675384521484e+00,1.244379639625549316e+00,1.244300365447998047e+00,1.244221329689025879e+00,1.244142293930053711e+00,1.244063138961791992e+00,1.243984103202819824e+00,1.243904948234558105e+00,1.243825912475585938e+00,1.243746995925903320e+00,1.243667960166931152e+00,1.243588924407958984e+00,1.243509888648986816e+00,1.243430852890014648e+00,1.243351936340332031e+00,1.243272900581359863e+00,1.243193864822387695e+00,1.243114948272705078e+00,1.243036031723022461e+00,1.242957115173339844e+00,1.242878198623657227e+00,1.242799282073974609e+00,1.242720246315002441e+00,1.242641448974609375e+00
1.162447214126586914e+00,1.162378191947937012e+00,1.162309169769287109e+00,1.162240147590637207e+00,1.162171125411987305e+00,1.162102103233337402e+00,1.162033200263977051e+00,1.161964178085327148e+00,1.161895155906677246e+00,1.161826252937316895e+00,1.161757230758666992e+00,1.161688327789306641e+00,1.161619305610656738e+00,1.161550402641296387e+00,1.161481499671936035e+00,1.161412596702575684e+00,1.161343693733215332e+00,1.161274671554565430e+00,1.161205768585205078e+00,1.161136865615844727e+00,1.161068081855773926e+00,1.160999178886413574e+00,1.160930275917053223e+00,1.160861372947692871e+00,1.160792589187622070e+00,1.160723805427551270e+00,1.160654902458190918e+00,1.160586118698120117e+00,1.160517215728759766e+00,1.160448431968688965e+00,1.160379648208618164e+00,1.160310864448547363e+00,1.160242080688476562e+00,1.160173296928405762e+00,1.160104513168334961e+00,1.160035848617553711e+00,1.159967064857482910e+00,1.159898281097412109e+00,1.159829497337341309e+00,1.159760832786560059e+00,1.159692168235778809e+00,1.159623384475708008e+00,1.159554600715637207e+00,1.159485936164855957e+00,1.159417271614074707e+00,1.159348607063293457e+00,1.159279942512512207e+00,1.159211277961730957e+00,1.159142613410949707e+00,1.159073948860168457e+00,1.159005403518676758e+00,1.158936738967895508e+00,1.158868074417114258e+00,1.158799409866333008e+00,1.158730864524841309e+00,1.158662319183349609e+00,1.158593773841857910e+00,1.158525109291076660e+00,1.158456563949584961e+00,1.158388018608093262e+00,1.158319473266601562e+00,1.158250927925109863e+00,1.158182263374328613e+00,1.158113837242126465e+00,1.158045291900634766e+00,1.157976746559143066e+00,1.157908320426940918e+00,1.157839775085449219e+00,1.157771229743957520e+00,1.157702803611755371e+00,1.157634377479553223e+00,1.157565951347351074e+00,1.157497406005859375e+00,1.157428979873657227e+00,1.157360553741455078e+00,1.157292127609252930e+00,1.157223701477050781e+00,1.157155156135559082e+00,1.157086849212646484e+00,1.157018423080444336e+00
1.087184309959411621e+00,1.087123990058898926e+00,1.087063550949096680e+00,1.087003231048583984e+00,1.086942791938781738e+00,1.086882472038269043e+00,1.086822152137756348e+00,1.086761713027954102e+00,1.086701393127441406e+00,1.086641073226928711e+00,1.086580753326416016e+00,1.086520433425903320e+00,1.086460113525390625e+00,1.086399793624877930e+00,1.086339592933654785e+00,1.086279273033142090e+00,1.086218953132629395e+00,1.086158633232116699e+00,1.086098432540893555e+00,1.086038112640380859e+00,1.085977911949157715e+00,1.085917711257934570e+00,1.085857391357421875e+00,1.085797190666198730e+00,1.085736870765686035e+00,1.085676670074462891e+00,1.085616469383239746e+00,1.085556268692016602e+00,1.085496068000793457e+00,1.085435867309570312e+00,1.085375666618347168e+00,1.085315465927124023e+00,1.085255265235900879e+00,1.085195064544677734e+00,1.085134983062744141e+00,1.085074782371520996e+00,1.085014700889587402e+00,1.084954500198364258e+00,1.084894418716430664e+00,1.084834218025207520e+00,1.084774136543273926e+00,1.084714055061340332e+00,1.084653854370117188e+00,1.084593772888183594e+00,1.084533691406250000e+00,1.084473609924316406e+00,1.084413528442382812e+00,1.084353327751159668e+00,1.084293365478515625e+00,1.084233283996582031e+00,1.084173202514648438e+00,1.084113240242004395e+00,1.084053039550781250e+00,1.083993077278137207e+00,1.083932995796203613e+00,1.083873033523559570e+00,1.083812952041625977e+00,1.083752989768981934e+00,1.083692908287048340e+00,1.083632946014404297e+00,1.083572983741760254e+00,1.083512902259826660e+00,1.083452939987182617e+00,1.083392977714538574e+00,1.083333134651184082e+00,1.083273172378540039e+00,1.083213090896606445e+00,1.083153247833251953e+00,1.083093285560607910e+00,1.083033323287963867e+00,1.082973480224609375e+00,1.082913398742675781e+00,1.082853555679321289e+00,1.082793712615966797e+00,1.082733750343322754e+00,1.082673907279968262e+00,1.082613945007324219e+00,1.082554101943969727e+00,1.082494258880615234e+00,1.082434415817260742e+00
1.021074652671813965e+00,1.021021366119384766e+00,1.020968079566955566e+00,1.020914912223815918e+00,1.020861625671386719e+00,1.020808458328247070e+00,1.020755171775817871e+00,1.020701885223388672e+00,1.020648717880249023e+00,1.020595431327819824e+00,1.020542263984680176e+00,1.020488977432250977e+00,1.020435810089111328e+00,1.020382642745971680e+00,1.020329475402832031e+00,1.020276308059692383e+00,1.020223021507263184e+00,1.020169854164123535e+00,1.020116686820983887e+00,1.020063519477844238e+00,1.020010471343994141e+00,1.019957184791564941e+00,1.019904136657714844e+00,1.019850969314575195e+00,1.019797801971435547e+00,1.019744753837585449e+00,1.019691586494445801e+00,1.019638419151306152e+00,1.019585371017456055e+00,1.019532203674316406e+00,1.019479155540466309e+00,1.019425988197326660e+00,1.019372940063476562e+00,1.019319772720336914e+00,1.019266724586486816e+00,1.019213676452636719e+00,1.019160509109497070e+00,1.019107460975646973e+00,1.019054412841796875e+00,1.019001364707946777e+00,1.018948316574096680e+00,1.018895268440246582e+00,1.018842220306396484e+00,1.018789172172546387e+00,1.018736243247985840e+00,1.018683195114135742e+00,1.018630146980285645e+00,1.018577098846435547e+00,1.018524169921875000e+00,1.018471121788024902e+00,1.018418192863464355e+00,1.018365144729614258e+00,1.018312215805053711e+00,1.018259167671203613e+00,1.018206238746643066e+00,1.018153309822082520e+00,1.018100261688232422e+00,1.018047332763671875e+00,1.017994403839111328e+00,1.017941474914550781e+00,1.017888545989990234e+00,1.017835497856140137e+00,1.017782568931579590e+00,1.017729759216308594e+00,1.017676830291748047e+00,1.017623901367187500e+00,1.017570972442626953e+00,1.017518043518066406e+00,1.017465233802795410e+00,1.017412304878234863e+00,1.017359375953674316e+00,1.017306447029113770e+00,1.017253637313842773e+00,1.017200827598571777e+00,1.017147898674011230e+00,1.017095088958740234e+00,1.017042160034179688e+00,1.016989350318908691e+00,1.016936540603637695e+00,1.016883730888366699e+00
9.625442028045654297e-01,9.624968171119689941e-01,9.624495506286621094e-01,9.624021649360656738e-01,9.623548984527587891e-01,9.623075127601623535e-01,9.622601866722106934e-01,9.622129201889038086e-01,9.621655941009521484e-01,9.621183872222900391e-01,9.620710015296936035e-01,9.620236754417419434e-01,9.619764685630798340e-01,9.619291424751281738e-01,9.618819355964660645e-01,9.618346095085144043e-01,9.617873430252075195e-01,9.617401361465454102e-01,9.616928100585937500e-01,9.616456627845764160e-01,9.615983366966247559e-01,9.615510702133178711e-01,9.615039229393005371e-01,9.614566564559936523e-01,9.614094495773315430e-01,9.613621830940246582e-01,9.613149166107177734e-01,9.612677693367004395e-01,9.612205624580383301e-01,9.611734151840209961e-01,9.611261487007141113e-01,9.610789418220520020e-01,9.610317945480346680e-01,9.609845876693725586e-01,9.609374403953552246e-01,9.608902335166931152e-01,9.608430266380310059e-01,9.607958793640136719e-01,9.607486724853515625e-01,9.607015848159790039e-01,9.606544375419616699e-01,9.606072306632995605e-01,9.605601429939270020e-01,9.605129361152648926e-01,9.604659080505371094e-01,9.604187011718750000e-01,9.603715538978576660e-01,9.603244662284851074e-01,9.602773189544677734e-01,9.602302908897399902e-01,9.601831436157226562e-01,9.601359963417053223e-01,9.600889682769775391e-01,9.600418210029602051e-01,9.599947929382324219e-01,9.599476456642150879e-01,9.599005579948425293e-01,9.598535299301147461e-01,9.598063826560974121e-01,9.597594141960144043e-01,9.597123265266418457e-01,9.596651792526245117e-01,9.596182107925415039e-01,9.595711231231689453e-01,9.595241546630859375e-01,9.594770669937133789e-01,9.594299793243408203e-01,9.593830108642578125e-01,9.593359231948852539e-01,9.592890143394470215e-01,9.592419266700744629e-01,9.591948986053466797e-01,9.591479301452636719e-01,9.591009020805358887e-01,9.590539336204528809e-01,9.590069055557250977e-01,9.589598774909973145e-01,9.589129686355590820e-01,9.588659405708312988e-01,9.588190317153930664e-01
9.103600382804870605e-01,9.103177189826965332e-01,9.102753400802612305e-01,9.102330803871154785e-01,9.101907014846801758e-01,9.101483821868896484e-01,9.101060628890991211e-01,9.100637435913085938e-01,9.100214838981628418e-01,9.099791049957275391e-01,9.099367856979370117e-01,9.098945260047912598e-01,9.098522067070007324e-01,9.098099470138549805e-01,9.097676277160644531e-01,9.097253084182739258e-01,9.096831083297729492e-01,9.096407890319824219e-01,9.095985293388366699e-01,9.095562100410461426e-01,9.095139503479003906e-01,9.094717502593994141e-01,9.094294309616088867e-01,9.093872308731079102e-01,9.093449711799621582e-01,9.093026518821716309e-01,9.092604517936706543e-01,9.092181921005249023e-01,9.091759920120239258e-01,9.091337323188781738e-01,9.090914726257324219e-01,9.090493321418762207e-01,9.090070724487304688e-01,9.089648723602294922e-01,9.089226722717285156e-01,9.088804125785827637e-01,9.088382720947265625e-01,9.087960124015808105e-01,9.087538719177246094e-01,9.087116718292236328e-01,9.086694121360778809e-01,9.086272716522216797e-01,9.085850715637207031e-01,9.085429310798645020e-01,9.085007309913635254e-01,9.084585309028625488e-01,9.084164500236511230e-01,9.083742499351501465e-01,9.083321094512939453e-01,9.082899689674377441e-01,9.082477688789367676e-01,9.082056879997253418e-01,9.081634879112243652e-01,9.081214070320129395e-01,9.080792665481567383e-01,9.080370664596557617e-01,9.079949855804443359e-01,9.079528450965881348e-01,9.079107642173767090e-01,9.078686237335205078e-01,9.078264832496643066e-01,9.077844023704528809e-01,9.077422618865966797e-01,9.077002406120300293e-01,9.076581001281738281e-01,9.076159596443176270e-01,9.075739383697509766e-01,9.075318574905395508e-01,9.074898362159729004e-01,9.074476957321166992e-01,9.074056148529052734e-01,9.073635935783386230e-01,9.073215126991271973e-01,9.072794914245605469e-01,9.072374105453491211e-01,9.071952700614929199e-01,9.071533083915710449e-01,9.071112275123596191e-01,9.070692658424377441e-01,9.070271849632263184e-01
8.635432720184326172e-01,8.635051250457763672e-01,8.634670972824096680e-01,8.634289503097534180e-01,8.633908629417419434e-01,8.633528351783752441e-01,8.633146882057189941e-01,8.632766604423522949e-01,8.632385730743408203e-01,8.632004857063293457e-01,8.631624579429626465e-01,8.631243705749511719e-01,8.630863428115844727e-01,8.630482554435729980e-01,8.630101680755615234e-01,8.629721403121948242e-01,8.629340529441833496e-01,8.628960847854614258e-01,8.628579974174499512e-01,8.628199100494384766e-01,8.627819418907165527e-01,8.627438545227050781e-01,8.627058863639831543e-01,8.626678586006164551e-01,8.626297712326049805e-01,8.625918030738830566e-01,8.625537753105163574e-01,8.625158071517944336e-01,8.624777793884277344e-01,8.624397516250610352e-01,8.624017834663391113e-01,8.623637557029724121e-01,8.623257875442504883e-01,8.622877597808837891e-01,8.622497320175170898e-01,8.622118234634399414e-01,8.621737957000732422e-01,8.621358871459960938e-01,8.620978593826293945e-01,8.620598316192626953e-01,8.620219230651855469e-01,8.619839549064636230e-01,8.619460463523864746e-01,8.619080185890197754e-01,8.618700504302978516e-01,8.618321418762207031e-01,8.617941737174987793e-01,8.617562651634216309e-01,8.617182970046997070e-01,8.616803288459777832e-01,8.616424202919006348e-01,8.616044521331787109e-01,8.615666031837463379e-01,8.615286350250244141e-01,8.614906668663024902e-01,8.614528179168701172e-01,8.614148497581481934e-01,8.613770008087158203e-01,8.613390922546386719e-01,8.613011240959167480e-01,8.612632751464843750e-01,8.612253665924072266e-01,8.611875176429748535e-01,8.611496090888977051e-01,8.611116409301757812e-01,8.610738515853881836e-01,8.610358834266662598e-01,8.609980940818786621e-01,8.609601855278015137e-01,8.609222769737243652e-01,8.608844280242919922e-01,8.608465790748596191e-01,8.608087301254272461e-01,8.607708811759948730e-01,8.607329726219177246e-01,8.606951832771301270e-01,8.606572747230529785e-01,8.606194853782653809e-01,8.605816364288330078e-01,8.605437278747558594e-01
8.213061690330505371e-01,8.212717771530151367e-01,8.212372660636901855e-01,8.212028741836547852e-01,8.211684226989746094e-01,8.211339116096496582e-01,8.210995197296142578e-01,8.210650086402893066e-01,8.210306167602539062e-01,8.209961652755737305e-01,8.209617137908935547e-01,8.209273219108581543e-01,8.208928704261779785e-01,8.208584785461425781e-01,8.208240270614624023e-01,8.207895755767822266e-01,8.207551836967468262e-01,8.207207322120666504e-01,8.206863999366760254e-01,8.206519484519958496e-01,8.206174969673156738e-01,8.205831646919250488e-01,8.205487132072448730e-01,8.205143809318542480e-01,8.204799294471740723e-01,8.204454779624938965e-01,8.204111456871032715e-01,8.203767538070678711e-01,8.203424215316772461e-01,8.203079700469970703e-01,8.202735781669616699e-01,8.202392458915710449e-01,8.202048540115356445e-01,8.201705217361450195e-01,8.201361298561096191e-01,8.201017379760742188e-01,8.200674057006835938e-01,8.200330138206481934e-01,8.199986219406127930e-01,8.199643492698669434e-01,8.199299573898315430e-01,8.198956251144409180e-01,8.198612928390502930e-01,8.198269009590148926e-01,8.197926282882690430e-01,8.197582364082336426e-01,8.197239637374877930e-01,8.196895718574523926e-01,8.196552395820617676e-01,8.196209669113159180e-01,8.195865750312805176e-01,8.195523023605346680e-01,8.195179700851440430e-01,8.194836378097534180e-01,8.194493651390075684e-01,8.194150328636169434e-01,8.193807601928710938e-01,8.193464279174804688e-01,8.193120956420898438e-01,8.192778825759887695e-01,8.192435503005981445e-01,8.192092776298522949e-01,8.191750049591064453e-01,8.191406726837158203e-01,8.191064000129699707e-01,8.190721273422241211e-01,8.190378546714782715e-01,8.190035820007324219e-01,8.189692497253417969e-01,8.189350366592407227e-01,8.189007639884948730e-01,8.188665509223937988e-01,8.188322782516479492e-01,8.187979459762573242e-01,8.187637925148010254e-01,8.187294602394104004e-01,8.186953067779541016e-01,8.186610341072082520e-01,8.186267614364624023e-01,8.185925483703613281e-01
7.830082774162292480e-01,7.829769253730773926e-01,7.829456329345703125e-01,7.829142808914184570e-01,7.828829288482666016e-01,7.828516960144042969e-01,7.828203439712524414e-01,7.827891111373901367e-01,7.827577590942382812e-01,7.827264070510864258e-01,7.826951742172241211e-01,7.826638221740722656e-01,7.826325893402099609e-01,7.826012372970581055e-01,7.825699448585510254e-01,7.825387120246887207e-01,7.825073599815368652e-01,7.824761271476745605e-01,7.824448347091674805e-01,7.824134826660156250e-01,7.823822498321533203e-01,7.823509573936462402e-01,7.823197245597839355e-01,7.822884321212768555e-01,7.822571396827697754e-01,7.822259068489074707e-01,7.821946144104003906e-01,7.821634411811828613e-01,7.821321487426757812e-01,7.821008563041687012e-01,7.820696234703063965e-01,7.820383906364440918e-01,7.820071578025817871e-01,7.819758653640747070e-01,7.819446325302124023e-01,7.819133996963500977e-01,7.818821668624877930e-01,7.818509340286254883e-01,7.818197011947631836e-01,7.817884683609008789e-01,7.817572355270385742e-01,7.817260026931762695e-01,7.816948294639587402e-01,7.816635966300964355e-01,7.816323637962341309e-01,7.816011905670166016e-01,7.815698981285095215e-01,7.815387845039367676e-01,7.815074920654296875e-01,7.814762592315673828e-01,7.814451456069946289e-01,7.814139127731323242e-01,7.813827395439147949e-01,7.813515067100524902e-01,7.813202738761901855e-01,7.812891602516174316e-01,7.812579274177551270e-01,7.812268137931823730e-01,7.811955809593200684e-01,7.811644077301025391e-01,7.811332345008850098e-01,7.811020612716674805e-01,7.810708880424499512e-01,7.810397148132324219e-01,7.810085415840148926e-01,7.809773683547973633e-01,7.809461951255798340e-01,7.809150815010070801e-01,7.808839082717895508e-01,7.808527350425720215e-01,7.808216214179992676e-01,7.807904481887817383e-01,7.807592749595642090e-01,7.807281613349914551e-01,7.806969881057739258e-01,7.806658744812011719e-01,7.806347012519836426e-01,7.806036472320556641e-01,7.805724740028381348e-01,7.805413007736206055e-01
7.481228709220886230e-01,7.480943202972412109e-01,7.480657100677490234e-01,7.480370402336120605e-01,7.480084896087646484e-01,7.479798793792724609e-01,7.479513883590698242e-01,7.479227781295776367e-01,7.478941679000854492e-01,7.478656172752380371e-01,7.478370070457458496e-01,7.478084564208984375e-01,7.477799057960510254e-01,7.477512955665588379e-01,7.477227449417114258e-01,7.476941347122192383e-01,7.476656436920166016e-01,7.476370334625244141e-01,7.476084828376770020e-01,7.475799322128295898e-01,7.475513815879821777e-01,7.475228309631347656e-01,7.474942803382873535e-01,7.474657297134399414e-01,7.474371790885925293e-01,7.474086284637451172e-01,7.473801374435424805e-01,7.473515868186950684e-01,7.473230361938476562e-01,7.472944855690002441e-01,7.472659349441528320e-01,7.472374439239501953e-01,7.472088932991027832e-01,7.471803426742553711e-01,7.471518516540527344e-01,7.471233010292053223e-01,7.470948696136474609e-01,7.470663189888000488e-01,7.470377683639526367e-01,7.470092773437500000e-01,7.469807267189025879e-01,7.469522953033447266e-01,7.469237446784973145e-01,7.468952536582946777e-01,7.468667626380920410e-01,7.468382120132446289e-01,7.468097805976867676e-01,7.467812299728393555e-01,7.467527389526367188e-01,7.467243075370788574e-01,7.466957569122314453e-01,7.466673254966735840e-01,7.466388344764709473e-01,7.466102838516235352e-01,7.465818524360656738e-01,7.465533614158630371e-01,7.465249300003051758e-01,7.464964389801025391e-01,7.464679479598999023e-01,7.464395165443420410e-01,7.464110255241394043e-01,7.463825941085815430e-01,7.463541030883789062e-01,7.463256120681762695e-01,7.462971806526184082e-01,7.462686896324157715e-01,7.462403178215026855e-01,7.462118268013000488e-01,7.461833357810974121e-01,7.461549043655395508e-01,7.461264729499816895e-01,7.460980415344238281e-01,7.460696101188659668e-01,7.460411190986633301e-01,7.460127472877502441e-01,7.459842562675476074e-01,7.459558844566345215e-01,7.459273934364318848e-01,7.458989620208740234e-01,7.458705902099609375e-01
7.162134051322937012e-01,7.161871790885925293e-01,7.161609530448913574e-01,7.161347866058349609e-01,7.161085605621337891e-01,7.160823941230773926e-01,7.160561680793762207e-01,7.160299420356750488e-01,7.160037755966186523e-01,7.159775495529174805e-01,7.159514427185058594e-01,7.159252166748046875e-01,7.158989906311035156e-01,7.158728241920471191e-01,7.158466577529907227e-01,7.158204913139343262e-01,7.157942652702331543e-01,7.157680988311767578e-01,7.157419323921203613e-01,7.157157659530639648e-01,7.156895995140075684e-01,7.156634330749511719e-01,7.156372070312500000e-01,7.156111001968383789e-01,7.155849337577819824e-01,7.155587673187255859e-01,7.155326008796691895e-01,7.155064344406127930e-01,7.154803276062011719e-01,7.154541015625000000e-01,7.154279947280883789e-01,7.154018282890319824e-01,7.153756618499755859e-01,7.153495550155639648e-01,7.153233885765075684e-01,7.152972817420959473e-01,7.152711153030395508e-01,7.152449488639831543e-01,7.152188420295715332e-01,7.151926755905151367e-01,7.151665687561035156e-01,7.151404619216918945e-01,7.151142954826354980e-01,7.150881886482238770e-01,7.150620222091674805e-01,7.150359749794006348e-01,7.150098085403442383e-01,7.149837017059326172e-01,7.149575948715209961e-01,7.149314284324645996e-01,7.149053812026977539e-01,7.148792147636413574e-01,7.148531079292297363e-01,7.148270606994628906e-01,7.148008942604064941e-01,7.147748470306396484e-01,7.147486805915832520e-01,7.147225737571716309e-01,7.146965265274047852e-01,7.146704196929931641e-01,7.146443128585815430e-01,7.146182060241699219e-01,7.145920991897583008e-01,7.145660519599914551e-01,7.145399451255798340e-01,7.145138978958129883e-01,7.144877910614013672e-01,7.144616842269897461e-01,7.144356369972229004e-01,7.144095301628112793e-01,7.143834829330444336e-01,7.143573760986328125e-01,7.143313288688659668e-01,7.143052816390991211e-01,7.142791748046875000e-01,7.142531275749206543e-01,7.142270803451538086e-01,7.142009735107421875e-01,7.141749262809753418e-01,7.141488790512084961e-01
6.869146227836608887e-01,6.868904829025268555e-01,6.868664026260375977e-01,6.868422627449035645e-01,6.868182420730590820e-01,6.867941021919250488e-01,6.867699623107910156e-01,6.867458820343017578e-01,6.867218017578125000e-01,6.866977214813232422e-01,6.866736412048339844e-01,6.866495013236999512e-01,6.866254210472106934e-01,6.866013407707214355e-01,6.865772604942321777e-01,6.865531802177429199e-01,6.865290999412536621e-01,6.865050196647644043e-01,6.864809393882751465e-01,6.864568591117858887e-01,6.864327788352966309e-01,6.864086985588073730e-01,6.863846182823181152e-01,6.863605380058288574e-01,6.863365173339843750e-01,6.863124370574951172e-01,6.862883567810058594e-01,6.862643361091613770e-01,6.862402558326721191e-01,6.862161755561828613e-01,6.861920952796936035e-01,6.861680150032043457e-01,6.861439943313598633e-01,6.861199736595153809e-01,6.860959529876708984e-01,6.860718727111816406e-01,6.860477924346923828e-01,6.860237717628479004e-01,6.859996914863586426e-01,6.859756708145141602e-01,6.859516501426696777e-01,6.859275698661804199e-01,6.859035491943359375e-01,6.858795285224914551e-01,6.858555078506469727e-01,6.858314275741577148e-01,6.858074069023132324e-01,6.857833862304687500e-01,6.857593655586242676e-01,6.857353448867797852e-01,6.857113242149353027e-01,6.856872439384460449e-01,6.856632828712463379e-01,6.856392025947570801e-01,6.856152415275573730e-01,6.855912208557128906e-01,6.855671405792236328e-01,6.855431795120239258e-01,6.855191588401794434e-01,6.854951977729797363e-01,6.854711174964904785e-01,6.854470968246459961e-01,6.854231357574462891e-01,6.853991150856018066e-01,6.853751540184020996e-01,6.853511333465576172e-01,6.853271126747131348e-01,6.853031516075134277e-01,6.852791309356689453e-01,6.852551698684692383e-01,6.852311491966247559e-01,6.852071285247802734e-01,6.851831674575805664e-01,6.851592063903808594e-01,6.851352453231811523e-01,6.851112246513366699e-01,6.850872039794921875e-01,6.850633025169372559e-01,6.850392818450927734e-01,6.850153207778930664e-01
6.599187850952148438e-01,6.598964929580688477e-01,6.598742008209228516e-01,6.598520278930664062e-01,6.598297357559204102e-01,6.598075032234191895e-01,6.597852706909179688e-01,6.597629785537719727e-01,6.597408056259155273e-01,6.597185134887695312e-01,6.596963405609130859e-01,6.596740484237670898e-01,6.596518158912658691e-01,6.596296429634094238e-01,6.596073508262634277e-01,6.595851778984069824e-01,6.595629453659057617e-01,6.595406532287597656e-01,6.595184803009033203e-01,6.594962477684020996e-01,6.594740748405456543e-01,6.594518423080444336e-01,6.594295501708984375e-01,6.594073772430419922e-01,6.593851447105407715e-01,6.593629717826843262e-01,6.593407392501831055e-01,6.593185067176818848e-01,6.592963337898254395e-01,6.592741012573242188e-01,6.592518687248229980e-01,6.592296957969665527e-01,6.592074632644653320e-01,6.591852903366088867e-01,6.591630578041076660e-01,6.591408848762512207e-01,6.591187119483947754e-01,6.590964794158935547e-01,6.590743064880371094e-01,6.590520739555358887e-01,6.590299010276794434e-01,6.590077280998229980e-01,6.589854955673217773e-01,6.589633822441101074e-01,6.589411497116088867e-01,6.589189767837524414e-01,6.588968038558959961e-01,6.588746309280395508e-01,6.588524580001831055e-01,6.588302850723266602e-01,6.588080525398254395e-01,6.587859392166137695e-01,6.587637066841125488e-01,6.587415933609008789e-01,6.587193608283996582e-01,6.586971879005432129e-01,6.586750745773315430e-01,6.586529016494750977e-01,6.586307287216186523e-01,6.586085557937622070e-01,6.585863828659057617e-01,6.585642695426940918e-01,6.585420370101928711e-01,6.585199236869812012e-01,6.584977507591247559e-01,6.584755778312683105e-01,6.584534645080566406e-01,6.584312915802001953e-01,6.584091782569885254e-01,6.583870053291320801e-01,6.583648324012756348e-01,6.583427190780639648e-01,6.583205461502075195e-01,6.582984328269958496e-01,6.582762598991394043e-01,6.582541465759277344e-01,6.582320332527160645e-01,6.582098603248596191e-01,6.581877470016479492e-01,6.581655740737915039e-01
6.349644660949707031e-01,6.349438428878784180e-01,6.349232792854309082e-01,6.349027156829833984e-01,6.348820924758911133e-01,6.348615288734436035e-01,6.348409056663513184e-01,6.348203420639038086e-01,6.347997188568115234e-01,6.347791552543640137e-01,6.347585320472717285e-01,6.347379684448242188e-01,6.347174048423767090e-01,6.346967816352844238e-01,6.346762180328369141e-01,6.346556544303894043e-01,6.346350312232971191e-01,6.346144676208496094e-01,6.345939040184020996e-01,6.345733404159545898e-01,6.345527768135070801e-01,6.345321536064147949e-01,6.345116496086120605e-01,6.344910264015197754e-01,6.344705224037170410e-01,6.344498991966247559e-01,6.344293355941772461e-01,6.344087719917297363e-01,6.343882083892822266e-01,6.343677043914794922e-01,6.343470811843872070e-01,6.343265175819396973e-01,6.343060135841369629e-01,6.342853903770446777e-01,6.342648863792419434e-01,6.342443227767944336e-01,6.342237591743469238e-01,6.342032551765441895e-01,6.341826319694519043e-01,6.341621279716491699e-01,6.341415643692016602e-01,6.341210007667541504e-01,6.341004967689514160e-01,6.340799331665039062e-01,6.340594291687011719e-01,6.340388655662536621e-01,6.340183019638061523e-01,6.339977979660034180e-01,6.339772343635559082e-01,6.339567303657531738e-01,6.339361667633056641e-01,6.339156031608581543e-01,6.338950991630554199e-01,6.338745951652526855e-01,6.338540911674499512e-01,6.338335275650024414e-01,6.338129639625549316e-01,6.337925195693969727e-01,6.337719559669494629e-01,6.337514519691467285e-01,6.337308883666992188e-01,6.337103843688964844e-01,6.336898803710937500e-01,6.336693763732910156e-01,6.336488127708435059e-01,6.336283087730407715e-01,6.336078047752380371e-01,6.335873007774353027e-01,6.335667967796325684e-01,6.335462331771850586e-01,6.335257887840270996e-01,6.335052251815795898e-01,6.334847807884216309e-01,6.334642767906188965e-01,6.334437131881713867e-01,6.334232687950134277e-01,6.334027647972106934e-01,6.333822607994079590e-01,6.333617568016052246e-01,6.333412528038024902e-01
6.118287444114685059e-01,6.118096113204956055e-01,6.117904782295227051e-01,6.117714047431945801e-01,6.117522716522216797e-01,6.117331385612487793e-01,6.117140054702758789e-01,6.116948723793029785e-01,6.116757988929748535e-01,6.116566658020019531e-01,6.116375327110290527e-01,6.116184592247009277e-01,6.115993261337280273e-01,6.115802526473999023e-01,6.115611195564270020e-01,6.115419864654541016e-01,6.115229129791259766e-01,6.115037798881530762e-01,6.114847064018249512e-01,6.114655733108520508e-01,6.114464402198791504e-01,6.114273667335510254e-01,6.114082932472229004e-01,6.113892197608947754e-01,6.113700866699218750e-01,6.113509535789489746e-01,6.113318800926208496e-01,6.113128066062927246e-01,6.112937331199645996e-01,6.112746000289916992e-01,6.112554669380187988e-01,6.112364530563354492e-01,6.112173199653625488e-01,6.111982464790344238e-01,6.111791729927062988e-01,6.111600399017333984e-01,6.111410260200500488e-01,6.111218929290771484e-01,6.111028194427490234e-01,6.110837459564208984e-01,6.110646724700927734e-01,6.110455989837646484e-01,6.110265254974365234e-01,6.110074520111083984e-01,6.109883785247802734e-01,6.109693050384521484e-01,6.109502315521240234e-01,6.109311580657958984e-01,6.109120845794677734e-01,6.108930110931396484e-01,6.108739376068115234e-01,6.108548641204833984e-01,6.108357906341552734e-01,6.108167767524719238e-01,6.107977032661437988e-01,6.107786297798156738e-01,6.107595562934875488e-01,6.107404828071594238e-01,6.107214689254760742e-01,6.107023954391479492e-01,6.106833219528198242e-01,6.106643080711364746e-01,6.106452345848083496e-01,6.106262207031250000e-01,6.106071472167968750e-01,6.105880737304687500e-01,6.105690598487854004e-01,6.105499863624572754e-01,6.105309724807739258e-01,6.105118989944458008e-01,6.104928255081176758e-01,6.104738116264343262e-01,6.104547381401062012e-01,6.104357242584228516e-01,6.104167103767395020e-01,6.103976368904113770e-01,6.103786230087280273e-01,6.103595495223999023e-01,6.103405952453613281e-01,6.103215217590332031e-01
5.903196930885314941e-01,5.903018712997436523e-01,5.902841091156005859e-01,5.902662873268127441e-01,5.902484655380249023e-01,5.902306437492370605e-01,5.902128815650939941e-01,5.901950597763061523e-01,5.901772975921630859e-01,5.901594758033752441e-01,5.901417136192321777e-01,5.901238918304443359e-01,5.901061296463012695e-01,5.900883078575134277e-01,5.900704860687255859e-01,5.900527238845825195e-01,5.900349020957946777e-01,5.900171399116516113e-01,5.899993777275085449e-01,5.899815559387207031e-01,5.899637937545776367e-01,5.899460315704345703e-01,5.899282693862915039e-01,5.899104475975036621e-01,5.898926258087158203e-01,5.898749232292175293e-01,5.898571014404296875e-01,5.898393988609313965e-01,5.898215770721435547e-01,5.898038148880004883e-01,5.897860527038574219e-01,5.897682309150695801e-01,5.897505283355712891e-01,5.897327065467834473e-01,5.897149443626403809e-01,5.896971821784973145e-01,5.896794199943542480e-01,5.896616578102111816e-01,5.896438956260681152e-01,5.896261334419250488e-01,5.896083712577819824e-01,5.895906090736389160e-01,5.895728468894958496e-01,5.895550847053527832e-01,5.895373225212097168e-01,5.895195603370666504e-01,5.895017981529235840e-01,5.894840955734252930e-01,5.894662737846374512e-01,5.894485116004943848e-01,5.894308090209960938e-01,5.894130468368530273e-01,5.893952846527099609e-01,5.893775224685668945e-01,5.893597602844238281e-01,5.893420577049255371e-01,5.893242955207824707e-01,5.893065929412841797e-01,5.892888307571411133e-01,5.892710685729980469e-01,5.892533659934997559e-01,5.892356038093566895e-01,5.892179012298583984e-01,5.892001390457153320e-01,5.891823768615722656e-01,5.891646742820739746e-01,5.891469120979309082e-01,5.891292095184326172e-01,5.891114473342895508e-01,5.890936851501464844e-01,5.890759825706481934e-01,5.890582203865051270e-01,5.890405178070068359e-01,5.890228152275085449e-01,5.890050530433654785e-01,5.889873504638671875e-01,5.889696478843688965e-01,5.889519453048706055e-01,5.889341831207275391e-01,5.889164209365844727e-01
5.702715516090393066e-01,5.702549815177917480e-01,5.702383518218994141e-01,5.702217221260070801e-01,5.702051520347595215e-01,5.701885223388671875e-01,5.701718926429748535e-01,5.701552629470825195e-01,5.701386332511901855e-01,5.701220631599426270e-01,5.701054334640502930e-01,5.700888633728027344e-01,5.700722336769104004e-01,5.700556039810180664e-01,5.700390338897705078e-01,5.700224637985229492e-01,5.700058341026306152e-01,5.699892640113830566e-01,5.699726343154907227e-01,5.699560642242431641e-01,5.699394345283508301e-01,5.699228644371032715e-01,5.699062347412109375e-01,5.698896646499633789e-01,5.698730945587158203e-01,5.698564648628234863e-01,5.698398947715759277e-01,5.698232650756835938e-01,5.698066949844360352e-01,5.697901248931884766e-01,5.697734951972961426e-01,5.697569847106933594e-01,5.697403550148010254e-01,5.697237253189086914e-01,5.697072148323059082e-01,5.696905851364135742e-01,5.696740150451660156e-01,5.696574449539184570e-01,5.696408152580261230e-01,5.696243047714233398e-01,5.696076750755310059e-01,5.695911645889282227e-01,5.695745348930358887e-01,5.695579648017883301e-01,5.695413947105407715e-01,5.695248246192932129e-01,5.695082545280456543e-01,5.694916844367980957e-01,5.694751143455505371e-01,5.694585442543029785e-01,5.694419741630554199e-01,5.694254040718078613e-01,5.694088339805603027e-01,5.693922638893127441e-01,5.693756937980651855e-01,5.693591237068176270e-01,5.693426132202148438e-01,5.693260431289672852e-01,5.693094730377197266e-01,5.692929029464721680e-01,5.692763328552246094e-01,5.692598223686218262e-01,5.692432522773742676e-01,5.692266821861267090e-01,5.692101120948791504e-01,5.691935420036315918e-01,5.691770315170288086e-01,5.691604614257812500e-01,5.691438913345336914e-01,5.691273808479309082e-01,5.691108107566833496e-01,5.690943002700805664e-01,5.690777301788330078e-01,5.690611600875854492e-01,5.690446496009826660e-01,5.690280795097351074e-01,5.690115690231323242e-01,5.689949989318847656e-01,5.689784288406372070e-01,5.689619183540344238e-01
