5.000000000000000000e+00,5.000000000000000000e+00,5.000000000000000000e+00,5.000000000000000000e+00,5.000000000000000000e+00,5.000000000000000000e+00,5.000000000000000000e+00,5.000000000000000000e+00,5.000000000000000000e+00,5.000000000000000000e+00,5.000000000000000000e+00,5.000000000000000000e+00,5.000000000000000000e+00,5.000000000000000000e+00,5.000000000000000000e+00,5.000000000000000000e+00,5.000000000000000000e+00,5.000000000000000000e+00,5.000000000000000000e+00,5.000000000000000000e+00,5.000000000000000000e+00,5.000000000000000000e+00,5.000000000000000000e+00,5.000000000000000000e+00,5.000000000000000000e+00,5.000000000000000000e+00,5.000000000000000000e+00,5.000000000000000000e+00,5.000000000000000000e+00,5.000000000000000000e+00,5.000000000000000000e+00,5.000000000000000000e+00,5.000000000000000000e+00,5.000000000000000000e+00,5.000000000000000000e+00,5.000000000000000000e+00,5.000000000000000000e+00,5.000000000000000000e+00,5.000000000000000000e+00,5.000000000000000000e+00,5.000000000000000000e+00,5.000000000000000000e+00,5.000000000000000000e+00,5.000000000000000000e+00,5.000000000000000000e+00,5.000000000000000000e+00,5.000000000000000000e+00,5.000000000000000000e+00,5.000000000000000000e+00,5.000000000000000000e+00,5.000000000000000000e+00,5.000000000000000000e+00,5.000000000000000000e+00,5.000000000000000000e+00,4.989914417266845703e+00,4.824882984161376953e+00,4.670418739318847656e+00,4.525537490844726562e+00,4.389374732971191406e+00,4.261166095733642578e+00,4.140233993530273438e+00,4.025979042053222656e+00,3.917873382568359375e+00,3.815422296524047852e+00,3.718192100524902344e+00,3.625794410705566406e+00,3.537877798080444336e+00,3.454123735427856445e+00,3.374243021011352539e+00,3.297974109649658203e+00,3.225076675415039062e+00,3.155330419540405273e+00,3.088529586791992188e+00,3.024498701095581055e+00,2.963068723678588867e+00,5.813103318214416504e-01,5.719588398933410645e-01,5.629398822784423828e-01,5.542334318161010742e-01,5.457921624183654785e-01
5.000000000000000000e+00,5.000000000000000000e+00,5.000000000000000000e+00,5.000000000000000000e+00,5.000000000000000000e+00,5.000000000000000000e+00,5.000000000000000000e+00,5.000000000000000000e+00,5.000000000000000000e+00,5.000000000000000000e+00,5.000000000000000000e+00,5.000000000000000000e+00,5.000000000000000000e+00,5.000000000000000000e+00,5.000000000000000000e+00,5.000000000000000000e+00,5.000000000000000000e+00,5.000000000000000000e+00,5.000000000000000000e+00,5.000000000000000000e+00,5.000000000000000000e+00,5.000000000000000000e+00,5.000000000000000000e+00,5.000000000000000000e+00,5.000000000000000000e+00,5.000000000000000000e+00,5.000000000000000000e+00,5.000000000000000000e+00,5.000000000000000000e+00,5.000000000000000000e+00,5.000000000000000000e+00,5.000000000000000000e+00,5.000000000000000000e+00,5.000000000000000000e+00,5.000000000000000000e+00,5.000000000000000000e+00,5.000000000000000000e+00,5.000000000000000000e+00,5.000000000000000000e+00,5.000000000000000000e+00,5.000000000000000000e+00,5.000000000000000000e+00,5.000000000000000000e+00,5.000000000000000000e+00,5.000000000000000000e+00,5.000000000000000000e+00,5.000000000000000000e+00,5.000000000000000000e+00,5.000000000000000000e+00,5.000000000000000000e+00,5.000000000000000000e+00,5.000000000000000000e+00,5.000000000000000000e+00,5.000000000000000000e+00,4.990043163299560547e+00,4.825003623962402344e+00,4.670531749725341797e+00,4.525643348693847656e+00,4.389477729797363281e+00,4.261280536651611328e+00,4.140358924865722656e+00,4.026110649108886719e+00,3.917998313903808594e+00,3.815540552139282227e+00,3.718304395675659180e+00,3.625901460647583008e+00,3.537979602813720703e+00,3.454220533370971680e+00,3.374333381652832031e+00,3.298050165176391602e+00,3.225139617919921875e+00,3.155382633209228516e+00,3.088579654693603516e+00,3.024546623229980469e+00,2.963114500045776367e+00,5.837234258651733398e-01,5.742948651313781738e-01,5.651659965515136719e-01,5.563294887542724609e-01,5.478247404098510742e-01
5.000000000000000000e+00,5.000000000000000000e+00,5.000000000000000000e+00,5.000000000000000000e+00,5.000000000000000000e+00,5.000000000000000000e+00,5.000000000000000000e+00,5.000000000000000000e+00,5.000000000000000000e+00,5.000000000000000000e+00,5.000000000000000000e+00,5.000000000000000000e+00,5.000000000000000000e+00,5.000000000000000000e+00,5.000000000000000000e+00,5.000000000000000000e+00,5.000000000000000000e+00,5.000000000000000000e+00,5.000000000000000000e+00,5.000000000000000000e+00,5.000000000000000000e+00,5.000000000000000000e+00,5.000000000000000000e+00,5.000000000000000000e+00,5.000000000000000000e+00,5.000000000000000000e+00,5.000000000000000000e+00,5.000000000000000000e+00,5.000000000000000000e+00,5.000000000000000000e+00,5.000000000000000000e+00,5.000000000000000000e+00,5.000000000000000000e+00,5.000000000000000000e+00,5.000000000000000000e+00,5.000000000000000000e+00,5.000000000000000000e+00,5.000000000000000000e+00,5.000000000000000000e+00,5.000000000000000000e+00,5.000000000000000000e+00,5.000000000000000000e+00,5.000000000000000000e+00,5.000000000000000000e+00,5.000000000000000000e+00,5.000000000000000000e+00,5.000000000000000000e+00,5.000000000000000000e+00,5.000000000000000000e+00,5.000000000000000000e+00,5.000000000000000000e+00,5.000000000000000000e+00,5.000000000000000000e+00,5.000000000000000000e+00,4.990171909332275391e+00,4.825130462646484375e+00,4.670670986175537109e+00,4.525794506072998047e+00,4.389634132385253906e+00,4.261427879333496094e+00,4.140498161315917969e+00,4.026242256164550781e+00,3.918122768402099609e+00,3.815658569335937500e+00,3.718416690826416016e+00,3.626004934310913086e+00,3.538066148757934570e+00,3.454291820526123047e+00,3.374392986297607422e+00,3.298106908798217773e+00,3.225193738937377930e+00,3.155434608459472656e+00,3.088629484176635742e+00,3.024594306945800781e+00,6.001626849174499512e-01,5.844070315361022949e-01,5.753371715545654297e-01,5.667128562927246094e-01,5.583432912826538086e-01,5.498941540718078613e-01
5.000000000000000000e+00,5.000000000000000000e+00,5.000000000000000000e+00,5.000000000000000000e+00,5.000000000000000000e+00,5.000000000000000000e+00,5.000000000000000000e+00,5.000000000000000000e+00,5.000000000000000000e+00,5.000000000000000000e+00,5.000000000000000000e+00,5.000000000000000000e+00,5.000000000000000000e+00,5.000000000000000000e+00,5.000000000000000000e+00,5.000000000000000000e+00,5.000000000000000000e+00,5.000000000000000000e+00,5.000000000000000000e+00,5.000000000000000000e+00,5.000000000000000000e+00,5.000000000000000000e+00,5.000000000000000000e+00,5.000000000000000000e+00,5.000000000000000000e+00,5.000000000000000000e+00,5.000000000000000000e+00,5.000000000000000000e+00,5.000000000000000000e+00,5.000000000000000000e+00,5.000000000000000000e+00,5.000000000000000000e+00,5.000000000000000000e+00,5.000000000000000000e+00,5.000000000000000000e+00,5.000000000000000000e+00,5.000000000000000000e+00,5.000000000000000000e+00,5.000000000000000000e+00,5.000000000000000000e+00,5.000000000000000000e+00,5.000000000000000000e+00,5.000000000000000000e+00,5.000000000000000000e+00,5.000000000000000000e+00,5.000000000000000000e+00,5.000000000000000000e+00,5.000000000000000000e+00,5.000000000000000000e+00,5.000000000000000000e+00,5.000000000000000000e+00,5.000000000000000000e+00,5.000000000000000000e+00,5.000000000000000000e+00,4.990357398986816406e+00,4.825319766998291016e+00,4.670848369598388672e+00,4.525960445404052734e+00,4.389790534973144531e+00,4.261575222015380859e+00,4.140637397766113281e+00,4.026373863220214844e+00,3.918242692947387695e+00,3.815758466720581055e+00,3.718498468399047852e+00,3.626073360443115234e+00,3.538131475448608398e+00,3.454354047775268555e+00,3.374452352523803711e+00,3.298163652420043945e+00,3.225248098373413086e+00,3.155486583709716797e+00,3.088679313659667969e+00,3.024641990661621094e+00,5.944642424583435059e-01,5.844166278839111328e-01,5.747029781341552734e-01,5.659095048904418945e-01,5.575634837150573730e-01,5.494599938392639160e-01
5.000000000000000000e+00,5.000000000000000000e+00,5.000000000000000000e+00,5.000000000000000000e+00,5.000000000000000000e+00,5.000000000000000000e+00,5.000000000000000000e+00,5.000000000000000000e+00,5.000000000000000000e+00,5.000000000000000000e+00,5.000000000000000000e+00,5.000000000000000000e+00,5.000000000000000000e+00,5.000000000000000000e+00,5.000000000000000000e+00,5.000000000000000000e+00,5.000000000000000000e+00,5.000000000000000000e+00,5.000000000000000000e+00,5.000000000000000000e+00,5.000000000000000000e+00,5.000000000000000000e+00,5.000000000000000000e+00,5.000000000000000000e+00,5.000000000000000000e+00,5.000000000000000000e+00,5.000000000000000000e+00,5.000000000000000000e+00,5.000000000000000000e+00,5.000000000000000000e+00,5.000000000000000000e+00,5.000000000000000000e+00,5.000000000000000000e+00,5.000000000000000000e+00,5.000000000000000000e+00,5.000000000000000000e+00,5.000000000000000000e+00,5.000000000000000000e+00,5.000000000000000000e+00,5.000000000000000000e+00,5.000000000000000000e+00,5.000000000000000000e+00,5.000000000000000000e+00,5.000000000000000000e+00,5.000000000000000000e+00,5.000000000000000000e+00,5.000000000000000000e+00,5.000000000000000000e+00,5.000000000000000000e+00,5.000000000000000000e+00,5.000000000000000000e+00,5.000000000000000000e+00,5.000000000000000000e+00,5.000000000000000000e+00,4.990559577941894531e+00,4.825508594512939453e+00,4.671025276184082031e+00,4.526126861572265625e+00,4.389946937561035156e+00,4.261715412139892578e+00,4.140753269195556641e+00,4.026468276977539062e+00,3.918322801589965820e+00,3.815834283828735352e+00,3.718570470809936523e+00,3.626142024993896484e+00,3.538196563720703125e+00,3.454416275024414062e+00,3.374511957168579102e+00,3.298220396041870117e+00,3.225302457809448242e+00,3.155538797378540039e+00,3.088729143142700195e+00,6.044242978096008301e-01,5.942243337631225586e-01,5.843628644943237305e-01,5.747122168540954590e-01,5.653159022331237793e-01,5.567858219146728516e-01,5.486360192298889160e-01
5.000000000000000000e+00,5.000000000000000000e+00,5.000000000000000000e+00,5.000000000000000000e+00,5.000000000000000000e+00,5.000000000000000000e+00,5.000000000000000000e+00,5.000000000000000000e+00,5.000000000000000000e+00,5.000000000000000000e+00,5.000000000000000000e+00,5.000000000000000000e+00,5.000000000000000000e+00,5.000000000000000000e+00,5.000000000000000000e+00,5.000000000000000000e+00,5.000000000000000000e+00,5.000000000000000000e+00,5.000000000000000000e+00,5.000000000000000000e+00,5.000000000000000000e+00,5.000000000000000000e+00,5.000000000000000000e+00,5.000000000000000000e+00,5.000000000000000000e+00,5.000000000000000000e+00,5.000000000000000000e+00,5.000000000000000000e+00,5.000000000000000000e+00,5.000000000000000000e+00,5.000000000000000000e+00,5.000000000000000000e+00,5.000000000000000000e+00,5.000000000000000000e+00,5.000000000000000000e+00,5.000000000000000000e+00,5.000000000000000000e+00,5.000000000000000000e+00,5.000000000000000000e+00,5.000000000000000000e+00,5.000000000000000000e+00,5.000000000000000000e+00,5.000000000000000000e+00,5.000000000000000000e+00,5.000000000000000000e+00,5.000000000000000000e+00,5.000000000000000000e+00,5.000000000000000000e+00,5.000000000000000000e+00,5.000000000000000000e+00,5.000000000000000000e+00,5.000000000000000000e+00,5.000000000000000000e+00,5.000000000000000000e+00,4.990761756896972656e+00,4.825697898864746094e+00,4.671192169189453125e+00,4.526264190673828125e+00,4.390058517456054688e+00,4.261810779571533203e+00,4.140842914581298828e+00,4.026553153991699219e+00,3.918402910232543945e+00,3.815910339355468750e+00,3.718642473220825195e+00,3.626210927963256836e+00,3.538262367248535156e+00,3.454478979110717773e+00,3.374571561813354492e+00,3.298277378082275391e+00,3.225356817245483398e+00,3.155590772628784180e+00,3.088778972625732422e+00,6.035978794097900391e-01,5.934255123138427734e-01,5.835903882980346680e-01,5.740759372711181641e-01,5.648667216300964355e-01,5.569160580635070801e-01,5.499288439750671387e-01
5.000000000000000000e+00,5.000000000000000000e+00,5.000000000000000000e+00,5.000000000000000000e+00,5.000000000000000000e+00,5.000000000000000000e+00,5.000000000000000000e+00,5.000000000000000000e+00,5.000000000000000000e+00,5.000000000000000000e+00,5.000000000000000000e+00,5.000000000000000000e+00,5.000000000000000000e+00,5.000000000000000000e+00,5.000000000000000000e+00,5.000000000000000000e+00,5.000000000000000000e+00,5.000000000000000000e+00,5.000000000000000000e+00,5.000000000000000000e+00,5.000000000000000000e+00,5.000000000000000000e+00,5.000000000000000000e+00,5.000000000000000000e+00,5.000000000000000000e+00,5.000000000000000000e+00,5.000000000000000000e+00,5.000000000000000000e+00,5.000000000000000000e+00,5.000000000000000000e+00,5.000000000000000000e+00,5.000000000000000000e+00,5.000000000000000000e+00,5.000000000000000000e+00,5.000000000000000000e+00,5.000000000000000000e+00,5.000000000000000000e+00,5.000000000000000000e+00,5.000000000000000000e+00,5.000000000000000000e+00,5.000000000000000000e+00,5.000000000000000000e+00,5.000000000000000000e+00,5.000000000000000000e+00,5.000000000000000000e+00,5.000000000000000000e+00,5.000000000000000000e+00,5.000000000000000000e+00,5.000000000000000000e+00,5.000000000000000000e+00,5.000000000000000000e+00,5.000000000000000000e+00,5.000000000000000000e+00,5.000000000000000000e+00,4.990927219390869141e+00,4.825830459594726562e+00,4.671306133270263672e+00,4.526371002197265625e+00,4.390158653259277344e+00,4.261905193328857422e+00,4.140932559967041016e+00,4.026638031005859375e+00,3.918483257293701172e+00,3.815986633300781250e+00,3.718715190887451172e+00,3.626279592514038086e+00,3.538327693939208984e+00,3.454541206359863281e+00,3.374630928039550781e+00,3.298334121704101562e+00,3.225411176681518555e+00,3.155642747879028320e+00,6.142897605895996094e-01,6.027737259864807129e-01,5.926288962364196777e-01,5.828198790550231934e-01,5.733303427696228027e-01,5.650173425674438477e-01,5.578266978263854980e-01,5.508167147636413574e-01
5.000000000000000000e+00,5.000000000000000000e+00,5.000000000000000000e+00,5.000000000000000000e+00,5.000000000000000000e+00,5.000000000000000000e+00,5.000000000000000000e+00,5.000000000000000000e+00,5.000000000000000000e+00,5.000000000000000000e+00,5.000000000000000000e+00,5.000000000000000000e+00,5.000000000000000000e+00,5.000000000000000000e+00,5.000000000000000000e+00,5.000000000000000000e+00,5.000000000000000000e+00,5.000000000000000000e+00,5.000000000000000000e+00,5.000000000000000000e+00,5.000000000000000000e+00,5.000000000000000000e+00,5.000000000000000000e+00,5.000000000000000000e+00,5.000000000000000000e+00,5.000000000000000000e+00,5.000000000000000000e+00,5.000000000000000000e+00,5.000000000000000000e+00,5.000000000000000000e+00,5.000000000000000000e+00,5.000000000000000000e+00,5.000000000000000000e+00,5.000000000000000000e+00,5.000000000000000000e+00,5.000000000000000000e+00,5.000000000000000000e+00,5.000000000000000000e+00,5.000000000000000000e+00,5.000000000000000000e+00,5.000000000000000000e+00,5.000000000000000000e+00,5.000000000000000000e+00,5.000000000000000000e+00,5.000000000000000000e+00,5.000000000000000000e+00,5.000000000000000000e+00,5.000000000000000000e+00,5.000000000000000000e+00,5.000000000000000000e+00,5.000000000000000000e+00,5.000000000000000000e+00,5.000000000000000000e+00,5.000000000000000000e+00,4.991056919097900391e+00,4.825951576232910156e+00,4.671420574188232422e+00,4.526478290557861328e+00,4.390259742736816406e+00,4.262000560760498047e+00,4.141022205352783203e+00,4.026722431182861328e+00,3.918563365936279297e+00,3.816062688827514648e+00,3.718787193298339844e+00,3.626348257064819336e+00,3.538393020629882812e+00,3.454603433609008789e+00,3.374690294265747070e+00,3.298390865325927734e+00,3.225465297698974609e+00,6.284970045089721680e-01,6.124211549758911133e-01,6.019518375396728516e-01,5.918344259262084961e-01,5.820515155792236328e-01,5.733578205108642578e-01,5.659546852111816406e-01,5.587402582168579102e-01,5.517074465751647949e-01
5.000000000000000000e+00,5.000000000000000000e+00,5.000000000000000000e+00,5.000000000000000000e+00,5.000000000000000000e+00,5.000000000000000000e+00,5.000000000000000000e+00,5.000000000000000000e+00,5.000000000000000000e+00,5.000000000000000000e+00,5.000000000000000000e+00,5.000000000000000000e+00,5.000000000000000000e+00,5.000000000000000000e+00,5.000000000000000000e+00,5.000000000000000000e+00,5.000000000000000000e+00,5.000000000000000000e+00,5.000000000000000000e+00,5.000000000000000000e+00,5.000000000000000000e+00,5.000000000000000000e+00,5.000000000000000000e+00,5.000000000000000000e+00,5.000000000000000000e+00,5.000000000000000000e+00,5.000000000000000000e+00,5.000000000000000000e+00,5.000000000000000000e+00,5.000000000000000000e+00,5.000000000000000000e+00,5.000000000000000000e+00,5.000000000000000000e+00,5.000000000000000000e+00,5.000000000000000000e+00,5.000000000000000000e+00,5.000000000000000000e+00,5.000000000000000000e+00,5.000000000000000000e+00,5.000000000000000000e+00,5.000000000000000000e+00,5.000000000000000000e+00,5.000000000000000000e+00,5.000000000000000000e+00,5.000000000000000000e+00,5.000000000000000000e+00,5.000000000000000000e+00,5.000000000000000000e+00,5.000000000000000000e+00,5.000000000000000000e+00,5.000000000000000000e+00,5.000000000000000000e+00,5.000000000000000000e+00,5.000000000000000000e+00,4.991187095642089844e+00,4.826073646545410156e+00,4.671534061431884766e+00,4.526585102081298828e+00,4.390360355377197266e+00,4.262095451354980469e+00,4.141111850738525391e+00,4.026807308197021484e+00,3.918643474578857422e+00,3.816138505935668945e+00,3.718859434127807617e+00,3.626416683197021484e+00,3.538458108901977539e+00,3.454666137695312500e+00,3.374750137329101562e+00,3.298448085784912109e+00,3.225519895553588867e+00,6.255512833595275879e-01,6.115727424621582031e-01,6.011321544647216797e-01,5.910420417785644531e-01,5.819481611251831055e-01,5.743230581283569336e-01,5.668950676918029785e-01,5.600221753120422363e-01,5.542537569999694824e-01
5.000000000000000000e+00,5.000000000000000000e+00,5.000000000000000000e+00,5.000000000000000000e+00,5.000000000000000000e+00,5.000000000000000000e+00,5.000000000000000000e+00,5.000000000000000000e+00,5.000000000000000000e+00,5.000000000000000000e+00,5.000000000000000000e+00,5.000000000000000000e+00,5.000000000000000000e+00,5.000000000000000000e+00,5.000000000000000000e+00,5.000000000000000000e+00,5.000000000000000000e+00,5.000000000000000000e+00,5.000000000000000000e+00,5.000000000000000000e+00,5.000000000000000000e+00,5.000000000000000000e+00,5.000000000000000000e+00,5.000000000000000000e+00,5.000000000000000000e+00,5.000000000000000000e+00,5.000000000000000000e+00,5.000000000000000000e+00,5.000000000000000000e+00,5.000000000000000000e+00,5.000000000000000000e+00,5.000000000000000000e+00,5.000000000000000000e+00,5.000000000000000000e+00,5.000000000000000000e+00,5.000000000000000000e+00,5.000000000000000000e+00,5.000000000000000000e+00,5.000000000000000000e+00,5.000000000000000000e+00,5.000000000000000000e+00,5.000000000000000000e+00,5.000000000000000000e+00,5.000000000000000000e+00,5.000000000000000000e+00,5.000000000000000000e+00,5.000000000000000000e+00,5.000000000000000000e+00,5.000000000000000000e+00,5.000000000000000000e+00,5.000000000000000000e+00,5.000000000000000000e+00,5.000000000000000000e+00,5.000000000000000000e+00,4.991317749023437500e+00,4.826195240020751953e+00,4.671648502349853516e+00,4.526692390441894531e+00,4.390460968017578125e+00,4.262189865112304688e+00,4.141201019287109375e+00,4.026891708374023438e+00,3.918724060058593750e+00,3.816215038299560547e+00,3.718931913375854492e+00,3.626485824584960938e+00,3.538523912429809570e+00,3.454728364944458008e+00,3.374809503555297852e+00,3.298504829406738281e+00,6.402904391288757324e-01,6.226330995559692383e-01,6.107267141342163086e-01,6.003146767616271973e-01,5.907999277114868164e-01,5.829426050186157227e-01,5.752914547920227051e-01,5.689261555671691895e-01,5.629737973213195801e-01,5.571447014808654785e-01
5.000000000000000000e+00,5.000000000000000000e+00,5.000000000000000000e+00,5.000000000000000000e+00,5.000000000000000000e+00,5.000000000000000000e+00,5.000000000000000000e+00,5.000000000000000000e+00,5.000000000000000000e+00,5.000000000000000000e+00,5.000000000000000000e+00,5.000000000000000000e+00,5.000000000000000000e+00,5.000000000000000000e+00,5.000000000000000000e+00,5.000000000000000000e+00,5.000000000000000000e+00,5.000000000000000000e+00,5.000000000000000000e+00,5.000000000000000000e+00,5.000000000000000000e+00,5.000000000000000000e+00,5.000000000000000000e+00,5.000000000000000000e+00,5.000000000000000000e+00,5.000000000000000000e+00,5.000000000000000000e+00,5.000000000000000000e+00,5.000000000000000000e+00,5.000000000000000000e+00,5.000000000000000000e+00,5.000000000000000000e+00,5.000000000000000000e+00,5.000000000000000000e+00,5.000000000000000000e+00,5.000000000000000000e+00,5.000000000000000000e+00,5.000000000000000000e+00,5.000000000000000000e+00,5.000000000000000000e+00,5.000000000000000000e+00,5.000000000000000000e+00,5.000000000000000000e+00,5.000000000000000000e+00,5.000000000000000000e+00,5.000000000000000000e+00,5.000000000000000000e+00,5.000000000000000000e+00,5.000000000000000000e+00,5.000000000000000000e+00,5.000000000000000000e+00,5.000000000000000000e+00,5.000000000000000000e+00,5.000000000000000000e+00,4.991447448730468750e+00,4.826316833496093750e+00,4.671761989593505859e+00,4.526799678802490234e+00,4.390561580657958984e+00,4.262285232543945312e+00,4.141291141510009766e+00,4.026976585388183594e+00,3.918804168701171875e+00,3.816290855407714844e+00,3.719004154205322266e+00,3.626554250717163086e+00,3.538589239120483398e+00,3.454790592193603516e+00,3.374868869781494141e+00,6.557409167289733887e-01,6.372333765029907227e-01,6.206324696540832520e-01,6.098829507827758789e-01,5.999250411987304688e-01,5.918248295783996582e-01,5.843964815139770508e-01,5.781177878379821777e-01,5.719725489616394043e-01,5.659566521644592285e-01,5.619189143180847168e-01
5.000000000000000000e+00,5.000000000000000000e+00,5.000000000000000000e+00,5.000000000000000000e+00,5.000000000000000000e+00,5.000000000000000000e+00,5.000000000000000000e+00,5.000000000000000000e+00,5.000000000000000000e+00,5.000000000000000000e+00,5.000000000000000000e+00,5.000000000000000000e+00,5.000000000000000000e+00,5.000000000000000000e+00,5.000000000000000000e+00,5.000000000000000000e+00,5.000000000000000000e+00,5.000000000000000000e+00,5.000000000000000000e+00,5.000000000000000000e+00,5.000000000000000000e+00,5.000000000000000000e+00,5.000000000000000000e+00,5.000000000000000000e+00,5.000000000000000000e+00,5.000000000000000000e+00,5.000000000000000000e+00,5.000000000000000000e+00,5.000000000000000000e+00,5.000000000000000000e+00,5.000000000000000000e+00,5.000000000000000000e+00,5.000000000000000000e+00,5.000000000000000000e+00,5.000000000000000000e+00,5.000000000000000000e+00,5.000000000000000000e+00,5.000000000000000000e+00,5.000000000000000000e+00,5.000000000000000000e+00,5.000000000000000000e+00,5.000000000000000000e+00,5.000000000000000000e+00,5.000000000000000000e+00,5.000000000000000000e+00,5.000000000000000000e+00,5.000000000000000000e+00,5.000000000000000000e+00,5.000000000000000000e+00,5.000000000000000000e+00,5.000000000000000000e+00,5.000000000000000000e+00,5.000000000000000000e+00,5.000000000000000000e+00,4.991581916809082031e+00,4.826441764831542969e+00,4.671878814697265625e+00,4.526907920837402344e+00,4.390662670135498047e+00,4.262379646301269531e+00,4.141380786895751953e+00,4.027061462402343750e+00,3.918884277343750000e+00,3.816366910934448242e+00,3.719076156616210938e+00,3.626622915267944336e+00,3.538654565811157227e+00,3.454852819442749023e+00,3.374928712844848633e+00,6.525349617004394531e-01,6.342054605484008789e-01,6.197611689567565918e-01,6.093364953994750977e-01,6.009818911552429199e-01,5.940990447998046875e-01,5.876113176345825195e-01,5.812637209892272949e-01,5.750517845153808594e-01,5.701311826705932617e-01,5.677074193954467773e-01
5.000000000000000000e+00,5.000000000000000000e+00,5.000000000000000000e+00,5.000000000000000000e+00,5.000000000000000000e+00,5.000000000000000000e+00,5.000000000000000000e+00,5.000000000000000000e+00,5.000000000000000000e+00,5.000000000000000000e+00,5.000000000000000000e+00,5.000000000000000000e+00,5.000000000000000000e+00,5.000000000000000000e+00,5.000000000000000000e+00,5.000000000000000000e+00,5.000000000000000000e+00,5.000000000000000000e+00,5.000000000000000000e+00,5.000000000000000000e+00,5.000000000000000000e+00,5.000000000000000000e+00,5.000000000000000000e+00,5.000000000000000000e+00,5.000000000000000000e+00,5.000000000000000000e+00,5.000000000000000000e+00,5.000000000000000000e+00,5.000000000000000000e+00,5.000000000000000000e+00,5.000000000000000000e+00,5.000000000000000000e+00,5.000000000000000000e+00,5.000000000000000000e+00,5.000000000000000000e+00,5.000000000000000000e+00,5.000000000000000000e+00,5.000000000000000000e+00,5.000000000000000000e+00,5.000000000000000000e+00,5.000000000000000000e+00,5.000000000000000000e+00,5.000000000000000000e+00,5.000000000000000000e+00,5.000000000000000000e+00,5.000000000000000000e+00,5.000000000000000000e+00,5.000000000000000000e+00,5.000000000000000000e+00,5.000000000000000000e+00,5.000000000000000000e+00,5.000000000000000000e+00,5.000000000000000000e+00,5.000000000000000000e+00,4.991718769073486328e+00,4.826570034027099609e+00,4.671998500823974609e+00,4.527020454406738281e+00,4.390769004821777344e+00,4.262480258941650391e+00,4.141474246978759766e+00,4.027149677276611328e+00,3.918967247009277344e+00,3.816445112228393555e+00,3.719150066375732422e+00,3.626692771911621094e+00,3.538720607757568359e+00,3.454915285110473633e+00,6.709564924240112305e-01,6.493601799011230469e-01,6.312061548233032227e-01,6.190479993820190430e-01,6.109890341758728027e-01,6.041292548179626465e-01,5.974218249320983887e-01,5.908616781234741211e-01,5.844441056251525879e-01,5.785870552062988281e-01,5.760910511016845703e-01,5.736164450645446777e-01
5.000000000000000000e+00,5.000000000000000000e+00,5.000000000000000000e+00,5.000000000000000000e+00,5.000000000000000000e+00,5.000000000000000000e+00,5.000000000000000000e+00,5.000000000000000000e+00,5.000000000000000000e+00,5.000000000000000000e+00,5.000000000000000000e+00,5.000000000000000000e+00,5.000000000000000000e+00,5.000000000000000000e+00,5.000000000000000000e+00,5.000000000000000000e+00,5.000000000000000000e+00,5.000000000000000000e+00,5.000000000000000000e+00,5.000000000000000000e+00,5.000000000000000000e+00,5.000000000000000000e+00,5.000000000000000000e+00,5.000000000000000000e+00,5.000000000000000000e+00,5.000000000000000000e+00,5.000000000000000000e+00,5.000000000000000000e+00,5.000000000000000000e+00,5.000000000000000000e+00,5.000000000000000000e+00,5.000000000000000000e+00,5.000000000000000000e+00,5.000000000000000000e+00,5.000000000000000000e+00,5.000000000000000000e+00,5.000000000000000000e+00,5.000000000000000000e+00,5.000000000000000000e+00,5.000000000000000000e+00,5.000000000000000000e+00,5.000000000000000000e+00,5.000000000000000000e+00,5.000000000000000000e+00,5.000000000000000000e+00,5.000000000000000000e+00,5.000000000000000000e+00,5.000000000000000000e+00,5.000000000000000000e+00,5.000000000000000000e+00,5.000000000000000000e+00,5.000000000000000000e+00,5.000000000000000000e+00,5.000000000000000000e+00,4.991856575012207031e+00,4.826698303222656250e+00,4.672119140625000000e+00,4.527133464813232422e+00,4.390875339508056641e+00,4.262579917907714844e+00,4.141568660736083984e+00,4.027238845825195312e+00,3.919051885604858398e+00,3.816525459289550781e+00,3.719226121902465820e+00,3.626765251159667969e+00,3.538789510726928711e+00,3.454981088638305664e+00,6.705012321472167969e-01,6.480752825736999512e-01,6.290739774703979492e-01,6.216027140617370605e-01,6.145039200782775879e-01,6.075654625892639160e-01,6.007819175720214844e-01,5.941482186317443848e-01,5.876594185829162598e-01,5.847259759902954102e-01,5.821767449378967285e-01,5.796497464179992676e-01
5.000000000000000000e+00,5.000000000000000000e+00,5.000000000000000000e+00,5.000000000000000000e+00,5.000000000000000000e+00,5.000000000000000000e+00,5.000000000000000000e+00,5.000000000000000000e+00,5.000000000000000000e+00,5.000000000000000000e+00,5.000000000000000000e+00,5.000000000000000000e+00,5.000000000000000000e+00,5.000000000000000000e+00,5.000000000000000000e+00,5.000000000000000000e+00,5.000000000000000000e+00,5.000000000000000000e+00,5.000000000000000000e+00,5.000000000000000000e+00,5.000000000000000000e+00,5.000000000000000000e+00,5.000000000000000000e+00,5.000000000000000000e+00,5.000000000000000000e+00,5.000000000000000000e+00,5.000000000000000000e+00,5.000000000000000000e+00,5.000000000000000000e+00,5.000000000000000000e+00,5.000000000000000000e+00,5.000000000000000000e+00,5.000000000000000000e+00,5.000000000000000000e+00,5.000000000000000000e+00,5.000000000000000000e+00,5.000000000000000000e+00,5.000000000000000000e+00,5.000000000000000000e+00,5.000000000000000000e+00,5.000000000000000000e+00,5.000000000000000000e+00,5.000000000000000000e+00,5.000000000000000000e+00,5.000000000000000000e+00,5.000000000000000000e+00,5.000000000000000000e+00,5.000000000000000000e+00,5.000000000000000000e+00,5.000000000000000000e+00,5.000000000000000000e+00,5.000000000000000000e+00,5.000000000000000000e+00,5.000000000000000000e+00,4.991993427276611328e+00,4.826826572418212891e+00,4.672238826751708984e+00,4.527246475219726562e+00,4.390981674194335938e+00,4.262680053710937500e+00,4.141663074493408203e+00,4.027328014373779297e+00,3.919136524200439453e+00,3.816605567932128906e+00,3.719302415847778320e+00,3.626837730407714844e+00,3.538858175277709961e+00,3.455046653747558594e+00,6.700465083122253418e-01,6.476504802703857422e-01,6.323869228363037109e-01,6.250913143157958984e-01,6.179621815681457520e-01,6.109938025474548340e-01,6.041800975799560547e-01,5.974715948104858398e-01,5.936236381530761719e-01,5.909965038299560547e-01,5.883924961090087891e-01,5.858113169670104980e-01
5.000000000000000000e+00,5.000000000000000000e+00,5.000000000000000000e+00,5.000000000000000000e+00,5.000000000000000000e+00,5.000000000000000000e+00,5.000000000000000000e+00,5.000000000000000000e+00,5.000000000000000000e+00,5.000000000000000000e+00,5.000000000000000000e+00,5.000000000000000000e+00,5.000000000000000000e+00,5.000000000000000000e+00,5.000000000000000000e+00,5.000000000000000000e+00,5.000000000000000000e+00,5.000000000000000000e+00,5.000000000000000000e+00,5.000000000000000000e+00,5.000000000000000000e+00,5.000000000000000000e+00,5.000000000000000000e+00,5.000000000000000000e+00,5.000000000000000000e+00,5.000000000000000000e+00,5.000000000000000000e+00,5.000000000000000000e+00,5.000000000000000000e+00,5.000000000000000000e+00,5.000000000000000000e+00,5.000000000000000000e+00,5.000000000000000000e+00,5.000000000000000000e+00,5.000000000000000000e+00,5.000000000000000000e+00,5.000000000000000000e+00,5.000000000000000000e+00,5.000000000000000000e+00,5.000000000000000000e+00,5.000000000000000000e+00,5.000000000000000000e+00,5.000000000000000000e+00,5.000000000000000000e+00,5.000000000000000000e+00,5.000000000000000000e+00,5.000000000000000000e+00,5.000000000000000000e+00,5.000000000000000000e+00,5.000000000000000000e+00,5.000000000000000000e+00,5.000000000000000000e+00,5.000000000000000000e+00,5.000000000000000000e+00,4.992130756378173828e+00,4.826954364776611328e+00,4.672358989715576172e+00,4.527359008789062500e+00,4.391087532043457031e+00,4.262780189514160156e+00,4.141757488250732422e+00,4.027417659759521484e+00,3.919220685958862305e+00,3.816685438156127930e+00,3.719378471374511719e+00,3.626909971237182617e+00,3.538927316665649414e+00,6.906754970550537109e-01,6.695924401283264160e-01,6.472262144088745117e-01,6.358758807182312012e-01,6.285000443458557129e-01,6.212933659553527832e-01,6.142501235008239746e-01,6.073647141456604004e-01,6.009370684623718262e-01,5.984123945236206055e-01,5.960875153541564941e-01,5.937806367874145508e-01,5.914915204048156738e-01
5.000000000000000000e+00,5.000000000000000000e+00,5.000000000000000000e+00,5.000000000000000000e+00,5.000000000000000000e+00,5.000000000000000000e+00,5.000000000000000000e+00,5.000000000000000000e+00,5.000000000000000000e+00,5.000000000000000000e+00,5.000000000000000000e+00,5.000000000000000000e+00,5.000000000000000000e+00,5.000000000000000000e+00,5.000000000000000000e+00,5.000000000000000000e+00,5.000000000000000000e+00,5.000000000000000000e+00,5.000000000000000000e+00,5.000000000000000000e+00,5.000000000000000000e+00,5.000000000000000000e+00,5.000000000000000000e+00,5.000000000000000000e+00,5.000000000000000000e+00,5.000000000000000000e+00,5.000000000000000000e+00,5.000000000000000000e+00,5.000000000000000000e+00,5.000000000000000000e+00,5.000000000000000000e+00,5.000000000000000000e+00,5.000000000000000000e+00,5.000000000000000000e+00,5.000000000000000000e+00,5.000000000000000000e+00,5.000000000000000000e+00,5.000000000000000000e+00,5.000000000000000000e+00,5.000000000000000000e+00,5.000000000000000000e+00,5.000000000000000000e+00,5.000000000000000000e+00,5.000000000000000000e+00,5.000000000000000000e+00,5.000000000000000000e+00,5.000000000000000000e+00,5.000000000000000000e+00,5.000000000000000000e+00,5.000000000000000000e+00,5.000000000000000000e+00,5.000000000000000000e+00,5.000000000000000000e+00,5.000000000000000000e+00,4.992267608642578125e+00,4.827083110809326172e+00,4.672479629516601562e+00,4.527472019195556641e+00,4.391193389892578125e+00,4.262879848480224609e+00,4.141851902008056641e+00,4.027506828308105469e+00,3.919305324554443359e+00,3.816765785217285156e+00,3.719454526901245117e+00,3.626982450485229492e+00,3.538996458053588867e+00,6.906930208206176758e-01,6.691389679908752441e-01,6.470391154289245605e-01,6.394035816192626953e-01,6.319461464881896973e-01,6.246606707572937012e-01,6.175413131713867188e-01,6.106376051902770996e-01,6.049596667289733887e-01,6.024254560470581055e-01,6.000692844390869141e-01,5.977315902709960938e-01,5.954120159149169922e-01
5.000000000000000000e+00,5.000000000000000000e+00,5.000000000000000000e+00,5.000000000000000000e+00,5.000000000000000000e+00,5.000000000000000000e+00,5.000000000000000000e+00,5.000000000000000000e+00,5.000000000000000000e+00,5.000000000000000000e+00,5.000000000000000000e+00,5.000000000000000000e+00,5.000000000000000000e+00,5.000000000000000000e+00,5.000000000000000000e+00,5.000000000000000000e+00,5.000000000000000000e+00,5.000000000000000000e+00,5.000000000000000000e+00,5.000000000000000000e+00,5.000000000000000000e+00,5.000000000000000000e+00,5.000000000000000000e+00,5.000000000000000000e+00,5.000000000000000000e+00,5.000000000000000000e+00,5.000000000000000000e+00,5.000000000000000000e+00,5.000000000000000000e+00,5.000000000000000000e+00,5.000000000000000000e+00,5.000000000000000000e+00,5.000000000000000000e+00,5.000000000000000000e+00,5.000000000000000000e+00,5.000000000000000000e+00,5.000000000000000000e+00,5.000000000000000000e+00,5.000000000000000000e+00,5.000000000000000000e+00,5.000000000000000000e+00,5.000000000000000000e+00,5.000000000000000000e+00,5.000000000000000000e+00,5.000000000000000000e+00,5.000000000000000000e+00,5.000000000000000000e+00,5.000000000000000000e+00,5.000000000000000000e+00,5.000000000000000000e+00,5.000000000000000000e+00,5.000000000000000000e+00,5.000000000000000000e+00,5.000000000000000000e+00,4.992404937744140625e+00,4.827211380004882812e+00,4.672599315643310547e+00,4.527584552764892578e+00,4.391299724578857422e+00,4.262979984283447266e+00,4.141946315765380859e+00,4.027595996856689453e+00,3.919390201568603516e+00,3.816846132278442383e+00,3.719530820846557617e+00,3.627054929733276367e+00,3.539065361022949219e+00,6.907105445861816406e-01,6.686861515045166016e-01,6.506921052932739258e-01,6.429706811904907227e-01,6.354302763938903809e-01,6.280646920204162598e-01,6.209058165550231934e-01,6.140084266662597656e-01,6.090363860130310059e-01,6.064926981925964355e-01,6.041046977043151855e-01,6.017354726791381836e-01,2.690548658370971680e+00
5.000000000000000000e+00,5.000000000000000000e+00,5.000000000000000000e+00,5.000000000000000000e+00,5.000000000000000000e+00,5.000000000000000000e+00,5.000000000000000000e+00,5.000000000000000000e+00,5.000000000000000000e+00,5.000000000000000000e+00,5.000000000000000000e+00,5.000000000000000000e+00,5.000000000000000000e+00,5.000000000000000000e+00,5.000000000000000000e+00,5.000000000000000000e+00,5.000000000000000000e+00,5.000000000000000000e+00,5.000000000000000000e+00,5.000000000000000000e+00,5.000000000000000000e+00,5.000000000000000000e+00,5.000000000000000000e+00,5.000000000000000000e+00,5.000000000000000000e+00,5.000000000000000000e+00,5.000000000000000000e+00,5.000000000000000000e+00,5.000000000000000000e+00,5.000000000000000000e+00,5.000000000000000000e+00,5.000000000000000000e+00,5.000000000000000000e+00,5.000000000000000000e+00,5.000000000000000000e+00,5.000000000000000000e+00,5.000000000000000000e+00,5.000000000000000000e+00,5.000000000000000000e+00,5.000000000000000000e+00,5.000000000000000000e+00,5.000000000000000000e+00,5.000000000000000000e+00,5.000000000000000000e+00,5.000000000000000000e+00,5.000000000000000000e+00,5.000000000000000000e+00,5.000000000000000000e+00,5.000000000000000000e+00,5.000000000000000000e+00,5.000000000000000000e+00,5.000000000000000000e+00,5.000000000000000000e+00,5.000000000000000000e+00,4.992542266845703125e+00,4.827339649200439453e+00,4.672719478607177734e+00,4.527697563171386719e+00,4.391406059265136719e+00,4.263080120086669922e+00,4.142040729522705078e+00,4.027685165405273438e+00,3.919474840164184570e+00,3.816926002502441406e+00,3.719606876373291016e+00,3.627127170562744141e+00,3.539134025573730469e+00,6.907280087471008301e-01,6.682339310646057129e-01,6.543866395950317383e-01,6.465777158737182617e-01,6.389530301094055176e-01,6.315252184867858887e-01,6.243912577629089355e-01,6.174167394638061523e-01,6.131684780120849609e-01,6.106151938438415527e-01,6.081947088241577148e-01,6.057934165000915527e-01,2.690588712692260742e+00
5.000000000000000000e+00,5.000000000000000000e+00,5.000000000000000000e+00,5.000000000000000000e+00,5.000000000000000000e+00,5.000000000000000000e+00,5.000000000000000000e+00,5.000000000000000000e+00,5.000000000000000000e+00,5.000000000000000000e+00,5.000000000000000000e+00,5.000000000000000000e+00,5.000000000000000000e+00,5.000000000000000000e+00,5.000000000000000000e+00,5.000000000000000000e+00,5.000000000000000000e+00,5.000000000000000000e+00,5.000000000000000000e+00,5.000000000000000000e+00,5.000000000000000000e+00,5.000000000000000000e+00,5.000000000000000000e+00,5.000000000000000000e+00,5.000000000000000000e+00,5.000000000000000000e+00,5.000000000000000000e+00,5.000000000000000000e+00,5.000000000000000000e+00,5.000000000000000000e+00,5.000000000000000000e+00,5.000000000000000000e+00,5.000000000000000000e+00,5.000000000000000000e+00,5.000000000000000000e+00,5.000000000000000000e+00,5.000000000000000000e+00,5.000000000000000000e+00,5.000000000000000000e+00,5.000000000000000000e+00,5.000000000000000000e+00,5.000000000000000000e+00,5.000000000000000000e+00,5.000000000000000000e+00,5.000000000000000000e+00,5.000000000000000000e+00,5.000000000000000000e+00,5.000000000000000000e+00,5.000000000000000000e+00,5.000000000000000000e+00,5.000000000000000000e+00,5.000000000000000000e+00,5.000000000000000000e+00,5.000000000000000000e+00,4.992679119110107422e+00,4.827467918395996094e+00,4.672840118408203125e+00,4.527810573577880859e+00,4.391512393951416016e+00,4.263179779052734375e+00,4.142135143280029297e+00,4.027774333953857422e+00,3.919559001922607422e+00,3.817006349563598633e+00,3.719683170318603516e+00,3.627199649810791016e+00,7.115668058395385742e-01,6.907455325126647949e-01,6.677823066711425781e-01,6.581232547760009766e-01,6.502255201339721680e-01,6.425150036811828613e-01,6.351312994956970215e-01,6.279161572456359863e-01,6.214627027511596680e-01,6.173569560050964355e-01,6.147941946983337402e-01,6.123404502868652344e-01,6.099063754081726074e-01,2.690628528594970703e+00
5.000000000000000000e+00,5.000000000000000000e+00,5.000000000000000000e+00,5.000000000000000000e+00,5.000000000000000000e+00,5.000000000000000000e+00,5.000000000000000000e+00,5.000000000000000000e+00,5.000000000000000000e+00,5.000000000000000000e+00,5.000000000000000000e+00,5.000000000000000000e+00,5.000000000000000000e+00,5.000000000000000000e+00,5.000000000000000000e+00,5.000000000000000000e+00,5.000000000000000000e+00,5.000000000000000000e+00,5.000000000000000000e+00,5.000000000000000000e+00,5.000000000000000000e+00,5.000000000000000000e+00,5.000000000000000000e+00,5.000000000000000000e+00,5.000000000000000000e+00,5.000000000000000000e+00,5.000000000000000000e+00,5.000000000000000000e+00,5.000000000000000000e+00,5.000000000000000000e+00,5.000000000000000000e+00,5.000000000000000000e+00,5.000000000000000000e+00,5.000000000000000000e+00,5.000000000000000000e+00,5.000000000000000000e+00,5.000000000000000000e+00,5.000000000000000000e+00,5.000000000000000000e+00,5.000000000000000000e+00,5.000000000000000000e+00,5.000000000000000000e+00,5.000000000000000000e+00,5.000000000000000000e+00,5.000000000000000000e+00,5.000000000000000000e+00,5.000000000000000000e+00,5.000000000000000000e+00,5.000000000000000000e+00,5.000000000000000000e+00,5.000000000000000000e+00,5.000000000000000000e+00,5.000000000000000000e+00,5.000000000000000000e+00,4.992816925048828125e+00,4.827595710754394531e+00,4.672959804534912109e+00,4.527923107147216797e+00,4.391618251800537109e+00,4.263280391693115234e+00,4.142230033874511719e+00,4.027863979339599609e+00,3.919643640518188477e+00,3.817086696624755859e+00,3.719759464263916016e+00,3.627272129058837891e+00,7.115854024887084961e-01,6.907630562782287598e-01,6.700886487960815430e-01,6.619028449058532715e-01,6.539146304130554199e-01,6.462473273277282715e-01,6.387788653373718262e-01,6.314809918403625488e-01,6.257657408714294434e-01,6.216031312942504883e-01,6.190307140350341797e-01,6.165431737899780273e-01,2.741226673126220703e+00,2.690668582916259766e+00
5.000000000000000000e+00,5.000000000000000000e+00,5.000000000000000000e+00,5.000000000000000000e+00,5.000000000000000000e+00,5.000000000000000000e+00,5.000000000000000000e+00,5.000000000000000000e+00,5.000000000000000000e+00,5.000000000000000000e+00,5.000000000000000000e+00,5.000000000000000000e+00,5.000000000000000000e+00,5.000000000000000000e+00,5.000000000000000000e+00,5.000000000000000000e+00,5.000000000000000000e+00,5.000000000000000000e+00,5.000000000000000000e+00,5.000000000000000000e+00,5.000000000000000000e+00,5.000000000000000000e+00,5.000000000000000000e+00,5.000000000000000000e+00,5.000000000000000000e+00,5.000000000000000000e+00,5.000000000000000000e+00,5.000000000000000000e+00,5.000000000000000000e+00,5.000000000000000000e+00,5.000000000000000000e+00,5.000000000000000000e+00,5.000000000000000000e+00,5.000000000000000000e+00,5.000000000000000000e+00,5.000000000000000000e+00,5.000000000000000000e+00,5.000000000000000000e+00,5.000000000000000000e+00,5.000000000000000000e+00,5.000000000000000000e+00,5.000000000000000000e+00,5.000000000000000000e+00,5.000000000000000000e+00,5.000000000000000000e+00,5.000000000000000000e+00,5.000000000000000000e+00,5.000000000000000000e+00,5.000000000000000000e+00,5.000000000000000000e+00,5.000000000000000000e+00,5.000000000000000000e+00,5.000000000000000000e+00,5.000000000000000000e+00,4.992953777313232422e+00,4.827724456787109375e+00,4.673080444335937500e+00,4.528036117553710938e+00,4.391724109649658203e+00,4.263380050659179688e+00,4.142323970794677734e+00,4.027953147888183594e+00,3.919728517532348633e+00,3.817167043685913086e+00,3.719835281372070312e+00,3.627344369888305664e+00,7.116039991378784180e-01,6.906511187553405762e-01,6.740072965621948242e-01,6.657261252403259277e-01,6.577593684196472168e-01,6.500239372253417969e-01,6.424684524536132812e-01,6.350865960121154785e-01,6.301286816596984863e-01,6.259080171585083008e-01,6.233260631561279297e-01,6.208039522171020508e-01,2.741267919540405273e+00,2.690708160400390625e+00
5.000000000000000000e+00,5.000000000000000000e+00,5.000000000000000000e+00,5.000000000000000000e+00,5.000000000000000000e+00,5.000000000000000000e+00,5.000000000000000000e+00,5.000000000000000000e+00,5.000000000000000000e+00,5.000000000000000000e+00,5.000000000000000000e+00,5.000000000000000000e+00,5.000000000000000000e+00,5.000000000000000000e+00,5.000000000000000000e+00,5.000000000000000000e+00,5.000000000000000000e+00,5.000000000000000000e+00,5.000000000000000000e+00,5.000000000000000000e+00,5.000000000000000000e+00,5.000000000000000000e+00,5.000000000000000000e+00,5.000000000000000000e+00,5.000000000000000000e+00,5.000000000000000000e+00,5.000000000000000000e+00,5.000000000000000000e+00,5.000000000000000000e+00,5.000000000000000000e+00,5.000000000000000000e+00,5.000000000000000000e+00,5.000000000000000000e+00,5.000000000000000000e+00,5.000000000000000000e+00,5.000000000000000000e+00,5.000000000000000000e+00,5.000000000000000000e+00,5.000000000000000000e+00,5.000000000000000000e+00,5.000000000000000000e+00,5.000000000000000000e+00,5.000000000000000000e+00,5.000000000000000000e+00,5.000000000000000000e+00,5.000000000000000000e+00,5.000000000000000000e+00,5.000000000000000000e+00,5.000000000000000000e+00,5.000000000000000000e+00,5.000000000000000000e+00,5.000000000000000000e+00,5.000000000000000000e+00,5.000000000000000000e+00,4.993091106414794922e+00,4.827852725982666016e+00,4.673200607299804688e+00,4.528149127960205078e+00,4.391830444335937500e+00,4.263480186462402344e+00,4.142418384552001953e+00,4.028042316436767578e+00,3.919812679290771484e+00,3.817246913909912109e+00,3.719911575317382812e+00,7.341554164886474609e-01,7.116225957870483398e-01,6.901686787605285645e-01,6.779721379280090332e-01,6.696888804435729980e-01,6.616721749305725098e-01,6.538450717926025391e-01,6.462010145187377930e-01,6.388914585113525391e-01,6.345530152320861816e-01,6.302730441093444824e-01,6.276814341545104980e-01,2.793807268142700195e+00,2.741309404373168945e+00,2.690747976303100586e+00
5.000000000000000000e+00,5.000000000000000000e+00,5.000000000000000000e+00,5.000000000000000000e+00,5.000000000000000000e+00,5.000000000000000000e+00,5.000000000000000000e+00,5.000000000000000000e+00,5.000000000000000000e+00,5.000000000000000000e+00,5.000000000000000000e+00,5.000000000000000000e+00,5.000000000000000000e+00,5.000000000000000000e+00,5.000000000000000000e+00,5.000000000000000000e+00,5.000000000000000000e+00,5.000000000000000000e+00,5.000000000000000000e+00,5.000000000000000000e+00,5.000000000000000000e+00,5.000000000000000000e+00,5.000000000000000000e+00,5.000000000000000000e+00,5.000000000000000000e+00,5.000000000000000000e+00,5.000000000000000000e+00,5.000000000000000000e+00,5.000000000000000000e+00,5.000000000000000000e+00,5.000000000000000000e+00,5.000000000000000000e+00,5.000000000000000000e+00,5.000000000000000000e+00,5.000000000000000000e+00,5.000000000000000000e+00,5.000000000000000000e+00,5.000000000000000000e+00,5.000000000000000000e+00,5.000000000000000000e+00,5.000000000000000000e+00,5.000000000000000000e+00,5.000000000000000000e+00,5.000000000000000000e+00,5.000000000000000000e+00,5.000000000000000000e+00,5.000000000000000000e+00,5.000000000000000000e+00,5.000000000000000000e+00,5.000000000000000000e+00,5.000000000000000000e+00,5.000000000000000000e+00,5.000000000000000000e+00,5.000000000000000000e+00,4.993228435516357422e+00,4.827980995178222656e+00,4.673320770263671875e+00,4.528261661529541016e+00,4.391936779022216797e+00,4.263580322265625000e+00,4.142513275146484375e+00,4.028131961822509766e+00,3.919897317886352539e+00,3.817327260971069336e+00,3.719987869262695312e+00,7.354156374931335449e-01,7.116411328315734863e-01,6.906771063804626465e-01,6.820592284202575684e-01,6.737453937530517578e-01,6.656318306922912598e-01,6.577113270759582520e-01,6.499771475791931152e-01,6.434400677680969238e-01,6.390398144721984863e-01,6.347129940986633301e-01,6.320980787277221680e-01,2.793850183486938477e+00,2.741350889205932617e+00,2.690788030624389648e+00
5.000000000000000000e+00,5.000000000000000000e+00,5.000000000000000000e+00,5.000000000000000000e+00,5.000000000000000000e+00,5.000000000000000000e+00,5.000000000000000000e+00,5.000000000000000000e+00,5.000000000000000000e+00,5.000000000000000000e+00,5.000000000000000000e+00,5.000000000000000000e+00,5.000000000000000000e+00,5.000000000000000000e+00,5.000000000000000000e+00,5.000000000000000000e+00,5.000000000000000000e+00,5.000000000000000000e+00,5.000000000000000000e+00,5.000000000000000000e+00,5.000000000000000000e+00,5.000000000000000000e+00,5.000000000000000000e+00,5.000000000000000000e+00,5.000000000000000000e+00,5.000000000000000000e+00,5.000000000000000000e+00,5.000000000000000000e+00,5.000000000000000000e+00,5.000000000000000000e+00,5.000000000000000000e+00,5.000000000000000000e+00,5.000000000000000000e+00,5.000000000000000000e+00,5.000000000000000000e+00,5.000000000000000000e+00,5.000000000000000000e+00,5.000000000000000000e+00,5.000000000000000000e+00,5.000000000000000000e+00,5.000000000000000000e+00,5.000000000000000000e+00,5.000000000000000000e+00,5.000000000000000000e+00,5.000000000000000000e+00,5.000000000000000000e+00,5.000000000000000000e+00,5.000000000000000000e+00,5.000000000000000000e+00,5.000000000000000000e+00,5.000000000000000000e+00,5.000000000000000000e+00,5.000000000000000000e+00,5.000000000000000000e+00,4.993365287780761719e+00,4.828109264373779297e+00,4.673440933227539062e+00,4.528374671936035156e+00,4.392042636871337891e+00,4.263680458068847656e+00,4.142607688903808594e+00,4.028221130371093750e+00,3.919982194900512695e+00,3.817407608032226562e+00,3.720064163208007812e+00,7.366801500320434570e-01,7.126429080963134766e-01,6.948951482772827148e-01,6.862674355506896973e-01,6.778513193130493164e-01,6.696391701698303223e-01,6.616235971450805664e-01,6.537976861000061035e-01,6.480539441108703613e-01,6.435905694961547852e-01,6.392294764518737793e-01,6.841404438018798828e-01,2.793893337249755859e+00,2.741391897201538086e+00,2.690827608108520508e+00
4.871796607971191406e+00,4.870591640472412109e+00,4.869387626647949219e+00,4.868184089660644531e+00,4.866981506347656250e+00,4.865778923034667969e+00,4.864576816558837891e+00,4.863376140594482422e+00,4.862175464630126953e+00,4.860975265502929688e+00,4.859776020050048828e+00,4.858577251434326172e+00,4.857378959655761719e+00,4.856181144714355469e+00,4.854984283447265625e+00,4.853787899017333984e+00,4.852591991424560547e+00,4.851396560668945312e+00,4.850202083587646484e+00,4.849008083343505859e+00,4.847814559936523438e+00,4.846621513366699219e+00,4.845429420471191406e+00,4.844237804412841797e+00,4.843046665191650391e+00,4.841855525970458984e+00,4.840665817260742188e+00,4.839476585388183594e+00,4.838287830352783203e+00,4.837099552154541016e+00,4.835911750793457031e+00,4.834724426269531250e+00,4.833538055419921875e+00,4.832352638244628906e+00,4.831166744232177734e+00,4.829982280731201172e+00,4.828798294067382812e+00,4.827614784240722656e+00,4.826431274414062500e+00,4.825249195098876953e+00,4.824067592620849609e+00,4.822885990142822266e+00,4.821705341339111328e+00,4.820525169372558594e+00,4.819345951080322266e+00,4.818166732788085938e+00,4.816988468170166016e+00,4.815810680389404297e+00,4.814633369445800781e+00,4.813457012176513672e+00,4.812280654907226562e+00,4.811105251312255859e+00,4.809930324554443359e+00,4.808755874633789062e+00,4.807581901550292969e+00,4.806408882141113281e+00,4.673561096191406250e+00,4.528487682342529297e+00,4.392148971557617188e+00,4.263780593872070312e+00,4.142702102661132812e+00,4.028310298919677734e+00,3.920066356658935547e+00,3.817487478256225586e+00,3.720139980316162109e+00,7.379490137100219727e-01,7.138302326202392578e-01,6.996229887008666992e-01,6.907927393913269043e-01,6.821825504302978516e-01,6.737844347953796387e-01,6.655905246734619141e-01,6.576633453369140625e-01,6.527344584465026855e-01,6.482065916061401367e-01,6.438107490539550781e-01,2.848489046096801758e+00,2.793936014175415039e+00,2.741433382034301758e+00,2.690867662429809570e+00
3.776225805282592773e+00,3.775502204895019531e+00,3.774778366088867188e+00,3.774055242538452148e+00,3.773332118988037109e+00,3.772609233856201172e+00,3.771887063980102539e+00,3.771164655685424805e+00,3.770442485809326172e+00,3.769721269607543945e+00,3.768999576568603516e+00,3.768278837203979492e+00,3.767557859420776367e+00,3.766837120056152344e+00,3.766117095947265625e+00,3.765397071838378906e+00,3.764677047729492188e+00,3.763957977294921875e+00,3.763238668441772461e+00,3.762520074844360352e+00,3.761801242828369141e+00,3.761082649230957031e+00,3.760365009307861328e+00,3.759646892547607422e+00,3.758929252624511719e+00,3.758212327957153320e+00,3.757495164871215820e+00,3.756778717041015625e+00,3.756062030792236328e+00,3.755345821380615234e+00,3.754630088806152344e+00,3.753914356231689453e+00,3.753198862075805664e+00,3.752484083175659180e+00,3.751769065856933594e+00,3.751055002212524414e+00,3.750340461730957031e+00,3.749626398086547852e+00,3.748913049697875977e+00,3.748199224472045898e+00,3.747486352920532227e+00,3.746773481369018555e+00,3.746060609817504883e+00,3.745348453521728516e+00,3.744636297225952148e+00,3.743924379348754883e+00,3.743213176727294922e+00,3.742501735687255859e+00,3.741791009902954102e+00,3.741080045700073242e+00,3.740369558334350586e+00,3.739659547805786133e+00,3.738949537277221680e+00,3.738239765167236328e+00,3.737530708312988281e+00,3.736821413040161133e+00,3.736112833023071289e+00,3.735404014587402344e+00,3.734695672988891602e+00,3.733987808227539062e+00,3.733279943466186523e+00,3.732572555541992188e+00,3.731865167617797852e+00,3.731158256530761719e+00,7.635975480079650879e-01,7.392222881317138672e-01,7.150215506553649902e-01,7.044848203659057617e-01,6.955321431159973145e-01,6.868042349815368652e-01,6.782925724983215332e-01,6.699893474578857422e-01,6.638153195381164551e-01,6.586362719535827637e-01,6.535373330116271973e-01,6.789994239807128906e-01,2.848533868789672852e+00,2.793979167938232422e+00,2.741474866867065430e+00,2.690907478332519531e+00
3.082934856414794922e+00,3.082452297210693359e+00,3.081969976425170898e+00,3.081487894058227539e+00,3.081005811691284180e+00,3.080523967742919922e+00,3.080042123794555664e+00,3.079560518264770508e+00,3.079079151153564453e+00,3.078597784042358398e+00,3.078116893768310547e+00,3.077635765075683594e+00,3.077154874801635742e+00,3.076674461364746094e+00,3.076193809509277344e+00,3.075713157653808594e+00,3.075233221054077148e+00,3.074753046035766602e+00,3.074273347854614258e+00,3.073793411254882812e+00,3.073313713073730469e+00,3.072834253311157227e+00,3.072354793548583984e+00,3.071875572204589844e+00,3.071396827697753906e+00,3.070917844772338867e+00,3.070439100265502930e+00,3.069960594177246094e+00,3.069481849670410156e+00,3.069003820419311523e+00,3.068525552749633789e+00,3.068047761917114258e+00,3.067569971084594727e+00,3.067091941833496094e+00,3.066614627838134766e+00,3.066137313842773438e+00,3.065659999847412109e+00,3.065182924270629883e+00,3.064706087112426758e+00,3.064229249954223633e+00,3.063752651214599609e+00,3.063276052474975586e+00,3.062799930572509766e+00,3.062323570251464844e+00,3.061847448348999023e+00,3.061371564865112305e+00,3.060895681381225586e+00,3.060420274734497070e+00,3.059944629669189453e+00,3.059469223022460938e+00,3.058994293212890625e+00,3.058519124984741211e+00,3.058044195175170898e+00,3.057569503784179688e+00,3.057094812393188477e+00,3.056620597839355469e+00,3.056146383285522461e+00,3.055671930313110352e+00,3.055198192596435547e+00,3.054724216461181641e+00,3.054250478744506836e+00,3.053776979446411133e+00,3.053303480148315430e+00,3.052830457687377930e+00,7.642396092414855957e-01,7.404999136924743652e-01,7.187306284904479980e-01,7.094146609306335449e-01,7.003371119499206543e-01,6.914889812469482422e-01,6.828615665435791016e-01,6.745768189430236816e-01,6.708171963691711426e-01,6.655286550521850586e-01,6.603229045867919922e-01,2.905308008193969727e+00,2.848578453063964844e+00,2.794022083282470703e+00,2.741516351699829102e+00,2.690947294235229492e+00
2.604723930358886719e+00,2.604379653930664062e+00,2.604035377502441406e+00,2.603690862655639648e+00,2.603346824645996094e+00,2.603002786636352539e+00,2.602658748626708984e+00,2.602314949035644531e+00,2.601971149444580078e+00,2.601627588272094727e+00,2.601284027099609375e+00,2.600940227508544922e+00,2.600597143173217773e+00,2.600253582000732422e+00,2.599910259246826172e+00,2.599567174911499023e+00,2.599224090576171875e+00,2.598881244659423828e+00,2.598538398742675781e+00,2.598195552825927734e+00,2.597852945327758789e+00,2.597510099411010742e+00,2.597167730331420898e+00,2.596825361251831055e+00,2.596482992172241211e+00,2.596140861511230469e+00,2.595798492431640625e+00,2.595456361770629883e+00,2.595114469528198242e+00,2.594772577285766602e+00,2.594430685043334961e+00,2.594089269638061523e+00,2.593747377395629883e+00,2.593405961990356445e+00,2.593064546585083008e+00,2.592723131179809570e+00,2.592381954193115234e+00,2.592040777206420898e+00,2.591699838638305664e+00,2.591358661651611328e+00,2.591017723083496094e+00,2.590677022933959961e+00,2.590336322784423828e+00,2.589995622634887695e+00,2.589655160903930664e+00,2.589314699172973633e+00,2.588974475860595703e+00,2.588634014129638672e+00,2.588293790817260742e+00,2.587953805923461914e+00,2.587613821029663086e+00,2.587273836135864258e+00,2.586934089660644531e+00,2.586594343185424805e+00,2.586254835128784180e+00,2.585915088653564453e+00,2.585575580596923828e+00,2.585236310958862305e+00,2.584897041320800781e+00,2.584557771682739258e+00,2.584218740463256836e+00,2.583879709243774414e+00,2.583540916442871094e+00,2.583201885223388672e+00,7.657943964004516602e-01,7.417820096015930176e-01,7.238627076148986816e-01,7.144140601158142090e-01,7.052088975906372070e-01,6.962379813194274902e-01,6.876392364501953125e-01,6.792546510696411133e-01,6.779683232307434082e-01,6.725668907165527344e-01,6.739349961280822754e-01,2.579142808914184570e+00,2.578805208206176758e+00,2.578467369079589844e+00,2.578130006790161133e+00,2.577792644500732422e+00
2.254946947097778320e+00,2.254688739776611328e+00,2.254430770874023438e+00,2.254172801971435547e+00,2.253914833068847656e+00,2.253656864166259766e+00,2.253399133682250977e+00,2.253141164779663086e+00,2.252883672714233398e+00,2.252625942230224609e+00,2.252368211746215820e+00,2.252110719680786133e+00,2.251853227615356445e+00,2.251595735549926758e+00,2.251338481903076172e+00,2.251081228256225586e+00,2.250823974609375000e+00,2.250566720962524414e+00,2.250309467315673828e+00,2.250052452087402344e+00,2.249795436859130859e+00,2.249538421630859375e+00,2.249281644821166992e+00,2.249024868011474609e+00,2.248768091201782227e+00,2.248511314392089844e+00,2.248254537582397461e+00,2.247997999191284180e+00,2.247741460800170898e+00,2.247485160827636719e+00,2.247228622436523438e+00,2.246972084045410156e+00,2.246716022491455078e+00,2.246459722518920898e+00,2.246203422546386719e+00,2.245947360992431641e+00,2.245691299438476562e+00,2.245435237884521484e+00,2.245179176330566406e+00,2.244923353195190430e+00,2.244667530059814453e+00,2.244411706924438477e+00,2.244155883789062500e+00,2.243900299072265625e+00,2.243644714355468750e+00,2.243389129638671875e+00,2.243133544921875000e+00,2.242878198623657227e+00,2.242622852325439453e+00,2.242367506027221680e+00,2.242112159729003906e+00,2.241857051849365234e+00,2.241601943969726562e+00,2.241346836090087891e+00,2.241091728210449219e+00,2.240836620330810547e+00,2.240581989288330078e+00,2.240326881408691406e+00,2.240072250366210938e+00,2.239817380905151367e+00,2.239562749862670898e+00,2.239308118820190430e+00,2.239053487777709961e+00,2.238799095153808594e+00,7.673555612564086914e-01,7.430685758590698242e-01,7.290685176849365234e-01,7.194843888282775879e-01,7.101566791534423828e-01,7.012175321578979492e-01,6.925006508827209473e-01,6.862543821334838867e-01,6.852735280990600586e-01,6.797555685043334961e-01,2.236003398895263672e+00,2.235749483108520508e+00,2.235495567321777344e+00,2.235242128372192383e+00,2.234988451004028320e+00,2.234734773635864258e+00
1.988001942634582520e+00,1.987799406051635742e+00,1.987596631050109863e+00,1.987394094467163086e+00,1.987191677093505859e+00,1.986989021301269531e+00,1.986786723136901855e+00,1.986585140228271484e+00,1.986384749412536621e+00,1.986184358596801758e+00,1.985984086990356445e+00,1.985783815383911133e+00,1.985583543777465820e+00,1.985383629798889160e+00,1.985183477401733398e+00,1.984983325004577637e+00,1.984783291816711426e+00,1.984583258628845215e+00,1.984383463859558105e+00,1.984183549880981445e+00,1.983983635902404785e+00,1.983783721923828125e+00,1.983583927154541016e+00,1.983384370803833008e+00,1.983184576034545898e+00,1.982984900474548340e+00,1.982785224914550781e+00,1.982585549354553223e+00,1.982385993003845215e+00,1.982186675071716309e+00,1.981987237930297852e+00,1.981787681579589844e+00,1.981588244438171387e+00,1.981388926506042480e+00,1.981189727783203125e+00,1.980990529060363770e+00,1.980791211128234863e+00,1.980592012405395508e+00,1.980392813682556152e+00,1.980193853378295898e+00,1.979994773864746094e+00,1.979795694351196289e+00,1.979596614837646484e+00,1.979397654533386230e+00,1.979198932647705078e+00,1.978999972343444824e+00,1.978801131248474121e+00,1.978602290153503418e+00,1.978403568267822266e+00,1.978204727172851562e+00,1.978006362915039062e+00,1.977807641029357910e+00,1.977609038352966309e+00,1.977410435676574707e+00,1.977211833000183105e+00,1.977013587951660156e+00,1.976815104484558105e+00,1.976616621017456055e+00,1.976418256759643555e+00,1.976219892501831055e+00,1.976021885871887207e+00,1.975823521614074707e+00,1.975625395774841309e+00,1.975427150726318359e+00,7.689230442047119141e-01,7.443594932556152344e-01,7.343497276306152344e-01,7.246481776237487793e-01,7.153428792953491211e-01,7.062735557556152344e-01,6.974312663078308105e-01,6.946189999580383301e-01,6.927379369735717773e-01,6.870996356010437012e-01,1.973250150680541992e+00,1.973052382469177246e+00,1.972854971885681152e+00,1.972657322883605957e+00,1.972459673881530762e+00,1.972262144088745117e+00
1.777571320533752441e+00,1.777409434318542480e+00,1.777247309684753418e+00,1.777085423469543457e+00,1.776923537254333496e+00,1.776761531829833984e+00,1.776599645614624023e+00,1.776437878608703613e+00,1.776275992393493652e+00,1.776114225387573242e+00,1.775952577590942383e+00,1.775790691375732422e+00,1.775629043579101562e+00,1.775467514991760254e+00,1.775305747985839844e+00,1.775145292282104492e+00,1.774985313415527344e+00,1.774825572967529297e+00,1.774665594100952148e+00,1.774505615234375000e+00,1.774345755577087402e+00,1.774185895919799805e+00,1.774026274681091309e+00,1.773866415023803711e+00,1.773706674575805664e+00,1.773546934127807617e+00,1.773387193679809570e+00,1.773227453231811523e+00,1.773067951202392578e+00,1.772908329963684082e+00,1.772748708724975586e+00,1.772589206695556641e+00,1.772429585456848145e+00,1.772270321846008301e+00,1.772110819816589355e+00,1.771951317787170410e+00,1.771791934967041016e+00,1.771632432937622070e+00,1.771473288536071777e+00,1.771313905715942383e+00,1.771154642105102539e+00,1.770995259284973145e+00,1.770835995674133301e+00,1.770676970481872559e+00,1.770517826080322266e+00,1.770358562469482422e+00,1.770199418067932129e+00,1.770040273666381836e+00,1.769881248474121094e+00,1.769722342491149902e+00,1.769563317298889160e+00,1.769404292106628418e+00,1.769245386123657227e+00,1.769086360931396484e+00,1.768927693367004395e+00,1.768768787384033203e+00,1.768609881401062012e+00,1.768451094627380371e+00,1.768292188644409180e+00,1.768133640289306641e+00,1.767974853515625000e+00,1.767816185951232910e+00,1.767657518386840820e+00,1.767498850822448730e+00,7.704969048500061035e-01,7.498422861099243164e-01,7.397434115409851074e-01,7.300490140914916992e-01,7.206054329872131348e-01,7.114030122756958008e-01,7.024326324462890625e-01,7.031900286674499512e-01,7.003667354583740234e-01,1.765914082527160645e+00,1.765755772590637207e+00,1.765597701072692871e+00,1.765439391136169434e+00,1.765281081199645996e+00,1.765122890472412109e+00,1.764964699745178223e+00
1.607424974441528320e+00,1.607292532920837402e+00,1.607160091400146484e+00,1.607027530670166016e+00,1.606895208358764648e+00,1.606762766838073730e+00,1.606630325317382812e+00,1.606498003005981445e+00,1.606365680694580078e+00,1.606233358383178711e+00,1.606101036071777344e+00,1.605968832969665527e+00,1.605836510658264160e+00,1.605704307556152344e+00,1.605571985244750977e+00,1.605439901351928711e+00,1.605307817459106445e+00,1.605175495147705078e+00,1.605043530464172363e+00,1.604911446571350098e+00,1.604779243469238281e+00,1.604647278785705566e+00,1.604515433311462402e+00,1.604384660720825195e+00,1.604254007339477539e+00,1.604123353958129883e+00,1.603992700576782227e+00,1.603862166404724121e+00,1.603731513023376465e+00,1.603600978851318359e+00,1.603470325469970703e+00,1.603339791297912598e+00,1.603209376335144043e+00,1.603078961372375488e+00,1.602948427200317383e+00,1.602817893028259277e+00,1.602687478065490723e+00,1.602557182312011719e+00,1.602426767349243164e+00,1.602296352386474609e+00,1.602166056632995605e+00,1.602035641670227051e+00,1.601905465126037598e+00,1.601775169372558594e+00,1.601644873619079590e+00,1.601514697074890137e+00,1.601384401321411133e+00,1.601254224777221680e+00,1.601124167442321777e+00,1.600993990898132324e+00,1.600863814353942871e+00,1.600733757019042969e+00,1.600603580474853516e+00,1.600473642349243164e+00,1.600343585014343262e+00,1.600213527679443359e+00,1.600083470344543457e+00,1.599953413009643555e+00,1.599823594093322754e+00,1.599693655967712402e+00,1.599563717842102051e+00,1.599433779716491699e+00,1.599303960800170898e+00,1.599174141883850098e+00,8.135821819305419922e-01,7.554809451103210449e-01,7.453724741935729980e-01,7.355309128761291504e-01,7.259459495544433594e-01,7.166075110435485840e-01,7.099304199218750000e-01,7.119752764701843262e-01,7.081654071807861328e-01,1.597876667976379395e+00,1.597747206687927246e+00,1.597617506980895996e+00,1.597487926483154297e+00,1.597358345985412598e+00,1.597228765487670898e+00,1.597099423408508301e+00
1.467005491256713867e+00,1.466895103454589844e+00,1.466784834861755371e+00,1.466674447059631348e+00,1.466564059257507324e+00,1.466453909873962402e+00,1.466343641281127930e+00,1.466233253479003906e+00,1.466123104095458984e+00,1.466012835502624512e+00,1.465902686119079590e+00,1.465792536735534668e+00,1.465682268142700195e+00,1.465572118759155273e+00,1.465462088584899902e+00,1.465351819992065430e+00,1.465241789817810059e+00,1.465131759643554688e+00,1.465021610260009766e+00,1.464911580085754395e+00,1.464801549911499023e+00,1.464691400527954102e+00,1.464581489562988281e+00,1.464471459388732910e+00,1.464361548423767090e+00,1.464251637458801270e+00,1.464141607284545898e+00,1.464031696319580078e+00,1.463921785354614258e+00,1.463811874389648438e+00,1.463702559471130371e+00,1.463593840599060059e+00,1.463485121726989746e+00,1.463376283645629883e+00,1.463267564773559570e+00,1.463158845901489258e+00,1.463050246238708496e+00,1.462941527366638184e+00,1.462832927703857422e+00,1.462724208831787109e+00,1.462615609169006348e+00,1.462507128715515137e+00,1.462398529052734375e+00,1.462289929389953613e+00,1.462181329727172852e+00,1.462072730064392090e+00,1.461964249610900879e+00,1.461855769157409668e+00,1.461747288703918457e+00,1.461638808250427246e+00,1.461530327796936035e+00,1.461421847343444824e+00,1.461313486099243164e+00,1.461205124855041504e+00,1.461096644401550293e+00,1.460988283157348633e+00,1.460879921913146973e+00,1.460771560668945312e+00,1.460663318634033203e+00,1.460554957389831543e+00,1.460446596145629883e+00,1.460338354110717773e+00,1.460229992866516113e+00,1.460121870040893555e+00,7.975938320159912109e-01,7.745010256767272949e-01,7.596840858459472656e-01,7.410957813262939453e-01,7.313661575317382812e-01,7.218887209892272949e-01,7.188858985900878906e-01,7.209828495979309082e-01,1.459148287773132324e+00,1.459040284156799316e+00,1.458932161331176758e+00,1.458824038505554199e+00,1.458716034889221191e+00,1.458607912063598633e+00,1.458500027656555176e+00,1.458392024040222168e+00
1.349148154258728027e+00,1.349054813385009766e+00,1.348961472511291504e+00,1.348868250846862793e+00,1.348774909973144531e+00,1.348681569099426270e+00,1.348588347434997559e+00,1.348495006561279297e+00,1.348401784896850586e+00,1.348308682441711426e+00,1.348215341567993164e+00,1.348122119903564453e+00,1.348029017448425293e+00,1.347935795783996582e+00,1.347842693328857422e+00,1.347749471664428711e+00,1.347656250000000000e+00,1.347563266754150391e+00,1.347470045089721680e+00,1.347376942634582520e+00,1.347283959388732910e+00,1.347190856933593750e+00,1.347097754478454590e+00,1.347004771232604980e+00,1.346911668777465820e+00,1.346818685531616211e+00,1.346725702285766602e+00,1.346632599830627441e+00,1.346539735794067383e+00,1.346446752548217773e+00,1.346353769302368164e+00,1.346260786056518555e+00,1.346167802810668945e+00,1.346074938774108887e+00,1.345982074737548828e+00,1.345889091491699219e+00,1.345796227455139160e+00,1.345703363418579102e+00,1.345611333847045898e+00,1.345519423484802246e+00,1.345427513122558594e+00,1.345335602760314941e+00,1.345243692398071289e+00,1.345151782035827637e+00,1.345059990882873535e+00,1.344968080520629883e+00,1.344876289367675781e+00,1.344784498214721680e+00,1.344692707061767578e+00,1.344600796699523926e+00,1.344509005546569824e+00,1.344417333602905273e+00,1.344325542449951172e+00,1.344233751296997070e+00,1.344142079353332520e+00,1.344050288200378418e+00,1.343958616256713867e+00,1.343866944313049316e+00,1.343775272369384766e+00,1.343683481216430664e+00,1.343591809272766113e+00,1.343500256538391113e+00,1.343408584594726562e+00,8.355308771133422852e-01,7.976107001304626465e-01,7.787197232246398926e-01,7.645876407623291016e-01,7.570115923881530762e-01,7.504346370697021484e-01,7.272483110427856445e-01,7.280702590942382812e-01,7.302212119102478027e-01,1.342492938041687012e+00,1.342401385307312012e+00,1.342309951782226562e+00,1.342218399047851562e+00,1.342126965522766113e+00,1.342035531997680664e+00,1.341944098472595215e+00,1.341852664947509766e+00
1.248819589614868164e+00,1.248739719390869141e+00,1.248659729957580566e+00,1.248579740524291992e+00,1.248499870300292969e+00,1.248419880867004395e+00,1.248340010643005371e+00,1.248260140419006348e+00,1.248180150985717773e+00,1.248100280761718750e+00,1.248020410537719727e+00,1.247940540313720703e+00,1.247860670089721680e+00,1.247780919075012207e+00,1.247700929641723633e+00,1.247621178627014160e+00,1.247541308403015137e+00,1.247461557388305664e+00,1.247381806373596191e+00,1.247301936149597168e+00,1.247222185134887695e+00,1.247142434120178223e+00,1.247062563896179199e+00,1.246982932090759277e+00,1.246903181076049805e+00,1.246823430061340332e+00,1.246743679046630859e+00,1.246664047241210938e+00,1.246584296226501465e+00,1.246504664421081543e+00,1.246424913406372070e+00,1.246345281600952148e+00,1.246265649795532227e+00,1.246186017990112305e+00,1.246106386184692383e+00,1.246026754379272461e+00,1.245947122573852539e+00,1.245867490768432617e+00,1.245787978172302246e+00,1.245708346366882324e+00,1.245628833770751953e+00,1.245549201965332031e+00,1.245469689369201660e+00,1.245390176773071289e+00,1.245310544967651367e+00,1.245231389999389648e+00,1.245152592658996582e+00,1.245073914527893066e+00,1.244995117187500000e+00,1.244916439056396484e+00,1.244837880134582520e+00,1.244759082794189453e+00,1.244680404663085938e+00,1.244601845741271973e+00,1.244523167610168457e+00,1.244444608688354492e+00,1.244365930557250977e+00,1.244287252426147461e+00,1.244208693504333496e+00,1.244130015373229980e+00,1.244051456451416016e+00,1.243973016738891602e+00,1.243894338607788086e+00,8.278051018714904785e-01,7.975314259529113770e-01,7.806918621063232422e-01,7.685387134552001953e-01,7.618074417114257812e-01,7.553074359893798828e-01,7.521446347236633301e-01,1.243266224861145020e+00,1.243187785148620605e+00,1.243109345436096191e+00,1.243030905723571777e+00,1.242952346801757812e+00,1.242873907089233398e+00,1.242795586585998535e+00,1.242717146873474121e+00,1.242638707160949707e+00,1.242560386657714844e+00
1.162379980087280273e+00,1.162310719490051270e+00,1.162241458892822266e+00,1.162172198295593262e+00,1.162102937698364258e+00,1.162033677101135254e+00,1.161964416503906250e+00,1.161895275115966797e+00,1.161826014518737793e+00,1.161756753921508789e+00,1.161687612533569336e+00,1.161618351936340332e+00,1.161549210548400879e+00,1.161480069160461426e+00,1.161410808563232422e+00,1.161341667175292969e+00,1.161272525787353516e+00,1.161203265190124512e+00,1.161134243011474609e+00,1.161065101623535156e+00,1.160995960235595703e+00,1.160926818847656250e+00,1.160857677459716797e+00,1.160788536071777344e+00,1.160719513893127441e+00,1.160650372505187988e+00,1.160581350326538086e+00,1.160512328147888184e+00,1.160443186759948730e+00,1.160374164581298828e+00,1.160305142402648926e+00,1.160236001014709473e+00,1.160166978836059570e+00,1.160098075866699219e+00,1.160028934478759766e+00,1.159960031509399414e+00,1.159891009330749512e+00,1.159821987152099609e+00,1.159753084182739258e+00,1.159684062004089355e+00,1.159615039825439453e+00,1.159546136856079102e+00,1.159477114677429199e+00,1.159408211708068848e+00,1.159339308738708496e+00,1.159270405769348145e+00,1.159201502799987793e+00,1.159132599830627441e+00,1.159063696861267090e+00,1.158994793891906738e+00,1.158925890922546387e+00,1.158856987953186035e+00,1.158788204193115234e+00,1.158719778060913086e+00,1.158651590347290039e+00,1.158583521842956543e+00,1.158515334129333496e+00,1.158447146415710449e+00,1.158378958702087402e+00,1.158310890197753906e+00,1.158242821693420410e+00,1.158174753189086914e+00,1.158106565475463867e+00,8.249806165695190430e-01,7.981865406036376953e-01,7.810060381889343262e-01,7.695409655570983887e-01,7.608640193939208984e-01,7.559034228324890137e-01,7.529695034027099609e-01,7.578240633010864258e-01,1.157494068145751953e+00,1.157426118850708008e+00,1.157358050346374512e+00,1.157289981842041016e+00,1.157222151756286621e+00,1.157154083251953125e+00,1.157086133956909180e+00,1.157018065452575684e+00,1.156950116157531738e+00
1.087131977081298828e+00,1.087071299552917480e+00,1.087010741233825684e+00,1.086950182914733887e+00,1.086889505386352539e+00,1.086828947067260742e+00,1.086768388748168945e+00,1.086707830429077148e+00,1.086647272109985352e+00,1.086586713790893555e+00,1.086526155471801758e+00,1.086465716361999512e+00,1.086405158042907715e+00,1.086344599723815918e+00,1.086284160614013672e+00,1.086223602294921875e+00,1.086163043975830078e+00,1.086102604866027832e+00,1.086042046546936035e+00,1.085981607437133789e+00,1.085921168327331543e+00,1.085860610008239746e+00,1.085800290107727051e+00,1.085739731788635254e+00,1.085679292678833008e+00,1.085618853569030762e+00,1.085558414459228516e+00,1.085497975349426270e+00,1.085437655448913574e+00,1.085377097129821777e+00,1.085316777229309082e+00,1.085256457328796387e+00,1.085196018218994141e+00,1.085135579109191895e+00,1.085075259208679199e+00,1.085014820098876953e+00,1.084954500198364258e+00,1.084894061088562012e+00,1.084833741188049316e+00,1.084773421287536621e+00,1.084712982177734375e+00,1.084652662277221680e+00,1.084592461585998535e+00,1.084532022476196289e+00,1.084471702575683594e+00,1.084411501884460449e+00,1.084351181983947754e+00,1.084290862083435059e+00,1.084230542182922363e+00,1.084170222282409668e+00,1.084110021591186523e+00,1.084049701690673828e+00,1.083989500999450684e+00,1.083929300308227539e+00,1.083868980407714844e+00,1.083808779716491699e+00,1.083748579025268555e+00,1.083688259124755859e+00,1.083628058433532715e+00,1.083567857742309570e+00,1.083507657051086426e+00,1.083448052406311035e+00,1.083388447761535645e+00,8.223038911819458008e-01,7.985736727714538574e-01,7.782635688781738281e-01,7.663923501968383789e-01,7.564605474472045898e-01,7.491257190704345703e-01,7.426936626434326172e-01,7.425423264503479004e-01,7.539445757865905762e-01,1.082792878150939941e+00,1.082733392715454102e+00,1.082673907279968262e+00,1.082614421844482422e+00,1.082554817199707031e+00,1.082495331764221191e+00,1.082435846328735352e+00,1.082376360893249512e+00
1.021034002304077148e+00,1.020980596542358398e+00,1.020927071571350098e+00,1.020873665809631348e+00,1.020820260047912598e+00,1.020766854286193848e+00,1.020713448524475098e+00,1.020659923553466797e+00,1.020606517791748047e+00,1.020553112030029297e+00,1.020499706268310547e+00,1.020446300506591797e+00,1.020392894744873047e+00,1.020339488983154297e+00,1.020286202430725098e+00,1.020232796669006348e+00,1.020179390907287598e+00,1.020125985145568848e+00,1.020072579383850098e+00,1.020019292831420898e+00,1.019966006278991699e+00,1.019912600517272949e+00,1.019859313964843750e+00,1.019805908203125000e+00,1.019752621650695801e+00,1.019699215888977051e+00,1.019645929336547852e+00,1.019592642784118652e+00,1.019539356231689453e+00,1.019486069679260254e+00,1.019432783126831055e+00,1.019379496574401855e+00,1.019326090812683105e+00,1.019272923469543457e+00,1.019219636917114258e+00,1.019166350364685059e+00,1.019113063812255859e+00,1.019059896469116211e+00,1.019006490707397461e+00,1.018953323364257812e+00,1.018900156021118164e+00,1.018846869468688965e+00,1.018793582916259766e+00,1.018740415573120117e+00,1.018687129020690918e+00,1.018633961677551270e+00,1.018580675125122070e+00,1.018527507781982422e+00,1.018474340438842773e+00,1.018421173095703125e+00,1.018368005752563477e+00,1.018314838409423828e+00,1.018261551856994629e+00,1.018208503723144531e+00,1.018155336380004883e+00,1.018102169036865234e+00,1.018049001693725586e+00,1.017995834350585938e+00,1.017942667007446289e+00,1.017889618873596191e+00,1.017836451530456543e+00,1.017783284187316895e+00,1.017730236053466797e+00,1.017677068710327148e+00,7.971400618553161621e-01,7.775255441665649414e-01,7.630066275596618652e-01,7.526871562004089355e-01,7.442493438720703125e-01,7.378258705139160156e-01,7.342202663421630859e-01,7.341742515563964844e-01,1.017201662063598633e+00,1.017149209976196289e+00,1.017096638679504395e+00,1.017044067382812500e+00,1.016991615295410156e+00,1.016939043998718262e+00,1.016886591911315918e+00,1.016834139823913574e+00
9.625130295753479004e-01,9.624655246734619141e-01,9.624180793762207031e-01,9.623705744743347168e-01,9.623231291770935059e-01,9.622755050659179688e-01,9.622280597686767578e-01,9.621806144714355469e-01,9.621331691741943359e-01,9.620857238769531250e-01,9.620382785797119141e-01,9.619907140731811523e-01,9.619432687759399414e-01,9.618958234786987305e-01,9.618484377861022949e-01,9.618009924888610840e-01,9.617534875869750977e-01,9.617060422897338867e-01,9.616586565971374512e-01,9.616112709045410156e-01,9.615638852119445801e-01,9.615164995193481445e-01,9.614689946174621582e-01,9.614216089248657227e-01,9.613742232322692871e-01,9.613268375396728516e-01,9.612794518470764160e-01,9.612321257591247559e-01,9.611846208572387695e-01,9.611372947692871094e-01,9.610899090766906738e-01,9.610425829887390137e-01,9.609952569007873535e-01,9.609478116035461426e-01,9.609004855155944824e-01,9.608531594276428223e-01,9.608058333396911621e-01,9.607585072517395020e-01,9.607111811637878418e-01,9.606637358665466309e-01,9.606164693832397461e-01,9.605691432952880859e-01,9.605218768119812012e-01,9.604745507240295410e-01,9.604271650314331055e-01,9.603798985481262207e-01,9.603326320648193359e-01,9.602853655815124512e-01,9.602380990982055664e-01,9.601908326148986816e-01,9.601434469223022461e-01,9.600961804389953613e-01,9.600489735603332520e-01,9.600017070770263672e-01,9.599544405937194824e-01,9.599071145057678223e-01,9.598599076271057129e-01,9.598126411437988281e-01,9.597654342651367188e-01,9.597182273864746094e-01,9.596710205078125000e-01,9.596236944198608398e-01,9.595764875411987305e-01,9.595292806625366211e-01,9.594821333885192871e-01,7.740787863731384277e-01,7.569238543510437012e-01,7.480147480964660645e-01,7.399744391441345215e-01,7.333026528358459473e-01,7.285888791084289551e-01,7.260282635688781738e-01,7.263600230216979980e-01,9.590573310852050781e-01,9.590102434158325195e-01,9.589630961418151855e-01,9.589162468910217285e-01,9.588695764541625977e-01,9.588229656219482422e-01,9.587762951850891113e-01
9.103367328643798828e-01,9.102942347526550293e-01,9.102517366409301758e-01,9.102091789245605469e-01,9.101667404174804688e-01,9.101242423057556152e-01,9.100818037986755371e-01,9.100393652915954590e-01,9.099968671798706055e-01,9.099543690681457520e-01,9.099119305610656738e-01,9.098694920539855957e-01,9.098270535469055176e-01,9.097846150398254395e-01,9.097420573234558105e-01,9.096996784210205078e-01,9.096572399139404297e-01,9.096148014068603516e-01,9.095724225044250488e-01,9.095299839973449707e-01,9.094874858856201172e-01,9.094451069831848145e-01,9.094027280807495117e-01,9.093603491783142090e-01,9.093179106712341309e-01,9.092754721641540527e-01,9.092330932617187500e-01,9.091907143592834473e-01,9.091483354568481445e-01,9.091059565544128418e-01,9.090635776519775391e-01,9.090211391448974609e-01,9.089787602424621582e-01,9.089364409446716309e-01,9.088940620422363281e-01,9.088517427444458008e-01,9.088094234466552734e-01,9.087669849395751953e-01,9.087246656417846680e-01,9.086822867393493652e-01,9.086399674415588379e-01,9.085976481437683105e-01,9.085552692413330078e-01,9.085129499435424805e-01,9.084706306457519531e-01,9.084283113479614258e-01,9.083860516548156738e-01,9.083437323570251465e-01,9.083013534545898438e-01,9.082590937614440918e-01,9.082167744636535645e-01,9.081745147705078125e-01,9.081322550773620605e-01,9.080898761749267578e-01,9.080475568771362305e-01,9.080052971839904785e-01,9.079630374908447266e-01,9.079208374023437500e-01,9.078785777091979980e-01,9.078361988067626953e-01,9.077939391136169434e-01,9.077517390251159668e-01,9.077094793319702148e-01,9.076672196388244629e-01,9.076250195503234863e-01,9.075827002525329590e-01,7.535178065299987793e-01,7.423862814903259277e-01,7.342064976692199707e-01,7.279706597328186035e-01,7.230207324028015137e-01,7.187986969947814941e-01,7.173050045967102051e-01,7.178744077682495117e-01,9.072027802467346191e-01,9.071605801582336426e-01,9.071182608604431152e-01,9.070761203765869141e-01,9.070339202880859375e-01,9.069917798042297363e-01
8.635262846946716309e-01,8.634880185127258301e-01,8.634497523307800293e-01,8.634115457534790039e-01,8.633733391761779785e-01,8.633351325988769531e-01,8.632969260215759277e-01,8.632586598396301270e-01,8.632204532623291016e-01,8.631822466850280762e-01,8.631440401077270508e-01,8.631058931350708008e-01,8.630676269531250000e-01,8.630294203758239746e-01,8.629912137985229492e-01,8.629530668258666992e-01,8.629149198532104492e-01,8.628767132759094238e-01,8.628384470939636230e-01,8.628003001213073730e-01,8.627621531486511230e-01,8.627240061759948730e-01,8.626858592033386230e-01,8.626475930213928223e-01,8.626094460487365723e-01,8.625713586807250977e-01,8.625332117080688477e-01,8.624950647354125977e-01,8.624569177627563477e-01,8.624187111854553223e-01,8.623805642127990723e-01,8.623424768447875977e-01,8.623043298721313477e-01,8.622662425041198730e-01,8.622280955314636230e-01,8.621899485588073730e-01,8.621518015861511230e-01,8.621137142181396484e-01,8.620756268501281738e-01,8.620375394821166992e-01,8.619993329048156738e-01,8.619612455368041992e-01,8.619232177734375000e-01,8.618851304054260254e-01,8.618470430374145508e-01,8.618089556694030762e-01,8.617708086967468262e-01,8.617327213287353516e-01,8.616946935653686523e-01,8.616566061973571777e-01,8.616185784339904785e-01,8.615804314613342285e-01,8.615423440933227539e-01,8.615043163299560547e-01,8.614662885665893555e-01,8.614282608032226562e-01,8.613901734352111816e-01,8.613520860671997070e-01,8.613140583038330078e-01,8.612760305404663086e-01,8.612380027770996094e-01,8.611999750137329102e-01,8.611618876457214355e-01,8.611238598823547363e-01,8.610858321189880371e-01,8.610478639602661133e-01,7.563605308532714844e-01,7.351129651069641113e-01,7.268214821815490723e-01,7.204486727714538574e-01,7.163843512535095215e-01,7.124860286712646484e-01,7.094192504882812500e-01,7.087433338165283203e-01,7.089134454727172852e-01,8.606677651405334473e-01,8.606297969818115234e-01,8.605918288230895996e-01,8.605539202690124512e-01,8.605158329010009766e-01
8.212944269180297852e-01,8.212598562240600586e-01,8.212252855300903320e-01,8.211907148361206055e-01,8.211562037467956543e-01,8.211215138435363770e-01,8.210870027542114258e-01,8.210524320602416992e-01,8.210178613662719727e-01,8.209832906723022461e-01,8.209486603736877441e-01,8.209141492843627930e-01,8.208795785903930664e-01,8.208450675010681152e-01,8.208104968070983887e-01,8.207759857177734375e-01,8.207413554191589355e-01,8.207068443298339844e-01,8.206723332405090332e-01,8.206378221511840820e-01,8.206033110618591309e-01,8.205686807632446289e-01,8.205341696739196777e-01,8.204996585845947266e-01,8.204651474952697754e-01,8.204306364059448242e-01,8.203961849212646484e-01,8.203615546226501465e-01,8.203271031379699707e-01,8.202925920486450195e-01,8.202580809593200684e-01,8.202236294746398926e-01,8.201890587806701660e-01,8.201545476913452148e-01,8.201200962066650391e-01,8.200855851173400879e-01,8.200511336326599121e-01,8.200166821479797363e-01,8.199821114540100098e-01,8.199476599693298340e-01,8.199132084846496582e-01,8.198787569999694824e-01,8.198443055152893066e-01,8.198098540306091309e-01,8.197752833366394043e-01,8.197408318519592285e-01,8.197063803672790527e-01,8.196719884872436523e-01,8.196375370025634766e-01,8.196030259132385254e-01,8.195685744285583496e-01,8.195341229438781738e-01,8.194997310638427734e-01,8.194652795791625977e-01,8.194308876991271973e-01,8.193963766098022461e-01,8.193619847297668457e-01,8.193275332450866699e-01,8.192931413650512695e-01,8.192587494850158691e-01,8.192242383956909180e-01,8.191898465156555176e-01,8.191554546356201172e-01,8.191210627555847168e-01,8.190866708755493164e-01,8.190522789955139160e-01,8.190178275108337402e-01,7.300360798835754395e-01,7.190194129943847656e-01,7.122485637664794922e-01,7.085891366004943848e-01,7.052472233772277832e-01,7.020921707153320312e-01,7.006447911262512207e-01,7.012326717376708984e-01,7.030298113822937012e-01,8.186740279197692871e-01,8.186395764350891113e-01,8.186052441596984863e-01,8.185709118843078613e-01
7.830008864402770996e-01,7.829694747924804688e-01,7.829380035400390625e-01,7.829065322875976562e-01,7.828751206398010254e-01,7.828437089920043945e-01,7.828122973442077637e-01,7.827808856964111328e-01,7.827494144439697266e-01,7.827180027961730957e-01,7.826865911483764648e-01,7.826551795005798340e-01,7.826238274574279785e-01,7.825924158096313477e-01,7.825609445571899414e-01,7.825295329093933105e-01,7.824981808662414551e-01,7.824667692184448242e-01,7.824354171752929688e-01,7.824039459228515625e-01,7.823725938796997070e-01,7.823411822319030762e-01,7.823098301887512207e-01,7.822784185409545898e-01,7.822470664978027344e-01,7.822156548500061035e-01,7.821843028068542480e-01,7.821528911590576172e-01,7.821215391159057617e-01,7.820901870727539062e-01,7.820587754249572754e-01,7.820274233818054199e-01,7.819960713386535645e-01,7.819647192955017090e-01,7.819333672523498535e-01,7.819020748138427734e-01,7.818706631660461426e-01,7.818393111228942871e-01,7.818079590797424316e-01,7.817766666412353516e-01,7.817453145980834961e-01,7.817139625549316406e-01,7.816826105117797852e-01,7.816512584686279297e-01,7.816199660301208496e-01,7.815886139869689941e-01,7.815573215484619141e-01,7.815259695053100586e-01,7.814946174621582031e-01,7.814633250236511230e-01,7.814320325851440430e-01,7.814007401466369629e-01,7.813694477081298828e-01,7.813380360603332520e-01,7.813067436218261719e-01,7.812754511833190918e-01,7.812441587448120117e-01,7.812129259109497070e-01,7.811815738677978516e-01,7.811502814292907715e-01,7.811189889907836914e-01,7.810876965522766113e-01,7.810564637184143066e-01,7.810251712799072266e-01,7.809938192367553711e-01,7.809625864028930664e-01,7.809312939643859863e-01,7.809000611305236816e-01,7.148062586784362793e-01,7.051378488540649414e-01,7.007151246070861816e-01,6.980816125869750977e-01,6.956616640090942383e-01,6.937689781188964844e-01,6.937467455863952637e-01,6.958335041999816895e-01,6.902581453323364258e-01,7.805874347686767578e-01,7.805562019348144531e-01,7.805249691009521484e-01
7.481191158294677734e-01,7.480904459953308105e-01,7.480617761611938477e-01,7.480330467224121094e-01,7.480043768882751465e-01,7.479757070541381836e-01,7.479469776153564453e-01,7.479183077812194824e-01,7.478896379470825195e-01,7.478609681129455566e-01,7.478322982788085938e-01,7.478036284446716309e-01,7.477748990058898926e-01,7.477462291717529297e-01,7.477175593376159668e-01,7.476888895034790039e-01,7.476602196693420410e-01,7.476315498352050781e-01,7.476028800010681152e-01,7.475742101669311523e-01,7.475455999374389648e-01,7.475169301033020020e-01,7.474882602691650391e-01,7.474595904350280762e-01,7.474309206008911133e-01,7.474023103713989258e-01,7.473737001419067383e-01,7.473450303077697754e-01,7.473163604736328125e-01,7.472877502441406250e-01,7.472590804100036621e-01,7.472304701805114746e-01,7.472018599510192871e-01,7.471732497215270996e-01,7.471445798873901367e-01,7.471159696578979492e-01,7.470873594284057617e-01,7.470587491989135742e-01,7.470301389694213867e-01,7.470014691352844238e-01,7.469728589057922363e-01,7.469442486763000488e-01,7.469156384468078613e-01,7.468870282173156738e-01,7.468584775924682617e-01,7.468298077583312988e-01,7.468011975288391113e-01,7.467725872993469238e-01,7.467440366744995117e-01,7.467154264450073242e-01,7.466868758201599121e-01,7.466582059860229492e-01,7.466296553611755371e-01,7.466010451316833496e-01,7.465724945068359375e-01,7.465439438819885254e-01,7.465152740478515625e-01,7.464867234230041504e-01,7.464581727981567383e-01,7.464296221733093262e-01,7.464010715484619141e-01,7.463724613189697266e-01,7.463438510894775391e-01,7.463153004646301270e-01,7.462867498397827148e-01,7.462581992149353027e-01,7.462296485900878906e-01,7.462010383605957031e-01,7.461724877357482910e-01,7.026482224464416504e-01,6.949171423912048340e-01,6.931408643722534180e-01,6.877694129943847656e-01,6.872195601463317871e-01,6.776822209358215332e-01,6.782124638557434082e-01,6.724753379821777344e-01,6.757832765579223633e-01,6.731327176094055176e-01,7.458585500717163086e-01
7.162127494812011719e-01,7.161864638328552246e-01,7.161601781845092773e-01,7.161338925361633301e-01,7.161074876785278320e-01,7.160812616348266602e-01,7.160549759864807129e-01,7.160286903381347656e-01,7.160024046897888184e-01,7.159760594367980957e-01,7.159497737884521484e-01,7.159234881401062012e-01,7.158972024917602539e-01,7.158709764480590820e-01,7.158446907997131348e-01,7.158183455467224121e-01,7.157921195030212402e-01,7.157658338546752930e-01,7.157395482063293457e-01,7.157133221626281738e-01,7.156870365142822266e-01,7.156607508659362793e-01,7.156344652175903320e-01,7.156082391738891602e-01,7.155820131301879883e-01,7.155557274818420410e-01,7.155294418334960938e-01,7.155032157897949219e-01,7.154769301414489746e-01,7.154507040977478027e-01,7.154244780540466309e-01,7.153982520103454590e-01,7.153719663619995117e-01,7.153457403182983398e-01,7.153194546699523926e-01,7.152932286262512207e-01,7.152670025825500488e-01,7.152407169342041016e-01,7.152145504951477051e-01,7.151883244514465332e-01,7.151620984077453613e-01,7.151358723640441895e-01,7.151096463203430176e-01,7.150833606719970703e-01,7.150571942329406738e-01,7.150309681892395020e-01,7.150047421455383301e-01,7.149785757064819336e-01,7.149522900581359863e-01,7.149260640144348145e-01,7.148998975753784180e-01,7.148736715316772461e-01,7.148475050926208496e-01,7.148212790489196777e-01,7.147950530052185059e-01,7.147688865661621094e-01,7.147426605224609375e-01,7.147164940834045410e-01,7.146903276443481445e-01,7.146641016006469727e-01,7.146378755569458008e-01,7.146117091178894043e-01,7.145855426788330078e-01,7.145593762397766113e-01,7.145332098007202148e-01,7.145069837570190430e-01,7.144808173179626465e-01,7.144546508789062500e-01,7.144284844398498535e-01,7.144023180007934570e-01,6.929411292076110840e-01,6.825083494186401367e-01,6.835944056510925293e-01,6.728482842445373535e-01,6.728870272636413574e-01,6.647585630416870117e-01,6.657499670982360840e-01,6.624101400375366211e-01,6.624124050140380859e-01,6.549797058105468750e-01
6.869165897369384766e-01,6.868923902511596680e-01,6.868681311607360840e-01,6.868439912796020508e-01,6.868197917938232422e-01,6.867955923080444336e-01,6.867714524269104004e-01,6.867471933364868164e-01,6.867230534553527832e-01,6.866988539695739746e-01,6.866746544837951660e-01,6.866505146026611328e-01,6.866263747215270996e-01,6.866021156311035156e-01,6.865779757499694824e-01,6.865537762641906738e-01,6.865296363830566406e-01,6.865054965019226074e-01,6.864812374114990234e-01,6.864570975303649902e-01,6.864329576492309570e-01,6.864088177680969238e-01,6.863846182823181152e-01,6.863604784011840820e-01,6.863362789154052734e-01,6.863121390342712402e-01,6.862879991531372070e-01,6.862638592720031738e-01,6.862397193908691406e-01,6.862155795097351074e-01,6.861913800239562988e-01,6.861672401428222656e-01,6.861431002616882324e-01,6.861189603805541992e-01,6.860948801040649414e-01,6.860706806182861328e-01,6.860465407371520996e-01,6.860224008560180664e-01,6.859983205795288086e-01,6.859741806983947754e-01,6.859500408172607422e-01,6.859259009361267090e-01,6.859017610549926758e-01,6.858776807785034180e-01,6.858535408973693848e-01,6.858294010162353516e-01,6.858052611351013184e-01,6.857811808586120605e-01,6.857570409774780273e-01,6.857329607009887695e-01,6.857088208198547363e-01,6.856847405433654785e-01,6.856606006622314453e-01,6.856364607810974121e-01,6.856123805046081543e-01,6.855883002281188965e-01,6.855642199516296387e-01,6.855400800704956055e-01,6.855159401893615723e-01,6.854918599128723145e-01,6.854677796363830566e-01,6.854436993598937988e-01,6.854196190834045410e-01,6.853954792022705078e-01,6.853713989257812500e-01,6.853473186492919922e-01,6.853232383728027344e-01,6.852991580963134766e-01,6.852750778198242188e-01,6.852509975433349609e-01,6.852269172668457031e-01,6.813487410545349121e-01,6.715837717056274414e-01,6.706902980804443359e-01,6.639538407325744629e-01,6.602320671081542969e-01,6.561607122421264648e-01,6.545201539993286133e-01,6.590242385864257812e-01,6.507835984230041504e-01
