1.933787107467651367e+00,1.960502743721008301e+00,1.987968802452087402e+00,2.016215085983276367e+00,2.045275926589965820e+00,2.075186729431152344e+00,2.105985403060913086e+00,2.137711048126220703e+00,2.170404195785522461e+00,2.204113006591796875e+00,2.238885164260864258e+00,2.274772167205810547e+00,2.311828613281250000e+00,2.350111961364746094e+00,2.389684915542602539e+00,2.430613040924072266e+00,2.472967863082885742e+00,2.516824960708618164e+00,2.562265634536743164e+00,2.609377384185791016e+00,2.658253908157348633e+00,2.708996534347534180e+00,2.761714220046997070e+00,2.816524028778076172e+00,2.873553752899169922e+00,2.932940483093261719e+00,2.994833707809448242e+00,3.059395551681518555e+00,3.126802682876586914e+00,3.197246789932250977e+00,3.270937919616699219e+00,3.348104715347290039e+00,3.429000139236450195e+00,3.513901472091674805e+00,3.603113651275634766e+00,3.696974039077758789e+00,3.795855045318603516e+00,3.900171041488647461e+00,4.010382175445556641e+00,4.127003669738769531e+00,4.250610828399658203e+00,4.381850719451904297e+00,4.521453380584716797e+00,4.670243263244628906e+00,4.829159259796142578e+00,4.999271869659423828e+00,5.000000000000000000e+00,5.000000000000000000e+00,5.000000000000000000e+00,5.000000000000000000e+00,5.000000000000000000e+00,5.000000000000000000e+00,5.000000000000000000e+00,5.000000000000000000e+00,2.093843221664428711e+00,2.055766105651855469e+00,2.045045375823974609e+00,2.052886486053466797e+00,2.036505699157714844e+00,2.009366750717163086e+00,1.994061231613159180e+00,1.985353469848632812e+00,1.983188390731811523e+00,1.986856579780578613e+00,1.999613046646118164e+00,2.064565658569335938e+00,2.121008396148681641e+00,5.000000000000000000e+00,5.000000000000000000e+00,5.000000000000000000e+00,5.000000000000000000e+00,5.000000000000000000e+00,5.000000000000000000e+00,5.000000000000000000e+00,5.000000000000000000e+00,5.000000000000000000e+00,5.000000000000000000e+00,5.000000000000000000e+00,5.000000000000000000e+00,5.000000000000000000e+00
1.933758854866027832e+00,1.960472226142883301e+00,1.987934112548828125e+00,2.016177177429199219e+00,2.045236825942993164e+00,2.075146436691284180e+00,2.105943918228149414e+00,2.137669086456298828e+00,2.170364856719970703e+00,2.204076051712036133e+00,2.238847255706787109e+00,2.274733066558837891e+00,2.311788082122802734e+00,2.350070238113403320e+00,2.389641523361206055e+00,2.430568456649780273e+00,2.472921609878540039e+00,2.516777038574218750e+00,2.562216043472290039e+00,2.609325885772705078e+00,2.658200502395629883e+00,2.708940982818603516e+00,2.761656522750854492e+00,2.816463947296142578e+00,2.873491287231445312e+00,2.932875394821166992e+00,2.994765758514404297e+00,3.059324741363525391e+00,3.126728534698486328e+00,3.197169303894042969e+00,3.270856857299804688e+00,3.348021268844604492e+00,3.428913593292236328e+00,3.513810157775878906e+00,3.603018045425415039e+00,3.696872949600219727e+00,3.795748949050903320e+00,3.900058746337890625e+00,4.010263442993164062e+00,4.126877784729003906e+00,4.250477313995361328e+00,4.381709098815917969e+00,4.521302223205566406e+00,4.670082569122314453e+00,4.828987598419189453e+00,4.999087333679199219e+00,5.000000000000000000e+00,5.000000000000000000e+00,5.000000000000000000e+00,5.000000000000000000e+00,5.000000000000000000e+00,5.000000000000000000e+00,5.000000000000000000e+00,5.000000000000000000e+00,2.091974735260009766e+00,2.055375814437866211e+00,2.043006181716918945e+00,2.060542821884155273e+00,2.046878337860107422e+00,2.012856483459472656e+00,1.996001958847045898e+00,1.988808870315551758e+00,1.986445069313049316e+00,1.990934371948242188e+00,2.005120038986206055e+00,2.127647876739501953e+00,2.124359846115112305e+00,5.000000000000000000e+00,5.000000000000000000e+00,5.000000000000000000e+00,5.000000000000000000e+00,5.000000000000000000e+00,5.000000000000000000e+00,5.000000000000000000e+00,5.000000000000000000e+00,5.000000000000000000e+00,5.000000000000000000e+00,5.000000000000000000e+00,5.000000000000000000e+00,5.000000000000000000e+00
1.933730483055114746e+00,1.960443139076232910e+00,1.987904191017150879e+00,2.016145467758178711e+00,2.045200824737548828e+00,2.075106143951416016e+00,2.105902433395385742e+00,2.137626409530639648e+00,2.170320987701416016e+00,2.204030990600585938e+00,2.238804817199707031e+00,2.274693965911865234e+00,2.311747550964355469e+00,2.350028514862060547e+00,2.389598369598388672e+00,2.430523633956909180e+00,2.472875356674194336e+00,2.516729116439819336e+00,2.562166213989257812e+00,2.609274387359619141e+00,2.658146858215332031e+00,2.708885431289672852e+00,2.761598825454711914e+00,2.816404104232788086e+00,2.873428583145141602e+00,2.932810306549072266e+00,2.994698047637939453e+00,3.059253931045532227e+00,3.126654624938964844e+00,3.197091817855834961e+00,3.270775794982910156e+00,3.347936391830444336e+00,3.428825616836547852e+00,3.513719320297241211e+00,3.602922201156616211e+00,3.696772336959838867e+00,3.795642375946044922e+00,3.899946212768554688e+00,4.010144710540771484e+00,4.126752376556396484e+00,4.250343799591064453e+00,4.381567478179931641e+00,4.521151542663574219e+00,4.669921398162841797e+00,4.828815460205078125e+00,4.998902797698974609e+00,5.000000000000000000e+00,5.000000000000000000e+00,5.000000000000000000e+00,5.000000000000000000e+00,5.000000000000000000e+00,5.000000000000000000e+00,5.000000000000000000e+00,5.000000000000000000e+00,2.096533775329589844e+00,2.055811405181884766e+00,2.045471906661987305e+00,2.074537277221679688e+00,2.039170265197753906e+00,2.004563570022583008e+00,1.987057447433471680e+00,1.980947136878967285e+00,1.987517476081848145e+00,1.987314701080322266e+00,1.993272423744201660e+00,2.137797594070434570e+00,2.133306503295898438e+00,5.000000000000000000e+00,5.000000000000000000e+00,5.000000000000000000e+00,5.000000000000000000e+00,5.000000000000000000e+00,5.000000000000000000e+00,5.000000000000000000e+00,5.000000000000000000e+00,5.000000000000000000e+00,5.000000000000000000e+00,5.000000000000000000e+00,5.000000000000000000e+00,5.000000000000000000e+00
1.933702230453491211e+00,1.960414052009582520e+00,1.987874269485473633e+00,2.016114711761474609e+00,2.045169115066528320e+00,2.075073003768920898e+00,2.105864763259887695e+00,2.137583732604980469e+00,2.170276880264282227e+00,2.203985452651977539e+00,2.238757848739624023e+00,2.274645090103149414e+00,2.311701536178588867e+00,2.349985361099243164e+00,2.389555215835571289e+00,2.430479049682617188e+00,2.472828865051269531e+00,2.516681194305419922e+00,2.562116622924804688e+00,2.609222650527954102e+00,2.658093452453613281e+00,2.708829879760742188e+00,2.761540651321411133e+00,2.816344022750854492e+00,2.873366117477416992e+00,2.932745218276977539e+00,2.994630098342895508e+00,3.059183120727539062e+00,3.126580715179443359e+00,3.197014570236206055e+00,3.270694971084594727e+00,3.347851514816284180e+00,3.428736686706542969e+00,3.513627052307128906e+00,3.602826356887817383e+00,3.696671485900878906e+00,3.795536041259765625e+00,3.899834394454956055e+00,4.010025978088378906e+00,4.126626491546630859e+00,4.250210762023925781e+00,4.381425857543945312e+00,4.521000862121582031e+00,4.669760704040527344e+00,4.828643321990966797e+00,4.998718738555908203e+00,5.000000000000000000e+00,5.000000000000000000e+00,5.000000000000000000e+00,5.000000000000000000e+00,5.000000000000000000e+00,5.000000000000000000e+00,5.000000000000000000e+00,5.000000000000000000e+00,2.101755619049072266e+00,2.055485248565673828e+00,2.052866220474243164e+00,2.075868844985961914e+00,2.032548189163208008e+00,1.999539613723754883e+00,1.980417609214782715e+00,1.977868318557739258e+00,1.979115962982177734e+00,1.981695532798767090e+00,1.990249395370483398e+00,2.079997539520263672e+00,2.145549774169921875e+00,5.000000000000000000e+00,5.000000000000000000e+00,5.000000000000000000e+00,5.000000000000000000e+00,5.000000000000000000e+00,5.000000000000000000e+00,5.000000000000000000e+00,5.000000000000000000e+00,5.000000000000000000e+00,5.000000000000000000e+00,5.000000000000000000e+00,5.000000000000000000e+00,5.000000000000000000e+00
1.933673858642578125e+00,1.960384964942932129e+00,1.987844347953796387e+00,2.016083717346191406e+00,2.045137405395507812e+00,2.075040578842163086e+00,2.105831146240234375e+00,2.137549400329589844e+00,2.170237541198730469e+00,2.203940868377685547e+00,2.238711118698120117e+00,2.274596691131591797e+00,2.311651706695556641e+00,2.349933862686157227e+00,2.389505386352539062e+00,2.430432319641113281e+00,2.472782611846923828e+00,2.516633272171020508e+00,2.562066793441772461e+00,2.609171152114868164e+00,2.658040046691894531e+00,2.708774328231811523e+00,2.761482954025268555e+00,2.816283941268920898e+00,2.873303651809692383e+00,2.932680130004882812e+00,2.994562149047851562e+00,3.059112310409545898e+00,3.126506567001342773e+00,3.196937084197998047e+00,3.270613908767700195e+00,3.347766637802124023e+00,3.428647518157958984e+00,3.513533592224121094e+00,3.602729082107543945e+00,3.696570396423339844e+00,3.795429944992065430e+00,3.899721860885620117e+00,4.009907722473144531e+00,4.126501083374023438e+00,4.250077724456787109e+00,4.381284236907958984e+00,4.520849704742431641e+00,4.669600009918212891e+00,4.828471660614013672e+00,4.998534202575683594e+00,5.000000000000000000e+00,5.000000000000000000e+00,5.000000000000000000e+00,5.000000000000000000e+00,5.000000000000000000e+00,5.000000000000000000e+00,5.000000000000000000e+00,5.000000000000000000e+00,2.105423450469970703e+00,2.036257505416870117e+00,2.030244112014770508e+00,2.069026947021484375e+00,2.029924392700195312e+00,2.010995626449584961e+00,1.992565155029296875e+00,1.987939953804016113e+00,1.983493208885192871e+00,1.992302775382995605e+00,2.014173030853271484e+00,2.154136419296264648e+00,2.149315834045410156e+00,5.000000000000000000e+00,5.000000000000000000e+00,5.000000000000000000e+00,5.000000000000000000e+00,5.000000000000000000e+00,5.000000000000000000e+00,5.000000000000000000e+00,5.000000000000000000e+00,5.000000000000000000e+00,5.000000000000000000e+00,5.000000000000000000e+00,5.000000000000000000e+00,5.000000000000000000e+00
1.933645606040954590e+00,1.960355877876281738e+00,1.987814426422119141e+00,2.016052961349487305e+00,2.045105695724487305e+00,2.075007915496826172e+00,2.105797529220581055e+00,2.137514829635620117e+00,2.170201778411865234e+00,2.203904151916503906e+00,2.238669872283935547e+00,2.274549961090087891e+00,2.311601638793945312e+00,2.349882125854492188e+00,2.389451742172241211e+00,2.430377006530761719e+00,2.472728490829467773e+00,2.516582250595092773e+00,2.562017202377319336e+00,2.609119653701782227e+00,2.657986402511596680e+00,2.708718776702880859e+00,2.761425256729125977e+00,2.816223859786987305e+00,2.873241186141967773e+00,2.932615041732788086e+00,2.994494199752807617e+00,3.059041500091552734e+00,3.126432657241821289e+00,3.196859836578369141e+00,3.270533084869384766e+00,3.347681999206542969e+00,3.428558588027954102e+00,3.513439655303955078e+00,3.602630853652954102e+00,3.696467876434326172e+00,3.795323371887207031e+00,3.899610042572021484e+00,4.009788990020751953e+00,4.126375198364257812e+00,4.249944210052490234e+00,4.381142616271972656e+00,4.520699024200439453e+00,4.669438838958740234e+00,4.828299045562744141e+00,4.998349666595458984e+00,5.000000000000000000e+00,5.000000000000000000e+00,5.000000000000000000e+00,5.000000000000000000e+00,5.000000000000000000e+00,5.000000000000000000e+00,5.000000000000000000e+00,5.000000000000000000e+00,5.000000000000000000e+00,2.014650106430053711e+00,2.000330448150634766e+00,2.043299913406372070e+00,2.024755239486694336e+00,2.008824586868286133e+00,1.996863245964050293e+00,1.991396903991699219e+00,1.984575986862182617e+00,2.003699302673339844e+00,2.019187211990356445e+00,2.145926237106323242e+00,2.137130975723266602e+00,5.000000000000000000e+00,5.000000000000000000e+00,5.000000000000000000e+00,5.000000000000000000e+00,5.000000000000000000e+00,5.000000000000000000e+00,5.000000000000000000e+00,5.000000000000000000e+00,5.000000000000000000e+00,5.000000000000000000e+00,5.000000000000000000e+00,5.000000000000000000e+00,5.000000000000000000e+00
1.933617353439331055e+00,1.960326790809631348e+00,1.987784504890441895e+00,2.016022205352783203e+00,2.045073986053466797e+00,2.074975252151489258e+00,2.105764150619506836e+00,2.137480258941650391e+00,2.170166254043579102e+00,2.203867435455322266e+00,2.238631963729858398e+00,2.274510622024536133e+00,2.311558246612548828e+00,2.349832773208618164e+00,2.389398574829101562e+00,2.430321693420410156e+00,2.472671270370483398e+00,2.516522884368896484e+00,2.561958074569702148e+00,2.609064102172851562e+00,2.657932996749877930e+00,2.708663225173950195e+00,2.761367559432983398e+00,2.816163778305053711e+00,2.873178720474243164e+00,2.932549953460693359e+00,2.994426488876342773e+00,3.058970689773559570e+00,3.126358747482299805e+00,3.196782350540161133e+00,3.270452022552490234e+00,3.347597122192382812e+00,3.428469657897949219e+00,3.513346433639526367e+00,3.602532625198364258e+00,3.696364402770996094e+00,3.795214891433715820e+00,3.899497747421264648e+00,4.009670257568359375e+00,4.126249313354492188e+00,4.249810695648193359e+00,4.381000518798828125e+00,4.520548343658447266e+00,4.669277667999267578e+00,4.828127384185791016e+00,4.998165607452392578e+00,5.000000000000000000e+00,5.000000000000000000e+00,5.000000000000000000e+00,5.000000000000000000e+00,5.000000000000000000e+00,5.000000000000000000e+00,5.000000000000000000e+00,5.000000000000000000e+00,5.000000000000000000e+00,1.998679757118225098e+00,1.975953459739685059e+00,2.012782335281372070e+00,2.024139881134033203e+00,2.009831428527832031e+00,2.004411458969116211e+00,2.005499601364135742e+00,2.007072210311889648e+00,2.019400358200073242e+00,2.016789436340332031e+00,2.142730712890625000e+00,2.129606008529663086e+00,5.000000000000000000e+00,5.000000000000000000e+00,5.000000000000000000e+00,5.000000000000000000e+00,5.000000000000000000e+00,5.000000000000000000e+00,5.000000000000000000e+00,5.000000000000000000e+00,5.000000000000000000e+00,5.000000000000000000e+00,5.000000000000000000e+00,5.000000000000000000e+00,5.000000000000000000e+00
1.933588981628417969e+00,1.960297703742980957e+00,1.987754583358764648e+00,2.015991449356079102e+00,2.045042514801025391e+00,2.074942827224731445e+00,2.105730533599853516e+00,2.137445688247680664e+00,2.170130491256713867e+00,2.203830718994140625e+00,2.238594055175781250e+00,2.274471521377563477e+00,2.311517715454101562e+00,2.349791049957275391e+00,2.389352798461914062e+00,2.430269718170166016e+00,2.472614288330078125e+00,2.516463756561279297e+00,2.561896800994873047e+00,2.609000444412231445e+00,2.657868623733520508e+00,2.708602428436279297e+00,2.761309862136840820e+00,2.816103935241699219e+00,2.873116254806518555e+00,2.932484865188598633e+00,2.994358539581298828e+00,3.058899641036987305e+00,3.126284599304199219e+00,3.196705102920532227e+00,3.270370960235595703e+00,3.347512245178222656e+00,3.428380727767944336e+00,3.513252973556518555e+00,3.602434396743774414e+00,3.696260929107666016e+00,3.795105934143066406e+00,3.899382591247558594e+00,4.009551048278808594e+00,4.126123905181884766e+00,4.249677658081054688e+00,4.380858898162841797e+00,4.520397186279296875e+00,4.669116973876953125e+00,4.827955245971679688e+00,4.997981071472167969e+00,5.000000000000000000e+00,5.000000000000000000e+00,5.000000000000000000e+00,5.000000000000000000e+00,5.000000000000000000e+00,5.000000000000000000e+00,5.000000000000000000e+00,5.000000000000000000e+00,5.000000000000000000e+00,1.978047847747802734e+00,1.950319290161132812e+00,1.971820116043090820e+00,2.024483680725097656e+00,2.011528253555297852e+00,2.019587516784667969e+00,2.028098106384277344e+00,2.030084609985351562e+00,1.998931765556335449e+00,1.964943766593933105e+00,1.957728743553161621e+00,2.000438213348388672e+00,5.000000000000000000e+00,5.000000000000000000e+00,5.000000000000000000e+00,5.000000000000000000e+00,5.000000000000000000e+00,5.000000000000000000e+00,5.000000000000000000e+00,5.000000000000000000e+00,5.000000000000000000e+00,5.000000000000000000e+00,5.000000000000000000e+00,5.000000000000000000e+00,5.000000000000000000e+00
1.933560729026794434e+00,1.960268616676330566e+00,1.987724781036376953e+00,2.015960693359375000e+00,2.045010805130004883e+00,2.074910163879394531e+00,2.105696916580200195e+00,2.137410879135131836e+00,2.170094966888427734e+00,2.203793764114379883e+00,2.238555908203125000e+00,2.274432420730590820e+00,2.311477422714233398e+00,2.349749088287353516e+00,2.389309644699096680e+00,2.430224895477294922e+00,2.472566127777099609e+00,2.516408681869506836e+00,2.561835527420043945e+00,2.608936786651611328e+00,2.657802343368530273e+00,2.708533763885498047e+00,2.761239528656005859e+00,2.816036939620971680e+00,2.873053789138793945e+00,2.932419776916503906e+00,2.994290590286254883e+00,3.058828830718994141e+00,3.126210451126098633e+00,3.196627855300903320e+00,3.270290136337280273e+00,3.347427368164062500e+00,3.428291797637939453e+00,3.513159513473510742e+00,3.602336168289184570e+00,3.696157455444335938e+00,3.794996738433837891e+00,3.899267435073852539e+00,4.009429454803466797e+00,4.125998020172119141e+00,4.249544143676757812e+00,4.380717754364013672e+00,4.520246505737304688e+00,4.668956279754638672e+00,4.827783584594726562e+00,4.997797012329101562e+00,5.000000000000000000e+00,5.000000000000000000e+00,5.000000000000000000e+00,5.000000000000000000e+00,5.000000000000000000e+00,5.000000000000000000e+00,5.000000000000000000e+00,5.000000000000000000e+00,5.000000000000000000e+00,1.973585367202758789e+00,1.942647576332092285e+00,1.954561114311218262e+00,2.022640705108642578e+00,2.012247085571289062e+00,2.016474962234497070e+00,2.062192201614379883e+00,2.005270719528198242e+00,1.963547110557556152e+00,1.945771932601928711e+00,1.928905010223388672e+00,1.957917451858520508e+00,2.113046646118164062e+00,5.000000000000000000e+00,5.000000000000000000e+00,5.000000000000000000e+00,5.000000000000000000e+00,5.000000000000000000e+00,5.000000000000000000e+00,5.000000000000000000e+00,5.000000000000000000e+00,5.000000000000000000e+00,5.000000000000000000e+00,5.000000000000000000e+00,5.000000000000000000e+00
1.933532357215881348e+00,1.960239529609680176e+00,1.987694859504699707e+00,2.015930175781250000e+00,2.044979333877563477e+00,2.074877738952636719e+00,2.105663299560546875e+00,2.137376308441162109e+00,2.170059204101562500e+00,2.203757047653198242e+00,2.238517999649047852e+00,2.274393320083618164e+00,2.311436891555786133e+00,2.349707365036010742e+00,2.389266490936279297e+00,2.430180311203002930e+00,2.472519636154174805e+00,2.516360759735107422e+00,2.561784505844116211e+00,2.608878374099731445e+00,2.657736539840698242e+00,2.708465099334716797e+00,2.761168003082275391e+00,2.815962791442871094e+00,2.872976303100585938e+00,2.932346105575561523e+00,2.994221210479736328e+00,3.058758020401000977e+00,3.126136302947998047e+00,3.196550369262695312e+00,3.270209074020385742e+00,3.347342491149902344e+00,3.428202629089355469e+00,3.513066053390502930e+00,3.602237939834594727e+00,3.696054220199584961e+00,3.794887781143188477e+00,3.899152278900146484e+00,4.009307861328125000e+00,4.125868797302246094e+00,4.249410152435302734e+00,4.380576133728027344e+00,4.520095825195312500e+00,4.668795585632324219e+00,4.827611446380615234e+00,4.997612476348876953e+00,5.000000000000000000e+00,5.000000000000000000e+00,5.000000000000000000e+00,5.000000000000000000e+00,5.000000000000000000e+00,5.000000000000000000e+00,5.000000000000000000e+00,5.000000000000000000e+00,5.000000000000000000e+00,5.000000000000000000e+00,1.915767073631286621e+00,1.899198532104492188e+00,2.021193981170654297e+00,2.010532140731811523e+00,2.007853507995605469e+00,2.042106151580810547e+00,1.999858140945434570e+00,1.954570412635803223e+00,1.933596849441528320e+00,1.917850971221923828e+00,1.924827575683593750e+00,2.122664690017700195e+00,5.000000000000000000e+00,5.000000000000000000e+00,5.000000000000000000e+00,5.000000000000000000e+00,5.000000000000000000e+00,5.000000000000000000e+00,5.000000000000000000e+00,5.000000000000000000e+00,5.000000000000000000e+00,5.000000000000000000e+00,5.000000000000000000e+00,5.000000000000000000e+00
1.933504104614257812e+00,1.960210442543029785e+00,1.987664937973022461e+00,2.015899419784545898e+00,2.044947624206542969e+00,2.074845075607299805e+00,2.105629920959472656e+00,2.137341737747192383e+00,2.170023679733276367e+00,2.203720331192016602e+00,2.238480091094970703e+00,2.274353981018066406e+00,2.311396598815917969e+00,2.349665641784667969e+00,2.389223098754882812e+00,2.430135488510131836e+00,2.472473382949829102e+00,2.516312837600708008e+00,2.561734676361083984e+00,2.608826875686645508e+00,2.657682657241821289e+00,2.708403348922729492e+00,2.761097431182861328e+00,2.815888643264770508e+00,2.872899055480957031e+00,2.932265758514404297e+00,2.994137763977050781e+00,3.058676958084106445e+00,3.126059532165527344e+00,3.196473121643066406e+00,3.270128250122070312e+00,3.347257852554321289e+00,3.428113698959350586e+00,3.512972593307495117e+00,3.602139711380004883e+00,3.695950746536254883e+00,3.794778823852539062e+00,3.899037361145019531e+00,4.009186267852783203e+00,4.125740051269531250e+00,4.249273300170898438e+00,4.380432605743408203e+00,4.519945144653320312e+00,4.668634414672851562e+00,4.827439308166503906e+00,4.997427940368652344e+00,5.000000000000000000e+00,5.000000000000000000e+00,5.000000000000000000e+00,5.000000000000000000e+00,5.000000000000000000e+00,5.000000000000000000e+00,5.000000000000000000e+00,5.000000000000000000e+00,5.000000000000000000e+00,5.000000000000000000e+00,1.894282579421997070e+00,1.868953108787536621e+00,1.871422529220581055e+00,2.014918088912963867e+00,2.007700920104980469e+00,2.038936614990234375e+00,2.000206232070922852e+00,1.953327059745788574e+00,1.920412659645080566e+00,1.906788945198059082e+00,1.892837047576904297e+00,1.937313437461853027e+00,5.000000000000000000e+00,5.000000000000000000e+00,5.000000000000000000e+00,5.000000000000000000e+00,5.000000000000000000e+00,5.000000000000000000e+00,5.000000000000000000e+00,5.000000000000000000e+00,5.000000000000000000e+00,5.000000000000000000e+00,5.000000000000000000e+00,5.000000000000000000e+00
1.933475732803344727e+00,1.960181355476379395e+00,1.987635016441345215e+00,2.015868663787841797e+00,2.044915914535522461e+00,2.074812412261962891e+00,2.105596303939819336e+00,2.137307167053222656e+00,2.169987916946411133e+00,2.203683614730834961e+00,2.238442182540893555e+00,2.274314880371093750e+00,2.311356067657470703e+00,2.349623680114746094e+00,2.389179944992065430e+00,2.430090904235839844e+00,2.472427129745483398e+00,2.516264915466308594e+00,2.561685323715209961e+00,2.608775377273559570e+00,2.657629251480102539e+00,2.708347797393798828e+00,2.761039733886718750e+00,2.815822601318359375e+00,2.872823476791381836e+00,2.932185173034667969e+00,2.994053840637207031e+00,3.058589458465576172e+00,3.125968456268310547e+00,3.196382999420166016e+00,3.270042419433593750e+00,3.347172975540161133e+00,3.428024768829345703e+00,3.512879133224487305e+00,3.602041482925415039e+00,3.695847272872924805e+00,3.794669866561889648e+00,3.898922204971313477e+00,4.009064674377441406e+00,4.125610828399658203e+00,4.249136924743652344e+00,4.380287647247314453e+00,4.519792556762695312e+00,4.668473720550537109e+00,4.827267646789550781e+00,4.997243881225585938e+00,5.000000000000000000e+00,5.000000000000000000e+00,5.000000000000000000e+00,5.000000000000000000e+00,5.000000000000000000e+00,5.000000000000000000e+00,5.000000000000000000e+00,5.000000000000000000e+00,5.000000000000000000e+00,1.941874861717224121e+00,1.878169417381286621e+00,1.846691846847534180e+00,2.033188343048095703e+00,2.021194219589233398e+00,2.013195753097534180e+00,2.046482324600219727e+00,2.008736848831176758e+00,1.952035784721374512e+00,1.906396150588989258e+00,1.892725110054016113e+00,1.879785537719726562e+00,1.906122207641601562e+00,5.000000000000000000e+00,5.000000000000000000e+00,5.000000000000000000e+00,5.000000000000000000e+00,5.000000000000000000e+00,5.000000000000000000e+00,5.000000000000000000e+00,5.000000000000000000e+00,5.000000000000000000e+00,5.000000000000000000e+00,5.000000000000000000e+00,5.000000000000000000e+00
1.933447480201721191e+00,1.960152268409729004e+00,1.987605094909667969e+00,2.015837907791137695e+00,2.044884204864501953e+00,2.074779987335205078e+00,2.105562686920166016e+00,2.137272596359252930e+00,2.169952392578125000e+00,2.203646898269653320e+00,2.238404273986816406e+00,2.274275779724121094e+00,2.311315536499023438e+00,2.349581956863403320e+00,2.389136791229248047e+00,2.430046081542968750e+00,2.472380876541137695e+00,2.516216993331909180e+00,2.561635494232177734e+00,2.608723878860473633e+00,2.657575845718383789e+00,2.708292245864868164e+00,2.760982036590576172e+00,2.815762519836425781e+00,2.872761011123657227e+00,2.932114839553833008e+00,2.993972778320312500e+00,3.058501958847045898e+00,3.125876903533935547e+00,3.196287393569946289e+00,3.269942760467529297e+00,3.347072839736938477e+00,3.427929162979125977e+00,3.512785673141479492e+00,3.601943254470825195e+00,3.695744037628173828e+00,3.794560670852661133e+00,3.898807048797607422e+00,4.008943080902099609e+00,4.125482082366943359e+00,4.249000072479248047e+00,4.380142211914062500e+00,4.519637584686279297e+00,4.668310165405273438e+00,4.827095508575439453e+00,4.997059822082519531e+00,5.000000000000000000e+00,5.000000000000000000e+00,5.000000000000000000e+00,5.000000000000000000e+00,5.000000000000000000e+00,5.000000000000000000e+00,5.000000000000000000e+00,5.000000000000000000e+00,5.000000000000000000e+00,5.000000000000000000e+00,1.885372161865234375e+00,2.073751211166381836e+00,2.041304588317871094e+00,2.028884172439575195e+00,2.024168252944946289e+00,2.055368900299072266e+00,2.021386861801147461e+00,1.950715661048889160e+00,1.904112339019775391e+00,1.879856348037719727e+00,1.867356419563293457e+00,1.861940741539001465e+00,5.000000000000000000e+00,5.000000000000000000e+00,5.000000000000000000e+00,5.000000000000000000e+00,5.000000000000000000e+00,5.000000000000000000e+00,5.000000000000000000e+00,5.000000000000000000e+00,5.000000000000000000e+00,5.000000000000000000e+00,5.000000000000000000e+00,5.000000000000000000e+00
1.933419227600097656e+00,1.960123181343078613e+00,1.987575173377990723e+00,2.015807151794433594e+00,2.044852495193481445e+00,2.074747323989868164e+00,2.105529069900512695e+00,2.137238025665283203e+00,2.169916629791259766e+00,2.203609943389892578e+00,2.238366365432739258e+00,2.274236679077148438e+00,2.311275243759155273e+00,2.349540233612060547e+00,2.389093637466430664e+00,2.430001497268676758e+00,2.472334861755371094e+00,2.516169071197509766e+00,2.561585903167724609e+00,2.608672380447387695e+00,2.657522201538085938e+00,2.708236694335937500e+00,2.760924339294433594e+00,2.815702676773071289e+00,2.872698545455932617e+00,2.932049751281738281e+00,2.993905067443847656e+00,3.058426380157470703e+00,3.125789880752563477e+00,3.196191787719726562e+00,3.269842624664306641e+00,3.346967935562133789e+00,3.427819490432739258e+00,3.512674093246459961e+00,3.601835727691650391e+00,3.695640563964843750e+00,3.794451713562011719e+00,3.898692131042480469e+00,4.008821010589599609e+00,4.125353336334228516e+00,4.248863220214843750e+00,4.379997253417968750e+00,4.519483089447021484e+00,4.668145179748535156e+00,4.826920032501220703e+00,4.996875286102294922e+00,5.000000000000000000e+00,5.000000000000000000e+00,5.000000000000000000e+00,5.000000000000000000e+00,5.000000000000000000e+00,5.000000000000000000e+00,5.000000000000000000e+00,5.000000000000000000e+00,5.000000000000000000e+00,5.000000000000000000e+00,5.000000000000000000e+00,2.089498758316040039e+00,2.050235748291015625e+00,2.036633014678955078e+00,2.035260677337646484e+00,5.000000000000000000e+00,5.000000000000000000e+00,1.948242068290710449e+00,1.900115847587585449e+00,1.863555788993835449e+00,1.853327393531799316e+00,1.842826485633850098e+00,5.000000000000000000e+00,5.000000000000000000e+00,5.000000000000000000e+00,5.000000000000000000e+00,5.000000000000000000e+00,5.000000000000000000e+00,5.000000000000000000e+00,5.000000000000000000e+00,5.000000000000000000e+00,5.000000000000000000e+00,5.000000000000000000e+00,5.000000000000000000e+00
1.933390855789184570e+00,1.960094094276428223e+00,1.987545251846313477e+00,2.015776395797729492e+00,2.044821023941040039e+00,2.074714660644531250e+00,2.105495691299438477e+00,2.137203454971313477e+00,2.169881105422973633e+00,2.203573226928710938e+00,2.238328456878662109e+00,2.274197578430175781e+00,2.311234712600708008e+00,2.349498510360717773e+00,2.389050245285034180e+00,2.429956912994384766e+00,2.472288608551025391e+00,2.516121149063110352e+00,2.561536312103271484e+00,2.608620882034301758e+00,2.657468795776367188e+00,2.708181142807006836e+00,2.760866641998291016e+00,2.815642595291137695e+00,2.872636079788208008e+00,2.931984663009643555e+00,2.993837118148803711e+00,3.058355569839477539e+00,3.125715970993041992e+00,3.196110486984252930e+00,3.269748687744140625e+00,3.346863269805908203e+00,3.427709579467773438e+00,3.512558460235595703e+00,3.601714849472045898e+00,3.695514678955078125e+00,3.794330835342407227e+00,3.898576974868774414e+00,4.008699417114257812e+00,4.125224590301513672e+00,4.248726844787597656e+00,4.379851818084716797e+00,4.519328117370605469e+00,4.667980194091796875e+00,4.826743602752685547e+00,4.996687412261962891e+00,5.000000000000000000e+00,5.000000000000000000e+00,5.000000000000000000e+00,5.000000000000000000e+00,5.000000000000000000e+00,5.000000000000000000e+00,5.000000000000000000e+00,5.000000000000000000e+00,5.000000000000000000e+00,5.000000000000000000e+00,5.000000000000000000e+00,2.105433225631713867e+00,2.059245347976684570e+00,2.045274972915649414e+00,2.045093536376953125e+00,5.000000000000000000e+00,5.000000000000000000e+00,1.966565251350402832e+00,1.896136403083801270e+00,1.860282897949218750e+00,1.836284399032592773e+00,1.827536702156066895e+00,1.847703337669372559e+00,5.000000000000000000e+00,5.000000000000000000e+00,5.000000000000000000e+00,5.000000000000000000e+00,5.000000000000000000e+00,5.000000000000000000e+00,5.000000000000000000e+00,5.000000000000000000e+00,5.000000000000000000e+00,5.000000000000000000e+00,5.000000000000000000e+00
1.933362603187561035e+00,1.960065007209777832e+00,1.987515449523925781e+00,2.015745639801025391e+00,2.044789314270019531e+00,2.074682235717773438e+00,2.105462074279785156e+00,2.137168884277343750e+00,2.169845342636108398e+00,2.203536510467529297e+00,2.238290548324584961e+00,2.274158239364624023e+00,2.311194419860839844e+00,2.349456548690795898e+00,2.389007091522216797e+00,2.429912328720092773e+00,2.472242355346679688e+00,2.516073226928710938e+00,2.561486482620239258e+00,2.608569383621215820e+00,2.657415390014648438e+00,2.708125591278076172e+00,2.760808944702148438e+00,2.815582513809204102e+00,2.872573614120483398e+00,2.931919574737548828e+00,2.993769168853759766e+00,3.058284759521484375e+00,3.125641822814941406e+00,3.196033000946044922e+00,3.269667625427246094e+00,3.346775770187377930e+00,3.427608013153076172e+00,3.512443065643310547e+00,3.601593494415283203e+00,3.695386886596679688e+00,3.794196605682373047e+00,3.898435115814208984e+00,4.008562564849853516e+00,4.125093936920166016e+00,4.248589992523193359e+00,4.379706382751464844e+00,4.519173622131347656e+00,4.667815208435058594e+00,4.826567649841308594e+00,4.996498107910156250e+00,5.000000000000000000e+00,5.000000000000000000e+00,5.000000000000000000e+00,5.000000000000000000e+00,5.000000000000000000e+00,5.000000000000000000e+00,5.000000000000000000e+00,5.000000000000000000e+00,5.000000000000000000e+00,5.000000000000000000e+00,5.000000000000000000e+00,2.123423337936401367e+00,2.065643787384033203e+00,2.051347970962524414e+00,2.053857088088989258e+00,5.000000000000000000e+00,5.000000000000000000e+00,5.000000000000000000e+00,1.892173409461975098e+00,1.856456160545349121e+00,1.824360609054565430e+00,1.817190051078796387e+00,1.811052799224853516e+00,5.000000000000000000e+00,5.000000000000000000e+00,5.000000000000000000e+00,5.000000000000000000e+00,5.000000000000000000e+00,5.000000000000000000e+00,5.000000000000000000e+00,5.000000000000000000e+00,5.000000000000000000e+00,5.000000000000000000e+00,5.000000000000000000e+00
1.933334350585937500e+00,1.960035920143127441e+00,1.987485527992248535e+00,2.015714883804321289e+00,2.044757604598999023e+00,2.074649572372436523e+00,2.105428457260131836e+00,2.137134313583374023e+00,2.169809818267822266e+00,2.203499794006347656e+00,2.238252639770507812e+00,2.274119138717651367e+00,2.311153888702392578e+00,2.349414825439453125e+00,2.388964176177978516e+00,2.429867506027221680e+00,2.472196102142333984e+00,2.516025304794311523e+00,2.561436891555786133e+00,2.608517885208129883e+00,2.657361984252929688e+00,2.708070039749145508e+00,2.760751247406005859e+00,2.815522432327270508e+00,2.872511148452758789e+00,2.931854486465454102e+00,2.993701457977294922e+00,3.058213949203491211e+00,3.125567913055419922e+00,3.195955753326416016e+00,3.269587039947509766e+00,3.346690893173217773e+00,3.427519083023071289e+00,3.512348175048828125e+00,3.601482868194580078e+00,3.695259094238281250e+00,3.794061899185180664e+00,3.898293018341064453e+00,4.008412361145019531e+00,4.124934673309326172e+00,4.248434066772460938e+00,4.379556655883789062e+00,4.519019126892089844e+00,4.667650222778320312e+00,4.826391220092773438e+00,4.996308803558349609e+00,5.000000000000000000e+00,5.000000000000000000e+00,5.000000000000000000e+00,5.000000000000000000e+00,5.000000000000000000e+00,5.000000000000000000e+00,5.000000000000000000e+00,5.000000000000000000e+00,5.000000000000000000e+00,5.000000000000000000e+00,5.000000000000000000e+00,2.150555849075317383e+00,2.075951337814331055e+00,2.056728601455688477e+00,2.062843322753906250e+00,5.000000000000000000e+00,5.000000000000000000e+00,5.000000000000000000e+00,1.937543034553527832e+00,1.857214927673339844e+00,1.825790762901306152e+00,1.817471385002136230e+00,1.811970591545104980e+00,5.000000000000000000e+00,5.000000000000000000e+00,5.000000000000000000e+00,5.000000000000000000e+00,5.000000000000000000e+00,5.000000000000000000e+00,5.000000000000000000e+00,5.000000000000000000e+00,5.000000000000000000e+00,5.000000000000000000e+00,5.000000000000000000e+00
1.933305978775024414e+00,1.960006833076477051e+00,1.987455606460571289e+00,2.015684127807617188e+00,2.044725894927978516e+00,2.074616909027099609e+00,2.105394840240478516e+00,2.137099742889404297e+00,2.169774055480957031e+00,2.203463077545166016e+00,2.238214731216430664e+00,2.274080038070678711e+00,2.311113357543945312e+00,2.349373102188110352e+00,2.388921022415161133e+00,2.429822921752929688e+00,2.472149848937988281e+00,2.515977382659912109e+00,2.561387300491333008e+00,2.608466386795043945e+00,2.657308340072631836e+00,2.708014726638793945e+00,2.760693550109863281e+00,2.815462589263916016e+00,2.872448682785034180e+00,2.931789398193359375e+00,2.993633508682250977e+00,3.058143138885498047e+00,3.125494003295898438e+00,3.195878744125366211e+00,3.269506216049194336e+00,3.346606016159057617e+00,3.427430152893066406e+00,3.512254714965820312e+00,3.601384639739990234e+00,3.695155858993530273e+00,3.793940782546997070e+00,3.898152589797973633e+00,4.008262157440185547e+00,4.124775409698486328e+00,4.248265266418457031e+00,4.379377365112304688e+00,4.518839836120605469e+00,4.667477130889892578e+00,4.826214790344238281e+00,4.996119976043701172e+00,5.000000000000000000e+00,5.000000000000000000e+00,5.000000000000000000e+00,5.000000000000000000e+00,5.000000000000000000e+00,5.000000000000000000e+00,5.000000000000000000e+00,5.000000000000000000e+00,5.000000000000000000e+00,5.000000000000000000e+00,5.000000000000000000e+00,2.169075727462768555e+00,2.087299585342407227e+00,2.062230110168457031e+00,2.069293498992919922e+00,5.000000000000000000e+00,5.000000000000000000e+00,5.000000000000000000e+00,5.000000000000000000e+00,1.864246964454650879e+00,1.833606243133544922e+00,1.824920058250427246e+00,1.839818477630615234e+00,5.000000000000000000e+00,5.000000000000000000e+00,5.000000000000000000e+00,5.000000000000000000e+00,5.000000000000000000e+00,5.000000000000000000e+00,5.000000000000000000e+00,5.000000000000000000e+00,5.000000000000000000e+00,5.000000000000000000e+00,5.000000000000000000e+00
1.933277726173400879e+00,1.959977746009826660e+00,1.987425684928894043e+00,2.015653371810913086e+00,2.044694423675537109e+00,2.074584484100341797e+00,2.105361461639404297e+00,2.137065172195434570e+00,2.169738531112670898e+00,2.203426361083984375e+00,2.238176822662353516e+00,2.274040937423706055e+00,2.311073064804077148e+00,2.349331378936767578e+00,2.388877630233764648e+00,2.429778099060058594e+00,2.472103595733642578e+00,2.515929460525512695e+00,2.561337709426879883e+00,2.608414888381958008e+00,2.657254934310913086e+00,2.707959175109863281e+00,2.760635852813720703e+00,2.815402507781982422e+00,2.872386217117309570e+00,2.931724309921264648e+00,2.993565797805786133e+00,3.058072328567504883e+00,3.125420331954956055e+00,3.195801496505737305e+00,3.269425153732299805e+00,3.346521377563476562e+00,3.427341222763061523e+00,3.512161493301391602e+00,3.601286411285400391e+00,3.695052385330200195e+00,3.793831825256347656e+00,3.898037672042846680e+00,4.008129119873046875e+00,4.124620437622070312e+00,4.248096466064453125e+00,4.379198074340820312e+00,4.518649101257324219e+00,4.667273521423339844e+00,4.826007366180419922e+00,4.995918273925781250e+00,5.000000000000000000e+00,5.000000000000000000e+00,5.000000000000000000e+00,5.000000000000000000e+00,5.000000000000000000e+00,5.000000000000000000e+00,5.000000000000000000e+00,5.000000000000000000e+00,5.000000000000000000e+00,5.000000000000000000e+00,5.000000000000000000e+00,2.189082622528076172e+00,2.105684995651245117e+00,2.071624755859375000e+00,2.076769113540649414e+00,5.000000000000000000e+00,5.000000000000000000e+00,5.000000000000000000e+00,5.000000000000000000e+00,1.874723553657531738e+00,1.845152854919433594e+00,1.833194613456726074e+00,1.855559349060058594e+00,5.000000000000000000e+00,5.000000000000000000e+00,5.000000000000000000e+00,5.000000000000000000e+00,5.000000000000000000e+00,5.000000000000000000e+00,5.000000000000000000e+00,5.000000000000000000e+00,5.000000000000000000e+00,5.000000000000000000e+00,5.000000000000000000e+00
1.933249473571777344e+00,1.959948658943176270e+00,1.987395763397216797e+00,2.015622615814208984e+00,2.044662714004516602e+00,2.074551820755004883e+00,2.105327844619750977e+00,2.137030601501464844e+00,2.169702768325805664e+00,2.203389644622802734e+00,2.238138914108276367e+00,2.274001836776733398e+00,2.311032772064208984e+00,2.349289655685424805e+00,2.388834476470947266e+00,2.429733514785766602e+00,2.472057342529296875e+00,2.515881538391113281e+00,2.561287879943847656e+00,2.608363389968872070e+00,2.657201528549194336e+00,2.707903623580932617e+00,2.760578155517578125e+00,2.815342426300048828e+00,2.872323751449584961e+00,2.931659221649169922e+00,2.993497848510742188e+00,3.058001756668090820e+00,3.125346422195434570e+00,3.195724248886108398e+00,3.269344329833984375e+00,3.346436500549316406e+00,3.427252531051635742e+00,3.512068033218383789e+00,3.601188421249389648e+00,3.694949150085449219e+00,3.793722867965698242e+00,3.897922515869140625e+00,4.008007526397705078e+00,4.124491691589355469e+00,4.247949123382568359e+00,4.379025459289550781e+00,4.518458366394042969e+00,4.667069911956787109e+00,4.825789928436279297e+00,4.995685100555419922e+00,5.000000000000000000e+00,5.000000000000000000e+00,5.000000000000000000e+00,5.000000000000000000e+00,5.000000000000000000e+00,5.000000000000000000e+00,5.000000000000000000e+00,5.000000000000000000e+00,5.000000000000000000e+00,5.000000000000000000e+00,5.000000000000000000e+00,2.191770792007446289e+00,2.121040105819702148e+00,2.083952903747558594e+00,2.096887588500976562e+00,5.000000000000000000e+00,5.000000000000000000e+00,5.000000000000000000e+00,5.000000000000000000e+00,1.882308244705200195e+00,1.856845855712890625e+00,1.842475891113281250e+00,1.865769386291503906e+00,5.000000000000000000e+00,5.000000000000000000e+00,5.000000000000000000e+00,5.000000000000000000e+00,5.000000000000000000e+00,5.000000000000000000e+00,5.000000000000000000e+00,5.000000000000000000e+00,5.000000000000000000e+00,5.000000000000000000e+00,5.000000000000000000e+00
1.933221101760864258e+00,1.959919691085815430e+00,1.987365961074829102e+00,2.015591859817504883e+00,2.044631004333496094e+00,2.074519157409667969e+00,2.105294227600097656e+00,2.136996030807495117e+00,2.169667243957519531e+00,2.203352689743041992e+00,2.238101005554199219e+00,2.273962736129760742e+00,2.310992240905761719e+00,2.349247932434082031e+00,2.388791322708129883e+00,2.429688692092895508e+00,2.472011089324951172e+00,2.515833616256713867e+00,2.561238288879394531e+00,2.608311891555786133e+00,2.657148122787475586e+00,2.707848072052001953e+00,2.760520458221435547e+00,2.815282583236694336e+00,2.872261285781860352e+00,2.931594133377075195e+00,2.993430376052856445e+00,3.057930946350097656e+00,3.125272512435913086e+00,3.195646762847900391e+00,3.269263505935668945e+00,3.346351861953735352e+00,3.427163600921630859e+00,3.511974811553955078e+00,3.601090192794799805e+00,3.694845676422119141e+00,3.793613910675048828e+00,3.897807598114013672e+00,4.007885932922363281e+00,4.124362945556640625e+00,4.247812747955322266e+00,4.378880500793457031e+00,4.518294334411621094e+00,4.666876792907714844e+00,4.825572013854980469e+00,4.995451450347900391e+00,5.000000000000000000e+00,5.000000000000000000e+00,5.000000000000000000e+00,5.000000000000000000e+00,5.000000000000000000e+00,5.000000000000000000e+00,5.000000000000000000e+00,5.000000000000000000e+00,5.000000000000000000e+00,5.000000000000000000e+00,5.000000000000000000e+00,2.186309099197387695e+00,2.138838052749633789e+00,2.108890056610107422e+00,2.144153833389282227e+00,5.000000000000000000e+00,5.000000000000000000e+00,5.000000000000000000e+00,5.000000000000000000e+00,1.886716127395629883e+00,1.863966584205627441e+00,1.849891304969787598e+00,1.871821165084838867e+00,5.000000000000000000e+00,5.000000000000000000e+00,5.000000000000000000e+00,5.000000000000000000e+00,5.000000000000000000e+00,5.000000000000000000e+00,5.000000000000000000e+00,5.000000000000000000e+00,5.000000000000000000e+00,5.000000000000000000e+00,5.000000000000000000e+00
1.933192849159240723e+00,1.959890604019165039e+00,1.987336039543151855e+00,2.015561103820800781e+00,2.044599533081054688e+00,2.074486732482910156e+00,2.105260610580444336e+00,2.136961460113525391e+00,2.169631481170654297e+00,2.203315973281860352e+00,2.238063097000122070e+00,2.273923635482788086e+00,2.310951948165893555e+00,2.349205970764160156e+00,2.388748168945312500e+00,2.429644107818603516e+00,2.471964836120605469e+00,2.515785694122314453e+00,2.561188697814941406e+00,2.608260393142700195e+00,2.657094717025756836e+00,2.707792520523071289e+00,2.760462760925292969e+00,2.815222501754760742e+00,2.872198820114135742e+00,2.931529045104980469e+00,2.993362426757812500e+00,3.057860136032104492e+00,3.125198602676391602e+00,3.195569515228271484e+00,3.269182443618774414e+00,3.346267223358154297e+00,3.427074670791625977e+00,3.511881351470947266e+00,3.600991964340209961e+00,3.694742441177368164e+00,3.793504953384399414e+00,3.897692441940307617e+00,4.007764339447021484e+00,4.124234199523925781e+00,4.247675895690917969e+00,4.378735065460205078e+00,4.518139839172363281e+00,4.666711807250976562e+00,4.825387954711914062e+00,4.995233535766601562e+00,5.000000000000000000e+00,5.000000000000000000e+00,5.000000000000000000e+00,5.000000000000000000e+00,5.000000000000000000e+00,5.000000000000000000e+00,5.000000000000000000e+00,5.000000000000000000e+00,5.000000000000000000e+00,5.000000000000000000e+00,5.000000000000000000e+00,2.196529865264892578e+00,2.161689043045043945e+00,2.145490884780883789e+00,5.000000000000000000e+00,5.000000000000000000e+00,5.000000000000000000e+00,5.000000000000000000e+00,5.000000000000000000e+00,1.887651920318603516e+00,1.863659858703613281e+00,1.849787831306457520e+00,1.869408726692199707e+00,5.000000000000000000e+00,5.000000000000000000e+00,5.000000000000000000e+00,5.000000000000000000e+00,5.000000000000000000e+00,5.000000000000000000e+00,5.000000000000000000e+00,5.000000000000000000e+00,5.000000000000000000e+00,5.000000000000000000e+00,5.000000000000000000e+00
1.933164596557617188e+00,1.959861516952514648e+00,1.987306118011474609e+00,2.015530347824096680e+00,2.044567823410034180e+00,2.074454069137573242e+00,2.105227231979370117e+00,2.136926889419555664e+00,2.169595956802368164e+00,2.203279495239257812e+00,2.238025188446044922e+00,2.273884534835815430e+00,2.310911417007446289e+00,2.349164247512817383e+00,2.388705015182495117e+00,2.429599285125732422e+00,2.471918582916259766e+00,2.515738010406494141e+00,2.561138868331909180e+00,2.608208894729614258e+00,2.657041311264038086e+00,2.707737207412719727e+00,2.760405063629150391e+00,2.815162420272827148e+00,2.872136354446411133e+00,2.931464433670043945e+00,2.993294715881347656e+00,3.057789564132690430e+00,3.125124692916870117e+00,3.195492267608642578e+00,3.269101619720458984e+00,3.346182346343994141e+00,3.426985740661621094e+00,3.511787891387939453e+00,3.600893974304199219e+00,3.694639205932617188e+00,3.793395996093750000e+00,3.897577524185180664e+00,4.007642745971679688e+00,4.124105453491210938e+00,4.247539520263671875e+00,4.378590583801269531e+00,4.517985343933105469e+00,4.666547298431396484e+00,4.825211524963378906e+00,4.995045185089111328e+00,5.000000000000000000e+00,5.000000000000000000e+00,5.000000000000000000e+00,5.000000000000000000e+00,5.000000000000000000e+00,5.000000000000000000e+00,5.000000000000000000e+00,5.000000000000000000e+00,5.000000000000000000e+00,5.000000000000000000e+00,5.000000000000000000e+00,2.213266134262084961e+00,2.180373191833496094e+00,2.180783271789550781e+00,5.000000000000000000e+00,5.000000000000000000e+00,5.000000000000000000e+00,5.000000000000000000e+00,5.000000000000000000e+00,1.888925075531005859e+00,1.862629771232604980e+00,1.849684238433837891e+00,5.000000000000000000e+00,5.000000000000000000e+00,5.000000000000000000e+00,5.000000000000000000e+00,5.000000000000000000e+00,5.000000000000000000e+00,5.000000000000000000e+00,5.000000000000000000e+00,5.000000000000000000e+00,5.000000000000000000e+00,5.000000000000000000e+00,5.000000000000000000e+00
1.933136224746704102e+00,1.959832429885864258e+00,1.987276196479797363e+00,2.015499591827392578e+00,2.044536113739013672e+00,2.074421405792236328e+00,2.105193614959716797e+00,2.136892318725585938e+00,2.169560432434082031e+00,2.203242778778076172e+00,2.237987279891967773e+00,2.273845434188842773e+00,2.310871124267578125e+00,2.349122524261474609e+00,2.388661861419677734e+00,2.429554700851440430e+00,2.471872329711914062e+00,2.515690088272094727e+00,2.561089277267456055e+00,2.608157396316528320e+00,2.656987667083740234e+00,2.707681655883789062e+00,2.760347366333007812e+00,2.815102577209472656e+00,2.872074365615844727e+00,2.931399345397949219e+00,2.993226766586303711e+00,3.057718753814697266e+00,3.125050783157348633e+00,3.195415019989013672e+00,3.269020795822143555e+00,3.346097707748413086e+00,3.426896810531616211e+00,3.511694669723510742e+00,3.600795745849609375e+00,3.694535732269287109e+00,3.793287277221679688e+00,3.897462606430053711e+00,4.007521152496337891e+00,4.123976707458496094e+00,4.247403144836425781e+00,4.378445148468017578e+00,4.517830848693847656e+00,4.666382312774658203e+00,4.825035572052001953e+00,4.994856357574462891e+00,5.000000000000000000e+00,5.000000000000000000e+00,5.000000000000000000e+00,5.000000000000000000e+00,5.000000000000000000e+00,5.000000000000000000e+00,5.000000000000000000e+00,5.000000000000000000e+00,5.000000000000000000e+00,5.000000000000000000e+00,5.000000000000000000e+00,2.229586839675903320e+00,2.193214178085327148e+00,2.198632955551147461e+00,5.000000000000000000e+00,5.000000000000000000e+00,5.000000000000000000e+00,5.000000000000000000e+00,5.000000000000000000e+00,1.890402078628540039e+00,1.861600756645202637e+00,1.849106669425964355e+00,5.000000000000000000e+00,5.000000000000000000e+00,5.000000000000000000e+00,5.000000000000000000e+00,5.000000000000000000e+00,5.000000000000000000e+00,5.000000000000000000e+00,5.000000000000000000e+00,5.000000000000000000e+00,5.000000000000000000e+00,5.000000000000000000e+00,5.000000000000000000e+00
1.933107972145080566e+00,1.959803342819213867e+00,1.987246274948120117e+00,2.015468835830688477e+00,2.044504404067993164e+00,2.074388980865478516e+00,2.105159997940063477e+00,2.136857986450195312e+00,2.169524908065795898e+00,2.203205823898315430e+00,2.237949371337890625e+00,2.273806095123291016e+00,2.310830593109130859e+00,2.349080801010131836e+00,2.388618469238281250e+00,2.429510116577148438e+00,2.471826076507568359e+00,2.515642166137695312e+00,2.561039686203002930e+00,2.608105897903442383e+00,2.656934261322021484e+00,2.707626104354858398e+00,2.760289669036865234e+00,2.815042734146118164e+00,2.872011899948120117e+00,2.931334257125854492e+00,2.993159055709838867e+00,3.057647943496704102e+00,3.124976634979248047e+00,3.195337772369384766e+00,3.268939733505249023e+00,3.346012830734252930e+00,3.426807880401611328e+00,3.511601209640502930e+00,3.600697517395019531e+00,3.694432497024536133e+00,3.793178319931030273e+00,3.897347450256347656e+00,4.007399559020996094e+00,4.123848438262939453e+00,4.247266769409179688e+00,4.378300189971923828e+00,4.517676353454589844e+00,4.666217327117919922e+00,4.824859142303466797e+00,4.994667530059814453e+00,5.000000000000000000e+00,5.000000000000000000e+00,5.000000000000000000e+00,5.000000000000000000e+00,5.000000000000000000e+00,5.000000000000000000e+00,5.000000000000000000e+00,5.000000000000000000e+00,5.000000000000000000e+00,5.000000000000000000e+00,5.000000000000000000e+00,2.246482372283935547e+00,2.207877159118652344e+00,2.215095758438110352e+00,5.000000000000000000e+00,5.000000000000000000e+00,5.000000000000000000e+00,5.000000000000000000e+00,5.000000000000000000e+00,1.892967462539672852e+00,1.860888242721557617e+00,1.848329186439514160e+00,5.000000000000000000e+00,5.000000000000000000e+00,5.000000000000000000e+00,5.000000000000000000e+00,5.000000000000000000e+00,5.000000000000000000e+00,5.000000000000000000e+00,5.000000000000000000e+00,5.000000000000000000e+00,5.000000000000000000e+00,5.000000000000000000e+00,5.000000000000000000e+00
1.933079719543457031e+00,1.959774255752563477e+00,1.987216472625732422e+00,2.015438079833984375e+00,2.044472932815551758e+00,2.074356317520141602e+00,2.105126619338989258e+00,2.136823415756225586e+00,2.169489145278930664e+00,2.203169107437133789e+00,2.237911462783813477e+00,2.273766994476318359e+00,2.310790300369262695e+00,2.349039077758789062e+00,2.388575315475463867e+00,2.429465293884277344e+00,2.471779823303222656e+00,2.515594244003295898e+00,2.560990095138549805e+00,2.608054399490356445e+00,2.656880855560302734e+00,2.707570552825927734e+00,2.760232210159301758e+00,2.814982891082763672e+00,2.871949434280395508e+00,2.931269168853759766e+00,2.993091344833374023e+00,3.057577133178710938e+00,3.124902725219726562e+00,3.195260286331176758e+00,3.268858909606933594e+00,3.345928192138671875e+00,3.426718950271606445e+00,3.511507987976074219e+00,3.600599527359008789e+00,3.694329023361206055e+00,3.793069362640380859e+00,3.897232532501220703e+00,4.007278442382812500e+00,4.123719692230224609e+00,4.247129917144775391e+00,4.378155231475830078e+00,4.517521858215332031e+00,4.666052818298339844e+00,4.824683189392089844e+00,4.994478702545166016e+00,5.000000000000000000e+00,5.000000000000000000e+00,5.000000000000000000e+00,5.000000000000000000e+00,5.000000000000000000e+00,5.000000000000000000e+00,5.000000000000000000e+00,5.000000000000000000e+00,5.000000000000000000e+00,5.000000000000000000e+00,5.000000000000000000e+00,2.264281272888183594e+00,2.224770784378051758e+00,2.232657670974731445e+00,5.000000000000000000e+00,5.000000000000000000e+00,5.000000000000000000e+00,5.000000000000000000e+00,5.000000000000000000e+00,1.897306680679321289e+00,1.861278653144836426e+00,1.848179936408996582e+00,5.000000000000000000e+00,5.000000000000000000e+00,5.000000000000000000e+00,5.000000000000000000e+00,5.000000000000000000e+00,5.000000000000000000e+00,5.000000000000000000e+00,5.000000000000000000e+00,5.000000000000000000e+00,5.000000000000000000e+00,5.000000000000000000e+00,5.000000000000000000e+00
1.933051466941833496e+00,1.959745168685913086e+00,1.987186551094055176e+00,2.015407323837280273e+00,2.044441223144531250e+00,2.074323892593383789e+00,2.105093240737915039e+00,2.136788845062255859e+00,2.169453620910644531e+00,2.203132390975952148e+00,2.237873554229736328e+00,2.273727893829345703e+00,2.310749769210815430e+00,2.348997116088867188e+00,2.388532161712646484e+00,2.429420709609985352e+00,2.471733570098876953e+00,2.515546321868896484e+00,2.560940265655517578e+00,2.608002901077270508e+00,2.656827449798583984e+00,2.707515239715576172e+00,2.760174512863159180e+00,2.814922809600830078e+00,2.871886968612670898e+00,2.931204080581665039e+00,2.993023395538330078e+00,3.057506322860717773e+00,3.124828815460205078e+00,3.195183038711547852e+00,3.268778085708618164e+00,3.345843315124511719e+00,3.426630020141601562e+00,3.511414527893066406e+00,3.600501298904418945e+00,3.694225788116455078e+00,3.792960405349731445e+00,3.897117614746093750e+00,4.007156848907470703e+00,4.123590946197509766e+00,4.246993541717529297e+00,4.378009796142578125e+00,4.517367362976074219e+00,4.665887832641601562e+00,4.824506759643554688e+00,4.994289875030517578e+00,5.000000000000000000e+00,5.000000000000000000e+00,5.000000000000000000e+00,5.000000000000000000e+00,5.000000000000000000e+00,5.000000000000000000e+00,5.000000000000000000e+00,5.000000000000000000e+00,5.000000000000000000e+00,5.000000000000000000e+00,5.000000000000000000e+00,2.283598184585571289e+00,2.246073484420776367e+00,2.252036333084106445e+00,5.000000000000000000e+00,5.000000000000000000e+00,5.000000000000000000e+00,5.000000000000000000e+00,5.000000000000000000e+00,1.901666045188903809e+00,1.862715959548950195e+00,1.848030686378479004e+00,5.000000000000000000e+00,5.000000000000000000e+00,5.000000000000000000e+00,5.000000000000000000e+00,5.000000000000000000e+00,5.000000000000000000e+00,5.000000000000000000e+00,5.000000000000000000e+00,5.000000000000000000e+00,5.000000000000000000e+00,5.000000000000000000e+00,5.000000000000000000e+00
1.933023095130920410e+00,1.959716081619262695e+00,1.987156629562377930e+00,2.015376567840576172e+00,2.044409513473510742e+00,2.074291229248046875e+00,2.105059623718261719e+00,2.136754274368286133e+00,2.169417858123779297e+00,2.203095674514770508e+00,2.237835645675659180e+00,2.273688793182373047e+00,2.310709238052368164e+00,2.348955392837524414e+00,2.388489007949829102e+00,2.429375886917114258e+00,2.471687316894531250e+00,2.515498399734497070e+00,2.560890674591064453e+00,2.607951402664184570e+00,2.656774044036865234e+00,2.707459926605224609e+00,2.760116815567016602e+00,2.814862728118896484e+00,2.871824502944946289e+00,2.931139230728149414e+00,2.992955684661865234e+00,3.057435512542724609e+00,3.124754905700683594e+00,3.195105791091918945e+00,3.268697261810302734e+00,3.345758676528930664e+00,3.426541328430175781e+00,3.511321306228637695e+00,3.600403070449829102e+00,3.694122552871704102e+00,3.792851686477661133e+00,3.897003173828125000e+00,4.007035255432128906e+00,4.123462200164794922e+00,4.246857166290283203e+00,4.377864837646484375e+00,4.517212867736816406e+00,4.665723323822021484e+00,4.821138381958007812e+00,4.819949626922607422e+00,4.818761825561523438e+00,4.817574501037597656e+00,4.816387653350830078e+00,4.815201759338378906e+00,4.814016342163085938e+00,4.812830924987792969e+00,4.811646938323974609e+00,4.810462951660156250e+00,4.809279918670654297e+00,4.808096885681152344e+00,4.806914806365966797e+00,2.303335666656494141e+00,2.263098716735839844e+00,2.277408838272094727e+00,4.802192687988281250e+00,4.801013469696044922e+00,4.799834728240966797e+00,4.798656463623046875e+00,4.797479152679443359e+00,4.796302795410156250e+00,1.866707563400268555e+00,1.847881555557250977e+00,4.792775630950927734e+00,4.791601181030273438e+00,4.790426731109619141e+00,4.789253711700439453e+00,4.788080692291259766e+00,4.786908626556396484e+00,4.785737037658691406e+00,4.784565925598144531e+00,4.783395290374755859e+00,4.782225608825683594e+00,4.781055927276611328e+00,4.779887199401855469e+00
1.932994842529296875e+00,1.959686994552612305e+00,1.987126708030700684e+00,2.015345811843872070e+00,2.044378042221069336e+00,2.074258804321289062e+00,2.105026006698608398e+00,2.136719703674316406e+00,2.169382333755493164e+00,2.203058958053588867e+00,2.237797737121582031e+00,2.273649692535400391e+00,2.310668945312500000e+00,2.348913669586181641e+00,2.388445854187011719e+00,2.429331302642822266e+00,2.471641063690185547e+00,2.515450477600097656e+00,2.560841083526611328e+00,2.607899904251098633e+00,2.656720876693725586e+00,2.707404375076293945e+00,2.760059356689453125e+00,2.814802885055541992e+00,2.871762037277221680e+00,2.931074142456054688e+00,2.992887735366821289e+00,3.057364940643310547e+00,3.124680995941162109e+00,3.195028543472290039e+00,3.268616199493408203e+00,3.345673799514770508e+00,3.426452398300170898e+00,3.511227846145629883e+00,3.600305080413818359e+00,3.694019317626953125e+00,3.751456737518310547e+00,3.750737190246582031e+00,3.750017881393432617e+00,3.749298810958862305e+00,3.748579978942871094e+00,3.747861385345458984e+00,3.747143268585205078e+00,3.746424913406372070e+00,3.745707273483276367e+00,3.744989871978759766e+00,3.744272708892822266e+00,3.743556022644042969e+00,3.742839336395263672e+00,3.742123126983642578e+00,3.741407155990600586e+00,3.740691423416137695e+00,3.739975452423095703e+00,3.739260435104370117e+00,3.738545417785644531e+00,3.737830877304077148e+00,3.737116336822509766e+00,2.349006414413452148e+00,2.296589374542236328e+00,3.734974861145019531e+00,3.734261274337768555e+00,3.733548164367675781e+00,3.732835531234741211e+00,3.732123136520385742e+00,3.731410741806030273e+00,3.730698823928833008e+00,1.870834231376647949e+00,1.847732305526733398e+00,3.728564262390136719e+00,3.727853536605834961e+00,3.727143049240112305e+00,3.726432561874389648e+00,3.725722551345825195e+00,3.725012779235839844e+00,3.724303483963012695e+00,3.723593711853027344e+00,3.722884893417358398e+00,3.722176074981689453e+00,3.721467733383178711e+00,3.720759630203247070e+00
1.932966589927673340e+00,1.959658026695251465e+00,1.987096905708312988e+00,2.015315055847167969e+00,2.044346332550048828e+00,2.074226140975952148e+00,2.104992389678955078e+00,2.136685132980346680e+00,2.169346570968627930e+00,2.203022241592407227e+00,2.237759828567504883e+00,2.273610591888427734e+00,2.310628414154052734e+00,2.348871946334838867e+00,2.388402700424194336e+00,2.429286718368530273e+00,2.471594810485839844e+00,2.515402555465698242e+00,2.560791492462158203e+00,2.607848644256591797e+00,2.656667470932006836e+00,2.707348823547363281e+00,2.760001659393310547e+00,2.814742803573608398e+00,2.871699571609497070e+00,2.931009054183959961e+00,2.992820024490356445e+00,3.057294130325317383e+00,3.070250272750854492e+00,3.069768428802490234e+00,3.069286346435546875e+00,3.068804502487182617e+00,3.068322896957397461e+00,3.067841529846191406e+00,3.067360401153564453e+00,3.066879272460937500e+00,3.066398382186889648e+00,3.065917491912841797e+00,3.065437078475952148e+00,3.064956426620483398e+00,3.064476251602172852e+00,3.063996076583862305e+00,3.063515663146972656e+00,3.063035726547241211e+00,3.062556028366088867e+00,3.062076568603515625e+00,3.061597108840942383e+00,3.061117649078369141e+00,3.060638666152954102e+00,3.060159683227539062e+00,3.059680700302124023e+00,3.059201955795288086e+00,3.058723449707031250e+00,3.058244943618774414e+00,3.057766675949096680e+00,3.057288408279418945e+00,3.056810617446899414e+00,2.366027593612670898e+00,2.288782358169555664e+00,2.280358791351318359e+00,3.054900169372558594e+00,3.054422855377197266e+00,3.053945779800415039e+00,3.053468942642211914e+00,3.052992105484008789e+00,3.052515506744384766e+00,1.879932403564453125e+00,1.854098677635192871e+00,3.051086425781250000e+00,3.050610303878784180e+00,3.050134420394897461e+00,3.049658775329589844e+00,3.049183130264282227e+00,3.048707723617553711e+00,3.048232555389404297e+00,3.047757387161254883e+00,3.047282218933105469e+00,3.046807527542114258e+00,3.046332836151123047e+00,3.045858144760131836e+00
1.932938218116760254e+00,1.959628939628601074e+00,1.987067222595214844e+00,2.015284299850463867e+00,2.044314861297607422e+00,2.074193716049194336e+00,2.104959011077880859e+00,2.136650562286376953e+00,2.169311046600341797e+00,2.202985525131225586e+00,2.237721920013427734e+00,2.273571491241455078e+00,2.310588121414184570e+00,2.348830223083496094e+00,2.388359546661376953e+00,2.429241895675659180e+00,2.471548557281494141e+00,2.515354633331298828e+00,2.560741901397705078e+00,2.598763227462768555e+00,2.598417758941650391e+00,2.598072528839111328e+00,2.597727298736572266e+00,2.597382307052612305e+00,2.597037315368652344e+00,2.596692562103271484e+00,2.596347808837890625e+00,2.596003055572509766e+00,2.595658302307128906e+00,2.595313787460327148e+00,2.594969272613525391e+00,2.594624996185302734e+00,2.594280719757080078e+00,2.593936443328857422e+00,2.593592405319213867e+00,2.593248605728149414e+00,2.592904567718505859e+00,2.592560768127441406e+00,2.592217206954956055e+00,2.591873645782470703e+00,2.591529846191406250e+00,2.591186523437500000e+00,2.590843200683593750e+00,2.590499877929687500e+00,2.590156793594360352e+00,2.589813709259033203e+00,2.589470624923706055e+00,2.589127779006958008e+00,2.588785171508789062e+00,2.588442325592041016e+00,2.588099718093872070e+00,2.587757349014282227e+00,2.587414979934692383e+00,2.587072610855102539e+00,2.586730003356933594e+00,2.586387872695922852e+00,2.586045980453491211e+00,2.585704088211059570e+00,2.261225700378417969e+00,2.236383438110351562e+00,2.584678649902343750e+00,2.584336996078491211e+00,2.583995342254638672e+00,2.583653926849365234e+00,2.583312511444091797e+00,2.582971334457397461e+00,1.871104001998901367e+00,1.828456759452819824e+00,1.805400967597961426e+00,2.581607103347778320e+00,2.581266164779663086e+00,2.580925464630126953e+00,2.580585002899169922e+00,2.580244302749633789e+00,2.579904079437255859e+00,2.579563617706298828e+00,2.579223394393920898e+00,2.578882932662963867e+00,2.578542947769165039e+00,2.578202962875366211e+00
1.932909965515136719e+00,1.959599852561950684e+00,1.987037301063537598e+00,2.015253782272338867e+00,2.044283151626586914e+00,2.074161052703857422e+00,2.104925394058227539e+00,2.136615991592407227e+00,2.169275522232055664e+00,2.202948808670043945e+00,2.237684011459350586e+00,2.252548217773437500e+00,2.252288818359375000e+00,2.252029418945312500e+00,2.251770019531250000e+00,2.251510620117187500e+00,2.251251459121704102e+00,2.250992298126220703e+00,2.250733137130737305e+00,2.250474214553833008e+00,2.250215291976928711e+00,2.249956369400024414e+00,2.249697446823120117e+00,2.249438524246215820e+00,2.249179840087890625e+00,2.248921155929565430e+00,2.248662471771240234e+00,2.248403787612915039e+00,2.248145341873168945e+00,2.247886896133422852e+00,2.247628450393676758e+00,2.247370243072509766e+00,2.247112035751342773e+00,2.246853828430175781e+00,2.246595621109008789e+00,2.246337413787841797e+00,2.246079444885253906e+00,2.245821475982666016e+00,2.245563507080078125e+00,2.245305538177490234e+00,2.245047807693481445e+00,2.244790077209472656e+00,2.244532346725463867e+00,2.244274854660034180e+00,2.244017124176025391e+00,2.243759632110595703e+00,2.243502378463745117e+00,2.243244886398315430e+00,2.242987632751464844e+00,2.242730379104614258e+00,2.242472887039184570e+00,2.242215871810913086e+00,2.241958856582641602e+00,2.241701841354370117e+00,2.241444826126098633e+00,2.241187810897827148e+00,2.240931034088134766e+00,2.240674257278442383e+00,2.239038705825805664e+00,2.201428413391113281e+00,2.185817956924438477e+00,2.239647626876831055e+00,2.239391088485717773e+00,2.239134550094604492e+00,2.238878250122070312e+00,2.238621950149536133e+00,1.881717443466186523e+00,1.830932140350341797e+00,1.766879081726074219e+00,1.722386240959167480e+00,1.699609279632568359e+00,2.237085103988647461e+00,2.236829042434692383e+00,2.236573219299316406e+00,2.236317634582519531e+00,2.236061811447143555e+00,2.235805988311767578e+00,2.235550403594970703e+00,2.235294818878173828e+00,2.235039234161376953e+00
1.932881712913513184e+00,1.959571003913879395e+00,1.987007379531860352e+00,1.987735986709594727e+00,1.987534046173095703e+00,1.987331986427307129e+00,1.987130045890808105e+00,1.986928105354309082e+00,1.986726284027099609e+00,1.986524462699890137e+00,1.986322641372680664e+00,1.986120939254760742e+00,1.985919237136840820e+00,1.985717535018920898e+00,1.985515832901000977e+00,1.985314249992370605e+00,1.985112786293029785e+00,1.984911203384399414e+00,1.984709739685058594e+00,1.984508395195007324e+00,1.984306931495666504e+00,1.984105587005615234e+00,1.983904242515563965e+00,1.983703017234802246e+00,1.983501791954040527e+00,1.983300685882568359e+00,1.983099222183227539e+00,1.982898235321044922e+00,1.982697129249572754e+00,1.982496142387390137e+00,1.982295155525207520e+00,1.982094168663024902e+00,1.981893301010131836e+00,1.981692433357238770e+00,1.981491684913635254e+00,1.981290817260742188e+00,1.981090068817138672e+00,1.980889439582824707e+00,1.980688810348510742e+00,1.980488181114196777e+00,1.980287551879882812e+00,1.980087041854858398e+00,1.979886531829833984e+00,1.979686141014099121e+00,1.979485750198364258e+00,1.979285359382629395e+00,1.979084968566894531e+00,1.978884696960449219e+00,1.978684425354003906e+00,1.978484034538269043e+00,1.978283882141113281e+00,1.978083729743957520e+00,1.977883696556091309e+00,1.977683544158935547e+00,1.977483630180358887e+00,1.977283596992492676e+00,1.977083683013916016e+00,1.976883769035339355e+00,1.976683974266052246e+00,1.976484179496765137e+00,1.976284384727478027e+00,1.976084709167480469e+00,1.975885033607482910e+00,1.975685358047485352e+00,1.975485801696777344e+00,1.975286245346069336e+00,1.975086688995361328e+00,1.974887251853942871e+00,1.974687814712524414e+00,1.974488377571105957e+00,1.974288940429687500e+00,1.974089384078979492e+00,1.973890185356140137e+00,1.973690867424011230e+00,1.973491787910461426e+00,1.973292589187622070e+00,1.973093390464782715e+00,1.972894430160522461e+00,1.972695350646972656e+00,1.972496390342712402e+00
1.777828812599182129e+00,1.777667164802551270e+00,1.777505636215209961e+00,1.777343988418579102e+00,1.777182459831237793e+00,1.777021050453186035e+00,1.776859521865844727e+00,1.776698112487792969e+00,1.776536703109741211e+00,1.776375293731689453e+00,1.776213884353637695e+00,1.776052594184875488e+00,1.775891304016113281e+00,1.775730013847351074e+00,1.775568723678588867e+00,1.775407552719116211e+00,1.775246381759643555e+00,1.775085210800170898e+00,1.774924039840698242e+00,1.774762988090515137e+00,1.774601936340332031e+00,1.774440884590148926e+00,1.774279832839965820e+00,1.774118900299072266e+00,1.773957729339599609e+00,1.773796796798706055e+00,1.773635983467102051e+00,1.773475050926208496e+00,1.773314237594604492e+00,1.773153424263000488e+00,1.772992610931396484e+00,1.772831916809082031e+00,1.772671222686767578e+00,1.772510528564453125e+00,1.772349834442138672e+00,1.772189259529113770e+00,1.772028565406799316e+00,1.771867990493774414e+00,1.771707534790039062e+00,1.771546959877014160e+00,1.771386504173278809e+00,1.771226048469543457e+00,1.771065592765808105e+00,1.770905256271362305e+00,1.770744800567626953e+00,1.770584464073181152e+00,1.770424127578735352e+00,1.770263910293579102e+00,1.770103454589843750e+00,1.769943237304687500e+00,1.769783020019531250e+00,1.769622921943664551e+00,1.769462704658508301e+00,1.769302606582641602e+00,1.769142508506774902e+00,1.768982529640197754e+00,1.768822431564331055e+00,1.768662452697753906e+00,1.768502473831176758e+00,1.768342614173889160e+00,1.768182635307312012e+00,1.768022775650024414e+00,1.767862915992736816e+00,1.767703175544738770e+00,1.767543315887451172e+00,1.767383575439453125e+00,1.767223834991455078e+00,1.767064094543457031e+00,1.766904473304748535e+00,1.766744852066040039e+00,1.766585230827331543e+00,1.766425609588623047e+00,1.766265869140625000e+00,1.766106367111206055e+00,1.765946865081787109e+00,1.765787363052368164e+00,1.765627980232238770e+00,1.765468597412109375e+00,1.765309214591979980e+00,1.765149831771850586e+00
1.607623457908630371e+00,1.607491254806518555e+00,1.607359170913696289e+00,1.607227087020874023e+00,1.607095003128051758e+00,1.606962919235229492e+00,1.606830835342407227e+00,1.606698751449584961e+00,1.606566786766052246e+00,1.606434822082519531e+00,1.606302857398986816e+00,1.606170892715454102e+00,1.606038928031921387e+00,1.605907082557678223e+00,1.605775237083435059e+00,1.605643391609191895e+00,1.605511546134948730e+00,1.605379700660705566e+00,1.605247855186462402e+00,1.605116128921508789e+00,1.604984402656555176e+00,1.604852676391601562e+00,1.604720830917358398e+00,1.604589104652404785e+00,1.604457497596740723e+00,1.604325771331787109e+00,1.604194164276123047e+00,1.604062557220458984e+00,1.603931069374084473e+00,1.603799462318420410e+00,1.603667974472045898e+00,1.603536367416381836e+00,1.603404879570007324e+00,1.603273510932922363e+00,1.603142023086547852e+00,1.603010535240173340e+00,1.602879166603088379e+00,1.602747797966003418e+00,1.602616429328918457e+00,1.602485060691833496e+00,1.602353811264038086e+00,1.602222442626953125e+00,1.602091193199157715e+00,1.601959943771362305e+00,1.601828694343566895e+00,1.601697564125061035e+00,1.601566195487976074e+00,1.601435065269470215e+00,1.601303935050964355e+00,1.601172804832458496e+00,1.601041674613952637e+00,1.600910544395446777e+00,1.600779533386230469e+00,1.600648522377014160e+00,1.600517511367797852e+00,1.600386500358581543e+00,1.600255489349365234e+00,1.600124597549438477e+00,1.599993586540222168e+00,1.599862694740295410e+00,1.599731802940368652e+00,1.599600911140441895e+00,1.599470138549804688e+00,1.599339246749877930e+00,1.599208474159240723e+00,1.599077701568603516e+00,1.598946928977966309e+00,1.598816156387329102e+00,1.598685503005981445e+00,1.598554849624633789e+00,1.598424077033996582e+00,1.598293423652648926e+00,1.598162889480590820e+00,1.598032116889953613e+00,1.597901463508605957e+00,1.597770929336547852e+00,1.597640395164489746e+00,1.597509860992431641e+00,1.597379326820373535e+00,1.597248911857604980e+00
1.467160701751708984e+00,1.467050671577453613e+00,1.466940641403198242e+00,1.466830611228942871e+00,1.466720581054687500e+00,1.466610550880432129e+00,1.466500520706176758e+00,1.466390609741210938e+00,1.466280579566955566e+00,1.466170668601989746e+00,1.466060757637023926e+00,1.465950846672058105e+00,1.465840935707092285e+00,1.465731024742126465e+00,1.465621113777160645e+00,1.465511322021484375e+00,1.465401530265808105e+00,1.465291738510131836e+00,1.465181827545166016e+00,1.465072154998779297e+00,1.464962363243103027e+00,1.464852452278137207e+00,1.464742779731750488e+00,1.464632987976074219e+00,1.464523315429687500e+00,1.464413642883300781e+00,1.464303970336914062e+00,1.464194297790527344e+00,1.464084744453430176e+00,1.463975071907043457e+00,1.463865518569946289e+00,1.463755846023559570e+00,1.463646292686462402e+00,1.463536739349365234e+00,1.463427305221557617e+00,1.463317751884460449e+00,1.463208198547363281e+00,1.463098764419555664e+00,1.462989330291748047e+00,1.462879776954650879e+00,1.462770462036132812e+00,1.462661027908325195e+00,1.462551593780517578e+00,1.462442159652709961e+00,1.462332725524902344e+00,1.462223410606384277e+00,1.462113976478576660e+00,1.462004661560058594e+00,1.461895465850830078e+00,1.461786150932312012e+00,1.461676836013793945e+00,1.461567640304565430e+00,1.461458325386047363e+00,1.461349129676818848e+00,1.461239933967590332e+00,1.461130738258361816e+00,1.461021542549133301e+00,1.460912466049194336e+00,1.460803270339965820e+00,1.460694193840026855e+00,1.460585117340087891e+00,1.460475921630859375e+00,1.460366845130920410e+00,1.460257887840270996e+00,1.460148811340332031e+00,1.460039734840393066e+00,1.459930777549743652e+00,1.459821820259094238e+00,1.459712624549865723e+00,1.459603667259216309e+00,1.459494709968566895e+00,1.459385871887207031e+00,1.459276914596557617e+00,1.459168195724487305e+00,1.459059119224548340e+00,1.458950281143188477e+00,1.458841443061828613e+00,1.458732604980468750e+00,1.458623766899108887e+00,1.458515048027038574e+00
1.349270939826965332e+00,1.349177837371826172e+00,1.349084854125976562e+00,1.348991751670837402e+00,1.348898649215698242e+00,1.348805665969848633e+00,1.348712563514709473e+00,1.348619580268859863e+00,1.348526597023010254e+00,1.348433613777160645e+00,1.348340630531311035e+00,1.348247647285461426e+00,1.348154664039611816e+00,1.348061680793762207e+00,1.347968816757202148e+00,1.347875833511352539e+00,1.347782969474792480e+00,1.347690105438232422e+00,1.347597241401672363e+00,1.347504377365112305e+00,1.347411394119262695e+00,1.347318530082702637e+00,1.347225785255432129e+00,1.347132921218872070e+00,1.347040176391601562e+00,1.346947312355041504e+00,1.346854567527770996e+00,1.346761822700500488e+00,1.346669077873229980e+00,1.346576333045959473e+00,1.346483588218688965e+00,1.346390843391418457e+00,1.346298217773437500e+00,1.346205472946166992e+00,1.346112847328186035e+00,1.346020102500915527e+00,1.345927476882934570e+00,1.345834851264953613e+00,1.345742225646972656e+00,1.345649600028991699e+00,1.345557093620300293e+00,1.345464468002319336e+00,1.345371842384338379e+00,1.345279216766357422e+00,1.345186710357666016e+00,1.345094084739685059e+00,1.345001578330993652e+00,1.344909071922302246e+00,1.344816565513610840e+00,1.344724059104919434e+00,1.344631671905517578e+00,1.344539165496826172e+00,1.344446778297424316e+00,1.344354271888732910e+00,1.344261884689331055e+00,1.344169497489929199e+00,1.344077110290527344e+00,1.343984723091125488e+00,1.343892335891723633e+00,1.343799948692321777e+00,1.343707680702209473e+00,1.343615293502807617e+00,1.343523025512695312e+00,1.343430638313293457e+00,1.343338370323181152e+00,1.343246102333068848e+00,1.343153715133666992e+00,1.343061447143554688e+00,1.342969179153442383e+00,1.342877030372619629e+00,1.342784762382507324e+00,1.342692613601684570e+00,1.342600345611572266e+00,1.342508196830749512e+00,1.342416048049926758e+00,1.342323899269104004e+00,1.342231750488281250e+00,1.342139601707458496e+00,1.342047452926635742e+00,1.341955423355102539e+00
1.248917579650878906e+00,1.248837828636169434e+00,1.248758077621459961e+00,1.248678326606750488e+00,1.248598575592041016e+00,1.248518943786621094e+00,1.248439192771911621e+00,1.248359441757202148e+00,1.248279809951782227e+00,1.248200058937072754e+00,1.248120427131652832e+00,1.248040795326232910e+00,1.247961163520812988e+00,1.247881531715393066e+00,1.247801899909973145e+00,1.247722268104553223e+00,1.247642636299133301e+00,1.247563004493713379e+00,1.247483372688293457e+00,1.247403740882873535e+00,1.247324109077453613e+00,1.247244596481323242e+00,1.247165083885192871e+00,1.247085571289062500e+00,1.247005939483642578e+00,1.246926426887512207e+00,1.246846914291381836e+00,1.246767401695251465e+00,1.246688008308410645e+00,1.246608495712280273e+00,1.246528983116149902e+00,1.246449589729309082e+00,1.246370077133178711e+00,1.246290683746337891e+00,1.246211290359497070e+00,1.246131777763366699e+00,1.246052384376525879e+00,1.245972990989685059e+00,1.245893597602844238e+00,1.245814204216003418e+00,1.245734930038452148e+00,1.245655536651611328e+00,1.245576024055480957e+00,1.245496749877929688e+00,1.245417356491088867e+00,1.245338082313537598e+00,1.245258808135986328e+00,1.245179533958435059e+00,1.245100140571594238e+00,1.245020866394042969e+00,1.244941711425781250e+00,1.244862437248229980e+00,1.244783163070678711e+00,1.244703888893127441e+00,1.244624733924865723e+00,1.244545459747314453e+00,1.244466304779052734e+00,1.244387030601501465e+00,1.244307875633239746e+00,1.244228720664978027e+00,1.244149565696716309e+00,1.244070410728454590e+00,1.243991255760192871e+00,1.243912100791931152e+00,1.243832945823669434e+00,1.243753790855407715e+00,1.243674635887145996e+00,1.243595600128173828e+00,1.243516445159912109e+00,1.243437409400939941e+00,1.243358373641967773e+00,1.243279337882995605e+00,1.243200302124023438e+00,1.243121266365051270e+00,1.243042230606079102e+00,1.242963194847106934e+00,1.242884159088134766e+00,1.242805123329162598e+00,1.242726206779479980e+00,1.242647171020507812e+00
1.162458658218383789e+00,1.162389516830444336e+00,1.162320375442504883e+00,1.162251353263854980e+00,1.162182211875915527e+00,1.162113189697265625e+00,1.162044167518615723e+00,1.161975026130676270e+00,1.161906003952026367e+00,1.161836981773376465e+00,1.161767959594726562e+00,1.161698937416076660e+00,1.161629915237426758e+00,1.161560893058776855e+00,1.161491870880126953e+00,1.161422967910766602e+00,1.161353826522827148e+00,1.161284923553466797e+00,1.161215901374816895e+00,1.161146998405456543e+00,1.161077976226806641e+00,1.161009073257446289e+00,1.160940170288085938e+00,1.160871267318725586e+00,1.160802364349365234e+00,1.160733461380004883e+00,1.160664558410644531e+00,1.160595655441284180e+00,1.160526752471923828e+00,1.160457849502563477e+00,1.160388946533203125e+00,1.160320162773132324e+00,1.160251259803771973e+00,1.160182476043701172e+00,1.160113573074340820e+00,1.160044789314270020e+00,1.159976005554199219e+00,1.159907102584838867e+00,1.159838318824768066e+00,1.159769535064697266e+00,1.159700751304626465e+00,1.159631967544555664e+00,1.159563183784484863e+00,1.159494400024414062e+00,1.159425616264343262e+00,1.159356832504272461e+00,1.159288167953491211e+00,1.159219384193420410e+00,1.159150719642639160e+00,1.159081935882568359e+00,1.159013271331787109e+00,1.158944606781005859e+00,1.158875942230224609e+00,1.158807277679443359e+00,1.158738613128662109e+00,1.158669948577880859e+00,1.158601284027099609e+00,1.158532619476318359e+00,1.158463954925537109e+00,1.158395290374755859e+00,1.158326745033264160e+00,1.158258080482482910e+00,1.158189535140991211e+00,1.158120870590209961e+00,1.158052206039428711e+00,1.157983660697937012e+00,1.157915115356445312e+00,1.157846570014953613e+00,1.157778024673461914e+00,1.157709479331970215e+00,1.157640933990478516e+00,1.157572388648986816e+00,1.157503843307495117e+00,1.157435297966003418e+00,1.157366871833801270e+00,1.157298326492309570e+00,1.157229781150817871e+00,1.157161355018615723e+00,1.157092928886413574e+00,1.157024383544921875e+00
1.087195158004760742e+00,1.087134718894958496e+00,1.087074279785156250e+00,1.087013840675354004e+00,1.086953401565551758e+00,1.086892962455749512e+00,1.086832523345947266e+00,1.086772203445434570e+00,1.086711764335632324e+00,1.086651444435119629e+00,1.086591005325317383e+00,1.086530566215515137e+00,1.086470246315002441e+00,1.086409926414489746e+00,1.086349487304687500e+00,1.086289167404174805e+00,1.086228728294372559e+00,1.086168408393859863e+00,1.086108088493347168e+00,1.086047768592834473e+00,1.085987448692321777e+00,1.085927128791809082e+00,1.085866808891296387e+00,1.085806608200073242e+00,1.085746288299560547e+00,1.085685968399047852e+00,1.085625648498535156e+00,1.085565447807312012e+00,1.085505127906799316e+00,1.085444927215576172e+00,1.085384726524353027e+00,1.085324406623840332e+00,1.085264205932617188e+00,1.085204005241394043e+00,1.085143685340881348e+00,1.085083484649658203e+00,1.085023283958435059e+00,1.084963083267211914e+00,1.084902882575988770e+00,1.084842681884765625e+00,1.084782481193542480e+00,1.084722280502319336e+00,1.084662079811096191e+00,1.084601998329162598e+00,1.084541797637939453e+00,1.084481596946716309e+00,1.084421515464782715e+00,1.084361314773559570e+00,1.084301233291625977e+00,1.084241151809692383e+00,1.084180951118469238e+00,1.084120869636535645e+00,1.084060788154602051e+00,1.084000706672668457e+00,1.083940625190734863e+00,1.083880543708801270e+00,1.083820462226867676e+00,1.083760380744934082e+00,1.083700299263000488e+00,1.083640217781066895e+00,1.083580255508422852e+00,1.083520174026489258e+00,1.083460092544555664e+00,1.083400011062622070e+00,1.083340048789978027e+00,1.083279967308044434e+00,1.083220005035400391e+00,1.083159923553466797e+00,1.083099961280822754e+00,1.083039999008178711e+00,1.082980036735534668e+00,1.082920074462890625e+00,1.082859992980957031e+00,1.082800030708312988e+00,1.082740187644958496e+00,1.082680225372314453e+00,1.082620263099670410e+00,1.082560300827026367e+00,1.082500338554382324e+00,1.082440495491027832e+00
1.021084904670715332e+00,1.021031618118286133e+00,1.020978331565856934e+00,1.020925045013427734e+00,1.020871758460998535e+00,1.020818471908569336e+00,1.020765185356140137e+00,1.020711898803710938e+00,1.020658612251281738e+00,1.020605325698852539e+00,1.020552039146423340e+00,1.020498752593994141e+00,1.020445466041564941e+00,1.020392298698425293e+00,1.020338892936706543e+00,1.020285725593566895e+00,1.020232439041137695e+00,1.020179271697998047e+00,1.020125985145568848e+00,1.020072817802429199e+00,1.020019650459289551e+00,1.019966363906860352e+00,1.019913196563720703e+00,1.019860029220581055e+00,1.019806861877441406e+00,1.019753575325012207e+00,1.019700407981872559e+00,1.019647240638732910e+00,1.019594073295593262e+00,1.019540905952453613e+00,1.019487738609313965e+00,1.019434690475463867e+00,1.019381523132324219e+00,1.019328355789184570e+00,1.019275188446044922e+00,1.019222140312194824e+00,1.019168972969055176e+00,1.019115805625915527e+00,1.019062638282775879e+00,1.019009590148925781e+00,1.018956422805786133e+00,1.018903374671936035e+00,1.018850326538085938e+00,1.018797159194946289e+00,1.018744111061096191e+00,1.018691062927246094e+00,1.018638014793395996e+00,1.018584966659545898e+00,1.018531918525695801e+00,1.018478870391845703e+00,1.018425822257995605e+00,1.018372774124145508e+00,1.018319725990295410e+00,1.018266677856445312e+00,1.018213629722595215e+00,1.018160581588745117e+00,1.018107652664184570e+00,1.018054604530334473e+00,1.018001556396484375e+00,1.017948627471923828e+00,1.017895579338073730e+00,1.017842531204223633e+00,1.017789602279663086e+00,1.017736673355102539e+00,1.017683625221252441e+00,1.017630696296691895e+00,1.017577767372131348e+00,1.017524838447570801e+00,1.017471790313720703e+00,1.017418861389160156e+00,1.017365932464599609e+00,1.017313003540039062e+00,1.017260074615478516e+00,1.017207145690917969e+00,1.017154335975646973e+00,1.017101407051086426e+00,1.017048478126525879e+00,1.016995549201965332e+00,1.016942739486694336e+00,1.016889810562133789e+00
9.625540375709533691e-01,9.625066518783569336e-01,9.624592661857604980e-01,9.624118804931640625e-01,9.623644948005676270e-01,9.623171687126159668e-01,9.622697830200195312e-01,9.622224569320678711e-01,9.621750712394714355e-01,9.621277451515197754e-01,9.620804190635681152e-01,9.620330929756164551e-01,9.619856476783752441e-01,9.619383215904235840e-01,9.618909955024719238e-01,9.618436694145202637e-01,9.617963433265686035e-01,9.617490768432617188e-01,9.617017507553100586e-01,9.616544842720031738e-01,9.616071581840515137e-01,9.615598917007446289e-01,9.615126252174377441e-01,9.614653587341308594e-01,9.614180922508239746e-01,9.613708257675170898e-01,9.613235592842102051e-01,9.612762928009033203e-01,9.612290263175964355e-01,9.611817598342895508e-01,9.611345529556274414e-01,9.610872864723205566e-01,9.610400795936584473e-01,9.609928131103515625e-01,9.609456062316894531e-01,9.608983993530273438e-01,9.608511328697204590e-01,9.608039259910583496e-01,9.607567191123962402e-01,9.607095122337341309e-01,9.606623053550720215e-01,9.606151580810546875e-01,9.605679512023925781e-01,9.605207443237304688e-01,9.604735970497131348e-01,9.604263901710510254e-01,9.603792428970336914e-01,9.603320956230163574e-01,9.602848887443542480e-01,9.602377414703369141e-01,9.601905941963195801e-01,9.601434469223022461e-01,9.600962996482849121e-01,9.600491523742675781e-01,9.600020647048950195e-01,9.599549174308776855e-01,9.599077701568603516e-01,9.598606824874877930e-01,9.598135352134704590e-01,9.597663283348083496e-01,9.597192406654357910e-01,9.596720933914184570e-01,9.596250057220458984e-01,9.595779180526733398e-01,9.595308303833007812e-01,9.594837427139282227e-01,9.594366550445556641e-01,9.593896269798278809e-01,9.593425393104553223e-01,9.592954516410827637e-01,9.592484235763549805e-01,9.592013359069824219e-01,9.591543078422546387e-01,9.591072797775268555e-01,9.590601921081542969e-01,9.590131640434265137e-01,9.589661359786987305e-01,9.589191079139709473e-01,9.588720798492431641e-01,9.588250517845153809e-01
9.103693962097167969e-01,9.103270173072814941e-01,9.102846384048461914e-01,9.102422595024108887e-01,9.101998805999755859e-01,9.101575613021850586e-01,9.101151823997497559e-01,9.100728034973144531e-01,9.100304841995239258e-01,9.099881052970886230e-01,9.099457859992980957e-01,9.099034070968627930e-01,9.098610877990722656e-01,9.098187685012817383e-01,9.097763895988464355e-01,9.097340703010559082e-01,9.096917510032653809e-01,9.096494317054748535e-01,9.096071124076843262e-01,9.095647931098937988e-01,9.095225334167480469e-01,9.094802141189575195e-01,9.094378948211669922e-01,9.093956351280212402e-01,9.093533158302307129e-01,9.093110561370849609e-01,9.092687368392944336e-01,9.092264771461486816e-01,9.091842174530029297e-01,9.091418981552124023e-01,9.090996384620666504e-01,9.090573787689208984e-01,9.090151190757751465e-01,9.089728593826293945e-01,9.089305400848388672e-01,9.088882803916931152e-01,9.088460206985473633e-01,9.088038206100463867e-01,9.087615609169006348e-01,9.087193012237548828e-01,9.086771011352539062e-01,9.086349010467529297e-01,9.085926413536071777e-01,9.085504412651062012e-01,9.085082411766052246e-01,9.084660410881042480e-01,9.084237813949584961e-01,9.083816409111022949e-01,9.083394408226013184e-01,9.082972407341003418e-01,9.082550406455993652e-01,9.082128405570983887e-01,9.081706404685974121e-01,9.081284999847412109e-01,9.080862998962402344e-01,9.080441594123840332e-01,9.080019593238830566e-01,9.079598188400268555e-01,9.079176783561706543e-01,9.078755378723144531e-01,9.078333377838134766e-01,9.077911972999572754e-01,9.077490568161010742e-01,9.077069163322448730e-01,9.076647758483886719e-01,9.076226353645324707e-01,9.075805544853210449e-01,9.075384140014648438e-01,9.074962735176086426e-01,9.074541926383972168e-01,9.074120521545410156e-01,9.073699712753295898e-01,9.073278903961181641e-01,9.072857499122619629e-01,9.072436690330505371e-01,9.072015881538391113e-01,9.071595072746276855e-01,9.071174263954162598e-01,9.070753455162048340e-01,9.070332646369934082e-01
8.635522723197937012e-01,8.635141253471374512e-01,8.634759783744812012e-01,8.634378910064697266e-01,8.633997440338134766e-01,8.633615970611572266e-01,8.633235096931457520e-01,8.632853627204895020e-01,8.632472753524780273e-01,8.632090687751770020e-01,8.631709814071655273e-01,8.631328940391540527e-01,8.630947470664978027e-01,8.630566596984863281e-01,8.630185723304748535e-01,8.629804849624633789e-01,8.629423975944519043e-01,8.629043102264404297e-01,8.628662824630737305e-01,8.628281950950622559e-01,8.627901077270507812e-01,8.627520203590393066e-01,8.627139925956726074e-01,8.626759052276611328e-01,8.626378774642944336e-01,8.625997900962829590e-01,8.625617623329162598e-01,8.625236749649047852e-01,8.624856472015380859e-01,8.624476194381713867e-01,8.624095916748046875e-01,8.623715639114379883e-01,8.623335361480712891e-01,8.622955083847045898e-01,8.622574806213378906e-01,8.622194528579711914e-01,8.621814250946044922e-01,8.621433973312377930e-01,8.621053695678710938e-01,8.620674014091491699e-01,8.620293736457824707e-01,8.619914054870605469e-01,8.619533777236938477e-01,8.619154095649719238e-01,8.618773818016052246e-01,8.618394136428833008e-01,8.618014454841613770e-01,8.617634773254394531e-01,8.617254495620727539e-01,8.616874814033508301e-01,8.616495132446289062e-01,8.616115450859069824e-01,8.615735769271850586e-01,8.615356087684631348e-01,8.614977002143859863e-01,8.614597320556640625e-01,8.614217042922973633e-01,8.613837361335754395e-01,8.613457679748535156e-01,8.613078594207763672e-01,8.612698912620544434e-01,8.612319827079772949e-01,8.611940741539001465e-01,8.611561059951782227e-01,8.611181974411010742e-01,8.610802888870239258e-01,8.610423803329467773e-01,8.610044717788696289e-01,8.609665632247924805e-01,8.609286546707153320e-01,8.608907461166381836e-01,8.608528375625610352e-01,8.608149290084838867e-01,8.607770204544067383e-01,8.607391715049743652e-01,8.607012629508972168e-01,8.606633543968200684e-01,8.606255054473876953e-01,8.605875968933105469e-01,8.605497479438781738e-01
8.213148117065429688e-01,8.212803006172180176e-01,8.212457895278930664e-01,8.212113380432128906e-01,8.211768269538879395e-01,8.211423754692077637e-01,8.211078643798828125e-01,8.210734128952026367e-01,8.210389018058776855e-01,8.210044503211975098e-01,8.209699988365173340e-01,8.209354877471923828e-01,8.209010362625122070e-01,8.208665847778320312e-01,8.208321332931518555e-01,8.207976818084716797e-01,8.207632303237915039e-01,8.207287788391113281e-01,8.206943273544311523e-01,8.206598758697509766e-01,8.206254243850708008e-01,8.205910325050354004e-01,8.205565810203552246e-01,8.205221295356750488e-01,8.204877376556396484e-01,8.204532861709594727e-01,8.204188942909240723e-01,8.203844428062438965e-01,8.203500509262084961e-01,8.203155994415283203e-01,8.202812075614929199e-01,8.202466964721679688e-01,8.202123045921325684e-01,8.201779127120971680e-01,8.201435208320617676e-01,8.201091289520263672e-01,8.200747370719909668e-01,8.200403451919555664e-01,8.200059533119201660e-01,8.199715614318847656e-01,8.199371695518493652e-01,8.199027776718139648e-01,8.198683857917785645e-01,8.198340535163879395e-01,8.197996616363525391e-01,8.197652697563171387e-01,8.197309374809265137e-01,8.196965456008911133e-01,8.196622133255004883e-01,8.196278214454650879e-01,8.195934891700744629e-01,8.195591568946838379e-01,8.195247650146484375e-01,8.194904327392578125e-01,8.194561004638671875e-01,8.194217681884765625e-01,8.193874359130859375e-01,8.193531036376953125e-01,8.193187713623046875e-01,8.192844390869140625e-01,8.192501068115234375e-01,8.192157745361328125e-01,8.191814422607421875e-01,8.191471099853515625e-01,8.191128373146057129e-01,8.190785050392150879e-01,8.190442323684692383e-01,8.190099000930786133e-01,8.189755678176879883e-01,8.189412951469421387e-01,8.189070224761962891e-01,8.188726902008056641e-01,8.188384175300598145e-01,8.188041448593139648e-01,8.187698125839233398e-01,8.187355399131774902e-01,8.187012672424316406e-01,8.186669945716857910e-01,8.186326622962951660e-01,8.185983896255493164e-01
7.830165624618530273e-01,7.829852104187011719e-01,7.829538583755493164e-01,7.829225063323974609e-01,7.828911542892456055e-01,7.828598022460937500e-01,7.828283905982971191e-01,7.827970385551452637e-01,7.827656865119934082e-01,7.827343940734863281e-01,7.827030420303344727e-01,7.826716899871826172e-01,7.826403975486755371e-01,7.826090455055236816e-01,7.825777530670166016e-01,7.825464010238647461e-01,7.825151085853576660e-01,7.824838161468505859e-01,7.824524641036987305e-01,7.824211716651916504e-01,7.823898792266845703e-01,7.823585867881774902e-01,7.823272347450256348e-01,7.822959423065185547e-01,7.822646498680114746e-01,7.822333574295043945e-01,7.822020649909973145e-01,7.821707725524902344e-01,7.821394801139831543e-01,7.821081876754760742e-01,7.820769548416137695e-01,7.820456624031066895e-01,7.820143699645996094e-01,7.819830775260925293e-01,7.819518446922302246e-01,7.819205522537231445e-01,7.818893194198608398e-01,7.818580269813537598e-01,7.818267941474914551e-01,7.817955017089843750e-01,7.817642688751220703e-01,7.817329764366149902e-01,7.817017436027526855e-01,7.816705107688903809e-01,7.816392779350280762e-01,7.816079854965209961e-01,7.815767526626586914e-01,7.815455198287963867e-01,7.815142869949340820e-01,7.814830541610717773e-01,7.814518213272094727e-01,7.814205884933471680e-01,7.813893556594848633e-01,7.813580632209777832e-01,7.813268303871154785e-01,7.812956571578979492e-01,7.812644243240356445e-01,7.812331914901733398e-01,7.812020182609558105e-01,7.811707854270935059e-01,7.811395525932312012e-01,7.811083793640136719e-01,7.810771465301513672e-01,7.810459733009338379e-01,7.810148000717163086e-01,7.809835672378540039e-01,7.809523940086364746e-01,7.809212207794189453e-01,7.808899879455566406e-01,7.808588147163391113e-01,7.808276414871215820e-01,7.807964682579040527e-01,7.807652950286865234e-01,7.807341217994689941e-01,7.807029485702514648e-01,7.806717753410339355e-01,7.806406021118164062e-01,7.806094288825988770e-01,7.805782556533813477e-01,7.805471420288085938e-01
7.481307983398437500e-01,7.481021881103515625e-01,7.480735778808593750e-01,7.480449676513671875e-01,7.480162978172302246e-01,7.479876875877380371e-01,7.479590773582458496e-01,7.479304671287536621e-01,7.479018568992614746e-01,7.478733062744140625e-01,7.478446960449218750e-01,7.478160858154296875e-01,7.477874755859375000e-01,7.477588653564453125e-01,7.477303147315979004e-01,7.477017045021057129e-01,7.476730942726135254e-01,7.476445436477661133e-01,7.476159334182739258e-01,7.475873231887817383e-01,7.475587725639343262e-01,7.475301623344421387e-01,7.475016117095947266e-01,7.474730610847473145e-01,7.474444508552551270e-01,7.474159002304077148e-01,7.473873496055603027e-01,7.473587393760681152e-01,7.473301291465759277e-01,7.473015785217285156e-01,7.472730278968811035e-01,7.472444772720336914e-01,7.472159266471862793e-01,7.471873760223388672e-01,7.471588253974914551e-01,7.471302747726440430e-01,7.471017241477966309e-01,7.470731735229492188e-01,7.470446228981018066e-01,7.470160722732543945e-01,7.469875216484069824e-01,7.469590306282043457e-01,7.469304800033569336e-01,7.469019293785095215e-01,7.468734383583068848e-01,7.468448877334594727e-01,7.468163371086120605e-01,7.467878460884094238e-01,7.467592954635620117e-01,7.467308044433593750e-01,7.467022538185119629e-01,7.466737627983093262e-01,7.466452717781066895e-01,7.466167807579040527e-01,7.465882301330566406e-01,7.465597391128540039e-01,7.465312480926513672e-01,7.465027570724487305e-01,7.464742660522460938e-01,7.464457154273986816e-01,7.464172244071960449e-01,7.463887333869934082e-01,7.463602423667907715e-01,7.463317513465881348e-01,7.463033199310302734e-01,7.462748289108276367e-01,7.462463378906250000e-01,7.462178468704223633e-01,7.461893558502197266e-01,7.461609244346618652e-01,7.461324334144592285e-01,7.461039423942565918e-01,7.460755109786987305e-01,7.460470199584960938e-01,7.460185885429382324e-01,7.459900975227355957e-01,7.459615468978881836e-01,7.459331154823303223e-01,7.459046840667724609e-01,7.458761930465698242e-01
