3.101155519485473633e+00,3.179617404937744141e+00,3.262148618698120117e+00,3.349078655242919922e+00,3.440768480300903320e+00,3.537619829177856445e+00,3.640081882476806641e+00,3.748656272888183594e+00,3.863906621932983398e+00,3.986468315124511719e+00,4.117060184478759766e+00,4.256497859954833984e+00,4.405711650848388672e+00,4.565766811370849609e+00,4.737889766693115234e+00,4.923499107360839844e+00,5.000000000000000000e+00,5.000000000000000000e+00,5.000000000000000000e+00,5.000000000000000000e+00,5.000000000000000000e+00,5.000000000000000000e+00,5.000000000000000000e+00,5.000000000000000000e+00,5.000000000000000000e+00,5.000000000000000000e+00,5.000000000000000000e+00,5.000000000000000000e+00,5.000000000000000000e+00,5.000000000000000000e+00,5.000000000000000000e+00,5.000000000000000000e+00,5.000000000000000000e+00,5.000000000000000000e+00,1.404547095298767090e+00,1.395683765411376953e+00,1.402657151222229004e+00,1.424338340759277344e+00,1.401549220085144043e+00,1.376679301261901855e+00,1.386517643928527832e+00,1.393588185310363770e+00,1.425207138061523438e+00,1.437283039093017578e+00,1.449565649032592773e+00,1.472839236259460449e+00,1.679912209510803223e+00,1.706713080406188965e+00,5.000000000000000000e+00,5.000000000000000000e+00,5.000000000000000000e+00,5.000000000000000000e+00,5.000000000000000000e+00,5.000000000000000000e+00,5.000000000000000000e+00,5.000000000000000000e+00,5.000000000000000000e+00,5.000000000000000000e+00,5.000000000000000000e+00,5.000000000000000000e+00,5.000000000000000000e+00,5.000000000000000000e+00,5.000000000000000000e+00,5.000000000000000000e+00,5.000000000000000000e+00,5.000000000000000000e+00,5.000000000000000000e+00,5.000000000000000000e+00,5.000000000000000000e+00,5.000000000000000000e+00,4.846920967102050781e+00,4.687944412231445312e+00,4.539064884185791016e+00,4.399335861206054688e+00,4.267914295196533203e+00,4.144117355346679688e+00,4.027299404144287109e+00,3.916887521743774414e+00,3.812367677688598633e+00,3.713280916213989258e+00
3.101089239120483398e+00,3.179550170898437500e+00,3.262081861495971680e+00,3.349008083343505859e+00,3.440693855285644531e+00,3.537541151046752930e+00,3.639998674392700195e+00,3.748567819595336914e+00,3.863812685012817383e+00,3.986368417739868164e+00,4.116953849792480469e+00,4.256383895874023438e+00,4.405589580535888672e+00,4.565635681152343750e+00,4.737748622894287109e+00,4.923346519470214844e+00,5.000000000000000000e+00,5.000000000000000000e+00,5.000000000000000000e+00,5.000000000000000000e+00,5.000000000000000000e+00,5.000000000000000000e+00,5.000000000000000000e+00,5.000000000000000000e+00,5.000000000000000000e+00,5.000000000000000000e+00,5.000000000000000000e+00,5.000000000000000000e+00,5.000000000000000000e+00,5.000000000000000000e+00,5.000000000000000000e+00,5.000000000000000000e+00,5.000000000000000000e+00,5.000000000000000000e+00,1.407251715660095215e+00,1.390592098236083984e+00,1.389555692672729492e+00,1.418580889701843262e+00,1.387575268745422363e+00,1.350117802619934082e+00,1.346028566360473633e+00,1.347172260284423828e+00,1.348321199417114258e+00,1.448773860931396484e+00,1.452793121337890625e+00,1.491481661796569824e+00,1.522699117660522461e+00,1.687481999397277832e+00,5.000000000000000000e+00,5.000000000000000000e+00,5.000000000000000000e+00,5.000000000000000000e+00,5.000000000000000000e+00,5.000000000000000000e+00,5.000000000000000000e+00,5.000000000000000000e+00,5.000000000000000000e+00,5.000000000000000000e+00,5.000000000000000000e+00,5.000000000000000000e+00,5.000000000000000000e+00,5.000000000000000000e+00,5.000000000000000000e+00,5.000000000000000000e+00,5.000000000000000000e+00,5.000000000000000000e+00,5.000000000000000000e+00,5.000000000000000000e+00,5.000000000000000000e+00,5.000000000000000000e+00,4.847139835357666016e+00,4.688148498535156250e+00,4.539233207702636719e+00,4.399453639984130859e+00,4.268025398254394531e+00,4.144221782684326172e+00,4.027398109436035156e+00,3.916980743408203125e+00,3.812456130981445312e+00,3.713364839553833008e+00
3.101022720336914062e+00,3.179480314254760742e+00,3.262011289596557617e+00,3.348937511444091797e+00,3.440619468688964844e+00,3.537462472915649414e+00,3.639915227890014648e+00,3.748479366302490234e+00,3.863718986511230469e+00,3.986268520355224609e+00,4.116847038269042969e+00,4.256269931793212891e+00,4.405467510223388672e+00,4.565504550933837891e+00,4.737607479095458984e+00,4.923193931579589844e+00,5.000000000000000000e+00,5.000000000000000000e+00,5.000000000000000000e+00,5.000000000000000000e+00,5.000000000000000000e+00,5.000000000000000000e+00,5.000000000000000000e+00,5.000000000000000000e+00,5.000000000000000000e+00,5.000000000000000000e+00,5.000000000000000000e+00,5.000000000000000000e+00,5.000000000000000000e+00,5.000000000000000000e+00,5.000000000000000000e+00,5.000000000000000000e+00,5.000000000000000000e+00,5.000000000000000000e+00,1.418671965599060059e+00,1.380885839462280273e+00,1.372679233551025391e+00,1.386245369911193848e+00,1.370988368988037109e+00,1.339659810066223145e+00,1.333548903465270996e+00,1.334367990493774414e+00,1.335188031196594238e+00,1.336187124252319336e+00,1.472050786018371582e+00,1.510602116584777832e+00,1.521745085716247559e+00,1.671904802322387695e+00,5.000000000000000000e+00,5.000000000000000000e+00,5.000000000000000000e+00,5.000000000000000000e+00,5.000000000000000000e+00,5.000000000000000000e+00,5.000000000000000000e+00,5.000000000000000000e+00,5.000000000000000000e+00,5.000000000000000000e+00,5.000000000000000000e+00,5.000000000000000000e+00,5.000000000000000000e+00,5.000000000000000000e+00,5.000000000000000000e+00,5.000000000000000000e+00,5.000000000000000000e+00,5.000000000000000000e+00,5.000000000000000000e+00,5.000000000000000000e+00,5.000000000000000000e+00,5.000000000000000000e+00,4.847358226776123047e+00,4.688320159912109375e+00,4.539358615875244141e+00,4.399571418762207031e+00,4.268136024475097656e+00,4.144326210021972656e+00,4.027496814727783203e+00,3.917073965072631836e+00,3.812544584274291992e+00,3.713448524475097656e+00
3.100956201553344727e+00,3.179410457611083984e+00,3.261937856674194336e+00,3.348863363265991211e+00,3.440545082092285156e+00,3.537383794784545898e+00,3.639832019805908203e+00,3.748391151428222656e+00,3.863625049591064453e+00,3.986168622970581055e+00,4.116740703582763672e+00,4.256155967712402344e+00,4.405345439910888672e+00,4.565373420715332031e+00,4.737466335296630859e+00,4.923041343688964844e+00,5.000000000000000000e+00,5.000000000000000000e+00,5.000000000000000000e+00,5.000000000000000000e+00,5.000000000000000000e+00,5.000000000000000000e+00,5.000000000000000000e+00,5.000000000000000000e+00,5.000000000000000000e+00,5.000000000000000000e+00,5.000000000000000000e+00,5.000000000000000000e+00,5.000000000000000000e+00,5.000000000000000000e+00,5.000000000000000000e+00,5.000000000000000000e+00,5.000000000000000000e+00,5.000000000000000000e+00,5.000000000000000000e+00,1.374204158782958984e+00,1.365726828575134277e+00,1.371245384216308594e+00,1.365970253944396973e+00,1.332778453826904297e+00,1.322750806808471680e+00,1.323646426200866699e+00,1.324543237686157227e+00,1.325441360473632812e+00,1.377008318901062012e+00,1.503372669219970703e+00,1.513935565948486328e+00,1.666591644287109375e+00,5.000000000000000000e+00,5.000000000000000000e+00,5.000000000000000000e+00,5.000000000000000000e+00,5.000000000000000000e+00,5.000000000000000000e+00,5.000000000000000000e+00,5.000000000000000000e+00,5.000000000000000000e+00,5.000000000000000000e+00,5.000000000000000000e+00,5.000000000000000000e+00,5.000000000000000000e+00,5.000000000000000000e+00,5.000000000000000000e+00,5.000000000000000000e+00,5.000000000000000000e+00,5.000000000000000000e+00,5.000000000000000000e+00,5.000000000000000000e+00,5.000000000000000000e+00,5.000000000000000000e+00,4.847532749176025391e+00,4.688453674316406250e+00,4.539483547210693359e+00,4.399688720703125000e+00,4.268246650695800781e+00,4.144430637359619141e+00,4.027595520019531250e+00,3.917167186737060547e+00,3.812632799148559570e+00,3.713532447814941406e+00
3.100889682769775391e+00,3.179340600967407227e+00,3.261864185333251953e+00,3.348785877227783203e+00,3.440467119216918945e+00,3.537305593490600586e+00,3.639749050140380859e+00,3.748303174972534180e+00,3.863531589508056641e+00,3.986069202423095703e+00,4.116634368896484375e+00,4.256042480468750000e+00,4.405223846435546875e+00,4.565242767333984375e+00,4.737325668334960938e+00,4.922889232635498047e+00,5.000000000000000000e+00,5.000000000000000000e+00,5.000000000000000000e+00,5.000000000000000000e+00,5.000000000000000000e+00,5.000000000000000000e+00,5.000000000000000000e+00,5.000000000000000000e+00,5.000000000000000000e+00,5.000000000000000000e+00,5.000000000000000000e+00,5.000000000000000000e+00,5.000000000000000000e+00,5.000000000000000000e+00,5.000000000000000000e+00,5.000000000000000000e+00,5.000000000000000000e+00,5.000000000000000000e+00,5.000000000000000000e+00,1.373156309127807617e+00,1.368132591247558594e+00,1.407079815864562988e+00,1.360046505928039551e+00,1.335672259330749512e+00,1.314610481262207031e+00,1.314271807670593262e+00,1.315080285072326660e+00,1.315965533256530762e+00,1.340753555297851562e+00,1.490097641944885254e+00,1.498681306838989258e+00,1.666301131248474121e+00,1.679407000541687012e+00,5.000000000000000000e+00,5.000000000000000000e+00,5.000000000000000000e+00,5.000000000000000000e+00,5.000000000000000000e+00,5.000000000000000000e+00,5.000000000000000000e+00,5.000000000000000000e+00,5.000000000000000000e+00,5.000000000000000000e+00,5.000000000000000000e+00,5.000000000000000000e+00,5.000000000000000000e+00,5.000000000000000000e+00,5.000000000000000000e+00,5.000000000000000000e+00,5.000000000000000000e+00,5.000000000000000000e+00,5.000000000000000000e+00,5.000000000000000000e+00,5.000000000000000000e+00,4.847675800323486328e+00,4.688587188720703125e+00,4.539608955383300781e+00,4.399806499481201172e+00,4.268357276916503906e+00,4.144534587860107422e+00,4.027693748474121094e+00,3.917260169982910156e+00,3.812720775604248047e+00,3.713615894317626953e+00
3.100823163986206055e+00,3.179270505905151367e+00,3.261790752410888672e+00,3.348708152770996094e+00,3.440385341644287109e+00,3.537222862243652344e+00,3.639665842056274414e+00,3.748214721679687500e+00,3.863437652587890625e+00,3.985969305038452148e+00,4.116527557373046875e+00,4.255928516387939453e+00,4.405101776123046875e+00,4.565111637115478516e+00,4.737184524536132812e+00,4.922737121582031250e+00,5.000000000000000000e+00,5.000000000000000000e+00,5.000000000000000000e+00,5.000000000000000000e+00,5.000000000000000000e+00,5.000000000000000000e+00,5.000000000000000000e+00,5.000000000000000000e+00,5.000000000000000000e+00,5.000000000000000000e+00,5.000000000000000000e+00,5.000000000000000000e+00,5.000000000000000000e+00,5.000000000000000000e+00,5.000000000000000000e+00,5.000000000000000000e+00,5.000000000000000000e+00,5.000000000000000000e+00,5.000000000000000000e+00,1.372497916221618652e+00,1.356996417045593262e+00,1.359714508056640625e+00,1.363770723342895508e+00,1.338578581809997559e+00,1.314854025840759277e+00,1.306439161300659180e+00,1.306104898452758789e+00,1.306624174118041992e+00,1.312025904655456543e+00,1.475983738899230957e+00,1.485217571258544922e+00,1.494640111923217773e+00,1.660376071929931641e+00,5.000000000000000000e+00,5.000000000000000000e+00,5.000000000000000000e+00,5.000000000000000000e+00,5.000000000000000000e+00,5.000000000000000000e+00,5.000000000000000000e+00,5.000000000000000000e+00,5.000000000000000000e+00,5.000000000000000000e+00,5.000000000000000000e+00,5.000000000000000000e+00,5.000000000000000000e+00,5.000000000000000000e+00,5.000000000000000000e+00,5.000000000000000000e+00,5.000000000000000000e+00,5.000000000000000000e+00,5.000000000000000000e+00,5.000000000000000000e+00,5.000000000000000000e+00,4.847818374633789062e+00,4.688720703125000000e+00,4.539734363555908203e+00,4.399923801422119141e+00,4.268467903137207031e+00,4.144639015197753906e+00,4.027792453765869141e+00,3.917353391647338867e+00,3.812809228897094727e+00,3.713699579238891602e+00
3.100756645202636719e+00,3.179200649261474609e+00,3.261717081069946289e+00,3.348630666732788086e+00,3.440303325653076172e+00,3.537136316299438477e+00,3.639578104019165039e+00,3.748126506805419922e+00,3.863343954086303711e+00,3.985869407653808594e+00,4.116421222686767578e+00,4.255814552307128906e+00,4.404979705810546875e+00,4.564980983734130859e+00,4.737043380737304688e+00,4.922584533691406250e+00,5.000000000000000000e+00,5.000000000000000000e+00,5.000000000000000000e+00,5.000000000000000000e+00,5.000000000000000000e+00,5.000000000000000000e+00,5.000000000000000000e+00,5.000000000000000000e+00,5.000000000000000000e+00,5.000000000000000000e+00,5.000000000000000000e+00,5.000000000000000000e+00,5.000000000000000000e+00,5.000000000000000000e+00,5.000000000000000000e+00,5.000000000000000000e+00,5.000000000000000000e+00,5.000000000000000000e+00,5.000000000000000000e+00,1.369192481040954590e+00,1.347338199615478516e+00,1.334764242172241211e+00,1.348379731178283691e+00,1.341497659683227539e+00,1.317920804023742676e+00,1.298699259757995605e+00,1.298368811607360840e+00,1.298038601875305176e+00,1.298276066780090332e+00,1.352418065071105957e+00,1.480065464973449707e+00,1.488972425460815430e+00,1.660838365554809570e+00,5.000000000000000000e+00,5.000000000000000000e+00,5.000000000000000000e+00,5.000000000000000000e+00,5.000000000000000000e+00,5.000000000000000000e+00,5.000000000000000000e+00,5.000000000000000000e+00,5.000000000000000000e+00,5.000000000000000000e+00,5.000000000000000000e+00,5.000000000000000000e+00,5.000000000000000000e+00,5.000000000000000000e+00,5.000000000000000000e+00,5.000000000000000000e+00,5.000000000000000000e+00,5.000000000000000000e+00,5.000000000000000000e+00,5.000000000000000000e+00,5.000000000000000000e+00,4.847961425781250000e+00,4.688854694366455078e+00,4.539859294891357422e+00,4.400041580200195312e+00,4.268579006195068359e+00,4.144743442535400391e+00,4.027891159057617188e+00,3.917446374893188477e+00,3.812894105911254883e+00,3.713777303695678711e+00
3.100690126419067383e+00,3.179130792617797852e+00,3.261643648147583008e+00,3.348553180694580078e+00,3.440221548080444336e+00,3.537049770355224609e+00,3.639486551284790039e+00,3.748034000396728516e+00,3.863250017166137695e+00,3.985769510269165039e+00,4.116314888000488281e+00,4.255701065063476562e+00,4.404857635498046875e+00,4.564849853515625000e+00,4.736902713775634766e+00,4.922432899475097656e+00,5.000000000000000000e+00,5.000000000000000000e+00,5.000000000000000000e+00,5.000000000000000000e+00,5.000000000000000000e+00,5.000000000000000000e+00,5.000000000000000000e+00,5.000000000000000000e+00,5.000000000000000000e+00,5.000000000000000000e+00,5.000000000000000000e+00,5.000000000000000000e+00,5.000000000000000000e+00,5.000000000000000000e+00,5.000000000000000000e+00,5.000000000000000000e+00,5.000000000000000000e+00,5.000000000000000000e+00,5.000000000000000000e+00,1.366101622581481934e+00,1.337703943252563477e+00,1.325439333915710449e+00,1.356222987174987793e+00,1.341917753219604492e+00,1.321001887321472168e+00,1.296832084655761719e+00,1.290651321411132812e+00,1.290098428726196289e+00,1.289546012878417969e+00,1.321566462516784668e+00,1.477684259414672852e+00,1.486187338829040527e+00,1.663784742355346680e+00,5.000000000000000000e+00,5.000000000000000000e+00,5.000000000000000000e+00,5.000000000000000000e+00,5.000000000000000000e+00,5.000000000000000000e+00,5.000000000000000000e+00,5.000000000000000000e+00,5.000000000000000000e+00,5.000000000000000000e+00,5.000000000000000000e+00,5.000000000000000000e+00,5.000000000000000000e+00,5.000000000000000000e+00,5.000000000000000000e+00,5.000000000000000000e+00,5.000000000000000000e+00,5.000000000000000000e+00,5.000000000000000000e+00,5.000000000000000000e+00,5.000000000000000000e+00,4.848104000091552734e+00,4.688987731933593750e+00,4.539984226226806641e+00,4.400158882141113281e+00,4.268689632415771484e+00,4.144844532012939453e+00,4.027983188629150391e+00,3.917530775070190430e+00,3.812974214553833008e+00,3.713853359222412109e+00
3.100623846054077148e+00,3.179060935974121094e+00,3.261569976806640625e+00,3.348475694656372070e+00,3.440139770507812500e+00,3.536963224411010742e+00,3.639394998550415039e+00,3.747936725616455078e+00,3.863151788711547852e+00,3.985669612884521484e+00,4.116208076477050781e+00,4.255587100982666016e+00,4.404736042022705078e+00,4.564719200134277344e+00,4.736761569976806641e+00,4.922280311584472656e+00,5.000000000000000000e+00,5.000000000000000000e+00,5.000000000000000000e+00,5.000000000000000000e+00,5.000000000000000000e+00,5.000000000000000000e+00,5.000000000000000000e+00,5.000000000000000000e+00,5.000000000000000000e+00,5.000000000000000000e+00,5.000000000000000000e+00,5.000000000000000000e+00,5.000000000000000000e+00,5.000000000000000000e+00,5.000000000000000000e+00,5.000000000000000000e+00,5.000000000000000000e+00,5.000000000000000000e+00,5.000000000000000000e+00,1.363841652870178223e+00,1.340400576591491699e+00,1.334267258644104004e+00,1.312516450881958008e+00,1.333372831344604492e+00,1.324097275733947754e+00,1.300118088722229004e+00,1.281587839126586914e+00,1.280596971511840820e+00,1.280052661895751953e+00,1.296038150787353516e+00,1.476507186889648438e+00,1.484996557235717773e+00,1.634627699851989746e+00,1.647701263427734375e+00,5.000000000000000000e+00,5.000000000000000000e+00,5.000000000000000000e+00,5.000000000000000000e+00,5.000000000000000000e+00,5.000000000000000000e+00,5.000000000000000000e+00,5.000000000000000000e+00,5.000000000000000000e+00,5.000000000000000000e+00,5.000000000000000000e+00,5.000000000000000000e+00,5.000000000000000000e+00,5.000000000000000000e+00,5.000000000000000000e+00,5.000000000000000000e+00,5.000000000000000000e+00,5.000000000000000000e+00,5.000000000000000000e+00,5.000000000000000000e+00,4.848247051239013672e+00,4.689121723175048828e+00,4.540106773376464844e+00,4.400269985198974609e+00,4.268790245056152344e+00,4.144939422607421875e+00,4.028072834014892578e+00,3.917615413665771484e+00,3.813054323196411133e+00,3.713929414749145508e+00
3.100557327270507812e+00,3.178991079330444336e+00,3.261496543884277344e+00,3.348398208618164062e+00,3.440057992935180664e+00,3.536876678466796875e+00,3.639303684234619141e+00,3.747839689254760742e+00,3.863048553466796875e+00,3.985565423965454102e+00,4.116101741790771484e+00,4.255473136901855469e+00,4.404613971710205078e+00,4.564588069915771484e+00,4.736620426177978516e+00,4.922128200531005859e+00,5.000000000000000000e+00,5.000000000000000000e+00,5.000000000000000000e+00,5.000000000000000000e+00,5.000000000000000000e+00,5.000000000000000000e+00,5.000000000000000000e+00,5.000000000000000000e+00,5.000000000000000000e+00,5.000000000000000000e+00,5.000000000000000000e+00,5.000000000000000000e+00,5.000000000000000000e+00,5.000000000000000000e+00,5.000000000000000000e+00,5.000000000000000000e+00,5.000000000000000000e+00,5.000000000000000000e+00,5.000000000000000000e+00,1.365807771682739258e+00,1.339190125465393066e+00,1.318764805793762207e+00,1.302687644958496094e+00,1.362116813659667969e+00,1.327641129493713379e+00,1.303588628768920898e+00,1.279449582099914551e+00,1.271234512329101562e+00,1.270698070526123047e+00,1.272951602935791016e+00,1.325793504714965820e+00,1.483807682991027832e+00,1.642952084541320801e+00,1.625643372535705566e+00,5.000000000000000000e+00,5.000000000000000000e+00,5.000000000000000000e+00,5.000000000000000000e+00,5.000000000000000000e+00,5.000000000000000000e+00,5.000000000000000000e+00,5.000000000000000000e+00,5.000000000000000000e+00,5.000000000000000000e+00,5.000000000000000000e+00,5.000000000000000000e+00,5.000000000000000000e+00,5.000000000000000000e+00,5.000000000000000000e+00,5.000000000000000000e+00,5.000000000000000000e+00,5.000000000000000000e+00,5.000000000000000000e+00,5.000000000000000000e+00,4.848382949829101562e+00,4.689244270324707031e+00,4.540220737457275391e+00,4.400376796722412109e+00,4.268890380859375000e+00,4.145033836364746094e+00,4.028162002563476562e+00,3.917700052261352539e+00,3.813134670257568359e+00,3.714005470275878906e+00
3.100490808486938477e+00,3.178921461105346680e+00,3.261422872543334961e+00,3.348320722579956055e+00,3.439976215362548828e+00,3.536790370941162109e+00,3.639212131500244141e+00,3.747742652893066406e+00,3.862945318222045898e+00,3.985455513000488281e+00,4.115990638732910156e+00,4.255359172821044922e+00,4.404491901397705078e+00,4.564456939697265625e+00,4.736479282379150391e+00,4.921975612640380859e+00,5.000000000000000000e+00,5.000000000000000000e+00,5.000000000000000000e+00,5.000000000000000000e+00,5.000000000000000000e+00,5.000000000000000000e+00,5.000000000000000000e+00,5.000000000000000000e+00,5.000000000000000000e+00,5.000000000000000000e+00,5.000000000000000000e+00,5.000000000000000000e+00,5.000000000000000000e+00,5.000000000000000000e+00,5.000000000000000000e+00,5.000000000000000000e+00,5.000000000000000000e+00,5.000000000000000000e+00,5.000000000000000000e+00,5.000000000000000000e+00,1.330543518066406250e+00,1.308293700218200684e+00,5.000000000000000000e+00,1.369929671287536621e+00,1.336089730262756348e+00,1.307077646255493164e+00,1.283728718757629395e+00,1.265695214271545410e+00,1.261479377746582031e+00,1.260951042175292969e+00,1.301152825355529785e+00,1.482620835304260254e+00,1.713649392127990723e+00,1.614949345588684082e+00,1.638797998428344727e+00,5.000000000000000000e+00,5.000000000000000000e+00,5.000000000000000000e+00,5.000000000000000000e+00,5.000000000000000000e+00,5.000000000000000000e+00,5.000000000000000000e+00,5.000000000000000000e+00,5.000000000000000000e+00,5.000000000000000000e+00,5.000000000000000000e+00,5.000000000000000000e+00,5.000000000000000000e+00,5.000000000000000000e+00,5.000000000000000000e+00,5.000000000000000000e+00,5.000000000000000000e+00,5.000000000000000000e+00,5.000000000000000000e+00,4.848512172698974609e+00,4.689365386962890625e+00,4.540334224700927734e+00,4.400483608245849609e+00,4.268990993499755859e+00,4.145128726959228516e+00,4.028251171112060547e+00,3.917784214019775391e+00,3.813214778900146484e+00,3.714081525802612305e+00
3.100424289703369141e+00,3.178851604461669922e+00,3.261349439620971680e+00,3.348242998123168945e+00,3.439894199371337891e+00,3.536703824996948242e+00,3.639120578765869141e+00,3.747645378112792969e+00,3.862842082977294922e+00,3.985345840454101562e+00,4.115873336791992188e+00,4.255240917205810547e+00,4.404370307922363281e+00,4.564326286315917969e+00,4.736338615417480469e+00,4.921823501586914062e+00,5.000000000000000000e+00,5.000000000000000000e+00,5.000000000000000000e+00,5.000000000000000000e+00,5.000000000000000000e+00,5.000000000000000000e+00,5.000000000000000000e+00,5.000000000000000000e+00,5.000000000000000000e+00,5.000000000000000000e+00,5.000000000000000000e+00,5.000000000000000000e+00,5.000000000000000000e+00,5.000000000000000000e+00,5.000000000000000000e+00,5.000000000000000000e+00,5.000000000000000000e+00,5.000000000000000000e+00,5.000000000000000000e+00,5.000000000000000000e+00,1.324823260307312012e+00,1.303576588630676270e+00,5.000000000000000000e+00,5.000000000000000000e+00,1.344646573066711426e+00,1.312336564064025879e+00,1.287318825721740723e+00,1.261684656143188477e+00,1.255460023880004883e+00,1.251872658729553223e+00,1.277411580085754395e+00,1.480379939079284668e+00,5.000000000000000000e+00,1.697455048561096191e+00,1.633853316307067871e+00,5.000000000000000000e+00,5.000000000000000000e+00,5.000000000000000000e+00,5.000000000000000000e+00,5.000000000000000000e+00,5.000000000000000000e+00,5.000000000000000000e+00,5.000000000000000000e+00,5.000000000000000000e+00,5.000000000000000000e+00,5.000000000000000000e+00,5.000000000000000000e+00,5.000000000000000000e+00,5.000000000000000000e+00,5.000000000000000000e+00,5.000000000000000000e+00,5.000000000000000000e+00,5.000000000000000000e+00,5.000000000000000000e+00,4.848641872406005859e+00,4.689486503601074219e+00,4.540447711944580078e+00,4.400589942932128906e+00,4.269091129302978516e+00,4.145223617553710938e+00,4.028340816497802734e+00,3.917868852615356445e+00,3.813294410705566406e+00,3.714157104492187500e+00
3.100358009338378906e+00,3.178781747817993164e+00,3.261275768280029297e+00,3.348165512084960938e+00,3.439812421798706055e+00,3.536617279052734375e+00,3.639029026031494141e+00,3.747548341751098633e+00,3.862739086151123047e+00,3.985235929489135742e+00,4.115756511688232422e+00,4.255115985870361328e+00,4.404243469238281250e+00,4.564195156097412109e+00,4.736197471618652344e+00,4.921671390533447266e+00,5.000000000000000000e+00,5.000000000000000000e+00,5.000000000000000000e+00,5.000000000000000000e+00,5.000000000000000000e+00,5.000000000000000000e+00,5.000000000000000000e+00,5.000000000000000000e+00,5.000000000000000000e+00,5.000000000000000000e+00,5.000000000000000000e+00,5.000000000000000000e+00,5.000000000000000000e+00,5.000000000000000000e+00,5.000000000000000000e+00,5.000000000000000000e+00,5.000000000000000000e+00,5.000000000000000000e+00,5.000000000000000000e+00,5.000000000000000000e+00,5.000000000000000000e+00,5.000000000000000000e+00,5.000000000000000000e+00,5.000000000000000000e+00,1.350436568260192871e+00,1.320590853691101074e+00,1.290721297264099121e+00,1.265845656394958496e+00,1.250191807746887207e+00,1.245389103889465332e+00,1.254521131515502930e+00,1.292410492897033691e+00,5.000000000000000000e+00,1.712796926498413086e+00,1.663777947425842285e+00,5.000000000000000000e+00,5.000000000000000000e+00,5.000000000000000000e+00,5.000000000000000000e+00,5.000000000000000000e+00,5.000000000000000000e+00,5.000000000000000000e+00,5.000000000000000000e+00,5.000000000000000000e+00,5.000000000000000000e+00,5.000000000000000000e+00,5.000000000000000000e+00,5.000000000000000000e+00,5.000000000000000000e+00,5.000000000000000000e+00,5.000000000000000000e+00,5.000000000000000000e+00,5.000000000000000000e+00,5.000000000000000000e+00,4.848771095275878906e+00,4.689607620239257812e+00,4.540561199188232422e+00,4.400696754455566406e+00,4.269191741943359375e+00,4.145318031311035156e+00,4.028429985046386719e+00,3.917953491210937500e+00,3.813374757766723633e+00,3.714233160018920898e+00
3.100291490554809570e+00,3.178711891174316406e+00,3.261202335357666016e+00,3.348088026046752930e+00,3.439730644226074219e+00,3.536530733108520508e+00,3.638937473297119141e+00,3.747451305389404297e+00,3.862635850906372070e+00,3.985126256942749023e+00,4.115639209747314453e+00,4.254990577697753906e+00,4.404109001159667969e+00,4.564058780670166016e+00,4.736056327819824219e+00,4.921518802642822266e+00,5.000000000000000000e+00,5.000000000000000000e+00,5.000000000000000000e+00,5.000000000000000000e+00,5.000000000000000000e+00,5.000000000000000000e+00,5.000000000000000000e+00,5.000000000000000000e+00,5.000000000000000000e+00,5.000000000000000000e+00,5.000000000000000000e+00,5.000000000000000000e+00,5.000000000000000000e+00,5.000000000000000000e+00,5.000000000000000000e+00,5.000000000000000000e+00,5.000000000000000000e+00,5.000000000000000000e+00,5.000000000000000000e+00,5.000000000000000000e+00,5.000000000000000000e+00,5.000000000000000000e+00,5.000000000000000000e+00,5.000000000000000000e+00,5.000000000000000000e+00,1.325648307800292969e+00,1.297096729278564453e+00,1.270034193992614746e+00,1.247450828552246094e+00,1.242537736892700195e+00,1.246008634567260742e+00,1.275504827499389648e+00,5.000000000000000000e+00,5.000000000000000000e+00,1.690104007720947266e+00,5.000000000000000000e+00,5.000000000000000000e+00,5.000000000000000000e+00,5.000000000000000000e+00,5.000000000000000000e+00,5.000000000000000000e+00,5.000000000000000000e+00,5.000000000000000000e+00,5.000000000000000000e+00,5.000000000000000000e+00,5.000000000000000000e+00,5.000000000000000000e+00,5.000000000000000000e+00,5.000000000000000000e+00,5.000000000000000000e+00,5.000000000000000000e+00,5.000000000000000000e+00,5.000000000000000000e+00,5.000000000000000000e+00,4.848900794982910156e+00,4.689728736877441406e+00,4.540674686431884766e+00,4.400803565979003906e+00,4.269292354583740234e+00,4.145412445068359375e+00,4.028519630432128906e+00,3.918038129806518555e+00,3.813454866409301758e+00,3.714309453964233398e+00
3.100197792053222656e+00,3.178629159927368164e+00,3.261128664016723633e+00,3.348010540008544922e+00,3.439648866653442383e+00,3.536444425582885742e+00,3.638845920562744141e+00,3.747354269027709961e+00,3.862532615661621094e+00,3.985016345977783203e+00,4.115521907806396484e+00,4.254865169525146484e+00,4.403975009918212891e+00,4.563914775848388672e+00,4.735909938812255859e+00,4.921366691589355469e+00,5.000000000000000000e+00,5.000000000000000000e+00,5.000000000000000000e+00,5.000000000000000000e+00,5.000000000000000000e+00,5.000000000000000000e+00,5.000000000000000000e+00,5.000000000000000000e+00,5.000000000000000000e+00,5.000000000000000000e+00,5.000000000000000000e+00,5.000000000000000000e+00,5.000000000000000000e+00,5.000000000000000000e+00,5.000000000000000000e+00,5.000000000000000000e+00,5.000000000000000000e+00,5.000000000000000000e+00,5.000000000000000000e+00,5.000000000000000000e+00,5.000000000000000000e+00,5.000000000000000000e+00,5.000000000000000000e+00,5.000000000000000000e+00,5.000000000000000000e+00,5.000000000000000000e+00,1.301807045936584473e+00,1.274716377258300781e+00,1.248916149139404297e+00,1.241630077362060547e+00,1.243040561676025391e+00,1.270412206649780273e+00,5.000000000000000000e+00,5.000000000000000000e+00,5.000000000000000000e+00,5.000000000000000000e+00,5.000000000000000000e+00,5.000000000000000000e+00,5.000000000000000000e+00,5.000000000000000000e+00,5.000000000000000000e+00,5.000000000000000000e+00,5.000000000000000000e+00,5.000000000000000000e+00,5.000000000000000000e+00,5.000000000000000000e+00,5.000000000000000000e+00,5.000000000000000000e+00,5.000000000000000000e+00,5.000000000000000000e+00,5.000000000000000000e+00,5.000000000000000000e+00,5.000000000000000000e+00,5.000000000000000000e+00,4.849030017852783203e+00,4.689849853515625000e+00,4.540788173675537109e+00,4.400910377502441406e+00,4.269392490386962891e+00,4.145507335662841797e+00,4.028608798980712891e+00,3.918122768402099609e+00,3.813534975051879883e+00,3.714385271072387695e+00
3.100098371505737305e+00,3.178524732589721680e+00,3.261022329330444336e+00,3.347916126251220703e+00,3.439567089080810547e+00,3.536357879638671875e+00,3.638754367828369141e+00,3.747256994247436523e+00,3.862429618835449219e+00,3.984906673431396484e+00,4.115405082702636719e+00,4.254740238189697266e+00,4.403841018676757812e+00,4.563771247863769531e+00,4.735754966735839844e+00,4.921208858489990234e+00,5.000000000000000000e+00,5.000000000000000000e+00,5.000000000000000000e+00,5.000000000000000000e+00,5.000000000000000000e+00,5.000000000000000000e+00,5.000000000000000000e+00,5.000000000000000000e+00,5.000000000000000000e+00,5.000000000000000000e+00,5.000000000000000000e+00,5.000000000000000000e+00,5.000000000000000000e+00,5.000000000000000000e+00,5.000000000000000000e+00,5.000000000000000000e+00,5.000000000000000000e+00,5.000000000000000000e+00,5.000000000000000000e+00,5.000000000000000000e+00,5.000000000000000000e+00,5.000000000000000000e+00,5.000000000000000000e+00,5.000000000000000000e+00,5.000000000000000000e+00,5.000000000000000000e+00,1.306325435638427734e+00,1.277106642723083496e+00,1.252405524253845215e+00,1.244230031967163086e+00,1.246332287788391113e+00,1.270676374435424805e+00,5.000000000000000000e+00,5.000000000000000000e+00,5.000000000000000000e+00,5.000000000000000000e+00,5.000000000000000000e+00,5.000000000000000000e+00,5.000000000000000000e+00,5.000000000000000000e+00,5.000000000000000000e+00,5.000000000000000000e+00,5.000000000000000000e+00,5.000000000000000000e+00,5.000000000000000000e+00,5.000000000000000000e+00,5.000000000000000000e+00,5.000000000000000000e+00,5.000000000000000000e+00,5.000000000000000000e+00,5.000000000000000000e+00,5.000000000000000000e+00,5.000000000000000000e+00,5.000000000000000000e+00,4.849159717559814453e+00,4.689970970153808594e+00,4.540901660919189453e+00,4.401017189025878906e+00,4.269493103027343750e+00,4.145601749420166016e+00,4.028698444366455078e+00,3.918207406997680664e+00,3.813615322113037109e+00,3.714461565017700195e+00
3.099998712539672852e+00,3.178420066833496094e+00,3.260911941528320312e+00,3.347800016403198242e+00,3.439445495605468750e+00,3.536249160766601562e+00,3.638660192489624023e+00,3.747159957885742188e+00,3.862326860427856445e+00,3.984796762466430664e+00,4.115287780761718750e+00,4.254615306854248047e+00,4.403707027435302734e+00,4.563627243041992188e+00,4.735599994659423828e+00,4.921041488647460938e+00,5.000000000000000000e+00,5.000000000000000000e+00,5.000000000000000000e+00,5.000000000000000000e+00,5.000000000000000000e+00,5.000000000000000000e+00,5.000000000000000000e+00,5.000000000000000000e+00,5.000000000000000000e+00,5.000000000000000000e+00,5.000000000000000000e+00,5.000000000000000000e+00,5.000000000000000000e+00,5.000000000000000000e+00,5.000000000000000000e+00,5.000000000000000000e+00,5.000000000000000000e+00,5.000000000000000000e+00,5.000000000000000000e+00,5.000000000000000000e+00,5.000000000000000000e+00,5.000000000000000000e+00,5.000000000000000000e+00,5.000000000000000000e+00,5.000000000000000000e+00,1.331019401550292969e+00,1.299453854560852051e+00,1.275882959365844727e+00,1.258072376251220703e+00,1.248560428619384766e+00,1.257293462753295898e+00,1.283163189888000488e+00,5.000000000000000000e+00,5.000000000000000000e+00,5.000000000000000000e+00,5.000000000000000000e+00,5.000000000000000000e+00,5.000000000000000000e+00,5.000000000000000000e+00,5.000000000000000000e+00,5.000000000000000000e+00,5.000000000000000000e+00,5.000000000000000000e+00,5.000000000000000000e+00,5.000000000000000000e+00,5.000000000000000000e+00,5.000000000000000000e+00,5.000000000000000000e+00,5.000000000000000000e+00,5.000000000000000000e+00,5.000000000000000000e+00,5.000000000000000000e+00,5.000000000000000000e+00,5.000000000000000000e+00,4.849289417266845703e+00,4.690092086791992188e+00,4.541015625000000000e+00,4.401123523712158203e+00,4.269593238830566406e+00,4.145696640014648438e+00,4.028787612915039062e+00,3.918291568756103516e+00,3.813694953918457031e+00,3.714537620544433594e+00
3.099929094314575195e+00,3.178330421447753906e+00,3.260802030563354492e+00,3.347684144973754883e+00,3.439322710037231445e+00,3.536119699478149414e+00,3.638522863388061523e+00,3.747034072875976562e+00,3.862216234207153320e+00,3.984686851501464844e+00,4.115170955657958984e+00,4.254489898681640625e+00,4.403572559356689453e+00,4.563483238220214844e+00,4.735445022583007812e+00,4.920874118804931641e+00,5.000000000000000000e+00,5.000000000000000000e+00,5.000000000000000000e+00,5.000000000000000000e+00,5.000000000000000000e+00,5.000000000000000000e+00,5.000000000000000000e+00,5.000000000000000000e+00,5.000000000000000000e+00,5.000000000000000000e+00,5.000000000000000000e+00,5.000000000000000000e+00,5.000000000000000000e+00,5.000000000000000000e+00,5.000000000000000000e+00,5.000000000000000000e+00,5.000000000000000000e+00,5.000000000000000000e+00,5.000000000000000000e+00,5.000000000000000000e+00,5.000000000000000000e+00,5.000000000000000000e+00,5.000000000000000000e+00,5.000000000000000000e+00,1.368904352188110352e+00,1.322769284248352051e+00,1.298230290412902832e+00,1.280727505683898926e+00,1.271885871887207031e+00,1.259635329246520996e+00,1.282511115074157715e+00,1.466042518615722656e+00,5.000000000000000000e+00,5.000000000000000000e+00,5.000000000000000000e+00,5.000000000000000000e+00,5.000000000000000000e+00,5.000000000000000000e+00,5.000000000000000000e+00,5.000000000000000000e+00,5.000000000000000000e+00,5.000000000000000000e+00,5.000000000000000000e+00,5.000000000000000000e+00,5.000000000000000000e+00,5.000000000000000000e+00,5.000000000000000000e+00,5.000000000000000000e+00,5.000000000000000000e+00,5.000000000000000000e+00,5.000000000000000000e+00,5.000000000000000000e+00,5.000000000000000000e+00,5.000000000000000000e+00,4.849418640136718750e+00,4.690213203430175781e+00,4.541129112243652344e+00,4.401230335235595703e+00,4.269693851470947266e+00,4.145791053771972656e+00,4.028877258300781250e+00,3.918376207351684570e+00,3.813775062561035156e+00,3.714613199234008789e+00
3.099863052368164062e+00,3.178261280059814453e+00,3.260727643966674805e+00,3.347587823867797852e+00,3.439201831817626953e+00,3.535990476608276367e+00,3.638386011123657227e+00,3.746888875961303711e+00,3.862061977386474609e+00,3.984540224075317383e+00,4.115041255950927734e+00,4.254364967346191406e+00,4.403438568115234375e+00,4.563339233398437500e+00,4.735290050506591797e+00,4.920706748962402344e+00,5.000000000000000000e+00,5.000000000000000000e+00,5.000000000000000000e+00,5.000000000000000000e+00,5.000000000000000000e+00,5.000000000000000000e+00,5.000000000000000000e+00,5.000000000000000000e+00,5.000000000000000000e+00,5.000000000000000000e+00,5.000000000000000000e+00,5.000000000000000000e+00,5.000000000000000000e+00,5.000000000000000000e+00,5.000000000000000000e+00,5.000000000000000000e+00,5.000000000000000000e+00,5.000000000000000000e+00,5.000000000000000000e+00,5.000000000000000000e+00,5.000000000000000000e+00,5.000000000000000000e+00,5.000000000000000000e+00,5.000000000000000000e+00,1.347152113914489746e+00,1.322184801101684570e+00,1.305331707000732422e+00,1.294722557067871094e+00,1.286502003669738770e+00,1.292325496673583984e+00,1.459437131881713867e+00,1.473596334457397461e+00,5.000000000000000000e+00,5.000000000000000000e+00,5.000000000000000000e+00,5.000000000000000000e+00,5.000000000000000000e+00,5.000000000000000000e+00,5.000000000000000000e+00,5.000000000000000000e+00,5.000000000000000000e+00,5.000000000000000000e+00,5.000000000000000000e+00,5.000000000000000000e+00,5.000000000000000000e+00,5.000000000000000000e+00,5.000000000000000000e+00,5.000000000000000000e+00,5.000000000000000000e+00,5.000000000000000000e+00,5.000000000000000000e+00,5.000000000000000000e+00,5.000000000000000000e+00,5.000000000000000000e+00,4.849548339843750000e+00,4.690334320068359375e+00,4.541242599487304688e+00,4.401337146759033203e+00,4.269793987274169922e+00,4.145885944366455078e+00,4.028966426849365234e+00,3.918460845947265625e+00,3.813855409622192383e+00,3.714689254760742188e+00
3.099797010421752930e+00,3.178191661834716797e+00,3.260654687881469727e+00,3.347510576248168945e+00,3.439120769500732422e+00,3.535885810852050781e+00,3.638253688812255859e+00,3.746743202209472656e+00,3.861907720565795898e+00,3.984376192092895508e+00,4.114865779876708984e+00,4.254192829132080078e+00,4.403285026550292969e+00,4.563195228576660156e+00,4.735135078430175781e+00,4.920539379119873047e+00,5.000000000000000000e+00,5.000000000000000000e+00,5.000000000000000000e+00,5.000000000000000000e+00,5.000000000000000000e+00,5.000000000000000000e+00,5.000000000000000000e+00,5.000000000000000000e+00,5.000000000000000000e+00,5.000000000000000000e+00,5.000000000000000000e+00,5.000000000000000000e+00,5.000000000000000000e+00,5.000000000000000000e+00,5.000000000000000000e+00,5.000000000000000000e+00,5.000000000000000000e+00,5.000000000000000000e+00,5.000000000000000000e+00,5.000000000000000000e+00,5.000000000000000000e+00,5.000000000000000000e+00,5.000000000000000000e+00,1.407727122306823730e+00,1.348423838615417480e+00,1.330899477005004883e+00,1.315617203712463379e+00,1.311107158660888672e+00,1.302291274070739746e+00,1.468339562416076660e+00,1.475839614868164062e+00,1.488502740859985352e+00,5.000000000000000000e+00,5.000000000000000000e+00,5.000000000000000000e+00,5.000000000000000000e+00,5.000000000000000000e+00,5.000000000000000000e+00,5.000000000000000000e+00,5.000000000000000000e+00,5.000000000000000000e+00,5.000000000000000000e+00,5.000000000000000000e+00,5.000000000000000000e+00,5.000000000000000000e+00,5.000000000000000000e+00,5.000000000000000000e+00,5.000000000000000000e+00,5.000000000000000000e+00,5.000000000000000000e+00,5.000000000000000000e+00,5.000000000000000000e+00,5.000000000000000000e+00,5.000000000000000000e+00,4.849678039550781250e+00,4.690455913543701172e+00,4.541356086730957031e+00,4.401443481445312500e+00,4.269894599914550781e+00,4.145980834960937500e+00,4.029056072235107422e+00,3.918545722961425781e+00,3.813935518264770508e+00,3.714765310287475586e+00
3.099731206893920898e+00,3.178122520446777344e+00,3.260581493377685547e+00,3.347433805465698242e+00,3.439039468765258789e+00,3.535799741744995117e+00,3.638163089752197266e+00,3.746629476547241211e+00,3.861762762069702148e+00,3.984211444854736328e+00,4.114690780639648438e+00,4.254005432128906250e+00,4.403084278106689453e+00,4.562991619110107422e+00,4.734951019287109375e+00,4.920372009277343750e+00,5.000000000000000000e+00,5.000000000000000000e+00,5.000000000000000000e+00,5.000000000000000000e+00,5.000000000000000000e+00,5.000000000000000000e+00,5.000000000000000000e+00,5.000000000000000000e+00,5.000000000000000000e+00,5.000000000000000000e+00,5.000000000000000000e+00,5.000000000000000000e+00,5.000000000000000000e+00,5.000000000000000000e+00,5.000000000000000000e+00,5.000000000000000000e+00,5.000000000000000000e+00,5.000000000000000000e+00,5.000000000000000000e+00,5.000000000000000000e+00,5.000000000000000000e+00,5.000000000000000000e+00,5.000000000000000000e+00,1.395033001899719238e+00,1.357586145401000977e+00,1.339773535728454590e+00,1.332391858100891113e+00,1.327911615371704102e+00,1.373578429222106934e+00,1.484745740890502930e+00,1.494350314140319824e+00,5.000000000000000000e+00,5.000000000000000000e+00,5.000000000000000000e+00,5.000000000000000000e+00,5.000000000000000000e+00,5.000000000000000000e+00,5.000000000000000000e+00,5.000000000000000000e+00,5.000000000000000000e+00,5.000000000000000000e+00,5.000000000000000000e+00,5.000000000000000000e+00,5.000000000000000000e+00,5.000000000000000000e+00,5.000000000000000000e+00,5.000000000000000000e+00,5.000000000000000000e+00,5.000000000000000000e+00,5.000000000000000000e+00,5.000000000000000000e+00,5.000000000000000000e+00,5.000000000000000000e+00,5.000000000000000000e+00,4.849807262420654297e+00,4.690576553344726562e+00,4.541470050811767578e+00,4.401550292968750000e+00,4.269995212554931641e+00,4.146075248718261719e+00,4.029145240783691406e+00,3.918630361557006836e+00,3.814015626907348633e+00,3.714841842651367188e+00
3.099665164947509766e+00,3.178053140640258789e+00,3.260508537292480469e+00,3.347356557846069336e+00,3.438958406448364258e+00,3.535713911056518555e+00,3.638072013854980469e+00,3.746533155441284180e+00,3.861660003662109375e+00,3.984086990356445312e+00,4.114530086517333984e+00,4.253818035125732422e+00,4.402883529663085938e+00,4.562776088714599609e+00,4.734719276428222656e+00,4.920128822326660156e+00,5.000000000000000000e+00,5.000000000000000000e+00,5.000000000000000000e+00,5.000000000000000000e+00,5.000000000000000000e+00,5.000000000000000000e+00,5.000000000000000000e+00,5.000000000000000000e+00,5.000000000000000000e+00,5.000000000000000000e+00,5.000000000000000000e+00,5.000000000000000000e+00,5.000000000000000000e+00,5.000000000000000000e+00,5.000000000000000000e+00,5.000000000000000000e+00,5.000000000000000000e+00,5.000000000000000000e+00,5.000000000000000000e+00,5.000000000000000000e+00,5.000000000000000000e+00,5.000000000000000000e+00,5.000000000000000000e+00,1.385420322418212891e+00,1.366874814033508301e+00,1.349146366119384766e+00,1.344640135765075684e+00,1.347170591354370117e+00,1.500233054161071777e+00,1.501522779464721680e+00,5.000000000000000000e+00,5.000000000000000000e+00,5.000000000000000000e+00,5.000000000000000000e+00,5.000000000000000000e+00,5.000000000000000000e+00,5.000000000000000000e+00,5.000000000000000000e+00,5.000000000000000000e+00,5.000000000000000000e+00,5.000000000000000000e+00,5.000000000000000000e+00,5.000000000000000000e+00,5.000000000000000000e+00,5.000000000000000000e+00,5.000000000000000000e+00,5.000000000000000000e+00,5.000000000000000000e+00,5.000000000000000000e+00,5.000000000000000000e+00,5.000000000000000000e+00,5.000000000000000000e+00,5.000000000000000000e+00,5.000000000000000000e+00,4.849936962127685547e+00,4.690698146820068359e+00,4.541583538055419922e+00,4.401657104492187500e+00,4.270095348358154297e+00,4.146170139312744141e+00,4.029234886169433594e+00,3.918717145919799805e+00,3.814101219177246094e+00,3.714925289154052734e+00
3.099599123001098633e+00,3.177983760833740234e+00,3.260435342788696289e+00,3.347279787063598633e+00,3.438876867294311523e+00,3.535628318786621094e+00,3.637981176376342773e+00,3.746436595916748047e+00,3.861557960510253906e+00,3.983977794647216797e+00,4.114413738250732422e+00,4.253680229187011719e+00,4.402704715728759766e+00,4.562561035156250000e+00,4.734487533569335938e+00,4.919878482818603516e+00,5.000000000000000000e+00,5.000000000000000000e+00,5.000000000000000000e+00,5.000000000000000000e+00,5.000000000000000000e+00,5.000000000000000000e+00,5.000000000000000000e+00,5.000000000000000000e+00,5.000000000000000000e+00,5.000000000000000000e+00,5.000000000000000000e+00,5.000000000000000000e+00,5.000000000000000000e+00,5.000000000000000000e+00,5.000000000000000000e+00,5.000000000000000000e+00,5.000000000000000000e+00,5.000000000000000000e+00,5.000000000000000000e+00,5.000000000000000000e+00,5.000000000000000000e+00,5.000000000000000000e+00,1.451554417610168457e+00,1.395095109939575195e+00,1.376557111740112305e+00,1.361372709274291992e+00,1.357115745544433594e+00,1.393373012542724609e+00,1.516926169395446777e+00,1.519375801086425781e+00,5.000000000000000000e+00,5.000000000000000000e+00,5.000000000000000000e+00,5.000000000000000000e+00,5.000000000000000000e+00,5.000000000000000000e+00,5.000000000000000000e+00,5.000000000000000000e+00,5.000000000000000000e+00,5.000000000000000000e+00,5.000000000000000000e+00,5.000000000000000000e+00,5.000000000000000000e+00,5.000000000000000000e+00,5.000000000000000000e+00,5.000000000000000000e+00,5.000000000000000000e+00,5.000000000000000000e+00,5.000000000000000000e+00,5.000000000000000000e+00,5.000000000000000000e+00,5.000000000000000000e+00,5.000000000000000000e+00,5.000000000000000000e+00,4.850066661834716797e+00,4.690819263458251953e+00,4.541697025299072266e+00,4.401763916015625000e+00,4.270197868347167969e+00,4.146269798278808594e+00,4.029332637786865234e+00,3.918810129165649414e+00,3.814189195632934570e+00,3.715008735656738281e+00
3.099533081054687500e+00,3.177914381027221680e+00,3.260362625122070312e+00,3.347202777862548828e+00,3.438795804977416992e+00,3.535542249679565430e+00,3.637890338897705078e+00,3.746340513229370117e+00,3.861455202102661133e+00,3.983869075775146484e+00,4.114297866821289062e+00,4.253556251525878906e+00,4.402571678161621094e+00,4.562407493591308594e+00,4.734286308288574219e+00,4.919627666473388672e+00,5.000000000000000000e+00,5.000000000000000000e+00,5.000000000000000000e+00,5.000000000000000000e+00,5.000000000000000000e+00,5.000000000000000000e+00,5.000000000000000000e+00,5.000000000000000000e+00,5.000000000000000000e+00,5.000000000000000000e+00,5.000000000000000000e+00,5.000000000000000000e+00,5.000000000000000000e+00,5.000000000000000000e+00,5.000000000000000000e+00,5.000000000000000000e+00,5.000000000000000000e+00,5.000000000000000000e+00,5.000000000000000000e+00,5.000000000000000000e+00,5.000000000000000000e+00,5.000000000000000000e+00,1.441422700881958008e+00,1.405104637145996094e+00,1.386527299880981445e+00,1.373943924903869629e+00,1.369825005531311035e+00,1.517282128334045410e+00,1.523152947425842285e+00,5.000000000000000000e+00,5.000000000000000000e+00,5.000000000000000000e+00,5.000000000000000000e+00,5.000000000000000000e+00,5.000000000000000000e+00,5.000000000000000000e+00,5.000000000000000000e+00,5.000000000000000000e+00,5.000000000000000000e+00,5.000000000000000000e+00,5.000000000000000000e+00,5.000000000000000000e+00,5.000000000000000000e+00,5.000000000000000000e+00,5.000000000000000000e+00,5.000000000000000000e+00,5.000000000000000000e+00,5.000000000000000000e+00,5.000000000000000000e+00,5.000000000000000000e+00,5.000000000000000000e+00,5.000000000000000000e+00,5.000000000000000000e+00,5.000000000000000000e+00,4.850196361541748047e+00,4.690941333770751953e+00,4.541815757751464844e+00,4.401879310607910156e+00,4.270308017730712891e+00,4.146373748779296875e+00,4.029430866241455078e+00,3.918903112411499023e+00,3.814277172088623047e+00,3.715092420578002930e+00
3.099467277526855469e+00,3.177845001220703125e+00,3.260289669036865234e+00,3.347126007080078125e+00,3.438714504241943359e+00,3.535456657409667969e+00,3.637799263000488281e+00,3.746244192123413086e+00,3.861352920532226562e+00,3.983759641647338867e+00,4.114181518554687500e+00,4.253432273864746094e+00,4.402438640594482422e+00,4.562264442443847656e+00,4.734132289886474609e+00,4.919456005096435547e+00,5.000000000000000000e+00,5.000000000000000000e+00,5.000000000000000000e+00,5.000000000000000000e+00,5.000000000000000000e+00,5.000000000000000000e+00,5.000000000000000000e+00,5.000000000000000000e+00,5.000000000000000000e+00,5.000000000000000000e+00,5.000000000000000000e+00,5.000000000000000000e+00,5.000000000000000000e+00,5.000000000000000000e+00,5.000000000000000000e+00,5.000000000000000000e+00,5.000000000000000000e+00,5.000000000000000000e+00,5.000000000000000000e+00,5.000000000000000000e+00,5.000000000000000000e+00,5.000000000000000000e+00,1.435306310653686523e+00,1.415494203567504883e+00,1.396643161773681641e+00,1.386749267578125000e+00,1.412486910820007324e+00,1.523215770721435547e+00,1.529430866241455078e+00,5.000000000000000000e+00,5.000000000000000000e+00,5.000000000000000000e+00,5.000000000000000000e+00,5.000000000000000000e+00,5.000000000000000000e+00,5.000000000000000000e+00,5.000000000000000000e+00,5.000000000000000000e+00,5.000000000000000000e+00,5.000000000000000000e+00,5.000000000000000000e+00,5.000000000000000000e+00,5.000000000000000000e+00,5.000000000000000000e+00,5.000000000000000000e+00,5.000000000000000000e+00,5.000000000000000000e+00,5.000000000000000000e+00,5.000000000000000000e+00,5.000000000000000000e+00,5.000000000000000000e+00,5.000000000000000000e+00,5.000000000000000000e+00,5.000000000000000000e+00,4.850334644317626953e+00,4.691074371337890625e+00,4.541940689086914062e+00,4.401996612548828125e+00,4.270418643951416016e+00,4.146477699279785156e+00,4.029529094696044922e+00,3.918995857238769531e+00,3.814365148544311523e+00,3.715175867080688477e+00
3.099400997161865234e+00,3.177775621414184570e+00,3.260216474533081055e+00,3.347048997879028320e+00,3.438633441925048828e+00,3.535370588302612305e+00,3.637708663940429688e+00,3.746147632598876953e+00,3.861250400543212891e+00,3.983650922775268555e+00,4.114065170288085938e+00,4.253307819366455078e+00,4.402305603027343750e+00,4.562121868133544922e+00,4.733978271484375000e+00,4.919290065765380859e+00,5.000000000000000000e+00,5.000000000000000000e+00,5.000000000000000000e+00,5.000000000000000000e+00,5.000000000000000000e+00,5.000000000000000000e+00,5.000000000000000000e+00,5.000000000000000000e+00,5.000000000000000000e+00,5.000000000000000000e+00,5.000000000000000000e+00,5.000000000000000000e+00,5.000000000000000000e+00,5.000000000000000000e+00,5.000000000000000000e+00,5.000000000000000000e+00,5.000000000000000000e+00,5.000000000000000000e+00,5.000000000000000000e+00,5.000000000000000000e+00,5.000000000000000000e+00,5.000000000000000000e+00,1.447264552116394043e+00,1.427084922790527344e+00,1.410853862762451172e+00,1.400153160095214844e+00,1.522795319557189941e+00,1.529196023941040039e+00,1.535760879516601562e+00,5.000000000000000000e+00,5.000000000000000000e+00,5.000000000000000000e+00,5.000000000000000000e+00,5.000000000000000000e+00,5.000000000000000000e+00,5.000000000000000000e+00,5.000000000000000000e+00,5.000000000000000000e+00,5.000000000000000000e+00,5.000000000000000000e+00,5.000000000000000000e+00,5.000000000000000000e+00,5.000000000000000000e+00,5.000000000000000000e+00,5.000000000000000000e+00,5.000000000000000000e+00,5.000000000000000000e+00,5.000000000000000000e+00,5.000000000000000000e+00,5.000000000000000000e+00,5.000000000000000000e+00,5.000000000000000000e+00,5.000000000000000000e+00,5.000000000000000000e+00,4.850476741790771484e+00,4.691207408905029297e+00,4.542065143585205078e+00,4.402113914489746094e+00,4.270528793334960938e+00,4.146582126617431641e+00,4.029627323150634766e+00,3.919088840484619141e+00,3.814453125000000000e+00,3.715259313583374023e+00
3.099335193634033203e+00,3.177706241607666016e+00,3.260143756866455078e+00,3.346971988677978516e+00,3.438552379608154297e+00,3.535284757614135742e+00,3.637617588043212891e+00,3.746051311492919922e+00,3.861148118972778320e+00,3.983541727066040039e+00,4.113948822021484375e+00,4.253183364868164062e+00,4.402172565460205078e+00,4.561978816986083984e+00,4.733824729919433594e+00,4.919123649597167969e+00,5.000000000000000000e+00,5.000000000000000000e+00,5.000000000000000000e+00,5.000000000000000000e+00,5.000000000000000000e+00,5.000000000000000000e+00,5.000000000000000000e+00,5.000000000000000000e+00,5.000000000000000000e+00,5.000000000000000000e+00,5.000000000000000000e+00,5.000000000000000000e+00,5.000000000000000000e+00,5.000000000000000000e+00,5.000000000000000000e+00,5.000000000000000000e+00,5.000000000000000000e+00,5.000000000000000000e+00,5.000000000000000000e+00,5.000000000000000000e+00,5.000000000000000000e+00,1.505080461502075195e+00,1.459423780441284180e+00,1.439124226570129395e+00,1.429671168327331543e+00,1.437205314636230469e+00,1.527480483055114746e+00,1.535223245620727539e+00,1.545850038528442383e+00,5.000000000000000000e+00,5.000000000000000000e+00,5.000000000000000000e+00,5.000000000000000000e+00,5.000000000000000000e+00,5.000000000000000000e+00,5.000000000000000000e+00,5.000000000000000000e+00,5.000000000000000000e+00,5.000000000000000000e+00,5.000000000000000000e+00,5.000000000000000000e+00,5.000000000000000000e+00,5.000000000000000000e+00,5.000000000000000000e+00,5.000000000000000000e+00,5.000000000000000000e+00,5.000000000000000000e+00,5.000000000000000000e+00,5.000000000000000000e+00,5.000000000000000000e+00,5.000000000000000000e+00,5.000000000000000000e+00,5.000000000000000000e+00,5.000000000000000000e+00,4.850619316101074219e+00,4.691340923309326172e+00,4.542190074920654297e+00,4.402231216430664062e+00,4.270639419555664062e+00,4.146686077117919922e+00,4.029725551605224609e+00,3.919181823730468750e+00,3.814541339874267578e+00,3.715342760086059570e+00
3.099269390106201172e+00,3.177636861801147461e+00,3.260070562362670898e+00,3.346895217895507812e+00,3.438470840454101562e+00,3.535198688507080078e+00,3.637526750564575195e+00,3.745954751968383789e+00,3.861046075820922852e+00,3.983433008193969727e+00,4.113832950592041016e+00,4.253059387207031250e+00,4.402039527893066406e+00,4.561835765838623047e+00,4.733670711517333984e+00,4.918957233428955078e+00,5.000000000000000000e+00,5.000000000000000000e+00,5.000000000000000000e+00,5.000000000000000000e+00,5.000000000000000000e+00,5.000000000000000000e+00,5.000000000000000000e+00,5.000000000000000000e+00,5.000000000000000000e+00,5.000000000000000000e+00,5.000000000000000000e+00,5.000000000000000000e+00,5.000000000000000000e+00,5.000000000000000000e+00,5.000000000000000000e+00,5.000000000000000000e+00,5.000000000000000000e+00,5.000000000000000000e+00,5.000000000000000000e+00,5.000000000000000000e+00,5.000000000000000000e+00,1.500557422637939453e+00,1.472009420394897461e+00,1.451621413230895996e+00,1.448997020721435547e+00,1.540068864822387695e+00,1.533940315246582031e+00,1.541432023048400879e+00,5.000000000000000000e+00,5.000000000000000000e+00,5.000000000000000000e+00,5.000000000000000000e+00,5.000000000000000000e+00,5.000000000000000000e+00,5.000000000000000000e+00,5.000000000000000000e+00,5.000000000000000000e+00,5.000000000000000000e+00,5.000000000000000000e+00,5.000000000000000000e+00,5.000000000000000000e+00,5.000000000000000000e+00,5.000000000000000000e+00,5.000000000000000000e+00,5.000000000000000000e+00,5.000000000000000000e+00,5.000000000000000000e+00,5.000000000000000000e+00,5.000000000000000000e+00,5.000000000000000000e+00,5.000000000000000000e+00,5.000000000000000000e+00,5.000000000000000000e+00,5.000000000000000000e+00,4.850761890411376953e+00,4.691473960876464844e+00,4.542315006256103516e+00,4.402348041534423828e+00,4.270749568939208984e+00,4.146790027618408203e+00,4.029823780059814453e+00,3.919274806976318359e+00,3.814629316329956055e+00,3.715426445007324219e+00
3.099203348159790039e+00,3.177567720413208008e+00,3.259997606277465820e+00,3.346817970275878906e+00,3.438390016555786133e+00,3.535113096237182617e+00,3.637435674667358398e+00,3.745858669281005859e+00,3.860943317413330078e+00,3.983324289321899414e+00,4.113716602325439453e+00,4.252934932708740234e+00,4.401906490325927734e+00,4.561693191528320312e+00,4.733516693115234375e+00,4.918791294097900391e+00,5.000000000000000000e+00,5.000000000000000000e+00,5.000000000000000000e+00,5.000000000000000000e+00,5.000000000000000000e+00,5.000000000000000000e+00,5.000000000000000000e+00,5.000000000000000000e+00,5.000000000000000000e+00,5.000000000000000000e+00,5.000000000000000000e+00,5.000000000000000000e+00,5.000000000000000000e+00,5.000000000000000000e+00,5.000000000000000000e+00,5.000000000000000000e+00,5.000000000000000000e+00,5.000000000000000000e+00,5.000000000000000000e+00,5.000000000000000000e+00,5.000000000000000000e+00,1.539085984230041504e+00,1.485086798667907715e+00,1.466167807579040527e+00,1.468852639198303223e+00,1.543115735054016113e+00,1.540832519531250000e+00,1.548392057418823242e+00,5.000000000000000000e+00,5.000000000000000000e+00,5.000000000000000000e+00,5.000000000000000000e+00,5.000000000000000000e+00,5.000000000000000000e+00,5.000000000000000000e+00,5.000000000000000000e+00,5.000000000000000000e+00,5.000000000000000000e+00,5.000000000000000000e+00,5.000000000000000000e+00,5.000000000000000000e+00,5.000000000000000000e+00,5.000000000000000000e+00,5.000000000000000000e+00,5.000000000000000000e+00,5.000000000000000000e+00,5.000000000000000000e+00,5.000000000000000000e+00,5.000000000000000000e+00,5.000000000000000000e+00,5.000000000000000000e+00,5.000000000000000000e+00,5.000000000000000000e+00,5.000000000000000000e+00,4.850904464721679688e+00,4.691606998443603516e+00,4.542439937591552734e+00,4.402465343475341797e+00,4.270860195159912109e+00,4.146894454956054688e+00,4.029922008514404297e+00,3.919367790222167969e+00,3.814717292785644531e+00,3.715509891510009766e+00
3.099137544631958008e+00,3.177498340606689453e+00,3.259924411773681641e+00,3.346741437911987305e+00,3.438308477401733398e+00,3.535027503967285156e+00,3.637345075607299805e+00,3.745762109756469727e+00,3.860841274261474609e+00,3.983214855194091797e+00,4.113600254058837891e+00,4.252810955047607422e+00,4.401773452758789062e+00,4.561550140380859375e+00,4.733362674713134766e+00,4.854115962982177734e+00,4.852911949157714844e+00,4.851707935333251953e+00,4.850505352020263672e+00,4.849303245544433594e+00,4.848101615905761719e+00,4.846900463104248047e+00,4.845700263977050781e+00,4.844500064849853516e+00,4.843300819396972656e+00,4.842102050781250000e+00,4.840903759002685547e+00,4.839706420898437500e+00,4.838509559631347656e+00,4.837313175201416016e+00,4.836117744445800781e+00,4.834922313690185547e+00,4.833727836608886719e+00,4.832533836364746094e+00,4.831340312957763672e+00,4.830147743225097656e+00,4.828955650329589844e+00,1.531292438507080078e+00,1.509438037872314453e+00,1.504200220108032227e+00,1.560637712478637695e+00,1.545971155166625977e+00,1.547787070274353027e+00,4.820626735687255859e+00,4.819439411163330078e+00,4.818252563476562500e+00,4.817066192626953125e+00,4.815879821777343750e+00,4.814694881439208984e+00,4.813510417938232422e+00,4.812326431274414062e+00,4.811142921447753906e+00,4.809960365295410156e+00,4.808778285980224609e+00,4.807596206665039062e+00,4.806415081024169922e+00,4.805234432220458984e+00,4.804054737091064453e+00,4.802875518798828125e+00,4.801696777343750000e+00,4.800518512725830078e+00,4.799340724945068359e+00,4.798163890838623047e+00,4.796987056732177734e+00,4.795811176300048828e+00,4.794636249542236328e+00,4.793461322784423828e+00,4.792287349700927734e+00,4.791113853454589844e+00,4.789940834045410156e+00,4.788768291473388672e+00,4.691740512847900391e+00,4.542564868927001953e+00,4.402582645416259766e+00,4.270970344543457031e+00,4.146998405456542969e+00,4.030020236968994141e+00,3.919460535049438477e+00,3.814805269241333008e+00,3.715593338012695312e+00
3.099071264266967773e+00,3.177428960800170898e+00,3.259851694107055664e+00,3.346664190292358398e+00,3.438227415084838867e+00,3.534941434860229492e+00,3.637254476547241211e+00,3.745665788650512695e+00,3.770670175552368164e+00,3.769943475723266602e+00,3.769217252731323242e+00,3.768491268157958984e+00,3.767765522003173828e+00,3.767040252685546875e+00,3.766314983367919922e+00,3.765590190887451172e+00,3.764865636825561523e+00,3.764141082763671875e+00,3.763417005538940430e+00,3.762693405151367188e+00,3.761969804763793945e+00,3.761246204376220703e+00,3.760523319244384766e+00,3.759800672531127930e+00,3.759078264236450195e+00,3.758356332778930664e+00,3.757634401321411133e+00,3.756912946701049805e+00,3.756191730499267578e+00,3.755470752716064453e+00,3.754750013351440430e+00,3.754029512405395508e+00,3.753309249877929688e+00,3.752589464187622070e+00,3.751869916915893555e+00,3.751150608062744141e+00,3.750431060791015625e+00,1.526161193847656250e+00,1.509925365447998047e+00,1.510233402252197266e+00,1.563721776008605957e+00,1.550163865089416504e+00,1.554804444313049316e+00,3.745405435562133789e+00,3.744688510894775391e+00,3.743972063064575195e+00,3.743255615234375000e+00,3.742539644241333008e+00,3.741823911666870117e+00,3.741108417510986328e+00,3.740393161773681641e+00,3.739677906036376953e+00,3.738963365554809570e+00,3.738248825073242188e+00,3.737534761428833008e+00,3.736820936203002930e+00,3.736107349395751953e+00,3.735394001007080078e+00,3.734681129455566406e+00,3.733968257904052734e+00,3.733255863189697266e+00,3.732543706893920898e+00,3.731831550598144531e+00,3.731120109558105469e+00,3.730408668518066406e+00,3.729697465896606445e+00,3.728986263275146484e+00,3.728275537490844727e+00,3.727565288543701172e+00,3.726855278015136719e+00,3.726145505905151367e+00,3.725435972213745117e+00,3.724726676940917969e+00,3.724017858505249023e+00,3.723309040069580078e+00,3.722600698471069336e+00,3.721892595291137695e+00,3.721184730529785156e+00,3.720477104187011719e+00,3.715677022933959961e+00
3.083109140396118164e+00,3.082623481750488281e+00,3.082137823104858398e+00,3.081652402877807617e+00,3.081167221069335938e+00,3.080682039260864258e+00,3.080197095870971680e+00,3.079712390899658203e+00,3.079227685928344727e+00,3.078742980957031250e+00,3.078258991241455078e+00,3.077774763107299805e+00,3.077290534973144531e+00,3.076806783676147461e+00,3.076323032379150391e+00,3.075839281082153320e+00,3.075355768203735352e+00,3.074872493743896484e+00,3.074389219284057617e+00,3.073906183242797852e+00,3.073423385620117188e+00,3.072940587997436523e+00,3.072458028793334961e+00,3.071975708007812500e+00,3.071493387222290039e+00,3.071011066436767578e+00,3.070528984069824219e+00,3.070047378540039062e+00,3.069565534591674805e+00,3.069084167480468750e+00,3.068602800369262695e+00,3.068121671676635742e+00,3.067640542984008789e+00,3.067159652709960938e+00,3.066678762435913086e+00,3.066198348999023438e+00,3.065717935562133789e+00,1.514548063278198242e+00,1.500419259071350098e+00,1.498038887977600098e+00,1.566654086112976074e+00,1.556795358657836914e+00,1.579089403152465820e+00,3.062358617782592773e+00,3.061879396438598633e+00,3.061400413513183594e+00,3.060921430587768555e+00,3.060442686080932617e+00,3.059963941574096680e+00,3.059485435485839844e+00,3.059007167816162109e+00,3.058528900146484375e+00,3.058050870895385742e+00,3.057572841644287109e+00,3.057095289230346680e+00,3.056617259979248047e+00,3.056139945983886719e+00,3.055662631988525391e+00,3.055185317993164062e+00,3.054708480834960938e+00,3.054231643676757812e+00,3.053754806518554688e+00,3.053278207778930664e+00,3.052801847457885742e+00,3.052325487136840820e+00,3.051849365234375000e+00,3.051373481750488281e+00,3.050897598266601562e+00,3.050421953201293945e+00,3.049946546554565430e+00,3.049470901489257812e+00,3.048995733261108398e+00,3.048520565032958984e+00,3.048045635223388672e+00,3.047570943832397461e+00,3.047096252441406250e+00,3.046621799468994141e+00,3.046147584915161133e+00,3.045673370361328125e+00,3.045199155807495117e+00
2.604846239089965820e+00,2.604499340057373047e+00,2.604152679443359375e+00,2.603806257247924805e+00,2.603459835052490234e+00,2.603113412857055664e+00,2.602767229080200195e+00,2.602421045303344727e+00,2.602074861526489258e+00,2.601728916168212891e+00,2.601383209228515625e+00,2.601037263870239258e+00,2.600691556930541992e+00,2.600345849990844727e+00,2.600000381469726562e+00,2.599655151367187500e+00,2.599309682846069336e+00,2.598964452743530273e+00,2.598619222640991211e+00,2.598274230957031250e+00,2.597929000854492188e+00,2.597584247589111328e+00,2.597239494323730469e+00,2.596894741058349609e+00,2.596549987792968750e+00,2.596205472946166992e+00,2.595860958099365234e+00,2.595516681671142578e+00,2.595172166824340820e+00,2.594827890396118164e+00,2.594483852386474609e+00,2.594139814376831055e+00,2.593796014785766602e+00,2.593452215194702148e+00,2.593108415603637695e+00,2.592764854431152344e+00,2.592421293258666992e+00,1.499547481536865234e+00,1.490151047706604004e+00,1.488083481788635254e+00,1.500266313552856445e+00,1.574730753898620605e+00,2.590361833572387695e+00,2.590018987655639648e+00,2.589675903320312500e+00,2.589333295822143555e+00,2.588990688323974609e+00,2.588648080825805664e+00,2.588305711746215820e+00,2.587963342666625977e+00,2.587620973587036133e+00,2.587278842926025391e+00,2.586936712265014648e+00,2.586594820022583008e+00,2.586252927780151367e+00,2.585911035537719727e+00,2.585569381713867188e+00,2.585227727890014648e+00,2.584886074066162109e+00,2.584544420242309570e+00,2.584203004837036133e+00,2.583861827850341797e+00,2.583520650863647461e+00,2.583179473876953125e+00,2.582838535308837891e+00,2.582497596740722656e+00,2.582156658172607422e+00,2.581815958023071289e+00,2.581475496292114258e+00,2.581134796142578125e+00,2.580794334411621094e+00,2.580453872680664062e+00,2.580113649368286133e+00,2.579773426055908203e+00,2.579433202743530273e+00,2.579093217849731445e+00,2.578753232955932617e+00,2.578413248062133789e+00,2.578073501586914062e+00,2.577733993530273438e+00
2.255036592483520508e+00,2.254776716232299805e+00,2.254517078399658203e+00,2.254257202148437500e+00,2.253997802734375000e+00,2.253738164901733398e+00,2.253478527069091797e+00,2.253218889236450195e+00,2.252959489822387695e+00,2.252700090408325195e+00,2.252440929412841797e+00,2.252181768417358398e+00,2.251922369003295898e+00,2.251663208007812500e+00,2.251404285430908203e+00,2.251145362854003906e+00,2.250886201858520508e+00,2.250627279281616211e+00,2.250368595123291016e+00,2.250109672546386719e+00,2.249850988388061523e+00,2.249592542648315430e+00,2.249333858489990234e+00,2.249075174331665039e+00,2.248816728591918945e+00,2.248558282852172852e+00,2.248299837112426758e+00,2.248041629791259766e+00,2.247783422470092773e+00,2.247525215148925781e+00,2.247267007827758789e+00,2.247008800506591797e+00,2.246750593185424805e+00,2.246492624282836914e+00,2.246234893798828125e+00,2.245976924896240234e+00,2.245719194412231445e+00,1.487412214279174805e+00,1.474231600761413574e+00,1.476337552070617676e+00,1.483890175819396973e+00,1.564312219619750977e+00,2.244173526763916016e+00,2.243916273117065430e+00,2.243658781051635742e+00,2.243401527404785156e+00,2.243144512176513672e+00,2.242887020111083984e+00,2.242630004882812500e+00,2.242372989654541016e+00,2.242115974426269531e+00,2.241859197616577148e+00,2.241602182388305664e+00,2.241345405578613281e+00,2.241088867187500000e+00,2.240832090377807617e+00,2.240575551986694336e+00,2.240319013595581055e+00,2.240062475204467773e+00,2.239805936813354492e+00,2.239549636840820312e+00,2.239293336868286133e+00,2.239037036895751953e+00,2.238780736923217773e+00,2.238524436950683594e+00,2.238268375396728516e+00,2.238012313842773438e+00,2.237756490707397461e+00,2.237500429153442383e+00,2.237244606018066406e+00,2.236988782882690430e+00,2.236733198165893555e+00,2.236477375030517578e+00,2.236221790313720703e+00,2.235966205596923828e+00,2.235710620880126953e+00,2.235455274581909180e+00,2.235199928283691406e+00,2.234944343566894531e+00,2.234689235687255859e+00
1.988057136535644531e+00,1.987854957580566406e+00,1.987653136253356934e+00,1.987451076507568359e+00,1.987249374389648438e+00,1.987047672271728516e+00,1.986845731735229492e+00,1.986644148826599121e+00,1.986442327499389648e+00,1.986240744590759277e+00,1.986039280891418457e+00,1.985837578773498535e+00,1.985636234283447266e+00,1.985434651374816895e+00,1.985233306884765625e+00,1.985031962394714355e+00,1.984830498695373535e+00,1.984629273414611816e+00,1.984427809715270996e+00,1.984226703643798828e+00,1.984025359153747559e+00,1.983824253082275391e+00,1.983623266220092773e+00,1.983422040939331055e+00,1.983221173286437988e+00,1.983020067214965820e+00,1.982819199562072754e+00,1.982618451118469238e+00,1.982417345046997070e+00,1.982216715812683105e+00,1.982015728950500488e+00,1.981815099716186523e+00,1.981614232063293457e+00,1.981413722038269043e+00,1.981212973594665527e+00,1.981012463569641113e+00,1.980811834335327148e+00,1.980611205101013184e+00,1.456993341445922852e+00,1.458159685134887695e+00,1.459286570549011230e+00,1.471909523010253906e+00,1.979609251022338867e+00,1.979408860206604004e+00,1.979208707809448242e+00,1.979008436203002930e+00,1.978808403015136719e+00,1.978608131408691406e+00,1.978408217430114746e+00,1.978208065032958984e+00,1.978008151054382324e+00,1.977808117866516113e+00,1.977608084678649902e+00,1.977408289909362793e+00,1.977208375930786133e+00,1.977008700370788574e+00,1.976808786392211914e+00,1.976609230041503906e+00,1.976409435272216797e+00,1.976209878921508789e+00,1.976010203361511230e+00,1.975810766220092773e+00,1.975611090660095215e+00,1.975411772727966309e+00,1.975212216377258301e+00,1.975013017654418945e+00,1.974813461303710938e+00,1.974614024162292480e+00,1.974414944648742676e+00,1.974215626716613770e+00,1.974016547203063965e+00,1.973817229270935059e+00,1.973618268966674805e+00,1.973419070243835449e+00,1.973220109939575195e+00,1.973021030426025391e+00,1.972822189331054688e+00,1.972623229026794434e+00,1.972424507141113281e+00,1.972225546836853027e+00
1.777602076530456543e+00,1.777440667152404785e+00,1.777279138565063477e+00,1.777117729187011719e+00,1.776956439018249512e+00,1.776795029640197754e+00,1.776633739471435547e+00,1.776472330093383789e+00,1.776311159133911133e+00,1.776149749755859375e+00,1.775988698005676270e+00,1.775827527046203613e+00,1.775666356086730957e+00,1.775505304336547852e+00,1.775344014167785645e+00,1.775183081626892090e+00,1.775022149085998535e+00,1.774860978126525879e+00,1.774700045585632324e+00,1.774539113044738770e+00,1.774378180503845215e+00,1.774217367172241211e+00,1.774056434631347656e+00,1.773895740509033203e+00,1.773734807968139648e+00,1.773574113845825195e+00,1.773413181304931641e+00,1.773252606391906738e+00,1.773092031478881836e+00,1.772931218147277832e+00,1.772770643234252930e+00,1.772609949111938477e+00,1.772449493408203125e+00,1.772289037704467773e+00,1.772128343582153320e+00,1.771968007087707520e+00,1.771807432174682617e+00,1.771647095680236816e+00,1.771486520767211914e+00,1.771326303482055664e+00,1.449836015701293945e+00,1.450075864791870117e+00,1.492806792259216309e+00,1.770684838294982910e+00,1.770524740219116211e+00,1.770364403724670410e+00,1.770204305648803711e+00,1.770044088363647461e+00,1.769883990287780762e+00,1.769723892211914062e+00,1.769563913345336914e+00,1.769403696060180664e+00,1.769243836402893066e+00,1.769083738327026367e+00,1.768923878669738770e+00,1.768763899803161621e+00,1.768603920936584473e+00,1.768444180488586426e+00,1.768284201622009277e+00,1.768124580383300781e+00,1.767964720726013184e+00,1.767804980278015137e+00,1.767645239830017090e+00,1.767485618591308594e+00,1.767325878143310547e+00,1.767166376113891602e+00,1.767006635665893555e+00,1.766847133636474609e+00,1.766687512397766113e+00,1.766528129577636719e+00,1.766368508338928223e+00,1.766209006309509277e+00,1.766049623489379883e+00,1.765890121459960938e+00,1.765730857849121094e+00,1.765571475028991699e+00,1.765412330627441406e+00,1.765252947807312012e+00,1.765093803405761719e+00,1.764934420585632324e+00
1.607439279556274414e+00,1.607307076454162598e+00,1.607175111770629883e+00,1.607043027877807617e+00,1.606911182403564453e+00,1.606779217720031738e+00,1.606647253036499023e+00,1.606515407562255859e+00,1.606383442878723145e+00,1.606251597404479980e+00,1.606119871139526367e+00,1.605987906455993652e+00,1.605856180191040039e+00,1.605724334716796875e+00,1.605592608451843262e+00,1.605461001396179199e+00,1.605329155921936035e+00,1.605197548866271973e+00,1.605065703392028809e+00,1.604934215545654297e+00,1.604802489280700684e+00,1.604670882225036621e+00,1.604539394378662109e+00,1.604407668113708496e+00,1.604276299476623535e+00,1.604144692420959473e+00,1.604013204574584961e+00,1.603881835937500000e+00,1.603750228881835938e+00,1.603618860244750977e+00,1.603487372398376465e+00,1.603356003761291504e+00,1.603224754333496094e+00,1.603093266487121582e+00,1.602962017059326172e+00,1.602830648422241211e+00,1.602699398994445801e+00,1.602568030357360840e+00,1.602436900138854980e+00,1.602305769920349121e+00,1.602174401283264160e+00,1.494181275367736816e+00,1.462720632553100586e+00,1.450709223747253418e+00,1.601649880409240723e+00,1.601518630981445312e+00,1.601387619972229004e+00,1.601256489753723145e+00,1.601125597953796387e+00,1.600994467735290527e+00,1.600863575935363770e+00,1.600732445716857910e+00,1.600601673126220703e+00,1.600470662117004395e+00,1.600339770317077637e+00,1.600208878517150879e+00,1.600077986717224121e+00,1.599947094917297363e+00,1.599816322326660156e+00,1.599685430526733398e+00,1.599554538726806641e+00,1.599423885345458984e+00,1.599293112754821777e+00,1.599162459373474121e+00,1.599031686782836914e+00,1.598901033401489258e+00,1.598770380020141602e+00,1.598639845848083496e+00,1.598509073257446289e+00,1.598378539085388184e+00,1.598248004913330078e+00,1.598117470741271973e+00,1.597986817359924316e+00,1.597856402397155762e+00,1.597725868225097656e+00,1.597595334053039551e+00,1.597465038299560547e+00,1.597334504127502441e+00,1.597204208374023438e+00,1.597073674201965332e+00
1.467008233070373535e+00,1.466898322105407715e+00,1.466788291931152344e+00,1.466678380966186523e+00,1.466568470001220703e+00,1.466458439826965332e+00,1.466348648071289062e+00,1.466238737106323242e+00,1.466128826141357422e+00,1.466018915176391602e+00,1.465909123420715332e+00,1.465799450874328613e+00,1.465689539909362793e+00,1.465579867362976074e+00,1.465469956398010254e+00,1.465360283851623535e+00,1.465250611305236816e+00,1.465140819549560547e+00,1.465031147003173828e+00,1.464921355247497559e+00,1.464811801910400391e+00,1.464702248573303223e+00,1.464592456817626953e+00,1.464482903480529785e+00,1.464373230934143066e+00,1.464263677597045898e+00,1.464154124259948730e+00,1.464044570922851562e+00,1.463935136795043945e+00,1.463825464248657227e+00,1.463716030120849609e+00,1.463606476783752441e+00,1.463497042655944824e+00,1.463387727737426758e+00,1.463278174400329590e+00,1.463168859481811523e+00,1.463059306144714355e+00,1.462949991226196289e+00,1.462840676307678223e+00,1.462731242179870605e+00,1.462621927261352539e+00,1.462512612342834473e+00,1.462403297424316406e+00,1.462294101715087891e+00,1.462184786796569824e+00,1.462075591087341309e+00,1.461966276168823242e+00,1.461856961250305176e+00,1.461747765541076660e+00,1.461638569831848145e+00,1.461529374122619629e+00,1.461420178413391113e+00,1.461311101913452148e+00,1.461201906204223633e+00,1.461092829704284668e+00,1.460983633995056152e+00,1.460874676704406738e+00,1.460765480995178223e+00,1.460656523704528809e+00,1.460547447204589844e+00,1.460438489913940430e+00,1.460329413414001465e+00,1.460220456123352051e+00,1.460111379623413086e+00,1.460002422332763672e+00,1.459893584251403809e+00,1.459784507751464844e+00,1.459675669670104980e+00,1.459566712379455566e+00,1.459457993507385254e+00,1.459349036216735840e+00,1.459240198135375977e+00,1.459131360054016113e+00,1.459022641181945801e+00,1.458913803100585938e+00,1.458805084228515625e+00,1.458696246147155762e+00,1.458587527275085449e+00,1.458478689193725586e+00,1.458369970321655273e+00
1.349142789840698242e+00,1.349049806594848633e+00,1.348956823348999023e+00,1.348863720893859863e+00,1.348770856857299805e+00,1.348677873611450195e+00,1.348584890365600586e+00,1.348492026329040527e+00,1.348399043083190918e+00,1.348306179046630859e+00,1.348213315010070801e+00,1.348120331764221191e+00,1.348027467727661133e+00,1.347934603691101074e+00,1.347841739654541016e+00,1.347748994827270508e+00,1.347656130790710449e+00,1.347563385963439941e+00,1.347470521926879883e+00,1.347377777099609375e+00,1.347284913063049316e+00,1.347192168235778809e+00,1.347099542617797852e+00,1.347006678581237793e+00,1.346914052963256836e+00,1.346821308135986328e+00,1.346728563308715820e+00,1.346635937690734863e+00,1.346543192863464355e+00,1.346450686454772949e+00,1.346357941627502441e+00,1.346265316009521484e+00,1.346172809600830078e+00,1.346080064773559570e+00,1.345987558364868164e+00,1.345894932746887207e+00,1.345802426338195801e+00,1.345709800720214844e+00,1.345617294311523438e+00,1.345524787902832031e+00,1.345432162284851074e+00,1.345339775085449219e+00,1.345247149467468262e+00,1.345154762268066406e+00,1.345062375068664551e+00,1.344969749450683594e+00,1.344877362251281738e+00,1.344784855842590332e+00,1.344692587852478027e+00,1.344600200653076172e+00,1.344507694244384766e+00,1.344415426254272461e+00,1.344322919845581055e+00,1.344230532646179199e+00,1.344138264656066895e+00,1.344045877456665039e+00,1.343953609466552734e+00,1.343861222267150879e+00,1.343768954277038574e+00,1.343676686286926270e+00,1.343584418296813965e+00,1.343492150306701660e+00,1.343399882316589355e+00,1.343307614326477051e+00,1.343215465545654297e+00,1.343123197555541992e+00,1.343030929565429688e+00,1.342938780784606934e+00,1.342846512794494629e+00,1.342754483222961426e+00,1.342662215232849121e+00,1.342570185661315918e+00,1.342478036880493164e+00,1.342386007308959961e+00,1.342293739318847656e+00,1.342201709747314453e+00,1.342109680175781250e+00,1.342017650604248047e+00,1.341925501823425293e+00,1.341833591461181641e+00
1.248808383941650391e+00,1.248728871345520020e+00,1.248649120330810547e+00,1.248569488525390625e+00,1.248489856719970703e+00,1.248410105705261230e+00,1.248330473899841309e+00,1.248250842094421387e+00,1.248171210289001465e+00,1.248091578483581543e+00,1.248011946678161621e+00,1.247932434082031250e+00,1.247852802276611328e+00,1.247773289680480957e+00,1.247693657875061035e+00,1.247614145278930664e+00,1.247534632682800293e+00,1.247455000877380371e+00,1.247375488281250000e+00,1.247295975685119629e+00,1.247216463088989258e+00,1.247137069702148438e+00,1.247057557106018066e+00,1.246978044509887695e+00,1.246898531913757324e+00,1.246819138526916504e+00,1.246739625930786133e+00,1.246660232543945312e+00,1.246580839157104492e+00,1.246501445770263672e+00,1.246422052383422852e+00,1.246342658996582031e+00,1.246263265609741211e+00,1.246183872222900391e+00,1.246104478836059570e+00,1.246025204658508301e+00,1.245945811271667480e+00,1.245866537094116211e+00,1.245787262916564941e+00,1.245707869529724121e+00,1.245628595352172852e+00,1.245549201965332031e+00,1.245470046997070312e+00,1.245390772819519043e+00,1.245311498641967773e+00,1.245232224464416504e+00,1.245152950286865234e+00,1.245073795318603516e+00,1.244994521141052246e+00,1.244915366172790527e+00,1.244836211204528809e+00,1.244756937026977539e+00,1.244677782058715820e+00,1.244598507881164551e+00,1.244519472122192383e+00,1.244440317153930664e+00,1.244361162185668945e+00,1.244281888008117676e+00,1.244202852249145508e+00,1.244123697280883789e+00,1.244044661521911621e+00,1.243965506553649902e+00,1.243886470794677734e+00,1.243807315826416016e+00,1.243728280067443848e+00,1.243649244308471680e+00,1.243570208549499512e+00,1.243491172790527344e+00,1.243412137031555176e+00,1.243333101272583008e+00,1.243254065513610840e+00,1.243175148963928223e+00,1.243096113204956055e+00,1.243017196655273438e+00,1.242938160896301270e+00,1.242859244346618652e+00,1.242780208587646484e+00,1.242701292037963867e+00,1.242622375488281250e+00,1.242543458938598633e+00
1.162364721298217773e+00,1.162295579910278320e+00,1.162226557731628418e+00,1.162157535552978516e+00,1.162088513374328613e+00,1.162019610404968262e+00,1.161950469017028809e+00,1.161881566047668457e+00,1.161812543869018555e+00,1.161743521690368652e+00,1.161674618721008301e+00,1.161605596542358398e+00,1.161536693572998047e+00,1.161467671394348145e+00,1.161398768424987793e+00,1.161329865455627441e+00,1.161260962486267090e+00,1.161192059516906738e+00,1.161123156547546387e+00,1.161054253578186035e+00,1.160985350608825684e+00,1.160916447639465332e+00,1.160847663879394531e+00,1.160778641700744629e+00,1.160709857940673828e+00,1.160640954971313477e+00,1.160572171211242676e+00,1.160503387451171875e+00,1.160434484481811523e+00,1.160365700721740723e+00,1.160296916961669922e+00,1.160228133201599121e+00,1.160159349441528320e+00,1.160090446472167969e+00,1.160021781921386719e+00,1.159952998161315918e+00,1.159884214401245117e+00,1.159815430641174316e+00,1.159746766090393066e+00,1.159677982330322266e+00,1.159609198570251465e+00,1.159540534019470215e+00,1.159471750259399414e+00,1.159403085708618164e+00,1.159334421157836914e+00,1.159265756607055664e+00,1.159197092056274414e+00,1.159128308296203613e+00,1.159059762954711914e+00,1.158991098403930664e+00,1.158922433853149414e+00,1.158853769302368164e+00,1.158785104751586914e+00,1.158716559410095215e+00,1.158647894859313965e+00,1.158579349517822266e+00,1.158510804176330566e+00,1.158442139625549316e+00,1.158373594284057617e+00,1.158304929733276367e+00,1.158236503601074219e+00,1.158167958259582520e+00,1.158099293708801270e+00,1.158030748367309570e+00,1.157962203025817871e+00,1.157893657684326172e+00,1.157825231552124023e+00,1.157756686210632324e+00,1.157688140869140625e+00,1.157619595527648926e+00,1.157551169395446777e+00,1.157482743263244629e+00,1.157414197921752930e+00,1.157345771789550781e+00,1.157277226448059082e+00,1.157208800315856934e+00,1.157140374183654785e+00,1.157071948051452637e+00,1.157003521919250488e+00,1.156935095787048340e+00
1.087113499641418457e+00,1.087053179740905762e+00,1.086992740631103516e+00,1.086932301521301270e+00,1.086871981620788574e+00,1.086811542510986328e+00,1.086751222610473633e+00,1.086690902709960938e+00,1.086630582809448242e+00,1.086570143699645996e+00,1.086509823799133301e+00,1.086449623107910156e+00,1.086389183998107910e+00,1.086328864097595215e+00,1.086268544197082520e+00,1.086208343505859375e+00,1.086148023605346680e+00,1.086087703704833984e+00,1.086027503013610840e+00,1.085967183113098145e+00,1.085906863212585449e+00,1.085846662521362305e+00,1.085786342620849609e+00,1.085726141929626465e+00,1.085665941238403320e+00,1.085605740547180176e+00,1.085545420646667480e+00,1.085485219955444336e+00,1.085425019264221191e+00,1.085364818572998047e+00,1.085304617881774902e+00,1.085244417190551758e+00,1.085184216499328613e+00,1.085124135017395020e+00,1.085063934326171875e+00,1.085003733634948730e+00,1.084943532943725586e+00,1.084883451461791992e+00,1.084823250770568848e+00,1.084763169288635254e+00,1.084702968597412109e+00,1.084642767906188965e+00,1.084582686424255371e+00,1.084522604942321777e+00,1.084462523460388184e+00,1.084402441978454590e+00,1.084342360496520996e+00,1.084282279014587402e+00,1.084222078323364258e+00,1.084162116050720215e+00,1.084102034568786621e+00,1.084041953086853027e+00,1.083981871604919434e+00,1.083921790122985840e+00,1.083861827850341797e+00,1.083801865577697754e+00,1.083741784095764160e+00,1.083681702613830566e+00,1.083621740341186523e+00,1.083561778068542480e+00,1.083501815795898438e+00,1.083441734313964844e+00,1.083381772041320801e+00,1.083321690559387207e+00,1.083261847496032715e+00,1.083201766014099121e+00,1.083141803741455078e+00,1.083081960678100586e+00,1.083021998405456543e+00,1.082961916923522949e+00,1.082902073860168457e+00,1.082842111587524414e+00,1.082782149314880371e+00,1.082722187042236328e+00,1.082662343978881836e+00,1.082602381706237793e+00,1.082542538642883301e+00,1.082482576370239258e+00,1.082422733306884766e+00,1.082362890243530273e+00
1.021013379096984863e+00,1.020960092544555664e+00,1.020906925201416016e+00,1.020853519439697266e+00,1.020800352096557617e+00,1.020747065544128418e+00,1.020693778991699219e+00,1.020640611648559570e+00,1.020587325096130371e+00,1.020534157752990723e+00,1.020480990409851074e+00,1.020427703857421875e+00,1.020374536514282227e+00,1.020321249961853027e+00,1.020268082618713379e+00,1.020214915275573730e+00,1.020161747932434082e+00,1.020108580589294434e+00,1.020055294036865234e+00,1.020002126693725586e+00,1.019948959350585938e+00,1.019895792007446289e+00,1.019842743873596191e+00,1.019789576530456543e+00,1.019736409187316895e+00,1.019683241844177246e+00,1.019630074501037598e+00,1.019577026367187500e+00,1.019523859024047852e+00,1.019470810890197754e+00,1.019417643547058105e+00,1.019364476203918457e+00,1.019311428070068359e+00,1.019258379936218262e+00,1.019205212593078613e+00,1.019152164459228516e+00,1.019099116325378418e+00,1.019045948982238770e+00,1.018992900848388672e+00,1.018939852714538574e+00,1.018886804580688477e+00,1.018833756446838379e+00,1.018780708312988281e+00,1.018727660179138184e+00,1.018674612045288086e+00,1.018621563911437988e+00,1.018568634986877441e+00,1.018515586853027344e+00,1.018462538719177246e+00,1.018409609794616699e+00,1.018356561660766602e+00,1.018303632736206055e+00,1.018250584602355957e+00,1.018197536468505859e+00,1.018144607543945312e+00,1.018091678619384766e+00,1.018038630485534668e+00,1.017985701560974121e+00,1.017932772636413574e+00,1.017879724502563477e+00,1.017826795578002930e+00,1.017773866653442383e+00,1.017720937728881836e+00,1.017668008804321289e+00,1.017615079879760742e+00,1.017562150955200195e+00,1.017509341239929199e+00,1.017456412315368652e+00,1.017403483390808105e+00,1.017350554466247559e+00,1.017297625541687012e+00,1.017244815826416016e+00,1.017191886901855469e+00,1.017138957977294922e+00,1.017086148262023926e+00,1.017033219337463379e+00,1.016980409622192383e+00,1.016927480697631836e+00,1.016874670982360840e+00,1.016821861267089844e+00
9.624908566474914551e-01,9.624434709548950195e-01,9.623960852622985840e-01,9.623488187789916992e-01,9.623014330863952637e-01,9.622541069984436035e-01,9.622069001197814941e-01,9.621595144271850586e-01,9.621121883392333984e-01,9.620648622512817383e-01,9.620176553726196289e-01,9.619703292846679688e-01,9.619230031967163086e-01,9.618757963180541992e-01,9.618284702301025391e-01,9.617811441421508789e-01,9.617339372634887695e-01,9.616866707801818848e-01,9.616393446922302246e-01,9.615920782089233398e-01,9.615449309349060059e-01,9.614976048469543457e-01,9.614503383636474609e-01,9.614031910896301270e-01,9.613559246063232422e-01,9.613086581230163574e-01,9.612613916397094727e-01,9.612142443656921387e-01,9.611670374870300293e-01,9.611197710037231445e-01,9.610726237297058105e-01,9.610254168510437012e-01,9.609781503677368164e-01,9.609310626983642578e-01,9.608838558197021484e-01,9.608366489410400391e-01,9.607894420623779297e-01,9.607422947883605957e-01,9.606951475143432617e-01,9.606479406356811523e-01,9.606008529663085938e-01,9.605536460876464844e-01,9.605064392089843750e-01,9.604594111442565918e-01,9.604122042655944824e-01,9.603650569915771484e-01,9.603179097175598145e-01,9.602708220481872559e-01,9.602236747741699219e-01,9.601765275001525879e-01,9.601294994354248047e-01,9.600823521614074707e-01,9.600352048873901367e-01,9.599880576133728027e-01,9.599410891532897949e-01,9.598939418792724609e-01,9.598467946052551270e-01,9.597998261451721191e-01,9.597527384757995605e-01,9.597055912017822266e-01,9.596586227416992188e-01,9.596115350723266602e-01,9.595644474029541016e-01,9.595173597335815430e-01,9.594703912734985352e-01,9.594233036041259766e-01,9.593762159347534180e-01,9.593292474746704102e-01,9.592822194099426270e-01,9.592351317405700684e-01,9.591881036758422852e-01,9.591411352157592773e-01,9.590941071510314941e-01,9.590470790863037109e-01,9.590001106262207031e-01,9.589530825614929199e-01,9.589060544967651367e-01,9.588591456413269043e-01,9.588121175765991211e-01,9.587651491165161133e-01
9.103133082389831543e-01,9.102709293365478516e-01,9.102286100387573242e-01,9.101862907409667969e-01,9.101439118385314941e-01,9.101016521453857422e-01,9.100592732429504395e-01,9.100169539451599121e-01,9.099745750427246094e-01,9.099323153495788574e-01,9.098899960517883301e-01,9.098476767539978027e-01,9.098054170608520508e-01,9.097630977630615234e-01,9.097207784652709961e-01,9.096785187721252441e-01,9.096361994743347168e-01,9.095939397811889648e-01,9.095516204833984375e-01,9.095094203948974609e-01,9.094671010971069336e-01,9.094247817993164062e-01,9.093825817108154297e-01,9.093403220176696777e-01,9.092980027198791504e-01,9.092557430267333984e-01,9.092135429382324219e-01,9.091712832450866699e-01,9.091290235519409180e-01,9.090868234634399414e-01,9.090445637702941895e-01,9.090023040771484375e-01,9.089601635932922363e-01,9.089179039001464844e-01,9.088756442070007324e-01,9.088334441184997559e-01,9.087913036346435547e-01,9.087490439414978027e-01,9.087068438529968262e-01,9.086647033691406250e-01,9.086224436759948730e-01,9.085802435874938965e-01,9.085380434989929199e-01,9.084959030151367188e-01,9.084537029266357422e-01,9.084115028381347656e-01,9.083694219589233398e-01,9.083272218704223633e-01,9.082850217819213867e-01,9.082429409027099609e-01,9.082007408142089844e-01,9.081586003303527832e-01,9.081164002418518066e-01,9.080743193626403809e-01,9.080321788787841797e-01,9.079899787902832031e-01,9.079479575157165527e-01,9.079057574272155762e-01,9.078636169433593750e-01,9.078214764595031738e-01,9.077793955802917480e-01,9.077372550964355469e-01,9.076951146125793457e-01,9.076530933380126953e-01,9.076109528541564941e-01,9.075688719749450684e-01,9.075268507003784180e-01,9.074847102165222168e-01,9.074426293373107910e-01,9.074004888534545898e-01,9.073584675788879395e-01,9.073163866996765137e-01,9.072743058204650879e-01,9.072322845458984375e-01,9.071902036666870117e-01,9.071481227874755859e-01,9.071060419082641602e-01,9.070640206336975098e-01,9.070219993591308594e-01,9.069799184799194336e-01
8.635020256042480469e-01,8.634639978408813477e-01,8.634258508682250977e-01,8.633877635002136230e-01,8.633497357368469238e-01,8.633115887641906738e-01,8.632735013961791992e-01,8.632353544235229492e-01,8.631973266601562500e-01,8.631592392921447754e-01,8.631211519241333008e-01,8.630831241607666016e-01,8.630450367927551270e-01,8.630069494247436523e-01,8.629688620567321777e-01,8.629308938980102539e-01,8.628928065299987793e-01,8.628547191619873047e-01,8.628167510032653809e-01,8.627786636352539062e-01,8.627405762672424316e-01,8.627026081085205078e-01,8.626645803451538086e-01,8.626264929771423340e-01,8.625884652137756348e-01,8.625504970550537109e-01,8.625124692916870117e-01,8.624743819236755371e-01,8.624364733695983887e-01,8.623983860015869141e-01,8.623603582382202148e-01,8.623223304748535156e-01,8.622844219207763672e-01,8.622463941574096680e-01,8.622083663940429688e-01,8.621704578399658203e-01,8.621324300765991211e-01,8.620944023132324219e-01,8.620564937591552734e-01,8.620184659957885742e-01,8.619804978370666504e-01,8.619424700736999512e-01,8.619046211242675781e-01,8.618665933609008789e-01,8.618286252021789551e-01,8.617907166481018066e-01,8.617527484893798828e-01,8.617147803306579590e-01,8.616768121719360352e-01,8.616389036178588867e-01,8.616009354591369629e-01,8.615629673004150391e-01,8.615251183509826660e-01,8.614871501922607422e-01,8.614491820335388184e-01,8.614113330841064453e-01,8.613733649253845215e-01,8.613354563713073730e-01,8.612974882125854492e-01,8.612596392631530762e-01,8.612217307090759277e-01,8.611838221549987793e-01,8.611459732055664062e-01,8.611080646514892578e-01,8.610700964927673340e-01,8.610321879386901855e-01,8.609943985939025879e-01,8.609564900398254395e-01,8.609185814857482910e-01,8.608807325363159180e-01,8.608428239822387695e-01,8.608049750328063965e-01,8.607671260833740234e-01,8.607292771339416504e-01,8.606913685798645020e-01,8.606534600257873535e-01,8.606156706809997559e-01,8.605778217315673828e-01,8.605399727821350098e-01,8.605021834373474121e-01
8.212697505950927734e-01,8.212352991104125977e-01,8.212007880210876465e-01,8.211662769317626953e-01,8.211318850517272949e-01,8.210974335670471191e-01,8.210629224777221680e-01,8.210285305976867676e-01,8.209940791130065918e-01,8.209596276283264160e-01,8.209252357482910156e-01,8.208907842636108398e-01,8.208563327789306641e-01,8.208218216896057129e-01,8.207874894142150879e-01,8.207530379295349121e-01,8.207185864448547363e-01,8.206841945648193359e-01,8.206497430801391602e-01,8.206153512001037598e-01,8.205808997154235840e-01,8.205465674400329590e-01,8.205121159553527832e-01,8.204776644706726074e-01,8.204433321952819824e-01,8.204089403152465820e-01,8.203744888305664062e-01,8.203401565551757812e-01,8.203057646751403809e-01,8.202713131904602051e-01,8.202369213104248047e-01,8.202025890350341797e-01,8.201681971549987793e-01,8.201338052749633789e-01,8.200994729995727539e-01,8.200650811195373535e-01,8.200306892395019531e-01,8.199962973594665527e-01,8.199620246887207031e-01,8.199276328086853027e-01,8.198932409286499023e-01,8.198589682579040527e-01,8.198245763778686523e-01,8.197901844978332520e-01,8.197559118270874023e-01,8.197215199470520020e-01,8.196871876716613770e-01,8.196528553962707520e-01,8.196185231208801270e-01,8.195841908454895020e-01,8.195498585700988770e-01,8.195155858993530273e-01,8.194812536239624023e-01,8.194468617439270020e-01,8.194125294685363770e-01,8.193783164024353027e-01,8.193439841270446777e-01,8.193096518516540527e-01,8.192753791809082031e-01,8.192410469055175781e-01,8.192067146301269531e-01,8.191725015640258789e-01,8.191381692886352539e-01,8.191038370132446289e-01,8.190695643424987793e-01,8.190353512763977051e-01,8.190010190010070801e-01,8.189667463302612305e-01,8.189324736595153809e-01,8.188982009887695312e-01,8.188639283180236816e-01,8.188297152519226074e-01,8.187953829765319824e-01,8.187611103057861328e-01,8.187268376350402832e-01,8.186926245689392090e-01,8.186583518981933594e-01,8.186240792274475098e-01,8.185899257659912109e-01,8.185556530952453613e-01
