3.779571056365966797e+00,3.739263296127319336e+00,3.699806213378906250e+00,3.661173105239868164e+00,3.623338222503662109e+00,3.586277723312377930e+00,3.549967527389526367e+00,3.514384984970092773e+00,3.479509115219116211e+00,3.445318222045898438e+00,3.411792755126953125e+00,3.378914117813110352e+00,3.346662282943725586e+00,3.315020799636840820e+00,3.283972024917602539e+00,3.253499269485473633e+00,3.223587036132812500e+00,3.194219589233398438e+00,3.165382385253906250e+00,3.137061595916748047e+00,3.109242439270019531e+00,3.081912755966186523e+00,3.055059432983398438e+00,3.028669834136962891e+00,3.002732038497924805e+00,2.977235317230224609e+00,2.952167510986328125e+00,2.927518129348754883e+00,2.903277635574340820e+00,2.879434585571289062e+00,2.855980396270751953e+00,2.832905054092407227e+00,2.810199499130249023e+00,2.787855148315429688e+00,2.765863418579101562e+00,2.744215726852416992e+00,2.722904205322265625e+00,2.701921463012695312e+00,2.681259393692016602e+00,2.660911083221435547e+00,2.640869379043579102e+00,2.621127128601074219e+00,2.601677656173706055e+00,2.582515239715576172e+00,2.563632488250732422e+00,6.830534934997558594e-01,6.410363912582397461e-01,6.340118646621704102e-01,6.271818876266479492e-01,6.225464344024658203e-01,6.179790496826171875e-01,6.134781241416931152e-01,6.127905249595642090e-01,6.135298609733581543e-01,6.142710447311401367e-01,6.150139570236206055e-01,6.157760024070739746e-01,6.180023550987243652e-01,6.308056116104125977e-01,6.517273783683776855e-01,2.295132637023925781e+00,2.280206680297851562e+00,2.265473604202270508e+00,2.250929832458496094e+00,2.236571311950683594e+00,2.222394943237304688e+00,2.208397150039672852e+00,2.194574594497680664e+00,2.180923938751220703e+00,2.167442560195922852e+00,4.923237562179565430e-01,4.850071072578430176e-01,4.782781302928924561e-01,4.711977541446685791e-01,4.643239378929138184e-01,4.585785269737243652e-01,4.532882869243621826e-01,4.481186866760253906e-01,4.458098411560058594e-01,4.439230859279632568e-01
3.779571533203125000e+00,3.739263534545898438e+00,3.699806690216064453e+00,3.661173343658447266e+00,3.623338699340820312e+00,3.586278200149536133e+00,3.549968004226684570e+00,3.514385461807250977e+00,3.479509592056274414e+00,3.445318698883056641e+00,3.411793231964111328e+00,3.378914356231689453e+00,3.346662759780883789e+00,3.315021038055419922e+00,3.283972263336181641e+00,3.253499507904052734e+00,3.223587036132812500e+00,3.194219827651977539e+00,3.165382623672485352e+00,3.137061834335327148e+00,3.109242916107177734e+00,3.081912994384765625e+00,3.055059671401977539e+00,3.028670072555541992e+00,3.002732515335083008e+00,2.977235555648803711e+00,2.952167749404907227e+00,2.927518367767333984e+00,2.903277873992919922e+00,2.879434823989868164e+00,2.855980634689331055e+00,2.832905292510986328e+00,2.810199737548828125e+00,2.787855386734008789e+00,2.765863656997680664e+00,2.744215965270996094e+00,2.722904443740844727e+00,2.701921701431274414e+00,2.681259632110595703e+00,2.660911083221435547e+00,2.640869617462158203e+00,2.621127367019653320e+00,2.601677894592285156e+00,2.582515478134155273e+00,2.563632726669311523e+00,6.769523024559020996e-01,6.415057778358459473e-01,6.344709992408752441e-01,6.275888085365295410e-01,6.220872998237609863e-01,6.175265908241271973e-01,6.130322813987731934e-01,6.128897666931152344e-01,6.136293411254882812e-01,6.143707633018493652e-01,6.151139736175537109e-01,6.171604990959167480e-01,6.193969249725341797e-01,6.371093988418579102e-01,6.584584712982177734e-01,2.295132875442504883e+00,2.280206918716430664e+00,2.265473842620849609e+00,2.250929832458496094e+00,2.236571550369262695e+00,2.222395181655883789e+00,2.208397626876831055e+00,2.194575071334838867e+00,2.180924415588378906e+00,2.167442560195922852e+00,5.216435790061950684e-01,4.885232448577880859e-01,4.811385571956634521e-01,4.739738702774047852e-01,4.674737751483917236e-01,4.619774818420410156e-01,4.566089808940887451e-01,4.496968090534210205e-01,4.453563094139099121e-01,4.432909786701202393e-01
3.779572010040283203e+00,3.739264011383056641e+00,3.699807167053222656e+00,3.661173820495605469e+00,3.623339176177978516e+00,3.586278676986694336e+00,3.549968242645263672e+00,3.514385700225830078e+00,3.479509830474853516e+00,3.445318937301635742e+00,3.411793470382690430e+00,3.378914594650268555e+00,3.346662998199462891e+00,3.315021276473999023e+00,3.283972740173339844e+00,3.253499984741210938e+00,3.223587274551391602e+00,3.194220304489135742e+00,3.165382862091064453e+00,3.137062072753906250e+00,3.109243154525756836e+00,3.081913471221923828e+00,3.055059909820556641e+00,3.028670310974121094e+00,3.002732753753662109e+00,2.977235794067382812e+00,2.952167987823486328e+00,2.927518844604492188e+00,2.903278112411499023e+00,2.879435062408447266e+00,2.855980873107910156e+00,2.832905530929565430e+00,2.810199975967407227e+00,2.787855625152587891e+00,2.765863895416259766e+00,2.744216203689575195e+00,2.722904682159423828e+00,2.701921939849853516e+00,2.681259870529174805e+00,2.660911321640014648e+00,2.640869855880737305e+00,2.621127367019653320e+00,2.601678133010864258e+00,2.582515716552734375e+00,2.563632965087890625e+00,6.709590554237365723e-01,6.419758796691894531e-01,6.349307894706726074e-01,6.280387043952941895e-01,6.216288805007934570e-01,6.170748472213745117e-01,6.125870943069458008e-01,6.129890680313110352e-01,6.137288808822631836e-01,6.144704818725585938e-01,6.163209676742553711e-01,6.185512542724609375e-01,6.207978129386901855e-01,6.435404419898986816e-01,6.653299927711486816e-01,2.295133113861083984e+00,2.280206918716430664e+00,2.265473842620849609e+00,2.250930309295654297e+00,2.236571788787841797e+00,2.222395420074462891e+00,2.208397626876831055e+00,2.194575071334838867e+00,2.180924654006958008e+00,2.167442798614501953e+00,2.154126644134521484e+00,5.110971927642822266e-01,4.840334057807922363e-01,4.767828881740570068e-01,4.710063040256500244e-01,4.642227292060852051e-01,4.567541778087615967e-01,4.492497444152832031e-01,4.450044333934783936e-01,4.429423213005065918e-01
3.779572486877441406e+00,3.739264488220214844e+00,3.699807643890380859e+00,3.661174297332763672e+00,3.623339414596557617e+00,3.586278915405273438e+00,3.549968719482421875e+00,3.514386177062988281e+00,3.479510307312011719e+00,3.445319414138793945e+00,3.411793947219848633e+00,3.378915071487426758e+00,3.346663475036621094e+00,3.315021753311157227e+00,3.283972978591918945e+00,3.253500223159790039e+00,3.223587751388549805e+00,3.194220542907714844e+00,3.165383100509643555e+00,3.137062072753906250e+00,3.109243392944335938e+00,3.081913709640502930e+00,3.055060386657714844e+00,3.028670549392700195e+00,3.002732992172241211e+00,2.977236032485961914e+00,2.952168226242065430e+00,2.927519083023071289e+00,2.903278350830078125e+00,2.879435300827026367e+00,2.855981111526489258e+00,2.832905769348144531e+00,2.810200214385986328e+00,2.787855863571166992e+00,2.765864133834838867e+00,2.744216442108154297e+00,2.722904920578002930e+00,2.701922178268432617e+00,2.681260108947753906e+00,2.660911560058593750e+00,2.640869855880737305e+00,2.621127605438232422e+00,2.601678371429443359e+00,2.582515716552734375e+00,2.563633203506469727e+00,6.650710701942443848e-01,6.424466371536254883e-01,6.353912949562072754e-01,6.284892559051513672e-01,6.217355132102966309e-01,6.166237592697143555e-01,6.123500466346740723e-01,6.130883693695068359e-01,6.138284206390380859e-01,6.154837608337402344e-01,6.177079677581787109e-01,6.199483275413513184e-01,6.222050189971923828e-01,6.501026749610900879e-01,6.723465919494628906e-01,2.295133113861083984e+00,2.280207395553588867e+00,2.265474319458007812e+00,2.250930547714233398e+00,2.236572027206420898e+00,2.222395658493041992e+00,2.208397865295410156e+00,2.194575309753417969e+00,2.180924654006958008e+00,2.167443037033081055e+00,2.154126644134521484e+00,2.140973091125488281e+00,4.957371950149536133e-01,4.796449840068817139e-01,4.717152118682861328e-01,4.640365540981292725e-01,4.562929570674896240e-01,4.488035142421722412e-01,4.446530640125274658e-01,4.424389004707336426e-01
3.779572725296020508e+00,3.739264965057373047e+00,3.699807882308959961e+00,3.661174535751342773e+00,3.623339891433715820e+00,3.586279392242431641e+00,3.549968957901000977e+00,3.514386415481567383e+00,3.479510545730590820e+00,3.445319652557373047e+00,3.411794185638427734e+00,3.378915309906005859e+00,3.346663713455200195e+00,3.315021991729736328e+00,3.283973217010498047e+00,3.253500461578369141e+00,3.223587989807128906e+00,3.194220781326293945e+00,3.165383577346801758e+00,3.137062549591064453e+00,3.109243631362915039e+00,3.081913948059082031e+00,3.055060625076293945e+00,3.028670787811279297e+00,3.002733230590820312e+00,2.977236270904541016e+00,2.952168464660644531e+00,2.927519321441650391e+00,2.903278589248657227e+00,2.879435539245605469e+00,2.855981349945068359e+00,2.832906007766723633e+00,2.810200452804565430e+00,2.787856101989746094e+00,2.765864372253417969e+00,2.744216680526733398e+00,2.722905158996582031e+00,2.701922416687011719e+00,2.681260347366333008e+00,2.660911798477172852e+00,2.640870094299316406e+00,2.621127843856811523e+00,2.601678609848022461e+00,2.582515954971313477e+00,2.563633441925048828e+00,6.592855453491210938e-01,6.429180502891540527e-01,6.358523964881896973e-01,6.289404034614562988e-01,6.221770644187927246e-01,6.161732673645019531e-01,6.124491691589355469e-01,6.131876707077026367e-01,6.146486997604370117e-01,6.168669462203979492e-01,6.191011667251586914e-01,6.213516592979431152e-01,6.248098611831665039e-01,6.568000912666320801e-01,2.310256242752075195e+00,2.295133590698242188e+00,2.280207633972167969e+00,2.265474557876586914e+00,2.250930547714233398e+00,2.236572265625000000e+00,2.222395658493041992e+00,2.208398103713989258e+00,2.194575309753417969e+00,2.180924892425537109e+00,2.167443037033081055e+00,2.154126882553100586e+00,2.140973329544067383e+00,2.127979516983032227e+00,4.794534742832183838e-01,4.715299606323242188e-01,4.635604619979858398e-01,4.558326303958892822e-01,4.489251077175140381e-01,4.437828063964843750e-01,4.415261149406433105e-01
3.779573202133178711e+00,3.739265203475952148e+00,3.699808359146118164e+00,3.661175012588500977e+00,3.623340368270874023e+00,3.586279630661010742e+00,3.549969434738159180e+00,3.514386892318725586e+00,3.479511022567749023e+00,3.445320129394531250e+00,3.411794662475585938e+00,3.378915786743164062e+00,3.346663951873779297e+00,3.315022230148315430e+00,3.283973693847656250e+00,3.253500938415527344e+00,3.223588228225708008e+00,3.194221258163452148e+00,3.165383815765380859e+00,3.137062788009643555e+00,3.109244108200073242e+00,3.081914186477661133e+00,3.055060625076293945e+00,3.028671264648437500e+00,3.002733469009399414e+00,2.977236509323120117e+00,2.952168703079223633e+00,2.927519559860229492e+00,2.903278827667236328e+00,2.879435777664184570e+00,2.855981588363647461e+00,2.832906246185302734e+00,2.810200691223144531e+00,2.787856340408325195e+00,2.765864610671997070e+00,2.744216918945312500e+00,2.722905397415161133e+00,2.701922655105590820e+00,2.681260585784912109e+00,2.660912036895751953e+00,2.640870332717895508e+00,2.621128082275390625e+00,2.601678848266601562e+00,2.582516193389892578e+00,2.563633441925048828e+00,6.535997986793518066e-01,6.433901786804199219e-01,6.363142132759094238e-01,6.293922066688537598e-01,6.226192116737365723e-01,6.159904599189758301e-01,6.125482916831970215e-01,6.138159632682800293e-01,6.160281896591186523e-01,6.182563304901123047e-01,6.205007433891296387e-01,6.227614283561706543e-01,6.322538852691650391e-01,6.636369228363037109e-01,2.310256242752075195e+00,2.295133829116821289e+00,2.280207395553588867e+00,2.265474319458007812e+00,2.250930547714233398e+00,2.236572027206420898e+00,2.222395896911621094e+00,2.208397865295410156e+00,2.194575548171997070e+00,2.180925130844116211e+00,2.167443037033081055e+00,2.154127120971679688e+00,2.140973329544067383e+00,2.127979516983032227e+00,4.792621433734893799e-01,4.710633158683776855e-01,4.636207222938537598e-01,4.565333127975463867e-01,4.493061900138854980e-01,4.436558783054351807e-01,4.406171441078186035e-01
3.779573678970336914e+00,3.739265680313110352e+00,3.699808835983276367e+00,3.661175489425659180e+00,3.623340606689453125e+00,3.586280107498168945e+00,3.549969673156738281e+00,3.514387130737304688e+00,3.479511260986328125e+00,3.445320367813110352e+00,3.411794900894165039e+00,3.378916025161743164e+00,3.346664428710937500e+00,3.315022706985473633e+00,3.283973932266235352e+00,3.253501176834106445e+00,3.223588705062866211e+00,3.194221496582031250e+00,3.165384054183959961e+00,3.137063026428222656e+00,3.109244346618652344e+00,3.081914424896240234e+00,3.055060863494873047e+00,3.028671503067016602e+00,3.002733707427978516e+00,2.977236747741699219e+00,2.952168941497802734e+00,2.927519798278808594e+00,2.903279066085815430e+00,2.879436254501342773e+00,2.855981826782226562e+00,2.832906484603881836e+00,2.810200929641723633e+00,2.787856578826904297e+00,2.765864849090576172e+00,2.744217157363891602e+00,2.722905635833740234e+00,2.701922893524169922e+00,2.681260824203491211e+00,2.660912275314331055e+00,2.640870571136474609e+00,2.621128320693969727e+00,2.601679086685180664e+00,2.582516670227050781e+00,7.048157453536987305e-01,6.511088013648986816e-01,6.438630223274230957e-01,6.367767453193664551e-01,6.298446655273437500e-01,6.230619549751281738e-01,6.164237856864929199e-01,6.129854917526245117e-01,6.151916980743408203e-01,6.174138188362121582e-01,6.196520924568176270e-01,6.219065785408020020e-01,6.241775751113891602e-01,6.398774385452270508e-01,6.706175804138183594e-01,2.310256958007812500e+00,2.295134305953979492e+00,2.280208349227905273e+00,2.265475273132324219e+00,2.250931262969970703e+00,2.236572980880737305e+00,2.222396612167358398e+00,2.208398818969726562e+00,2.194576263427734375e+00,2.180925846099853516e+00,2.167443752288818359e+00,2.154127597808837891e+00,2.140974044799804688e+00,2.127980232238769531e+00,4.793109893798828125e-01,4.717397093772888184e-01,4.644038975238800049e-01,4.572927951812744141e-01,4.493560492992401123e-01,4.437331259250640869e-01,4.400363564491271973e-01
3.779574155807495117e+00,3.739266157150268555e+00,3.699809074401855469e+00,3.661175966262817383e+00,3.623341083526611328e+00,3.586280584335327148e+00,3.549970149993896484e+00,3.514387607574462891e+00,3.479511737823486328e+00,3.445320844650268555e+00,3.411795377731323242e+00,3.378916501998901367e+00,3.346664667129516602e+00,3.315022945404052734e+00,3.283974170684814453e+00,3.253501415252685547e+00,3.223589181900024414e+00,3.194221735000610352e+00,3.165384769439697266e+00,3.137063503265380859e+00,3.109244823455810547e+00,3.081915140151977539e+00,3.055061578750610352e+00,3.028671979904174805e+00,3.002734661102294922e+00,2.977237224578857422e+00,2.952169656753540039e+00,2.927520513534545898e+00,2.903279781341552734e+00,2.879436969757080078e+00,2.855982780456542969e+00,2.832907438278198242e+00,2.810201883316040039e+00,2.787857532501220703e+00,2.765865802764892578e+00,2.744218349456787109e+00,2.722906827926635742e+00,2.701923847198486328e+00,2.681261777877807617e+00,2.660913467407226562e+00,2.640871524810791016e+00,2.621129512786865234e+00,2.601680278778076172e+00,2.582517623901367188e+00,6.981813907623291016e-01,6.515930294990539551e-01,6.443365216255187988e-01,6.372154355049133301e-01,6.300361156463623047e-01,6.230168342590332031e-01,6.161521673202514648e-01,6.139481663703918457e-01,6.164647340774536133e-01,6.188057065010070801e-01,6.210541129112243652e-01,6.233188509941101074e-01,6.256001591682434082e-01,6.476870179176330566e-01,6.777466535568237305e-01,2.310257673263549805e+00,2.295135021209716797e+00,2.280209064483642578e+00,2.265475988388061523e+00,2.250932216644287109e+00,2.236573696136474609e+00,2.222397327423095703e+00,2.208399534225463867e+00,2.194576978683471680e+00,2.180926322937011719e+00,2.167444705963134766e+00,2.154128313064575195e+00,2.140974998474121094e+00,2.127980947494506836e+00,4.801481962203979492e-01,4.725506305694580078e-01,4.651897549629211426e-01,4.580547213554382324e-01,4.494059383869171143e-01,4.438104331493377686e-01,4.401123523712158203e-01
3.779574871063232422e+00,3.739267349243164062e+00,3.699810028076171875e+00,3.661177158355712891e+00,3.623342752456665039e+00,3.586281538009643555e+00,3.549971580505371094e+00,3.514389038085937500e+00,3.479513168334960938e+00,3.445322275161743164e+00,3.411797046661376953e+00,3.378917694091796875e+00,3.346666336059570312e+00,3.315024614334106445e+00,3.283975839614868164e+00,3.253503084182739258e+00,3.223590850830078125e+00,3.194223165512084961e+00,3.165386199951171875e+00,3.137065172195434570e+00,3.109246253967285156e+00,3.081916809082031250e+00,3.055063009262084961e+00,3.028673648834228516e+00,3.002735853195190430e+00,2.977238893508911133e+00,2.952171087265014648e+00,2.927521944046020508e+00,2.903280973434448242e+00,2.879438400268554688e+00,2.855983972549438477e+00,2.832908630371093750e+00,2.810203075408935547e+00,2.787858724594116211e+00,2.765866994857788086e+00,2.744219303131103516e+00,2.722908020019531250e+00,2.701925039291381836e+00,2.681263208389282227e+00,2.660914659500122070e+00,2.640872955322265625e+00,2.621130466461181641e+00,2.601681470870971680e+00,2.582518577575683594e+00,6.910341978073120117e-01,6.511313915252685547e-01,6.437652111053466797e-01,6.365638375282287598e-01,6.294342875480651855e-01,6.224282979965209961e-01,6.155765652656555176e-01,6.147023439407348633e-01,6.172249913215637207e-01,6.197685003280639648e-01,6.223329901695251465e-01,6.247375011444091797e-01,6.270292401313781738e-01,6.556896567344665527e-01,2.325581789016723633e+00,2.310258626937866211e+00,2.295135974884033203e+00,2.280210018157958984e+00,2.265476942062377930e+00,2.250932931900024414e+00,2.236574411392211914e+00,2.222398281097412109e+00,2.208400249481201172e+00,2.194577693939208984e+00,2.180927276611328125e+00,2.167445421218872070e+00,2.154129266738891602e+00,2.140975713729858398e+00,2.127981662750244141e+00,4.809882640838623047e-01,4.733643531799316406e-01,4.659783244132995605e-01,4.584515094757080078e-01,4.494557678699493408e-01,4.438877403736114502e-01,4.401883184909820557e-01
3.779577493667602539e+00,3.739269495010375977e+00,3.699812412261962891e+00,3.661179065704345703e+00,3.623344659805297852e+00,3.586283445358276367e+00,3.549973487854003906e+00,3.514390945434570312e+00,3.479514837265014648e+00,3.445323944091796875e+00,3.411798715591430664e+00,3.378919839859008789e+00,3.346668004989624023e+00,3.315026521682739258e+00,3.283977508544921875e+00,3.253504991531372070e+00,3.223592281341552734e+00,3.194225072860717773e+00,3.165387630462646484e+00,3.137066841125488281e+00,3.109247684478759766e+00,3.081918239593505859e+00,3.055064439773559570e+00,3.028675079345703125e+00,3.002737283706665039e+00,2.977240324020385742e+00,2.952172517776489258e+00,2.927523374557495117e+00,2.903282642364501953e+00,2.879439592361450195e+00,2.855985403060913086e+00,2.832909822463989258e+00,2.810204505920410156e+00,2.787859916687011719e+00,2.765868186950683594e+00,2.744220495223999023e+00,2.722909212112426758e+00,2.701926231384277344e+00,2.681264162063598633e+00,2.660915613174438477e+00,2.640873908996582031e+00,2.621131658554077148e+00,2.601682424545288086e+00,2.582519769668579102e+00,6.836774945259094238e-01,6.496765017509460449e-01,6.422005295753479004e-01,6.348946094512939453e-01,6.277530789375305176e-01,6.207704544067382812e-01,6.142839193344116211e-01,6.158027052879333496e-01,6.182861924171447754e-01,6.207975149154663086e-01,6.233293414115905762e-01,6.258818507194519043e-01,6.284554004669189453e-01,6.638924479484558105e-01,2.325582742691040039e+00,2.310259342193603516e+00,2.295136928558349609e+00,2.280210733413696289e+00,2.265477657318115234e+00,2.250933647155761719e+00,2.236575365066528320e+00,2.222398996353149414e+00,2.208401203155517578e+00,2.194578409194946289e+00,2.180927991867065430e+00,2.167446136474609375e+00,2.154129981994628906e+00,2.140976190567016602e+00,2.127982378005981445e+00,4.818313717842102051e-01,4.741808474063873291e-01,4.667695164680480957e-01,4.585033953189849854e-01,4.495056867599487305e-01,4.439650774002075195e-01,4.402643740177154541e-01
3.779579639434814453e+00,3.739271879196166992e+00,3.699814558029174805e+00,3.661181449890136719e+00,3.623346567153930664e+00,3.586285829544067383e+00,3.549975395202636719e+00,3.514393091201782227e+00,3.479516744613647461e+00,3.445326089859008789e+00,3.411800384521484375e+00,3.378921508789062500e+00,3.346669673919677734e+00,3.315028190612792969e+00,3.283978939056396484e+00,3.253506422042846680e+00,3.223594188690185547e+00,3.194226741790771484e+00,3.165389537811279297e+00,3.137068271636962891e+00,3.109249353408813477e+00,3.081919670104980469e+00,3.055066108703613281e+00,3.028676271438598633e+00,3.002738952636718750e+00,2.977241516113281250e+00,2.952173948287963867e+00,2.927524566650390625e+00,2.903283834457397461e+00,2.879440784454345703e+00,2.855986595153808594e+00,2.832911252975463867e+00,2.810205698013305664e+00,2.787861347198486328e+00,2.765869379043579102e+00,2.744221925735473633e+00,2.722910165786743164e+00,2.701927423477172852e+00,2.681265354156494141e+00,2.660916805267333984e+00,2.640874862670898438e+00,2.621132850646972656e+00,2.601683378219604492e+00,2.582520723342895508e+00,6.535761952400207520e-01,6.461254358291625977e-01,6.388427019119262695e-01,6.317222714424133301e-01,6.246534585952758789e-01,6.177392005920410156e-01,6.174407005310058594e-01,6.189751029014587402e-01,6.205171942710876465e-01,6.224141120910644531e-01,6.249591708183288574e-01,6.275252103805541992e-01,6.350406408309936523e-01,6.723031401634216309e-01,2.325583696365356445e+00,2.310260295867919922e+00,2.295137643814086914e+00,2.280211448669433594e+00,2.265478610992431641e+00,2.250934600830078125e+00,2.236576080322265625e+00,2.222399711608886719e+00,2.208401918411254883e+00,2.194579362869262695e+00,2.180928707122802734e+00,2.167446851730346680e+00,2.154130697250366211e+00,2.140977144241333008e+00,2.127983093261718750e+00,4.826773405075073242e-01,4.750002026557922363e-01,4.675634503364562988e-01,4.585553109645843506e-01,4.495556056499481201e-01,4.440423846244812012e-01,4.403404593467712402e-01
3.779581785202026367e+00,3.739274024963378906e+00,3.699816465377807617e+00,3.661183357238769531e+00,3.623348951339721680e+00,3.586287736892700195e+00,3.549977779388427734e+00,3.514394998550415039e+00,3.479518890380859375e+00,3.445327758789062500e+00,3.411802530288696289e+00,3.378923177719116211e+00,3.346671819686889648e+00,3.315029859542846680e+00,3.283981084823608398e+00,3.253508090972900391e+00,3.223595619201660156e+00,3.194228172302246094e+00,3.165390968322753906e+00,3.137069702148437500e+00,3.109251022338867188e+00,3.081921339035034180e+00,3.055067539215087891e+00,3.028677940368652344e+00,3.002740144729614258e+00,2.977243185043334961e+00,2.952175140380859375e+00,2.927526235580444336e+00,2.903285026550292969e+00,2.879442214965820312e+00,2.855987787246704102e+00,2.832912445068359375e+00,2.810206890106201172e+00,2.787862539291381836e+00,2.765870571136474609e+00,2.744222879409790039e+00,2.722911596298217773e+00,2.701928615570068359e+00,2.681266546249389648e+00,2.660917997360229492e+00,2.640876293182373047e+00,2.621133804321289062e+00,2.601684570312500000e+00,6.566767096519470215e-01,6.492241024971008301e-01,6.419387459754943848e-01,6.348150968551635742e-01,6.278477907180786133e-01,6.210318207740783691e-01,6.190835833549499512e-01,6.205378174781799316e-01,6.221803426742553711e-01,6.237384676933288574e-01,6.253044009208679199e-01,6.268783211708068848e-01,6.291770339012145996e-01,6.465160250663757324e-01,6.830592751502990723e-01,2.325584411621093750e+00,2.310261249542236328e+00,2.295138359069824219e+00,2.280212402343750000e+00,2.265479326248168945e+00,2.250935316085815430e+00,2.236576795578002930e+00,2.222400426864624023e+00,2.208402633666992188e+00,2.194580078125000000e+00,2.180929660797119141e+00,2.167447566986083984e+00,2.154131412506103516e+00,2.140977859497070312e+00,2.127983808517456055e+00,4.835263788700103760e-01,4.758223593235015869e-01,4.679768681526184082e-01,4.586072564125061035e-01,4.496055245399475098e-01,4.441197812557220459e-01,4.404165744781494141e-01
3.779584407806396484e+00,3.739276170730590820e+00,3.699819087982177734e+00,3.661185503005981445e+00,3.623350858688354492e+00,3.586289644241333008e+00,3.549979448318481445e+00,3.514396905899047852e+00,3.479520797729492188e+00,3.445329666137695312e+00,3.411804199218750000e+00,3.378925323486328125e+00,3.346673488616943359e+00,3.315031766891479492e+00,3.283982515335083008e+00,3.253509998321533203e+00,3.223597288131713867e+00,3.194230079650878906e+00,3.165392398834228516e+00,3.137071609497070312e+00,3.109252452850341797e+00,3.081922769546508789e+00,3.055068969726562500e+00,3.028679370880126953e+00,3.002741575241088867e+00,2.977244377136230469e+00,2.952176809310913086e+00,2.927527427673339844e+00,2.903286695480346680e+00,2.879443645477294922e+00,2.855989217758178711e+00,2.832913637161254883e+00,2.810208320617675781e+00,2.787863731384277344e+00,2.765872001647949219e+00,2.744224071502685547e+00,2.722912788391113281e+00,2.701929569244384766e+00,2.681267499923706055e+00,2.660918951034545898e+00,2.640877246856689453e+00,2.621134757995605469e+00,6.585694551467895508e-01,6.518189311027526855e-01,6.444755792617797852e-01,6.372957825660705566e-01,6.302742362022399902e-01,6.234057545661926270e-01,6.218007802963256836e-01,6.227787733078002930e-01,6.237598657608032227e-01,6.247440576553344727e-01,6.263853907585144043e-01,6.280798912048339844e-01,6.297835111618041992e-01,6.314964890480041504e-01,6.584138274192810059e-01,2.341113328933715820e+00,2.325585365295410156e+00,2.310261964797973633e+00,2.295139312744140625e+00,2.280213117599487305e+00,2.265480279922485352e+00,2.250936031341552734e+00,2.236577749252319336e+00,2.222401142120361328e+00,2.208403348922729492e+00,2.194580793380737305e+00,2.180930376052856445e+00,2.167448282241821289e+00,2.154132127761840820e+00,2.140978574752807617e+00,2.127984523773193359e+00,4.843783080577850342e-01,4.766474068164825439e-01,4.680309593677520752e-01,4.586592316627502441e-01,4.496554434299468994e-01,4.441972076892852783e-01,4.404926896095275879e-01
3.779586553573608398e+00,3.739278554916381836e+00,3.699820995330810547e+00,3.661187887191772461e+00,3.623352766036987305e+00,3.586292028427124023e+00,3.549981355667114258e+00,3.514399051666259766e+00,3.479522466659545898e+00,3.445331811904907227e+00,3.411806106567382812e+00,3.378926992416381836e+00,3.346675157546997070e+00,3.315033435821533203e+00,3.283984184265136719e+00,3.253511667251586914e+00,3.223599195480346680e+00,3.194231510162353516e+00,3.165394306182861328e+00,3.137073040008544922e+00,3.109254121780395508e+00,3.081924200057983398e+00,3.055070638656616211e+00,3.028680801391601562e+00,3.002743244171142578e+00,2.977245807647705078e+00,2.952178001403808594e+00,2.927528619766235352e+00,2.903287887573242188e+00,2.879444837570190430e+00,2.855990409851074219e+00,2.832915067672729492e+00,2.810209512710571289e+00,2.787865161895751953e+00,2.765873193740844727e+00,2.744225502014160156e+00,2.722913742065429688e+00,2.701930999755859375e+00,2.681268692016601562e+00,2.660920381546020508e+00,2.640878200531005859e+00,6.604593396186828613e-01,6.539767980575561523e-01,6.470324993133544922e-01,6.397959589958190918e-01,6.327195167541503906e-01,6.257978677749633789e-01,6.245419383049011230e-01,6.255285739898681641e-01,6.265183687210083008e-01,6.275113224983215332e-01,6.285073757171630859e-01,6.295065879821777344e-01,6.306267976760864258e-01,6.323442459106445312e-01,6.460457444190979004e-01,6.707576513290405273e-01,2.341114044189453125e+00,2.325586318969726562e+00,2.310262680053710938e+00,2.295140027999877930e+00,2.280214071273803711e+00,2.265480995178222656e+00,2.250936985015869141e+00,2.236578464508056641e+00,2.222402095794677734e+00,2.208404302597045898e+00,2.194581508636474609e+00,2.180931091308593750e+00,2.167449235916137695e+00,2.154132843017578125e+00,2.140979290008544922e+00,2.127985239028930664e+00,4.852332770824432373e-01,4.774752557277679443e-01,4.680850803852081299e-01,4.587111473083496094e-01,4.497053623199462891e-01,4.442746341228485107e-01,4.405688047409057617e-01
3.779588460922241211e+00,3.739280700683593750e+00,3.699823141098022461e+00,3.661189794540405273e+00,3.623355150222778320e+00,3.586293935775756836e+00,3.549983739852905273e+00,3.514400720596313477e+00,3.479524612426757812e+00,3.445333480834960938e+00,3.411808013916015625e+00,3.378928661346435547e+00,3.346677064895629883e+00,3.315035104751586914e+00,3.283986091613769531e+00,3.253513097763061523e+00,3.223600625991821289e+00,3.194232940673828125e+00,3.165395736694335938e+00,3.137074470520019531e+00,3.109255552291870117e+00,3.081925868988037109e+00,3.055072069168090820e+00,3.028682470321655273e+00,3.002744436264038086e+00,2.977247476577758789e+00,2.952179431915283203e+00,2.927530288696289062e+00,2.903289079666137695e+00,2.879446268081665039e+00,2.855991840362548828e+00,2.832916259765625000e+00,2.810210704803466797e+00,2.787866115570068359e+00,2.765874147415161133e+00,2.744226455688476562e+00,2.722915172576904297e+00,2.701931953430175781e+00,2.681269884109497070e+00,2.660921335220336914e+00,2.640879392623901367e+00,6.558403372764587402e-01,6.494477987289428711e-01,6.423158645629882812e-01,6.351838707923889160e-01,6.282085180282592773e-01,6.273073554039001465e-01,6.283027529716491699e-01,6.293013691902160645e-01,6.303031444549560547e-01,6.313080787658691406e-01,6.323162913322448730e-01,6.333276629447937012e-01,6.339496970176696777e-01,6.455641984939575195e-01,6.649666428565979004e-01,2.356851816177368164e+00,2.341114997863769531e+00,2.325587034225463867e+00,2.310263633728027344e+00,2.295140981674194336e+00,2.280215024948120117e+00,2.265481710433959961e+00,2.250937700271606445e+00,2.236579179763793945e+00,2.222402811050415039e+00,2.208405017852783203e+00,2.194582223892211914e+00,2.180931806564331055e+00,2.167449951171875000e+00,2.154133558273315430e+00,2.140980005264282227e+00,2.127985954284667969e+00,4.860912859439849854e-01,4.779064655303955078e-01,4.681391417980194092e-01,4.587631225585937500e-01,4.497553110122680664e-01,4.443521201610565186e-01,4.406450092792510986e-01
3.779591083526611328e+00,3.739282846450805664e+00,3.699825525283813477e+00,3.661191701889038086e+00,3.623357057571411133e+00,3.586295843124389648e+00,3.549985647201538086e+00,3.514402627944946289e+00,3.479526519775390625e+00,3.445335388183593750e+00,3.411809921264648438e+00,3.378930568695068359e+00,3.346678733825683594e+00,3.315037012100219727e+00,3.283987760543823242e+00,3.253515005111694336e+00,3.223602294921875000e+00,3.194234848022460938e+00,3.165397167205810547e+00,3.137076139450073242e+00,3.109256982803344727e+00,3.081927299499511719e+00,3.055073261260986328e+00,3.028683662414550781e+00,3.002745866775512695e+00,2.977248668670654297e+00,2.952180862426757812e+00,2.927531480789184570e+00,2.903290510177612305e+00,2.879447460174560547e+00,2.855993270874023438e+00,2.832917451858520508e+00,2.810212135314941406e+00,2.787867307662963867e+00,2.765875577926635742e+00,2.744227647781372070e+00,2.722916126251220703e+00,2.701933145523071289e+00,2.681271076202392578e+00,2.660922288894653320e+00,6.577146053314208984e-01,6.512855291366577148e-01,6.448556780815124512e-01,6.376674771308898926e-01,6.306377649307250977e-01,6.300973892211914062e-01,6.311016678810119629e-01,6.321092247962951660e-01,6.331199407577514648e-01,6.341338753700256348e-01,6.348696947097778320e-01,6.351610422134399414e-01,6.372085809707641602e-01,6.463584303855895996e-01,6.645192503929138184e-01,6.861329674720764160e-01,2.356852769851684570e+00,2.341115951538085938e+00,2.325587987899780273e+00,2.310264587402343750e+00,2.295141935348510742e+00,2.280215740203857422e+00,2.265482664108276367e+00,2.250938653945922852e+00,2.236580133438110352e+00,2.222403526306152344e+00,2.208405733108520508e+00,2.194582939147949219e+00,2.180932521820068359e+00,2.167450666427612305e+00,2.154134273529052734e+00,2.140980720520019531e+00,2.127986669540405273e+00,4.869523346424102783e-01,4.779628217220306396e-01,4.681932926177978516e-01,4.588150978088378906e-01,4.498052895069122314e-01,4.444295465946197510e-01,4.407212138175964355e-01
3.779593229293823242e+00,3.739285230636596680e+00,3.699827432632446289e+00,3.661194324493408203e+00,3.623358964920043945e+00,3.586297988891601562e+00,3.549987316131591797e+00,3.514405012130737305e+00,3.479528188705444336e+00,3.445337533950805664e+00,3.411811590194702148e+00,3.378932476043701172e+00,3.346680402755737305e+00,3.315038681030273438e+00,3.283989429473876953e+00,3.253516674041748047e+00,3.223603963851928711e+00,3.194236278533935547e+00,3.165399074554443359e+00,3.137077569961547852e+00,3.109258651733398438e+00,3.081928730010986328e+00,3.055074930191040039e+00,3.028685092926025391e+00,3.002747535705566406e+00,2.977250099182128906e+00,2.952182292938232422e+00,2.927532672882080078e+00,2.903291940689086914e+00,2.879448652267456055e+00,2.855994462966918945e+00,2.832918882369995117e+00,2.810213327407836914e+00,2.787868738174438477e+00,2.765876770019531250e+00,2.744229078292846680e+00,2.722917318344116211e+00,2.701934337615966797e+00,2.681272029876708984e+00,6.595996022224426270e-01,6.531338095664978027e-01,6.467935442924499512e-01,6.401705741882324219e-01,6.330858469009399414e-01,6.329123377799987793e-01,6.339256167411804199e-01,6.349421739578247070e-01,6.357924938201904297e-01,6.360846161842346191e-01,6.363770365715026855e-01,6.366696953773498535e-01,6.412403583526611328e-01,6.476470828056335449e-01,6.653901338577270508e-01,6.846520900726318359e-01,2.372803211212158203e+00,2.356853723526000977e+00,2.341116666793823242e+00,2.325588703155517578e+00,2.310265302658081055e+00,2.295142650604248047e+00,2.280216455459594727e+00,2.265483379364013672e+00,2.250939369201660156e+00,2.236580848693847656e+00,2.222404479980468750e+00,2.208406448364257812e+00,2.194583892822265625e+00,2.180933237075805664e+00,2.167451381683349609e+00,2.154134988784790039e+00,2.140981435775756836e+00,2.127987384796142578e+00,4.878164529800415039e-01,4.780192673206329346e-01,4.682474434375762939e-01,4.588671028614044189e-01,4.498552680015563965e-01,4.447262883186340332e-01,4.412122964859008789e-01
3.779595375061035156e+00,3.739287376403808594e+00,3.699829578399658203e+00,3.661196231842041016e+00,3.623361349105834961e+00,3.586300134658813477e+00,3.549989700317382812e+00,3.514406681060791016e+00,3.479530572891235352e+00,3.445339202880859375e+00,3.411813735961914062e+00,3.378934144973754883e+00,3.346682548522949219e+00,3.315040349960327148e+00,3.283991336822509766e+00,3.253518104553222656e+00,3.223605632781982422e+00,3.194237947463989258e+00,3.165400505065917969e+00,3.137079238891601562e+00,3.109260082244873047e+00,3.081930398941040039e+00,3.055076360702514648e+00,3.028686761856079102e+00,3.002748727798461914e+00,2.977251529693603516e+00,2.952183485031127930e+00,2.927534341812133789e+00,2.903293132781982422e+00,2.879450321197509766e+00,2.855995655059814453e+00,2.832920074462890625e+00,2.810214519500732422e+00,2.787869930267333984e+00,2.765877962112426758e+00,2.744230270385742188e+00,2.722918748855590820e+00,2.701935529708862305e+00,6.616787910461425781e-01,6.549925804138183594e-01,6.486163139343261719e-01,6.423630714416503906e-01,6.355530619621276855e-01,6.357525587081909180e-01,6.367179155349731445e-01,6.370109319686889648e-01,6.373041868209838867e-01,6.375976800918579102e-01,6.378914713859558105e-01,6.389625072479248047e-01,6.453235745429992676e-01,6.518125534057617188e-01,6.662632226943969727e-01,6.855764985084533691e-01,2.388971328735351562e+00,2.372804403305053711e+00,2.356854438781738281e+00,2.341117620468139648e+00,2.325589656829833984e+00,2.310266256332397461e+00,2.295143365859985352e+00,2.280217409133911133e+00,2.265484094619750977e+00,2.250940084457397461e+00,2.236581563949584961e+00,2.222405195236206055e+00,2.208407163619995117e+00,2.194584608078002930e+00,2.180934190750122070e+00,2.167452096939086914e+00,2.154135942459106445e+00,2.140982151031494141e+00,2.127988338470458984e+00,4.882664978504180908e-01,4.780757129192352295e-01,4.689864516258239746e-01,4.604140818119049072e-01,4.521495401859283447e-01,4.458918571472167969e-01,4.424234926700592041e-01
3.779597997665405273e+00,3.739289522171020508e+00,3.699831962585449219e+00,3.661198139190673828e+00,3.623363256454467773e+00,3.586302042007446289e+00,3.549991607666015625e+00,3.514408588409423828e+00,3.479532241821289062e+00,3.445340871810913086e+00,3.411815404891967773e+00,3.378936052322387695e+00,3.346683979034423828e+00,3.315042257308959961e+00,3.283992767333984375e+00,3.253520011901855469e+00,3.223607063293457031e+00,3.194239616394042969e+00,3.165401935577392578e+00,3.137080907821655273e+00,3.109261512756347656e+00,3.081931829452514648e+00,3.055077791213989258e+00,3.028688192367553711e+00,3.002750158309936523e+00,2.977252960205078125e+00,2.952185153961181641e+00,2.927535533905029297e+00,2.903294563293457031e+00,2.879451513290405273e+00,2.855997085571289062e+00,2.832921266555786133e+00,2.810215711593627930e+00,2.787871122360229492e+00,2.765879154205322266e+00,2.744231224060058594e+00,2.722919702529907227e+00,2.701936483383178711e+00,6.592829823493957520e-01,6.520329117774963379e-01,6.449405550956726074e-01,6.380007863044738770e-01,6.379398703575134277e-01,6.382340192794799805e-01,6.385284066200256348e-01,6.388230323791503906e-01,6.391179561614990234e-01,6.394131779670715332e-01,6.430166363716125488e-01,6.494590640068054199e-01,6.560319066047668457e-01,6.671386361122131348e-01,6.865035295486450195e-01,2.405361175537109375e+00,2.388972043991088867e+00,2.372805118560791016e+00,2.356855392456054688e+00,2.341118574142456055e+00,2.325590610504150391e+00,2.310266971588134766e+00,2.295144319534301758e+00,2.280218124389648438e+00,2.265485048294067383e+00,2.250941038131713867e+00,2.236582517623901367e+00,2.222405910491943359e+00,2.208408117294311523e+00,2.194585323333740234e+00,2.180934906005859375e+00,2.167452812194824219e+00,2.154136657714843750e+00,2.140982866287231445e+00,2.127988815307617188e+00,4.899239242076873779e-01,4.805767238140106201e-01,4.715795516967773438e-01,4.629130065441131592e-01,4.545592963695526123e-01,4.467698037624359131e-01,4.436414241790771484e-01
3.779600143432617188e+00,3.739291906356811523e+00,3.699834108352661133e+00,3.661200523376464844e+00,3.623365402221679688e+00,3.586304187774658203e+00,3.549993515014648438e+00,3.514410734176635742e+00,3.479534149169921875e+00,3.445343017578125000e+00,3.411817073822021484e+00,3.378937721252441406e+00,3.346685647964477539e+00,3.315043926239013672e+00,3.283994436264038086e+00,3.253521680831909180e+00,3.223608970642089844e+00,3.194241285324096680e+00,3.165403842926025391e+00,3.137082338333129883e+00,3.109263181686401367e+00,3.081933259963989258e+00,3.055079460144042969e+00,3.028689384460449219e+00,3.002751827239990234e+00,2.977254152297973633e+00,2.952186346054077148e+00,2.927536964416503906e+00,2.903295993804931641e+00,2.879452705383300781e+00,2.855998277664184570e+00,2.832922697067260742e+00,2.810216903686523438e+00,2.787872552871704102e+00,2.765880346298217773e+00,2.744232654571533203e+00,2.722920894622802734e+00,6.642878055572509766e-01,6.569044589996337891e-01,6.497063040733337402e-01,6.426641941070556641e-01,6.380875110626220703e-01,6.388303637504577637e-01,6.395749449729919434e-01,6.403213143348693848e-01,6.406455039978027344e-01,6.409421563148498535e-01,6.471225023269653320e-01,6.536478996276855469e-01,6.603062748908996582e-01,6.680164337158203125e-01,2.438823938369750977e+00,2.421977519989013672e+00,2.405362129211425781e+00,2.388973236083984375e+00,2.372806072235107422e+00,2.356856346130371094e+00,2.341119527816772461e+00,2.325591564178466797e+00,2.310268163681030273e+00,2.295145273208618164e+00,2.280219078063964844e+00,2.265486001968383789e+00,2.250941991806030273e+00,2.236583471298217773e+00,2.222407102584838867e+00,2.208409070968627930e+00,2.194586515426635742e+00,2.180935859680175781e+00,2.167453765869140625e+00,2.154137372970581055e+00,2.140983819961547852e+00,2.127989768981933594e+00,2.115152597427368164e+00,4.832999408245086670e-01,4.742014706134796143e-01,4.654391705989837646e-01,4.569948911666870117e-01,4.488029479980468750e-01,4.445522129535675049e-01
3.779602289199829102e+00,3.739294052124023438e+00,3.699836015701293945e+00,3.661202669143676758e+00,3.623367786407470703e+00,3.586306095123291016e+00,3.549995660781860352e+00,3.514412641525268555e+00,3.479536294937133789e+00,3.445344924926757812e+00,3.411819219589233398e+00,3.378939628601074219e+00,3.346687793731689453e+00,3.315045595169067383e+00,3.283996343612670898e+00,3.253523349761962891e+00,3.223610639572143555e+00,3.194242715835571289e+00,3.165405273437500000e+00,3.137083768844604492e+00,3.109264850616455078e+00,3.081934928894042969e+00,3.055080890655517578e+00,3.028691053390502930e+00,3.002753019332885742e+00,2.977255821228027344e+00,2.952187776565551758e+00,2.927538394927978516e+00,2.903297185897827148e+00,2.879454135894775391e+00,2.855999469757080078e+00,2.832923889160156250e+00,2.810218095779418945e+00,2.787873744964599609e+00,2.765881538391113281e+00,2.744233846664428711e+00,2.722922325134277344e+00,6.618718504905700684e-01,6.545431017875671387e-01,6.473963260650634766e-01,6.404039263725280762e-01,6.385329365730285645e-01,6.392768025398254395e-01,6.400224566459655762e-01,6.407698392868041992e-01,6.415624022483825684e-01,6.512811779975891113e-01,6.578912138938903809e-01,6.646366715431213379e-01,6.715219020843505859e-01,2.455907821655273438e+00,2.438825130462646484e+00,2.421978712081909180e+00,2.405363321304321289e+00,2.388974189758300781e+00,2.372807264328002930e+00,2.356857299804687500e+00,2.341120481491088867e+00,2.325592517852783203e+00,2.310269117355346680e+00,2.295146226882934570e+00,2.280220031738281250e+00,2.265486717224121094e+00,2.250942945480346680e+00,2.236584186553955078e+00,2.222407817840576172e+00,2.208409786224365234e+00,2.194587230682373047e+00,2.180936574935913086e+00,2.167454481124877930e+00,2.154138326644897461e+00,2.140984535217285156e+00,2.127990722656250000e+00,2.115153312683105469e+00,4.860541820526123047e-01,4.768527150154113770e-01,4.679930806159973145e-01,4.594567418098449707e-01,4.511759877204895020e-01,4.454249441623687744e-01
3.779604673385620117e+00,3.739296197891235352e+00,3.699838638305664062e+00,3.661204576492309570e+00,3.623369693756103516e+00,3.586308002471923828e+00,3.549997568130493164e+00,3.514414548873901367e+00,3.479537963867187500e+00,3.445346593856811523e+00,3.411820888519287109e+00,3.378941535949707031e+00,3.346689462661743164e+00,3.315047502517700195e+00,3.283998012542724609e+00,3.253525018692016602e+00,3.223612308502197266e+00,3.194244861602783203e+00,3.165406942367553711e+00,3.137085914611816406e+00,3.109266519546508789e+00,3.081936597824096680e+00,3.055082559585571289e+00,3.028692722320556641e+00,3.002754688262939453e+00,2.977257490158081055e+00,2.952189445495605469e+00,2.927539825439453125e+00,2.903298854827880859e+00,2.879455566406250000e+00,2.856001138687133789e+00,2.832925319671630859e+00,2.810219764709472656e+00,2.787874937057495117e+00,2.765883207321166992e+00,2.744235038757324219e+00,7.043831348419189453e-01,6.594734191894531250e-01,6.521986126899719238e-01,6.451026797294616699e-01,6.382357478141784668e-01,6.389789581298828125e-01,6.397238969802856445e-01,6.404705643653869629e-01,6.412189602851867676e-01,6.454988718032836914e-01,6.573454141616821289e-01,6.690242290496826172e-01,6.760011911392211914e-01,2.473232269287109375e+00,2.455908536911010742e+00,2.438826084136962891e+00,2.421979665756225586e+00,2.405364274978637695e+00,2.388975143432617188e+00,2.372807979583740234e+00,2.356858253479003906e+00,2.341121435165405273e+00,2.325593471527099609e+00,2.310269832611083984e+00,2.295147180557250977e+00,2.280220985412597656e+00,2.265487670898437500e+00,2.250943660736083984e+00,2.236585140228271484e+00,2.222408533096313477e+00,2.208410739898681641e+00,2.194587945938110352e+00,2.180937290191650391e+00,2.167455196380615234e+00,2.154139041900634766e+00,2.140985250473022461e+00,2.127991199493408203e+00,2.115154027938842773e+00,4.888400137424468994e-01,4.795337915420532227e-01,4.705751538276672363e-01,4.619452059268951416e-01,4.535743594169616699e-01,4.463010728359222412e-01
3.779607057571411133e+00,3.739298820495605469e+00,3.699840784072875977e+00,3.661207199096679688e+00,3.623371839523315430e+00,3.586310625076293945e+00,3.549999713897705078e+00,3.514416933059692383e+00,3.479540109634399414e+00,3.445348978042602539e+00,3.411823034286499023e+00,3.378943443298339844e+00,3.346691370010375977e+00,3.315049409866333008e+00,3.283999919891357422e+00,3.253526926040649414e+00,3.223614215850830078e+00,3.194246292114257812e+00,3.165408849716186523e+00,3.137087345123291016e+00,3.109268188476562500e+00,3.081938028335571289e+00,3.055084228515625000e+00,3.028694152832031250e+00,3.002756357192993164e+00,2.977258682250976562e+00,2.952190876007080078e+00,2.927541255950927734e+00,2.903300046920776367e+00,2.879456758499145508e+00,2.856002330780029297e+00,2.832926750183105469e+00,2.810220956802368164e+00,2.787876367568969727e+00,2.765884160995483398e+00,2.744236469268798828e+00,6.644911766052246094e-01,6.570922732353210449e-01,6.498708724975585938e-01,6.428251862525939941e-01,6.386813521385192871e-01,6.394256353378295898e-01,6.401715874671936035e-01,6.409192681312561035e-01,6.421063542366027832e-01,6.515369415283203125e-01,6.633108258247375488e-01,6.755180358886718750e-01,2.490803003311157227e+00,2.473233222961425781e+00,2.455909729003906250e+00,2.438827037811279297e+00,2.421980619430541992e+00,2.405364990234375000e+00,2.388976097106933594e+00,2.372808933258056641e+00,2.356859207153320312e+00,2.341122150421142578e+00,2.325594186782836914e+00,2.310270547866821289e+00,2.295147895812988281e+00,2.280221700668334961e+00,2.265488386154174805e+00,2.250944614410400391e+00,2.236585855484008789e+00,2.222409486770629883e+00,2.208411455154418945e+00,2.194588661193847656e+00,2.180938005447387695e+00,2.167456150054931641e+00,2.154139757156372070e+00,2.140986204147338867e+00,2.127991914749145508e+00,2.115154743194580078e+00,4.916579723358154297e-01,4.822451472282409668e-01,4.731858968734741211e-01,4.644608199596405029e-01,4.559982717037200928e-01,4.478238523006439209e-01
3.779609203338623047e+00,3.739300966262817383e+00,3.699842929840087891e+00,3.661209344863891602e+00,3.623373746871948242e+00,3.586312532424926758e+00,3.550001859664916992e+00,3.514418840408325195e+00,3.479542255401611328e+00,3.445350646972656250e+00,3.411824941635131836e+00,3.378945112228393555e+00,3.346693277359008789e+00,3.315051078796386719e+00,3.284001827239990234e+00,3.253528594970703125e+00,3.223615646362304688e+00,3.194247961044311523e+00,3.165410280227661133e+00,3.137088775634765625e+00,3.109269618988037109e+00,3.081939697265625000e+00,3.055085659027099609e+00,3.028695821762084961e+00,3.002757549285888672e+00,2.977260351181030273e+00,2.952192068099975586e+00,2.927542686462402344e+00,2.903301477432250977e+00,2.879458427429199219e+00,2.856003522872924805e+00,2.832927942276000977e+00,2.810222148895263672e+00,2.787877559661865234e+00,2.765885353088378906e+00,7.051513791084289551e-01,6.620737314224243164e-01,6.547282338142395020e-01,6.475596427917480469e-01,6.405637264251708984e-01,6.391276121139526367e-01,6.398729085922241211e-01,6.406198740005493164e-01,6.417487263679504395e-01,6.442844271659851074e-01,6.573969721794128418e-01,6.693854928016662598e-01,6.818194985389709473e-01,2.490803956985473633e+00,2.473234176635742188e+00,2.455910682678222656e+00,2.438827991485595703e+00,2.421981573104858398e+00,2.405366182327270508e+00,2.388977050781250000e+00,2.372809886932373047e+00,2.356859922409057617e+00,2.341123104095458984e+00,2.325595140457153320e+00,2.310271501541137695e+00,2.295148611068725586e+00,2.280222654342651367e+00,2.265489101409912109e+00,2.250945329666137695e+00,2.236586570739746094e+00,2.222410202026367188e+00,2.208412170410156250e+00,2.194589376449584961e+00,2.180938720703125000e+00,2.167456865310668945e+00,2.154140472412109375e+00,2.140986680984497070e+00,2.127992868423461914e+00,2.115155458450317383e+00,2.102472305297851562e+00,4.849873483180999756e-01,4.758257567882537842e-01,4.670039713382720947e-01,4.584482908248901367e-01,4.501866102218627930e-01
3.779611825942993164e+00,3.739303112030029297e+00,3.699845314025878906e+00,3.661211252212524414e+00,3.623376131057739258e+00,3.586314439773559570e+00,3.550003767013549805e+00,3.514420509338378906e+00,3.479544162750244141e+00,3.445352554321289062e+00,3.411826848983764648e+00,3.378947257995605469e+00,3.346694946289062500e+00,3.315052986145019531e+00,3.284003496170043945e+00,3.253530502319335938e+00,3.223617315292358398e+00,3.194249629974365234e+00,3.165411710739135742e+00,3.137090444564819336e+00,3.109271049499511719e+00,3.081941127777099609e+00,3.055086851119995117e+00,3.028697013854980469e+00,3.002758979797363281e+00,2.977261543273925781e+00,2.952193737030029297e+00,2.927543878555297852e+00,2.903302907943725586e+00,2.879459619522094727e+00,2.856005191802978516e+00,2.832929134368896484e+00,2.810223579406738281e+00,2.787878751754760742e+00,2.765886783599853516e+00,6.851462721824645996e-01,6.596738696098327637e-01,6.523811817169189453e-01,6.452648043632507324e-01,6.388298869132995605e-01,6.395744681358337402e-01,6.403207778930664062e-01,6.413914561271667480e-01,6.426512002944946289e-01,6.503411531448364258e-01,6.633633375167846680e-01,6.755725741386413574e-01,2.508625984191894531e+00,2.490804910659790039e+00,2.473235130310058594e+00,2.455911397933959961e+00,2.438828945159912109e+00,2.421982288360595703e+00,2.405366897583007812e+00,2.388977766036987305e+00,2.372810840606689453e+00,2.356860876083374023e+00,2.341124057769775391e+00,2.325596094131469727e+00,2.310272455215454102e+00,2.295149564743041992e+00,2.280223369598388672e+00,2.265490055084228516e+00,2.250946044921875000e+00,2.236587524414062500e+00,2.222410917282104492e+00,2.208412885665893555e+00,2.194590091705322266e+00,2.180939674377441406e+00,2.167457580566406250e+00,2.154141187667846680e+00,2.140987396240234375e+00,2.127993345260620117e+00,2.115156173706054688e+00,2.102472782135009766e+00,4.877609312534332275e-01,4.784952402114868164e-01,4.695751368999481201e-01,4.609247148036956787e-01,4.525743722915649414e-01
3.779613971710205078e+00,3.739305496215820312e+00,3.699847459793090820e+00,3.661213636398315430e+00,3.623378038406372070e+00,3.586316823959350586e+00,3.550005674362182617e+00,3.514422893524169922e+00,3.479545831680297852e+00,3.445354700088500977e+00,3.411828517913818359e+00,3.378948926925659180e+00,3.346696615219116211e+00,3.315054655075073242e+00,3.284004926681518555e+00,3.253531932830810547e+00,3.223619222640991211e+00,3.194251298904418945e+00,3.165413618087768555e+00,3.137092113494873047e+00,3.109272718429565430e+00,3.081942558288574219e+00,3.055088520050048828e+00,3.028698444366455078e+00,3.002760648727416992e+00,2.977262973785400391e+00,2.952194929122924805e+00,2.927545309066772461e+00,2.903304100036621094e+00,2.879460811614990234e+00,2.856006383895874023e+00,2.832930564880371094e+00,2.810224771499633789e+00,2.787880182266235352e+00,7.059211730957031250e-01,6.646946668624877930e-01,6.572912335395812988e-01,6.500508785247802734e-01,6.429862380027770996e-01,6.392763257026672363e-01,6.400219202041625977e-01,6.410346031188964844e-01,6.422929763793945312e-01,6.435562968254089355e-01,6.565129160881042480e-01,6.694390177726745605e-01,6.818749904632568359e-01,2.508626937866210938e+00,2.490805864334106445e+00,2.473236083984375000e+00,2.455912590026855469e+00,2.438829898834228516e+00,2.421983480453491211e+00,2.405367851257324219e+00,2.388978958129882812e+00,2.372811555862426758e+00,2.356861829757690430e+00,2.341124773025512695e+00,2.325596809387207031e+00,2.310273170471191406e+00,2.295150518417358398e+00,2.280224323272705078e+00,2.265491008758544922e+00,2.250946760177612305e+00,2.236588478088378906e+00,2.222411632537841797e+00,2.208413600921630859e+00,2.194591045379638672e+00,2.180940151214599609e+00,2.167458057403564453e+00,2.154141902923583984e+00,2.140988111495971680e+00,2.127994060516357422e+00,2.115156650543212891e+00,2.102473497390747070e+00,4.905664026737213135e-01,4.811948537826538086e-01,4.721747338771820068e-01,4.634281396865844727e-01,4.549876451492309570e-01
3.779616117477416992e+00,3.739307641983032227e+00,3.699849367141723633e+00,3.661215543746948242e+00,3.623379945755004883e+00,3.586318731307983398e+00,3.550008058547973633e+00,3.514424562454223633e+00,3.479547977447509766e+00,3.445356369018554688e+00,3.411830663681030273e+00,3.378950595855712891e+00,3.346698760986328125e+00,3.315056324005126953e+00,3.284006834030151367e+00,3.253533601760864258e+00,3.223620653152465820e+00,3.194252729415893555e+00,3.165415048599243164e+00,3.137093544006347656e+00,3.109274148941040039e+00,3.081944227218627930e+00,3.055089950561523438e+00,3.028700113296508789e+00,3.002761840820312500e+00,2.977264642715454102e+00,2.952196121215820312e+00,2.927546739578247070e+00,2.903305530548095703e+00,2.879462242126464844e+00,2.856007575988769531e+00,2.832931756973266602e+00,2.810225963592529297e+00,2.787881374359130859e+00,6.858730316162109375e-01,6.622757911682128906e-01,6.549258828163146973e-01,6.477372646331787109e-01,6.407236456871032715e-01,6.397233605384826660e-01,6.406781077384948730e-01,6.419351100921630859e-01,6.431970000267028809e-01,6.491084098815917969e-01,6.628029346466064453e-01,6.756269931793212891e-01,6.882960796356201172e-01,2.508627891540527344e+00,2.490806818008422852e+00,2.473236799240112305e+00,2.455913066864013672e+00,2.438830614089965820e+00,2.421983957290649414e+00,2.405368328094482422e+00,2.388979434967041016e+00,2.372812032699584961e+00,2.356862306594848633e+00,2.341125249862670898e+00,2.325597286224365234e+00,2.310273647308349609e+00,2.295150756835937500e+00,2.280224561691284180e+00,2.265491008758544922e+00,2.250947237014770508e+00,2.236588478088378906e+00,2.222411870956420898e+00,2.208414077758789062e+00,2.194591045379638672e+00,2.180940389633178711e+00,2.167458295822143555e+00,2.154141902923583984e+00,2.140988349914550781e+00,2.127994060516357422e+00,2.115156888961791992e+00,2.102473497390747070e+00,2.089941263198852539e+00,4.839251637458801270e-01,4.748032987117767334e-01,4.659588038921356201e-01,4.574267268180847168e-01
3.779618740081787109e+00,3.739309787750244141e+00,3.699851751327514648e+00,3.661217689514160156e+00,3.623382329940795898e+00,3.586320638656616211e+00,3.550009727478027344e+00,3.514426469802856445e+00,3.479549884796142578e+00,3.445358276367187500e+00,3.411832332611083984e+00,3.378952741622924805e+00,3.346700429916381836e+00,3.315058231353759766e+00,3.284008502960205078e+00,3.253535509109497070e+00,3.223622322082519531e+00,3.194254636764526367e+00,3.165416479110717773e+00,3.137095451354980469e+00,3.109275817871093750e+00,3.081945657730102539e+00,3.055091619491577148e+00,3.028701543807983398e+00,3.002763271331787109e+00,2.977265596389770508e+00,2.952197551727294922e+00,2.927547931671142578e+00,2.903306484222412109e+00,2.879463195800781250e+00,2.856008529663085938e+00,2.832932472229003906e+00,2.810226917266845703e+00,7.066927552223205566e-01,6.673365235328674316e-01,6.598744988441467285e-01,6.525774002075195312e-01,6.454399824142456055e-01,6.394250988960266113e-01,6.403220295906066895e-01,6.415776014328002930e-01,6.428381204605102539e-01,6.441036462783813477e-01,6.552566289901733398e-01,6.692146658897399902e-01,6.819304823875427246e-01,2.526705980300903320e+00,2.508628129959106445e+00,2.490806818008422852e+00,2.473237037658691406e+00,2.455913305282592773e+00,2.438830852508544922e+00,2.421984195709228516e+00,2.405368566513061523e+00,2.388979673385620117e+00,2.372812271118164062e+00,2.356862306594848633e+00,2.341125488281250000e+00,2.325597286224365234e+00,2.310273647308349609e+00,2.295150995254516602e+00,2.280224800109863281e+00,2.265491247177124023e+00,2.250947237014770508e+00,2.236588716506958008e+00,2.222412109375000000e+00,2.208414077758789062e+00,2.194591283798217773e+00,2.180940628051757812e+00,2.167458534240722656e+00,2.154142141342163086e+00,2.140988349914550781e+00,2.127994298934936523e+00,2.115156888961791992e+00,2.102473735809326172e+00,2.089941501617431641e+00,4.866865575313568115e-01,4.774613082408905029e-01,4.685173332691192627e-01,4.598921835422515869e-01
3.779620885848999023e+00,3.739311933517456055e+00,3.699853658676147461e+00,3.661219835281372070e+00,3.623384237289428711e+00,3.586322307586669922e+00,3.550011634826660156e+00,3.514428138732910156e+00,3.479551076889038086e+00,3.445359468460083008e+00,3.411833524703979492e+00,3.378953695297241211e+00,3.346701145172119141e+00,3.315059185028076172e+00,3.284009456634521484e+00,3.253535985946655273e+00,3.223623037338256836e+00,3.194255113601684570e+00,3.165417194366455078e+00,3.137095689773559570e+00,3.109276056289672852e+00,3.081945896148681641e+00,3.055091857910156250e+00,3.028701782226562500e+00,3.002763509750366211e+00,2.977266073226928711e+00,2.952197790145874023e+00,2.927548170089721680e+00,2.903306961059570312e+00,2.879463434219360352e+00,2.856008768081665039e+00,2.832932949066162109e+00,2.810227155685424805e+00,6.878123283386230469e-01,6.649376749992370605e-01,6.574904322624206543e-01,6.502457261085510254e-01,6.431589722633361816e-01,6.399663686752319336e-01,6.412205100059509277e-01,6.424796581268310547e-01,6.437437534332275391e-01,6.478803157806396484e-01,6.615225076675415039e-01,6.756815314292907715e-01,6.883527040481567383e-01,2.526706218719482422e+00,2.508628368377685547e+00,2.490807056427001953e+00,2.473237276077270508e+00,2.455913782119750977e+00,2.438831090927124023e+00,2.421984434127807617e+00,2.405368804931640625e+00,2.388979673385620117e+00,2.372812509536743164e+00,2.356862783432006836e+00,2.341125726699829102e+00,2.325597524642944336e+00,2.310274124145507812e+00,2.295150995254516602e+00,2.280224800109863281e+00,2.265491485595703125e+00,2.250947475433349609e+00,2.236588716506958008e+00,2.222412109375000000e+00,2.208414316177368164e+00,2.194591522216796875e+00,2.180940628051757812e+00,2.167458772659301758e+00,2.154142379760742188e+00,2.140988588333129883e+00,2.127994537353515625e+00,2.115157127380371094e+00,2.102473735809326172e+00,2.089941740036010742e+00,4.894796609878540039e-01,4.801492393016815186e-01,4.711040556430816650e-01,4.623842835426330566e-01
3.779621362686157227e+00,3.739312410354614258e+00,3.699854135513305664e+00,3.661220312118530273e+00,3.623384475708007812e+00,3.586322784423828125e+00,3.550011873245239258e+00,3.514428615570068359e+00,3.479551553726196289e+00,3.445360183715820312e+00,3.411834001541137695e+00,3.378953933715820312e+00,3.346701860427856445e+00,3.315059423446655273e+00,3.284009695053100586e+00,3.253536701202392578e+00,3.223623514175415039e+00,3.194255352020263672e+00,3.165417432785034180e+00,3.137096166610717773e+00,3.109276533126831055e+00,3.081946134567260742e+00,3.055092096328735352e+00,3.028702020645141602e+00,3.002763748168945312e+00,2.977266311645507812e+00,2.952198028564453125e+00,2.927548408508300781e+00,2.903307199478149414e+00,2.879463672637939453e+00,2.856009006500244141e+00,2.832933187484741211e+00,2.810227394104003906e+00,6.710774898529052734e-01,6.627226471900939941e-01,6.553186178207397461e-01,6.480782032012939453e-01,6.409959793090820312e-01,6.409425139427185059e-01,6.421215534210205078e-01,6.433842778205871582e-01,6.446518898010253906e-01,6.540052294731140137e-01,6.679093241691589355e-01,6.819860339164733887e-01,2.545047044754028320e+00,2.526706457138061523e+00,2.508628606796264648e+00,2.490807294845581055e+00,2.473237514495849609e+00,2.455914020538330078e+00,2.438831090927124023e+00,2.421984434127807617e+00,2.405369043350219727e+00,2.388979911804199219e+00,2.372812747955322266e+00,2.356863021850585938e+00,2.341125965118408203e+00,2.325597763061523438e+00,2.310274124145507812e+00,2.295151233673095703e+00,2.280225038528442383e+00,2.265491724014282227e+00,2.250947713851928711e+00,2.236588954925537109e+00,2.222412586212158203e+00,2.208414316177368164e+00,2.194591522216796875e+00,2.180940866470336914e+00,2.167458772659301758e+00,2.154142379760742188e+00,2.140988588333129883e+00,2.127994537353515625e+00,2.115157365798950195e+00,2.102473974227905273e+00,2.089941978454589844e+00,4.923050105571746826e-01,4.828675985336303711e-01,4.737195670604705811e-01,4.649035930633544922e-01
3.779621839523315430e+00,3.739312887191772461e+00,3.699854612350463867e+00,3.661220550537109375e+00,3.623384952545166016e+00,3.586323022842407227e+00,3.550012350082397461e+00,3.514428853988647461e+00,3.479551792144775391e+00,3.445360422134399414e+00,3.411834239959716797e+00,3.378954172134399414e+00,3.346702337265014648e+00,3.315059900283813477e+00,3.284010171890258789e+00,3.253536939620971680e+00,3.223623752593994141e+00,3.194255590438842773e+00,3.165417909622192383e+00,3.137096405029296875e+00,3.109276771545410156e+00,3.081946611404418945e+00,3.055092573165893555e+00,3.028702259063720703e+00,3.002764225006103516e+00,2.977266550064086914e+00,2.952198266983032227e+00,2.927548885345458984e+00,2.903307437896728516e+00,2.879464149475097656e+00,2.856009244918823242e+00,2.832933425903320312e+00,6.936048269271850586e-01,6.685490608215332031e-01,6.605222821235656738e-01,6.531670689582824707e-01,6.459738612174987793e-01,6.416238546371459961e-01,6.425312161445617676e-01,6.434410810470581055e-01,6.443535685539245605e-01,6.466568708419799805e-01,6.602470874786376953e-01,6.744207143783569336e-01,6.884092092514038086e-01,2.545047283172607422e+00,2.526706933975219727e+00,2.508628845214843750e+00,2.490807533264160156e+00,2.473237752914428711e+00,2.455914020538330078e+00,2.438831329345703125e+00,2.421984910964965820e+00,2.405369281768798828e+00,2.388980150222778320e+00,2.372812747955322266e+00,2.356863021850585938e+00,2.341125965118408203e+00,2.325597763061523438e+00,2.310274362564086914e+00,2.295151472091674805e+00,2.280225276947021484e+00,2.265491962432861328e+00,2.250947713851928711e+00,2.236589193344116211e+00,2.222412586212158203e+00,2.208414554595947266e+00,2.194591760635375977e+00,2.180941104888916016e+00,2.167459011077880859e+00,2.154142618179321289e+00,2.140988826751708984e+00,2.127994775772094727e+00,2.115157365798950195e+00,2.102474212646484375e+00,2.089941978454589844e+00,2.077558279037475586e+00,4.856168925762176514e-01,4.763642251491546631e-01,4.674504697322845459e-01
3.779622316360473633e+00,3.739313364028930664e+00,3.699855327606201172e+00,3.661221027374267578e+00,3.623385429382324219e+00,3.586323976516723633e+00,3.550012588500976562e+00,3.514429330825805664e+00,3.479552507400512695e+00,3.445360898971557617e+00,3.411834716796875000e+00,3.378954887390136719e+00,3.346702575683593750e+00,3.315060138702392578e+00,3.284010410308837891e+00,3.253537178039550781e+00,3.223623991012573242e+00,3.194256067276000977e+00,3.165418386459350586e+00,3.137096643447875977e+00,3.109277009963989258e+00,3.081946849822998047e+00,3.055092811584472656e+00,3.028702497482299805e+00,3.002764701843261719e+00,2.977266788482666016e+00,2.952198505401611328e+00,2.927549123764038086e+00,2.903307676315307617e+00,2.879464387893676758e+00,2.856009721755981445e+00,2.832933664321899414e+00,6.761164069175720215e-01,6.660396456718444824e-01,6.583364605903625488e-01,6.510295867919921875e-01,6.438831090927124023e-01,6.432159543037414551e-01,6.441277861595153809e-01,6.450421810150146484e-01,6.459592580795288086e-01,6.530120372772216797e-01,6.666091084480285645e-01,6.810602545738220215e-01,2.563656091690063477e+00,2.545047521591186523e+00,2.526706933975219727e+00,2.508628845214843750e+00,2.490807533264160156e+00,2.473237991333007812e+00,2.455914258956909180e+00,2.438831567764282227e+00,2.421985149383544922e+00,2.405369520187377930e+00,2.388980388641357422e+00,2.372813224792480469e+00,2.356863260269165039e+00,2.341126203536987305e+00,2.325598239898681641e+00,2.310274600982666016e+00,2.295151472091674805e+00,2.280225515365600586e+00,2.265491962432861328e+00,2.250947952270507812e+00,2.236589193344116211e+00,2.222412824630737305e+00,2.208414793014526367e+00,2.194591760635375977e+00,2.180941343307495117e+00,2.167459249496459961e+00,2.154142618179321289e+00,2.140989065170288086e+00,2.127995014190673828e+00,2.115157604217529297e+00,2.102474212646484375e+00,2.089942216873168945e+00,2.077558517456054688e+00,4.883976876735687256e-01,4.790386259555816650e-01,4.700254499912261963e-01
3.777230262756347656e+00,3.739313602447509766e+00,3.699855804443359375e+00,3.661221504211425781e+00,3.623385667800903320e+00,3.586324214935302734e+00,3.550013065338134766e+00,3.514429569244384766e+00,3.479552984237670898e+00,3.445361137390136719e+00,3.411834955215454102e+00,3.378955364227294922e+00,3.346703052520751953e+00,3.315060377120971680e+00,3.284011125564575195e+00,3.253537654876708984e+00,3.223624467849731445e+00,3.194256544113159180e+00,3.165418624877929688e+00,3.137096881866455078e+00,3.109277725219726562e+00,3.081947326660156250e+00,3.055093050003051758e+00,3.028702735900878906e+00,3.002764940261840820e+00,2.977267026901245117e+00,2.952198743820190430e+00,2.927549362182617188e+00,2.903307914733886719e+00,2.879464626312255859e+00,2.856009960174560547e+00,6.994957923889160156e-01,6.730300188064575195e-01,6.635884046554565430e-01,6.561650633811950684e-01,6.489060521125793457e-01,6.439021825790405273e-01,6.448159813880920410e-01,6.457323431968688965e-01,6.466513276100158691e-01,6.475166082382202148e-01,6.597200632095336914e-01,6.735108494758605957e-01,6.878905892372131348e-01,2.563656330108642578e+00,2.545047760009765625e+00,2.526707172393798828e+00,2.508629083633422852e+00,2.490807771682739258e+00,2.473238229751586914e+00,2.455914497375488281e+00,2.438831806182861328e+00,2.421985149383544922e+00,2.405369520187377930e+00,2.388980388641357422e+00,2.372813224792480469e+00,2.356863498687744141e+00,2.341126441955566406e+00,2.325598239898681641e+00,2.310274600982666016e+00,2.295151710510253906e+00,2.280225515365600586e+00,2.265492200851440430e+00,2.250948190689086914e+00,2.236589670181274414e+00,2.222412824630737305e+00,2.208414793014526367e+00,2.194592237472534180e+00,2.180941343307495117e+00,2.167459249496459961e+00,2.154142856597900391e+00,2.140989303588867188e+00,2.127995014190673828e+00,2.115157604217529297e+00,2.102474451065063477e+00,2.089942216873168945e+00,2.077558517456054688e+00,4.912105500698089600e-01,4.817431569099426270e-01,4.726288914680480957e-01
3.083595275878906250e+00,3.083110094070434570e+00,3.082624673843383789e+00,3.082139492034912109e+00,3.081654548645019531e+00,3.081169843673706055e+00,3.080684900283813477e+00,3.080200433731079102e+00,3.079715967178344727e+00,3.079231739044189453e+00,3.078747987747192383e+00,3.078263759613037109e+00,3.077780008316040039e+00,3.077296495437622070e+00,3.076812982559204102e+00,3.076329708099365234e+00,3.075846433639526367e+00,3.075363397598266602e+00,3.074880599975585938e+00,3.074397802352905273e+00,3.073915243148803711e+00,3.073432922363281250e+00,3.055093288421630859e+00,3.028703451156616211e+00,3.002765178680419922e+00,2.977267503738403320e+00,2.952199220657348633e+00,2.927549600601196289e+00,2.903308153152465820e+00,2.879465103149414062e+00,2.856010198593139648e+00,6.817128062248229980e-01,6.704868674278259277e-01,6.613823175430297852e-01,6.540080308914184570e-01,6.467963457107543945e-01,6.455055475234985352e-01,6.464238762855529785e-01,6.473448276519775391e-01,6.481786370277404785e-01,6.530565023422241211e-01,6.665672659873962402e-01,6.806489229202270508e-01,2.582539558410644531e+00,2.563656568527221680e+00,2.545047998428344727e+00,2.526707410812377930e+00,2.508629322052001953e+00,2.490808248519897461e+00,2.473238229751586914e+00,2.455914735794067383e+00,2.438832044601440430e+00,2.421985387802124023e+00,2.405369758605957031e+00,2.388980865478515625e+00,2.372813463211059570e+00,2.356863498687744141e+00,2.341126441955566406e+00,2.325598478317260742e+00,2.310274839401245117e+00,2.295151948928833008e+00,2.280225753784179688e+00,2.265492439270019531e+00,2.250948190689086914e+00,2.236589670181274414e+00,2.222413063049316406e+00,2.208415031433105469e+00,2.194592237472534180e+00,2.180941581726074219e+00,2.167459487915039062e+00,2.154143095016479492e+00,2.140989303588867188e+00,2.127995252609252930e+00,2.115157842636108398e+00,2.102474451065063477e+00,2.089942455291748047e+00,2.077558755874633789e+00,2.065320968627929688e+00,4.844751060009002686e-01,4.752583205699920654e-01
2.605189085006713867e+00,2.604842662811279297e+00,2.604496240615844727e+00,2.604149818420410156e+00,2.603803634643554688e+00,2.603457689285278320e+00,2.603111505508422852e+00,2.602765560150146484e+00,2.602419614791870117e+00,2.602073907852172852e+00,2.601728200912475586e+00,2.601382493972778320e+00,2.601037025451660156e+00,2.600691795349121094e+00,2.600346326828002930e+00,2.600001096725463867e+00,2.599655866622924805e+00,2.599310874938964844e+00,2.598966121673583984e+00,2.598621129989624023e+00,2.598276376724243164e+00,2.597931623458862305e+00,2.597587108612060547e+00,2.597242593765258789e+00,2.596898317337036133e+00,2.596553802490234375e+00,2.596209764480590820e+00,2.595865488052368164e+00,2.595521450042724609e+00,2.595177650451660156e+00,2.594833612442016602e+00,6.775713562965393066e-01,6.679629087448120117e-01,6.591907739639282227e-01,6.518650650978088379e-01,6.461966633796691895e-01,6.471169590950012207e-01,6.480399370193481445e-01,6.488960981369018555e-01,6.496645212173461914e-01,6.597654223442077637e-01,6.735581159591674805e-01,6.879398822784423828e-01,2.582539796829223633e+00,2.563656806945800781e+00,2.545048236846923828e+00,2.526707649230957031e+00,2.508629560470581055e+00,2.490808486938476562e+00,2.473238468170166016e+00,2.455914735794067383e+00,2.438832283020019531e+00,2.421985626220703125e+00,2.405369997024536133e+00,2.388980865478515625e+00,2.372813701629638672e+00,2.356863737106323242e+00,2.341126918792724609e+00,2.325598716735839844e+00,2.310275077819824219e+00,2.295152187347412109e+00,2.280225992202758789e+00,2.265492439270019531e+00,2.250948429107666016e+00,2.236589908599853516e+00,2.222413301467895508e+00,2.208415031433105469e+00,2.194592475891113281e+00,2.180941581726074219e+00,2.167459487915039062e+00,2.154143333435058594e+00,2.140989542007446289e+00,2.127995252609252930e+00,2.115158081054687500e+00,2.102474689483642578e+00,2.089942455291748047e+00,2.077558994293212891e+00,2.065321207046508789e+00,4.872262775897979736e-01,4.779056012630462646e-01
2.255290746688842773e+00,2.255031108856201172e+00,2.254771471023559570e+00,2.254511833190917969e+00,2.254252433776855469e+00,2.253993034362792969e+00,2.253733634948730469e+00,2.253474235534667969e+00,2.253214836120605469e+00,2.252955675125122070e+00,2.252696752548217773e+00,2.252437353134155273e+00,2.252178430557250977e+00,2.251919507980346680e+00,2.251660585403442383e+00,2.251401662826538086e+00,2.251142978668212891e+00,2.250884294509887695e+00,2.250625610351562500e+00,2.250366926193237305e+00,2.250108480453491211e+00,2.249850034713745117e+00,2.249591350555419922e+00,2.249333143234252930e+00,2.249074697494506836e+00,2.248816490173339844e+00,2.248558282852172852e+00,2.248300075531005859e+00,2.248042106628417969e+00,2.247784137725830078e+00,6.874026060104370117e-01,6.749938726425170898e-01,6.654578447341918945e-01,6.570137739181518555e-01,6.497360467910766602e-01,6.478115320205688477e-01,6.487364172935485840e-01,6.496152281761169434e-01,6.503853201866149902e-01,6.542257666587829590e-01,6.666135787963867188e-01,6.806972026824951172e-01,2.244435071945190430e+00,2.244178056716918945e+00,2.243920803070068359e+00,2.243663787841796875e+00,2.243406534194946289e+00,2.243149757385253906e+00,2.242892742156982422e+00,2.242635965347290039e+00,2.242379188537597656e+00,2.242122411727905273e+00,2.241865634918212891e+00,2.241609096527099609e+00,2.241352558135986328e+00,2.241096019744873047e+00,2.240839719772338867e+00,2.240583181381225586e+00,2.240326881408691406e+00,2.240070819854736328e+00,2.239814519882202148e+00,2.239558458328247070e+00,2.239302158355712891e+00,2.239046335220336914e+00,2.236589908599853516e+00,2.222413301467895508e+00,2.208415508270263672e+00,2.194592475891113281e+00,2.180941820144653320e+00,2.167459964752197266e+00,2.154143333435058594e+00,2.140989542007446289e+00,2.127995491027832031e+00,2.115158319473266602e+00,2.102474927902221680e+00,2.089942693710327148e+00,2.077558994293212891e+00,2.065321207046508789e+00,4.912007749080657959e-01,4.805825054645538330e-01
1.988252162933349609e+00,1.988050222396850586e+00,1.987848639488220215e+00,1.987646818161010742e+00,1.987444996833801270e+00,1.987243533134460449e+00,1.987041831016540527e+00,1.986840128898620605e+00,1.986638545989990234e+00,1.986437201499938965e+00,1.986235618591308594e+00,1.986034154891967773e+00,1.985832929611206055e+00,1.985631465911865234e+00,1.985430121421813965e+00,1.985229015350341797e+00,1.985027790069580078e+00,1.984826445579528809e+00,1.984625458717346191e+00,1.984424352645874023e+00,1.984223127365112305e+00,1.984022259712219238e+00,1.983821272850036621e+00,1.983620285987854004e+00,1.983419537544250488e+00,1.983218550682067871e+00,1.983017683029174805e+00,1.982816815376281738e+00,1.982616305351257324e+00,1.982415556907653809e+00,6.821744441986083984e-01,6.724359393119812012e-01,6.629715561866760254e-01,6.548511385917663574e-01,6.485075950622558594e-01,6.494345068931579590e-01,6.503359079360961914e-01,6.511076688766479492e-01,6.518812775611877441e-01,6.598107814788818359e-01,6.736054420471191406e-01,1.980010390281677246e+00,1.979810118675231934e+00,1.979610204696655273e+00,1.979410052299499512e+00,1.979209899902343750e+00,1.979009866714477539e+00,1.978810071945190430e+00,1.978610038757324219e+00,1.978410005569458008e+00,1.978210330009460449e+00,1.978010535240173340e+00,1.977810621261596680e+00,1.977611064910888672e+00,1.977411389350891113e+00,1.977211594581604004e+00,1.977012157440185547e+00,1.976812601089477539e+00,1.976612925529479980e+00,1.976413607597351074e+00,1.976214051246643066e+00,1.976014614105224609e+00,1.975815176963806152e+00,1.975615978240966797e+00,1.975416660308837891e+00,1.975217342376708984e+00,1.975018262863159180e+00,1.974819064140319824e+00,1.974619865417480469e+00,1.974421024322509766e+00,1.974221825599670410e+00,1.974022746086120605e+00,1.973824024200439453e+00,1.973624944686889648e+00,1.973425984382629395e+00,1.973227381706237793e+00,1.973028421401977539e+00,1.972829699516296387e+00,1.972631096839904785e+00,4.832895398139953613e-01
1.777756094932556152e+00,1.777594923973083496e+00,1.777433514595031738e+00,1.777272105216979980e+00,1.777110934257507324e+00,1.776949644088745117e+00,1.776788353919982910e+00,1.776627302169799805e+00,1.776466131210327148e+00,1.776304960250854492e+00,1.776144027709960938e+00,1.775982856750488281e+00,1.775821685791015625e+00,1.775660872459411621e+00,1.775499820709228516e+00,1.775338768959045410e+00,1.775177836418151855e+00,1.775017023086547852e+00,1.774856090545654297e+00,1.774695277214050293e+00,1.774534583091735840e+00,1.774373769760131836e+00,1.774212956428527832e+00,1.774052262306213379e+00,1.773891568183898926e+00,1.773730874061584473e+00,1.773570299148559570e+00,1.773409605026245117e+00,1.773249030113220215e+00,1.773088574409484863e+00,6.795619726181030273e-01,6.698973178863525391e-01,6.605037450790405273e-01,6.527026295661926270e-01,6.501340270042419434e-01,6.510581970214843750e-01,6.518316268920898438e-01,6.526070237159729004e-01,6.559101939201354980e-01,6.666599512100219727e-01,6.807454824447631836e-01,1.771164178848266602e+00,1.771004080772399902e+00,1.770843863487243652e+00,1.770683765411376953e+00,1.770523786544799805e+00,1.770363688468933105e+00,1.770203590393066406e+00,1.770043730735778809e+00,1.769883632659912109e+00,1.769723653793334961e+00,1.769563913345336914e+00,1.769403934478759766e+00,1.769244074821472168e+00,1.769084095954895020e+00,1.768924474716186523e+00,1.768764615058898926e+00,1.768604874610900879e+00,1.768445253372192383e+00,1.768285512924194336e+00,1.768125891685485840e+00,1.767966389656066895e+00,1.767806649208068848e+00,1.767647027969360352e+00,1.767487645149230957e+00,1.767328143119812012e+00,1.767168521881103516e+00,1.767009258270263672e+00,1.766849756240844727e+00,1.766690254211425781e+00,1.766531109809875488e+00,1.766371726989746094e+00,1.766212344169616699e+00,1.766052961349487305e+00,1.765893936157226562e+00,1.765734553337097168e+00,1.765575408935546875e+00,1.765416383743286133e+00,1.765257120132446289e+00,4.861264526844024658e-01
1.607563734054565430e+00,1.607431650161743164e+00,1.607299923896789551e+00,1.607167959213256836e+00,1.607035994529724121e+00,1.606904268264770508e+00,1.606772303581237793e+00,1.606640458106994629e+00,1.606508612632751465e+00,1.606377005577087402e+00,1.606245160102844238e+00,1.606113433837890625e+00,1.605981826782226562e+00,1.605850100517272949e+00,1.605718374252319336e+00,1.605586767196655273e+00,1.605455160140991211e+00,1.605323433876037598e+00,1.605191946029663086e+00,1.605060338973999023e+00,1.604928851127624512e+00,1.604797363281250000e+00,1.604665875434875488e+00,1.604534268379211426e+00,1.604403018951416016e+00,1.604271531105041504e+00,1.604140043258666992e+00,1.604008555412292480e+00,1.603877305984497070e+00,6.868405938148498535e-01,6.769693493843078613e-01,6.673778295516967773e-01,6.580542922019958496e-01,6.508350968360900879e-01,6.517686843872070312e-01,6.525572538375854492e-01,6.533343791961669922e-01,6.541132330894470215e-01,6.610754728317260742e-01,6.736527085304260254e-01,1.602302670478820801e+00,1.602171540260314941e+00,1.602040410041809082e+00,1.601909518241882324e+00,1.601778388023376465e+00,1.601647377014160156e+00,1.601516366004943848e+00,1.601385474205017090e+00,1.601254463195800781e+00,1.601123571395874023e+00,1.600992798805236816e+00,1.600861907005310059e+00,1.600731015205383301e+00,1.600600242614746094e+00,1.600469350814819336e+00,1.600338578224182129e+00,1.600207924842834473e+00,1.600077152252197266e+00,1.599946260452270508e+00,1.599815726280212402e+00,1.599684953689575195e+00,1.599554300308227539e+00,1.599423646926879883e+00,1.599293112754821777e+00,1.599162459373474121e+00,1.599031805992126465e+00,1.598901391029357910e+00,1.598770737648010254e+00,1.598640203475952148e+00,1.598509907722473145e+00,1.598379492759704590e+00,1.598248958587646484e+00,1.598118424415588379e+00,1.597987890243530273e+00,1.597857356071472168e+00,1.597726941108703613e+00,1.597596406936645508e+00,1.597465872764587402e+00,1.597335577011108398e+00,1.597205042839050293e+00
1.467110514640808105e+00,1.467000722885131836e+00,1.466890811920166016e+00,1.466780900955200195e+00,1.466671109199523926e+00,1.466561317443847656e+00,1.466451406478881836e+00,1.466341733932495117e+00,1.466231942176818848e+00,1.466122031211853027e+00,1.466012477874755859e+00,1.465902686119079590e+00,1.465792894363403320e+00,1.465683221817016602e+00,1.465573549270629883e+00,1.465463876724243164e+00,1.465354084968566895e+00,1.465244531631469727e+00,1.465134978294372559e+00,1.465025305747985840e+00,1.464915752410888672e+00,1.464806199073791504e+00,1.464696526527404785e+00,1.464587092399597168e+00,1.464477539062500000e+00,1.464367985725402832e+00,1.464258551597595215e+00,1.464149117469787598e+00,1.464039564132690430e+00,1.463930249214172363e+00,6.743963956832885742e-01,6.648771166801452637e-01,6.556963920593261719e-01,6.524733304977416992e-01,6.532844901084899902e-01,6.540633440017700195e-01,6.548438668251037598e-01,6.576032638549804688e-01,6.667062640190124512e-01,1.462836742401123047e+00,1.462727427482604980e+00,1.462618112564086914e+00,1.462509036064147949e+00,1.462399721145629883e+00,1.462290525436401367e+00,1.462181448936462402e+00,1.462072253227233887e+00,1.461963057518005371e+00,1.461853981018066406e+00,1.461744904518127441e+00,1.461635708808898926e+00,1.461526751518249512e+00,1.461417675018310547e+00,1.461308598518371582e+00,1.461199522018432617e+00,1.461090564727783203e+00,1.460981488227844238e+00,1.460872530937194824e+00,1.460763573646545410e+00,1.460654854774475098e+00,1.460545778274536133e+00,1.460436701774597168e+00,1.460327744483947754e+00,1.460218667984008789e+00,1.460109829902648926e+00,1.460000753402709961e+00,1.459891915321350098e+00,1.459782958030700684e+00,1.459674000740051270e+00,1.459565162658691406e+00,1.459456324577331543e+00,1.459347367286682129e+00,1.459238648414611816e+00,1.459129691123962402e+00,1.459020972251892090e+00,1.458912134170532227e+00,1.458803415298461914e+00,1.458694577217102051e+00,1.458585858345031738e+00,1.458477139472961426e+00
1.349228382110595703e+00,1.349135398864746094e+00,1.349042534828186035e+00,1.348949551582336426e+00,1.348856568336486816e+00,1.348763823509216309e+00,1.348670840263366699e+00,1.348577976226806641e+00,1.348484992980957031e+00,1.348392248153686523e+00,1.348299384117126465e+00,1.348206520080566406e+00,1.348113775253295898e+00,1.348021030426025391e+00,1.347928166389465332e+00,1.347835540771484375e+00,1.347742676734924316e+00,1.347649931907653809e+00,1.347557306289672852e+00,1.347464561462402344e+00,1.347371816635131836e+00,1.347279191017150879e+00,1.347186446189880371e+00,1.347093820571899414e+00,1.347001194953918457e+00,1.346908569335937500e+00,1.346815824508666992e+00,1.346723198890686035e+00,1.346630692481994629e+00,6.938564777374267578e-01,6.832522749900817871e-01,6.623951792716979980e-01,6.535423994064331055e-01,6.540133357048034668e-01,6.547939181327819824e-01,6.555762290954589844e-01,6.563605070114135742e-01,6.627953052520751953e-01,6.737000346183776855e-01,1.345612883567810059e+00,1.345520496368408203e+00,1.345427989959716797e+00,1.345335483551025391e+00,1.345243215560913086e+00,1.345150709152221680e+00,1.345058321952819824e+00,1.344965934753417969e+00,1.344873666763305664e+00,1.344781279563903809e+00,1.344689011573791504e+00,1.344596624374389648e+00,1.344504117965698242e+00,1.344411849975585938e+00,1.344319462776184082e+00,1.344227075576782227e+00,1.344134688377380371e+00,1.344042420387268066e+00,1.343950033187866211e+00,1.343857765197753906e+00,1.343765377998352051e+00,1.343673229217529297e+00,1.343580842018127441e+00,1.343488693237304688e+00,1.343396306037902832e+00,1.343304157257080078e+00,1.343211889266967773e+00,1.343119740486145020e+00,1.343027472496032715e+00,1.342935323715209961e+00,1.342843174934387207e+00,1.342751026153564453e+00,1.342658877372741699e+00,1.342566728591918945e+00,1.342474579811096191e+00,1.342382550239562988e+00,1.342290401458740234e+00,1.342198252677917480e+00,1.342106223106384277e+00,1.342014074325561523e+00,1.341922044754028320e+00
1.248880743980407715e+00,1.248801231384277344e+00,1.248721599578857422e+00,1.248641967773437500e+00,1.248562335968017578e+00,1.248482704162597656e+00,1.248403191566467285e+00,1.248323678970336914e+00,1.248244047164916992e+00,1.248164415359497070e+00,1.248084902763366699e+00,1.248005390167236328e+00,1.247925877571105957e+00,1.247846364974975586e+00,1.247766852378845215e+00,1.247687339782714844e+00,1.247607827186584473e+00,1.247528433799743652e+00,1.247448921203613281e+00,1.247369408607482910e+00,1.247290015220642090e+00,1.247210621833801270e+00,1.247131109237670898e+00,1.247051835060119629e+00,1.246972322463989258e+00,1.246892929077148438e+00,1.246813654899597168e+00,1.246734142303466797e+00,7.035212516784667969e-01,6.858815550804138184e-01,6.753885746002197266e-01,6.700134873390197754e-01,6.642349958419799805e-01,6.653135418891906738e-01,6.563102602958679199e-01,6.570962667465209961e-01,6.593050956726074219e-01,6.680700182914733887e-01,1.245861887931823730e+00,1.245782494544982910e+00,1.245703220367431641e+00,1.245623826980590820e+00,1.245544672012329102e+00,1.245465278625488281e+00,1.245386123657226562e+00,1.245306730270385742e+00,1.245227575302124023e+00,1.245148301124572754e+00,1.245069026947021484e+00,1.244989752769470215e+00,1.244910597801208496e+00,1.244831323623657227e+00,1.244752168655395508e+00,1.244673013687133789e+00,1.244593858718872070e+00,1.244514584541320801e+00,1.244435548782348633e+00,1.244356274604797363e+00,1.244277238845825195e+00,1.244198083877563477e+00,1.244119048118591309e+00,1.244039893150329590e+00,1.243960738182067871e+00,1.243881702423095703e+00,1.243802547454833984e+00,1.243723511695861816e+00,1.243644475936889648e+00,1.243565440177917480e+00,1.243486285209655762e+00,1.243407368659973145e+00,1.243328332901000977e+00,1.243249297142028809e+00,1.243170261383056641e+00,1.243091344833374023e+00,1.243012309074401855e+00,1.242933392524719238e+00,1.242854475975036621e+00,1.242775559425354004e+00,1.242696523666381836e+00,1.242617726325988770e+00
1.162426590919494629e+00,1.162357568740844727e+00,1.162288546562194824e+00,1.162219643592834473e+00,1.162150621414184570e+00,1.162081718444824219e+00,1.162012696266174316e+00,1.161943793296813965e+00,1.161874771118164062e+00,1.161805868148803711e+00,1.161736965179443359e+00,1.161668062210083008e+00,1.161599159240722656e+00,1.161530256271362305e+00,1.161461353302001953e+00,1.161392569541931152e+00,1.161323666572570801e+00,1.161254763603210449e+00,1.161185979843139648e+00,1.161117076873779297e+00,1.161048173904418945e+00,1.160979390144348145e+00,1.160910606384277344e+00,1.160841703414916992e+00,1.160773038864135742e+00,1.160704135894775391e+00,1.160635352134704590e+00,1.160566687583923340e+00,6.902233362197875977e-01,6.771001219749450684e-01,6.694863438606262207e-01,6.656126379966735840e-01,6.636951565742492676e-01,6.648753881454467773e-01,6.695622205734252930e-01,6.749366521835327148e-01,6.738694310188293457e-01,6.737473607063293457e-01,1.159809947013854980e+00,1.159741163253784180e+00,1.159672498703002930e+00,1.159603714942932129e+00,1.159535050392150879e+00,1.159466266632080078e+00,1.159397602081298828e+00,1.159328818321228027e+00,1.159260153770446777e+00,1.159191489219665527e+00,1.159122705459594727e+00,1.159054160118103027e+00,1.158985376358032227e+00,1.158916831016540527e+00,1.158848166465759277e+00,1.158779501914978027e+00,1.158710837364196777e+00,1.158642292022705078e+00,1.158573627471923828e+00,1.158505082130432129e+00,1.158436417579650879e+00,1.158367872238159180e+00,1.158299326896667480e+00,1.158230781555175781e+00,1.158162117004394531e+00,1.158093690872192383e+00,1.158025026321411133e+00,1.157956600189208984e+00,1.157888054847717285e+00,1.157819509506225586e+00,1.157750964164733887e+00,1.157682538032531738e+00,1.157613992691040039e+00,1.157545566558837891e+00,1.157477021217346191e+00,1.157408595085144043e+00,1.157340049743652344e+00,1.157271623611450195e+00,1.157203197479248047e+00,1.157134652137756348e+00,1.157066345214843750e+00,1.156997799873352051e+00
1.087166905403137207e+00,1.087106585502624512e+00,1.087046265602111816e+00,1.086985826492309570e+00,1.086925625801086426e+00,1.086865305900573730e+00,1.086804866790771484e+00,1.086744666099548340e+00,1.086684346199035645e+00,1.086624026298522949e+00,1.086563825607299805e+00,1.086503505706787109e+00,1.086443185806274414e+00,1.086382985115051270e+00,1.086322665214538574e+00,1.086262345314025879e+00,1.086202383041381836e+00,1.086141943931579590e+00,1.086081743240356445e+00,1.086021423339843750e+00,1.085961222648620605e+00,1.085900902748107910e+00,1.085840582847595215e+00,1.085780382156372070e+00,1.085720181465148926e+00,1.085659861564636230e+00,1.085599660873413086e+00,6.955773234367370605e-01,6.816880702972412109e-01,6.739283204078674316e-01,6.675363779067993164e-01,6.618975400924682617e-01,6.631562113761901855e-01,6.658172607421875000e-01,6.688001155853271484e-01,6.745812296867370605e-01,1.084997534751892090e+00,1.084937453269958496e+00,1.084877252578735352e+00,1.084817171096801758e+00,1.084756970405578613e+00,1.084696769714355469e+00,1.084636688232421875e+00,1.084576606750488281e+00,1.084516406059265137e+00,1.084456324577331543e+00,1.084396243095397949e+00,1.084336161613464355e+00,1.084275960922241211e+00,1.084215998649597168e+00,1.084155797958374023e+00,1.084095835685729980e+00,1.084035754203796387e+00,1.083975672721862793e+00,1.083915591239929199e+00,1.083855628967285156e+00,1.083795547485351562e+00,1.083735466003417969e+00,1.083675503730773926e+00,1.083615422248840332e+00,1.083555459976196289e+00,1.083495378494262695e+00,1.083435416221618652e+00,1.083375453948974609e+00,1.083315491676330566e+00,1.083255410194396973e+00,1.083195447921752930e+00,1.083135485649108887e+00,1.083075523376464844e+00,1.083015561103820801e+00,1.082955718040466309e+00,1.082895755767822266e+00,1.082835793495178223e+00,1.082775831222534180e+00,1.082715988159179688e+00,1.082656025886535645e+00,1.082596182823181152e+00,1.082536220550537109e+00,1.082476377487182617e+00,1.082416415214538574e+00
1.021059870719909668e+00,1.021006703376770020e+00,1.020953416824340820e+00,1.020900249481201172e+00,1.020846962928771973e+00,1.020793795585632324e+00,1.020740747451782227e+00,1.020687460899353027e+00,1.020634174346923828e+00,1.020581007003784180e+00,1.020527720451354980e+00,1.020474433898925781e+00,1.020421266555786133e+00,1.020368099212646484e+00,1.020314931869506836e+00,1.020261645317077637e+00,1.020208477973937988e+00,1.020155191421508789e+00,1.020102024078369141e+00,1.020048856735229492e+00,1.019995689392089844e+00,1.019942522048950195e+00,1.019889354705810547e+00,1.019836187362670898e+00,1.019783020019531250e+00,1.019729852676391602e+00,1.019676685333251953e+00,6.865782737731933594e-01,6.799199581146240234e-01,6.728379726409912109e-01,6.659551858901977539e-01,6.600073575973510742e-01,6.604394316673278809e-01,6.632358431816101074e-01,6.665954589843750000e-01,6.742261052131652832e-01,1.019145607948303223e+00,1.019092559814453125e+00,1.019039392471313477e+00,1.018986344337463379e+00,1.018933296203613281e+00,1.018880248069763184e+00,1.018827199935913086e+00,1.018774151802062988e+00,1.018721103668212891e+00,1.018668055534362793e+00,1.018615007400512695e+00,1.018561959266662598e+00,1.018508911132812500e+00,1.018455862998962402e+00,1.018402934074401855e+00,1.018349885940551758e+00,1.018296957015991211e+00,1.018243908882141113e+00,1.018190860748291016e+00,1.018137931823730469e+00,1.018085002899169922e+00,1.018031954765319824e+00,1.017979025840759277e+00,1.017925977706909180e+00,1.017873048782348633e+00,1.017820119857788086e+00,1.017767190933227539e+00,1.017714262008666992e+00,1.017661333084106445e+00,1.017608404159545898e+00,1.017555475234985352e+00,1.017502546310424805e+00,1.017449617385864258e+00,1.017396688461303711e+00,1.017343878746032715e+00,1.017290949821472168e+00,1.017238020896911621e+00,1.017185091972351074e+00,1.017132282257080078e+00,1.017079353332519531e+00,1.017026424407958984e+00,1.016973614692687988e+00,1.016920685768127441e+00,1.016867876052856445e+00
9.625315070152282715e-01,9.624841213226318359e-01,9.624367356300354004e-01,9.623894691467285156e-01,9.623420834541320801e-01,9.622946977615356445e-01,9.622473716735839844e-01,9.622001647949218750e-01,9.621527791023254395e-01,9.621054530143737793e-01,9.620581269264221191e-01,9.620109200477600098e-01,9.619635939598083496e-01,9.619162678718566895e-01,9.618689417839050293e-01,9.618217349052429199e-01,9.617744088172912598e-01,9.617271423339843750e-01,9.616798162460327148e-01,9.616326689720153809e-01,9.615853428840637207e-01,9.615380764007568359e-01,9.614908099174499512e-01,9.614436030387878418e-01,9.613963365554809570e-01,9.613490700721740723e-01,6.894689798355102539e-01,6.807733178138732910e-01,6.750429272651672363e-01,6.697472333908081055e-01,6.636406779289245605e-01,6.585247516632080078e-01,6.569826006889343262e-01,6.599372029304504395e-01,6.599747538566589355e-01,6.650735735893249512e-01,6.754283308982849121e-01,9.607825875282287598e-01,9.607353806495666504e-01,9.606881737709045410e-01,9.606410861015319824e-01,9.605939388275146484e-01,9.605467319488525391e-01,9.604995250701904297e-01,9.604524970054626465e-01,9.604052901268005371e-01,9.603581428527832031e-01,9.603109359741210938e-01,9.602639079093933105e-01,9.602167606353759766e-01,9.601696133613586426e-01,9.601224660873413086e-01,9.600754380226135254e-01,9.600282907485961914e-01,9.599811434745788574e-01,9.599340558052062988e-01,9.598870277404785156e-01,9.598398804664611816e-01,9.597927927970886230e-01,9.597457051277160645e-01,9.596986770629882812e-01,9.596515893936157227e-01,9.596045017242431641e-01,9.595574140548706055e-01,9.595103263854980469e-01,9.594633579254150391e-01,9.594162702560424805e-01,9.593691825866699219e-01,9.593220949172973633e-01,9.592751860618591309e-01,9.592280983924865723e-01,9.591810703277587891e-01,9.591339826583862305e-01,9.590870738029479980e-01,9.590400457382202148e-01,9.589930176734924316e-01,9.589459896087646484e-01,9.588990807533264160e-01,9.588520526885986328e-01,9.588050246238708496e-01
9.103487730026245117e-01,9.103063941001892090e-01,9.102640151977539062e-01,9.102217555046081543e-01,9.101793766021728516e-01,9.101369976997375488e-01,9.100946187973022461e-01,9.100523591041564941e-01,9.100100398063659668e-01,9.099676609039306641e-01,9.099253416061401367e-01,9.098830819129943848e-01,9.098407626152038574e-01,9.097984433174133301e-01,9.097560644149780273e-01,9.097138643264770508e-01,9.096715450286865234e-01,9.096292257308959961e-01,9.095869064331054688e-01,9.095445871353149414e-01,9.095023870468139648e-01,9.094600677490234375e-01,9.094178080558776855e-01,9.093754887580871582e-01,9.093332886695861816e-01,9.092910289764404297e-01,6.816477179527282715e-01,6.766600012779235840e-01,6.720681190490722656e-01,6.663664579391479492e-01,6.624547839164733887e-01,6.574543714523315430e-01,6.535617709159851074e-01,6.542732715606689453e-01,6.532821655273437500e-01,6.535366773605346680e-01,6.575735211372375488e-01,6.715706586837768555e-01,9.087419509887695312e-01,9.086997509002685547e-01,9.086576104164123535e-01,9.086154103279113770e-01,9.085731506347656250e-01,9.085309505462646484e-01,9.084888696670532227e-01,9.084466099739074707e-01,9.084044098854064941e-01,9.083622097969055176e-01,9.083200097084045410e-01,9.082779288291931152e-01,9.082357287406921387e-01,9.081935882568359375e-01,9.081513881683349609e-01,9.081093072891235352e-01,9.080671668052673340e-01,9.080249667167663574e-01,9.079828262329101562e-01,9.079407453536987305e-01,9.078986048698425293e-01,9.078564643859863281e-01,9.078143239021301270e-01,9.077722430229187012e-01,9.077301025390625000e-01,9.076879620552062988e-01,9.076458215713500977e-01,9.076038002967834473e-01,9.075616598129272461e-01,9.075195789337158203e-01,9.074774384498596191e-01,9.074354171752929688e-01,9.073933362960815430e-01,9.073511958122253418e-01,9.073091149330139160e-01,9.072670936584472656e-01,9.072250127792358398e-01,9.071829319000244141e-01,9.071408510208129883e-01,9.070987701416015625e-01,9.070568084716796875e-01,9.070147275924682617e-01
