8.820461630821228027e-01,8.814991116523742676e-01,8.800575137138366699e-01,8.786207437515258789e-01,8.771886825561523438e-01,8.835086226463317871e-01,8.929542899131774902e-01,9.026041626930236816e-01,9.130275845527648926e-01,9.240978956222534180e-01,9.496649503707885742e-01,2.029311418533325195e+00,2.029311895370483398e+00,1.235858559608459473e+00,1.248337626457214355e+00,1.251313209533691406e+00,1.021264433860778809e+00,1.016208052635192871e+00,1.011201262474060059e+00,1.008599758148193359e+00,1.012981176376342773e+00,1.017400860786437988e+00,1.023073315620422363e+00,1.042137980461120605e+00,1.069699883460998535e+00,2.029317855834960938e+00,2.029318332672119141e+00,2.029318809509277344e+00,2.029319286346435547e+00,2.029319763183593750e+00,2.029320240020751953e+00,2.029320716857910156e+00,2.029321193695068359e+00,2.029321670532226562e+00,2.029322147369384766e+00,2.029322624206542969e+00,2.029323101043701172e+00,2.029323577880859375e+00,2.029324054718017578e+00,2.029324293136596680e+00,2.029325008392333984e+00,2.029325485229492188e+00,2.029325962066650391e+00,2.029326438903808594e+00,2.029326677322387695e+00,2.029327154159545898e+00,2.029327630996704102e+00,2.029328107833862305e+00,2.029328823089599609e+00,2.029329061508178711e+00,2.029329538345336914e+00,2.029330015182495117e+00,2.029330492019653320e+00,2.029330968856811523e+00,2.029331445693969727e+00,2.029331922531127930e+00,2.029332399368286133e+00,2.029332876205444336e+00,2.029333353042602539e+00,2.029333829879760742e+00,2.029334306716918945e+00,2.029334783554077148e+00,2.029335260391235352e+00,2.029335498809814453e+00,2.029335975646972656e+00,2.029336452484130859e+00,2.029337167739868164e+00,2.029337644577026367e+00,2.029337882995605469e+00,2.029338359832763672e+00,2.029338836669921875e+00,2.029339313507080078e+00,2.029339790344238281e+00,2.029340267181396484e+00,2.029340744018554688e+00,2.029341220855712891e+00,2.029341697692871094e+00,2.029342174530029297e+00,2.029342651367187500e+00,2.029343128204345703e+00
8.834597468376159668e-01,8.818743228912353516e-01,8.801290988922119141e-01,8.785821199417114258e-01,8.816668987274169922e-01,8.910729289054870605e-01,9.006820321083068848e-01,9.105005264282226562e-01,9.212343692779541016e-01,9.431555867195129395e-01,2.029298067092895508e+00,2.029298543930053711e+00,2.029299020767211914e+00,1.243250608444213867e+00,2.029299974441528320e+00,1.258800387382507324e+00,1.021311759948730469e+00,1.014837741851806641e+00,1.009844541549682617e+00,1.007696390151977539e+00,1.012069940567016602e+00,1.016764044761657715e+00,1.023983716964721680e+00,1.041318535804748535e+00,1.068836569786071777e+00,2.029305219650268555e+00,2.029305696487426758e+00,2.029306173324584961e+00,2.029306650161743164e+00,2.029306888580322266e+00,2.029307365417480469e+00,2.029308080673217773e+00,2.029308557510375977e+00,2.029309034347534180e+00,2.029309272766113281e+00,2.029309749603271484e+00,2.029310226440429688e+00,2.029310703277587891e+00,2.029311180114746094e+00,2.029311656951904297e+00,2.029312133789062500e+00,2.029312610626220703e+00,2.029313087463378906e+00,2.029313564300537109e+00,2.029314041137695312e+00,2.029314517974853516e+00,2.029314994812011719e+00,2.029315471649169922e+00,2.029315710067749023e+00,2.029316425323486328e+00,2.029316902160644531e+00,2.029317378997802734e+00,2.029317855834960938e+00,2.029318094253540039e+00,2.029318571090698242e+00,2.029319047927856445e+00,2.029319524765014648e+00,2.029320001602172852e+00,2.029320478439331055e+00,2.029320955276489258e+00,2.029321432113647461e+00,2.029321908950805664e+00,2.029322385787963867e+00,2.029322862625122070e+00,2.029323339462280273e+00,2.029323816299438477e+00,2.029324293136596680e+00,2.029324769973754883e+00,2.029325246810913086e+00,2.029325723648071289e+00,2.029326200485229492e+00,2.029326677322387695e+00,2.029327154159545898e+00,2.029327392578125000e+00,2.029327869415283203e+00,2.029328346252441406e+00,2.029329061508178711e+00,2.029329538345336914e+00,2.029329776763916016e+00,2.029330253601074219e+00
8.849544525146484375e-01,8.832722306251525879e-01,8.826256990432739258e-01,8.819802403450012207e-01,8.883136510848999023e-01,8.983922004699707031e-01,9.085446596145629883e-01,9.185361862182617188e-01,9.380429983139038086e-01,2.029284954071044922e+00,2.029285430908203125e+00,2.029285907745361328e+00,2.029286384582519531e+00,2.029286623001098633e+00,1.258299350738525391e+00,2.029287815093994141e+00,1.022167086601257324e+00,1.013471245765686035e+00,1.008491396903991699e+00,1.006794571876525879e+00,1.011160373687744141e+00,1.017663240432739258e+00,1.024895668029785156e+00,1.040500521659851074e+00,1.068107724189758301e+00,2.029292345046997070e+00,2.029292821884155273e+00,2.029293298721313477e+00,2.029293775558471680e+00,2.029294252395629883e+00,2.029294729232788086e+00,2.029295206069946289e+00,2.029295682907104492e+00,2.029296159744262695e+00,2.029296636581420898e+00,2.029297113418579102e+00,2.029297590255737305e+00,2.029298067092895508e+00,2.029298305511474609e+00,2.029298782348632812e+00,2.029299259185791016e+00,2.029299974441528320e+00,2.029300451278686523e+00,2.029300689697265625e+00,2.029301166534423828e+00,2.029301643371582031e+00,2.029302120208740234e+00,2.029302597045898438e+00,2.029303073883056641e+00,2.029303550720214844e+00,2.029304027557373047e+00,2.029304504394531250e+00,2.029304981231689453e+00,2.029305458068847656e+00,2.029305934906005859e+00,2.029306411743164062e+00,2.029306888580322266e+00,2.029307365417480469e+00,2.029307603836059570e+00,2.029308319091796875e+00,2.029308795928955078e+00,2.029309272766113281e+00,2.029309511184692383e+00,2.029309988021850586e+00,2.029310464859008789e+00,2.029310941696166992e+00,2.029311418533325195e+00,2.029311895370483398e+00,2.029312372207641602e+00,2.029312849044799805e+00,2.029313325881958008e+00,2.029313802719116211e+00,2.029314279556274414e+00,2.029314756393432617e+00,2.029315233230590820e+00,2.029315710067749023e+00,2.029316186904907227e+00,2.029316663742065430e+00,2.029317140579223633e+00,2.029317617416381836e+00
8.828002214431762695e-01,8.828582167625427246e-01,8.829162716865539551e-01,8.837738633155822754e-01,8.913144469261169434e-01,9.044728279113769531e-01,9.146271347999572754e-01,9.330092668533325195e-01,9.737523794174194336e-01,2.029272079467773438e+00,2.029272556304931641e+00,2.029273033142089844e+00,2.029273509979248047e+00,2.029273986816406250e+00,2.029274463653564453e+00,2.029274940490722656e+00,1.023023843765258789e+00,1.014259219169616699e+00,1.007141947746276855e+00,1.005894541740417480e+00,1.011420369148254395e+00,1.018563985824584961e+00,1.025809407234191895e+00,1.039683818817138672e+00,1.069256424903869629e+00,2.029279708862304688e+00,2.029280185699462891e+00,2.029280662536621094e+00,2.029280900955200195e+00,2.029281377792358398e+00,2.029281854629516602e+00,2.029282331466674805e+00,2.029282808303833008e+00,2.029283285140991211e+00,2.029283761978149414e+00,2.029284238815307617e+00,2.029284715652465820e+00,2.029285192489624023e+00,2.029285669326782227e+00,2.029286146163940430e+00,2.029286623001098633e+00,2.029287099838256836e+00,2.029287576675415039e+00,2.029288053512573242e+00,2.029288530349731445e+00,2.029289007186889648e+00,2.029289484024047852e+00,2.029289722442626953e+00,2.029290199279785156e+00,2.029290676116943359e+00,2.029291391372680664e+00,2.029291868209838867e+00,2.029292106628417969e+00,2.029292583465576172e+00,2.029293060302734375e+00,2.029293537139892578e+00,2.029294013977050781e+00,2.029294490814208984e+00,2.029294967651367188e+00,2.029295444488525391e+00,2.029295921325683594e+00,2.029296398162841797e+00,2.029296875000000000e+00,2.029297351837158203e+00,2.029297828674316406e+00,2.029298305511474609e+00,2.029298782348632812e+00,2.029299020767211914e+00,2.029299736022949219e+00,2.029300212860107422e+00,2.029300689697265625e+00,2.029301166534423828e+00,2.029301404953002930e+00,2.029301881790161133e+00,2.029302358627319336e+00,2.029302835464477539e+00,2.029303312301635742e+00,2.029303789138793945e+00,2.029304265975952148e+00,2.029304742813110352e+00
8.794411420822143555e-01,8.797223567962646484e-01,8.805679678916931152e-01,8.814151287078857422e-01,8.831152915954589844e-01,8.962484002113342285e-01,9.094840288162231445e-01,9.644460082054138184e-01,2.029258966445922852e+00,2.029259443283081055e+00,2.029259920120239258e+00,2.029260396957397461e+00,2.029260873794555664e+00,2.029261112213134766e+00,2.029261589050292969e+00,2.029262065887451172e+00,1.023882031440734863e+00,1.015102744102478027e+00,1.006472826004028320e+00,1.005253553390502930e+00,1.012310147285461426e+00,1.019466400146484375e+00,1.026724696159362793e+00,1.038868308067321777e+00,1.070407509803771973e+00,2.029266834259033203e+00,2.029267311096191406e+00,2.029267787933349609e+00,2.029268264770507812e+00,2.029268741607666016e+00,2.029269218444824219e+00,2.029269695281982422e+00,2.029269933700561523e+00,2.029270648956298828e+00,2.029271125793457031e+00,2.029271602630615234e+00,2.029272079467773438e+00,2.029272317886352539e+00,2.029272794723510742e+00,2.029273271560668945e+00,2.029273748397827148e+00,2.029274225234985352e+00,2.029274702072143555e+00,2.029275178909301758e+00,2.029275655746459961e+00,2.029276132583618164e+00,2.029276609420776367e+00,2.029277086257934570e+00,2.029277563095092773e+00,2.029278039932250977e+00,2.029278516769409180e+00,2.029278993606567383e+00,2.029279470443725586e+00,2.029279947280883789e+00,2.029280424118041992e+00,2.029280900955200195e+00,2.029281377792358398e+00,2.029281616210937500e+00,2.029282093048095703e+00,2.029282569885253906e+00,2.029283285140991211e+00,2.029283761978149414e+00,2.029284000396728516e+00,2.029284477233886719e+00,2.029284954071044922e+00,2.029285430908203125e+00,2.029285907745361328e+00,2.029286384582519531e+00,2.029286861419677734e+00,2.029287338256835938e+00,2.029287815093994141e+00,2.029288291931152344e+00,2.029288768768310547e+00,2.029289245605468750e+00,2.029289722442626953e+00,2.029290199279785156e+00,2.029290437698364258e+00,2.029290914535522461e+00,2.029291629791259766e+00,2.029292106628417969e+00
8.780030608177185059e-01,8.760413527488708496e-01,8.768798708915710449e-01,8.777199387550354004e-01,8.798654675483703613e-01,8.894941806793212891e-01,9.028888344764709473e-01,9.162291288375854492e-01,2.029246091842651367e+00,2.029246568679809570e+00,2.029247045516967773e+00,2.029247522354125977e+00,2.029247999191284180e+00,2.029248476028442383e+00,2.029248952865600586e+00,2.029249429702758789e+00,1.024741649627685547e+00,1.015947699546813965e+00,1.006932377815246582e+00,1.005730390548706055e+00,1.013026237487792969e+00,1.020370364189147949e+00,1.027641654014587402e+00,1.038054108619689941e+00,1.071561217308044434e+00,2.029254198074340820e+00,2.029254674911499023e+00,2.029254913330078125e+00,2.029255390167236328e+00,2.029255867004394531e+00,2.029256343841552734e+00,2.029256820678710938e+00,2.029257297515869141e+00,2.029257774353027344e+00,2.029258251190185547e+00,2.029258728027343750e+00,2.029259204864501953e+00,2.029259681701660156e+00,2.029260158538818359e+00,2.029260635375976562e+00,2.029261112213134766e+00,2.029261350631713867e+00,2.029261827468872070e+00,2.029262542724609375e+00,2.029263019561767578e+00,2.029263496398925781e+00,2.029263734817504883e+00,2.029264211654663086e+00,2.029264688491821289e+00,2.029265165328979492e+00,2.029265642166137695e+00,2.029266119003295898e+00,2.029266595840454102e+00,2.029267072677612305e+00,2.029267549514770508e+00,2.029268026351928711e+00,2.029268503189086914e+00,2.029268980026245117e+00,2.029269456863403320e+00,2.029269933700561523e+00,2.029270410537719727e+00,2.029270887374877930e+00,2.029271364212036133e+00,2.029271841049194336e+00,2.029272317886352539e+00,2.029272794723510742e+00,2.029273033142089844e+00,2.029273509979248047e+00,2.029273986816406250e+00,2.029274463653564453e+00,2.029275178909301758e+00,2.029275417327880859e+00,2.029275894165039062e+00,2.029276371002197266e+00,2.029276847839355469e+00,2.029277324676513672e+00,2.029277801513671875e+00,2.029278278350830078e+00,2.029278755187988281e+00,2.029279232025146484e+00
8.765695691108703613e-01,8.730694055557250977e-01,8.732224106788635254e-01,8.740555047988891602e-01,8.766394257545471191e-01,8.812528848648071289e-01,8.960580229759216309e-01,9.096284508705139160e-01,2.029233455657958984e+00,2.029233932495117188e+00,2.029234409332275391e+00,2.029234886169433594e+00,2.029235124588012695e+00,2.029235601425170898e+00,2.029236078262329102e+00,2.029236555099487305e+00,1.025163292884826660e+00,1.015394568443298340e+00,1.005830883979797363e+00,1.005364298820495605e+00,1.012453675270080566e+00,1.019643783569335938e+00,1.026936650276184082e+00,1.038742423057556152e+00,1.072073221206665039e+00,2.029241323471069336e+00,2.029241800308227539e+00,2.029242277145385742e+00,2.029242753982543945e+00,2.029243230819702148e+00,2.029243707656860352e+00,2.029243946075439453e+00,2.029244422912597656e+00,2.029244899749755859e+00,2.029245376586914062e+00,2.029246091842651367e+00,2.029246330261230469e+00,2.029246807098388672e+00,2.029247283935546875e+00,2.029247760772705078e+00,2.029248237609863281e+00,2.029248714447021484e+00,2.029249191284179688e+00,2.029249668121337891e+00,2.029250144958496094e+00,2.029250621795654297e+00,2.029251098632812500e+00,2.029251575469970703e+00,2.029252052307128906e+00,2.029252529144287109e+00,2.029253005981445312e+00,2.029253244400024414e+00,2.029253721237182617e+00,2.029254436492919922e+00,2.029254913330078125e+00,2.029255390167236328e+00,2.029255628585815430e+00,2.029256105422973633e+00,2.029256582260131836e+00,2.029257059097290039e+00,2.029257535934448242e+00,2.029258012771606445e+00,2.029258489608764648e+00,2.029258966445922852e+00,2.029259443283081055e+00,2.029259920120239258e+00,2.029260396957397461e+00,2.029260873794555664e+00,2.029261350631713867e+00,2.029261827468872070e+00,2.029262065887451172e+00,2.029262781143188477e+00,2.029263257980346680e+00,2.029263734817504883e+00,2.029264211654663086e+00,2.029264450073242188e+00,2.029264926910400391e+00,2.029265403747558594e+00,2.029265880584716797e+00,2.029266595840454102e+00
8.789668083190917969e-01,8.716520667076110840e-01,8.695954084396362305e-01,8.704215884208679199e-01,8.734368681907653809e-01,8.780165910720825195e-01,8.872200846672058105e-01,9.027194976806640625e-01,9.164693951606750488e-01,2.029221057891845703e+00,2.029221534729003906e+00,2.029222011566162109e+00,2.029222488403320312e+00,2.029222965240478516e+00,2.029223442077636719e+00,2.029223918914794922e+00,1.025915861129760742e+00,1.016623020172119141e+00,1.009179949760437012e+00,1.001845121383666992e+00,1.008920550346374512e+00,1.016020178794860840e+00,1.022995114326477051e+00,1.030066370964050293e+00,1.062969088554382324e+00,2.029228448867797852e+00,2.029228925704956055e+00,2.029229402542114258e+00,2.029229879379272461e+00,2.029230356216430664e+00,2.029230833053588867e+00,2.029231309890747070e+00,2.029231786727905273e+00,2.029232263565063477e+00,2.029232740402221680e+00,2.029233217239379883e+00,2.029233694076538086e+00,2.029234170913696289e+00,2.029234647750854492e+00,2.029235124588012695e+00,2.029235601425170898e+00,2.029235839843750000e+00,2.029236316680908203e+00,2.029236793518066406e+00,2.029237508773803711e+00,2.029237747192382812e+00,2.029238224029541016e+00,2.029238700866699219e+00,2.029239177703857422e+00,2.029239654541015625e+00,2.029240131378173828e+00,2.029240608215332031e+00,2.029241085052490234e+00,2.029241561889648438e+00,2.029242038726806641e+00,2.029242515563964844e+00,2.029242992401123047e+00,2.029243469238281250e+00,2.029243946075439453e+00,2.029244422912597656e+00,2.029244661331176758e+00,2.029245138168334961e+00,2.029245853424072266e+00,2.029246330261230469e+00,2.029246807098388672e+00,2.029247045516967773e+00,2.029247522354125977e+00,2.029247999191284180e+00,2.029248476028442383e+00,2.029248952865600586e+00,2.029249429702758789e+00,2.029249906539916992e+00,2.029250383377075195e+00,2.029250860214233398e+00,2.029251337051391602e+00,2.029251813888549805e+00,2.029252290725708008e+00,2.029252767562866211e+00,2.029253244400024414e+00,2.029253721237182617e+00
8.816790580749511719e-01,8.732461929321289062e-01,8.667894601821899414e-01,8.668177127838134766e-01,8.702577948570251465e-01,8.748040795326232910e-01,8.793981671333312988e-01,8.937504291534423828e-01,9.094807505607604980e-01,2.029208421707153320e+00,2.029208898544311523e+00,2.029209136962890625e+00,2.029209613800048828e+00,2.029210090637207031e+00,2.029210567474365234e+00,2.029211044311523438e+00,1.030181407928466797e+00,1.020231246948242188e+00,1.012602925300598145e+00,1.006660819053649902e+00,1.003505229949951172e+00,1.010300397872924805e+00,1.017188191413879395e+00,1.024170398712158203e+00,1.033141493797302246e+00,1.074815511703491211e+00,2.029216051101684570e+00,2.029216766357421875e+00,2.029217243194580078e+00,2.029217720031738281e+00,2.029217958450317383e+00,2.029218435287475586e+00,2.029218912124633789e+00,2.029219388961791992e+00,2.029219865798950195e+00,2.029220342636108398e+00,2.029220819473266602e+00,2.029221296310424805e+00,2.029221773147583008e+00,2.029222249984741211e+00,2.029222726821899414e+00,2.029223203659057617e+00,2.029223680496215820e+00,2.029224157333374023e+00,2.029224634170532227e+00,2.029225111007690430e+00,2.029225587844848633e+00,2.029226064682006836e+00,2.029226541519165039e+00,2.029227018356323242e+00,2.029227256774902344e+00,2.029227733612060547e+00,2.029228210449218750e+00,2.029228925704956055e+00,2.029229402542114258e+00,2.029229640960693359e+00,2.029230117797851562e+00,2.029230594635009766e+00,2.029231071472167969e+00,2.029231548309326172e+00,2.029232025146484375e+00,2.029232501983642578e+00,2.029232978820800781e+00,2.029233455657958984e+00,2.029233932495117188e+00,2.029234409332275391e+00,2.029234886169433594e+00,2.029235363006591797e+00,2.029235839843750000e+00,2.029236316680908203e+00,2.029236555099487305e+00,2.029237031936645508e+00,2.029237747192382812e+00,2.029238224029541016e+00,2.029238462448120117e+00,2.029238939285278320e+00,2.029239416122436523e+00,2.029239892959594727e+00,2.029240369796752930e+00,2.029240846633911133e+00
9.065155386924743652e-01,8.759231567382812500e-01,8.675995469093322754e-01,8.632435798645019531e-01,8.671017289161682129e-01,8.716150522232055664e-01,8.761755228042602539e-01,8.849576711654663086e-01,9.003774523735046387e-01,9.163439869880676270e-01,2.029196023941040039e+00,2.029196500778198242e+00,2.029196977615356445e+00,2.029197454452514648e+00,2.029197931289672852e+00,2.029198169708251953e+00,2.029198646545410156e+00,1.024251222610473633e+00,1.018216967582702637e+00,1.012253403663635254e+00,1.006359338760375977e+00,1.004485249519348145e+00,1.011293649673461914e+00,1.018195033073425293e+00,1.024890542030334473e+00,1.044933438301086426e+00,2.029203414916992188e+00,2.029203891754150391e+00,2.029204368591308594e+00,2.029204845428466797e+00,2.029205322265625000e+00,2.029205799102783203e+00,2.029206275939941406e+00,2.029206752777099609e+00,2.029207229614257812e+00,2.029207468032836914e+00,2.029208183288574219e+00,2.029208660125732422e+00,2.029209136962890625e+00,2.029209613800048828e+00,2.029209852218627930e+00,2.029210329055786133e+00,2.029210805892944336e+00,2.029211282730102539e+00,2.029211759567260742e+00,2.029212236404418945e+00,2.029212713241577148e+00,2.029213190078735352e+00,2.029213666915893555e+00,2.029214143753051758e+00,2.029214620590209961e+00,2.029215097427368164e+00,2.029215574264526367e+00,2.029216051101684570e+00,2.029216527938842773e+00,2.029217004776000977e+00,2.029217481613159180e+00,2.029217958450317383e+00,2.029218435287475586e+00,2.029218673706054688e+00,2.029219150543212891e+00,2.029219627380371094e+00,2.029220104217529297e+00,2.029220819473266602e+00,2.029221057891845703e+00,2.029221534729003906e+00,2.029222011566162109e+00,2.029222488403320312e+00,2.029222965240478516e+00,2.029223442077636719e+00,2.029223918914794922e+00,2.029224395751953125e+00,2.029224872589111328e+00,2.029225349426269531e+00,2.029225826263427734e+00,2.029226303100585938e+00,2.029226779937744141e+00,2.029227256774902344e+00,2.029227733612060547e+00,2.029227972030639648e+00
2.029178380966186523e+00,8.786164522171020508e-01,8.702246546745300293e-01,8.619518280029296875e-01,8.652409911155700684e-01,8.703277707099914551e-01,8.754747509956359863e-01,8.823522329330444336e-01,8.970989584922790527e-01,9.123603105545043945e-01,2.029183149337768555e+00,2.029183626174926758e+00,2.029184103012084961e+00,2.029184579849243164e+00,2.029185056686401367e+00,2.029185533523559570e+00,2.029186010360717773e+00,2.029186487197875977e+00,1.022158861160278320e+00,1.017849326133728027e+00,1.011948466300964355e+00,1.006057977676391602e+00,1.005467057228088379e+00,1.012288928031921387e+00,1.018923401832580566e+00,1.025317430496215820e+00,1.058167219161987305e+00,2.029191017150878906e+00,2.029191732406616211e+00,2.029191970825195312e+00,2.029192447662353516e+00,2.029192924499511719e+00,2.029193401336669922e+00,2.029193878173828125e+00,2.029194355010986328e+00,2.029194831848144531e+00,2.029195308685302734e+00,2.029195785522460938e+00,2.029196262359619141e+00,2.029196739196777344e+00,2.029197216033935547e+00,2.029197692871093750e+00,2.029198169708251953e+00,2.029198646545410156e+00,2.029198884963989258e+00,2.029199361801147461e+00,2.029200077056884766e+00,2.029200553894042969e+00,2.029201030731201172e+00,2.029201269149780273e+00,2.029201745986938477e+00,2.029202222824096680e+00,2.029202699661254883e+00,2.029203176498413086e+00,2.029203653335571289e+00,2.029204130172729492e+00,2.029204607009887695e+00,2.029205083847045898e+00,2.029205560684204102e+00,2.029206037521362305e+00,2.029206514358520508e+00,2.029206991195678711e+00,2.029207468032836914e+00,2.029207944869995117e+00,2.029208421707153320e+00,2.029208898544311523e+00,2.029209375381469727e+00,2.029209852218627930e+00,2.029210329055786133e+00,2.029210567474365234e+00,2.029211044311523438e+00,2.029211521148681641e+00,2.029211997985839844e+00,2.029212713241577148e+00,2.029212951660156250e+00,2.029213428497314453e+00,2.029213905334472656e+00,2.029214382171630859e+00,2.029214859008789062e+00,2.029215335845947266e+00
2.029165744781494141e+00,8.811721205711364746e-01,8.725818991661071777e-01,8.642644286155700684e-01,8.648729324340820312e-01,8.699553608894348145e-01,8.750979304313659668e-01,8.799597620964050293e-01,8.945634961128234863e-01,9.097380638122558594e-01,9.617126584053039551e-01,2.029170989990234375e+00,2.029171466827392578e+00,2.029171943664550781e+00,2.029172182083129883e+00,2.029172658920288086e+00,2.029173135757446289e+00,2.029173612594604492e+00,1.048480749130249023e+00,1.020074605941772461e+00,1.015782594680786133e+00,1.011526465415954590e+00,1.005756855010986328e+00,1.006450891494750977e+00,1.013025283813476562e+00,1.019345283508300781e+00,1.028084874153137207e+00,2.029178380966186523e+00,2.029178857803344727e+00,2.029179334640502930e+00,2.029179811477661133e+00,2.029180288314819336e+00,2.029180765151977539e+00,2.029181241989135742e+00,2.029181480407714844e+00,2.029181957244873047e+00,2.029182434082031250e+00,2.029183149337768555e+00,2.029183626174926758e+00,2.029183864593505859e+00,2.029184341430664062e+00,2.029184818267822266e+00,2.029185295104980469e+00,2.029185771942138672e+00,2.029186248779296875e+00,2.029186725616455078e+00,2.029187202453613281e+00,2.029187679290771484e+00,2.029188156127929688e+00,2.029188632965087891e+00,2.029189109802246094e+00,2.029189586639404297e+00,2.029190063476562500e+00,2.029190301895141602e+00,2.029190778732299805e+00,2.029191493988037109e+00,2.029191970825195312e+00,2.029192447662353516e+00,2.029192686080932617e+00,2.029193162918090820e+00,2.029193639755249023e+00,2.029194116592407227e+00,2.029194593429565430e+00,2.029195070266723633e+00,2.029195547103881836e+00,2.029196023941040039e+00,2.029196500778198242e+00,2.029196977615356445e+00,2.029197454452514648e+00,2.029197931289672852e+00,2.029198408126831055e+00,2.029198884963989258e+00,2.029199361801147461e+00,2.029199838638305664e+00,2.029200315475463867e+00,2.029200792312622070e+00,2.029201269149780273e+00,2.029201745986938477e+00,2.029201984405517578e+00,2.029202461242675781e+00
2.029152870178222656e+00,8.857721686363220215e-01,8.749520182609558105e-01,8.665894269943237305e-01,8.645051717758178711e-01,8.695833086967468262e-01,8.747214674949645996e-01,8.787363767623901367e-01,8.920562267303466797e-01,9.071308374404907227e-01,9.529590010643005371e-01,2.029158115386962891e+00,2.029158592224121094e+00,2.029159069061279297e+00,2.029159545898437500e+00,2.029160022735595703e+00,2.029160499572753906e+00,2.029160976409912109e+00,2.029161453247070312e+00,1.041005730628967285e+00,1.017998814582824707e+00,1.013724207878112793e+00,1.009485363960266113e+00,1.005281686782836914e+00,1.007195115089416504e+00,1.013632655143737793e+00,1.020620703697204590e+00,1.046388983726501465e+00,2.029165983200073242e+00,2.029166460037231445e+00,2.029166936874389648e+00,2.029167413711547852e+00,2.029167890548706055e+00,2.029168367385864258e+00,2.029168844223022461e+00,2.029169321060180664e+00,2.029169797897338867e+00,2.029170274734497070e+00,2.029170751571655273e+00,2.029171228408813477e+00,2.029171705245971680e+00,2.029172182083129883e+00,2.029172658920288086e+00,2.029172897338867188e+00,2.029173374176025391e+00,2.029173851013183594e+00,2.029174327850341797e+00,2.029175043106079102e+00,2.029175281524658203e+00,2.029175758361816406e+00,2.029176235198974609e+00,2.029176712036132812e+00,2.029177188873291016e+00,2.029177665710449219e+00,2.029178142547607422e+00,2.029178619384765625e+00,2.029179096221923828e+00,2.029179573059082031e+00,2.029180049896240234e+00,2.029180526733398438e+00,2.029181003570556641e+00,2.029181480407714844e+00,2.029181957244873047e+00,2.029182195663452148e+00,2.029182672500610352e+00,2.029183387756347656e+00,2.029183864593505859e+00,2.029184341430664062e+00,2.029184579849243164e+00,2.029185056686401367e+00,2.029185533523559570e+00,2.029186010360717773e+00,2.029186487197875977e+00,2.029186964035034180e+00,2.029187440872192383e+00,2.029187917709350586e+00,2.029188394546508789e+00,2.029188871383666992e+00,2.029189348220825195e+00,2.029189825057983398e+00
2.029140233993530273e+00,9.020041823387145996e-01,8.774139285087585449e-01,8.689270019531250000e-01,8.641378283500671387e-01,8.692116141319274902e-01,8.742455840110778809e-01,8.781395554542541504e-01,8.896109461784362793e-01,9.045385122299194336e-01,9.200562238693237305e-01,2.029145479202270508e+00,2.029145956039428711e+00,2.029146194458007812e+00,2.029146671295166016e+00,2.029147148132324219e+00,2.029147624969482422e+00,2.029148101806640625e+00,2.029148578643798828e+00,2.029149055480957031e+00,1.040033817291259766e+00,1.015775680541992188e+00,1.010751366615295410e+00,1.005792975425720215e+00,1.003903985023498535e+00,1.010758042335510254e+00,1.017706394195556641e+00,1.035226345062255859e+00,2.029153108596801758e+00,2.029153585433959961e+00,2.029154300689697266e+00,2.029154777526855469e+00,2.029155254364013672e+00,2.029155492782592773e+00,2.029155969619750977e+00,2.029156446456909180e+00,2.029156923294067383e+00,2.029157400131225586e+00,2.029157876968383789e+00,2.029158353805541992e+00,2.029158830642700195e+00,2.029159307479858398e+00,2.029159784317016602e+00,2.029160261154174805e+00,2.029160737991333008e+00,2.029161214828491211e+00,2.029161691665649414e+00,2.029162168502807617e+00,2.029162645339965820e+00,2.029163122177124023e+00,2.029163599014282227e+00,2.029164075851440430e+00,2.029164552688598633e+00,2.029164791107177734e+00,2.029165267944335938e+00,2.029165744781494141e+00,2.029166460037231445e+00,2.029166698455810547e+00,2.029167175292968750e+00,2.029167652130126953e+00,2.029168128967285156e+00,2.029168605804443359e+00,2.029169082641601562e+00,2.029169559478759766e+00,2.029170036315917969e+00,2.029170513153076172e+00,2.029170989990234375e+00,2.029171466827392578e+00,2.029171943664550781e+00,2.029172420501708984e+00,2.029172897338867188e+00,2.029173374176025391e+00,2.029173612594604492e+00,2.029174089431762695e+00,2.029174804687500000e+00,2.029175281524658203e+00,2.029175758361816406e+00,2.029175996780395508e+00,2.029176473617553711e+00,2.029176950454711914e+00
2.029127359390258789e+00,2.029127836227416992e+00,8.800960779190063477e-01,8.712772727012634277e-01,8.637706637382507324e-01,8.688401579856872559e-01,8.736548423767089844e-01,8.775436282157897949e-01,8.871790766716003418e-01,9.019761085510253906e-01,9.173896312713623047e-01,2.029132604598999023e+00,2.029133081436157227e+00,2.029133558273315430e+00,2.029134035110473633e+00,2.029134511947631836e+00,2.029134988784790039e+00,2.029135465621948242e+00,2.029135704040527344e+00,2.029136180877685547e+00,2.029136657714843750e+00,1.027677297592163086e+00,1.010141491889953613e+00,1.005189180374145508e+00,1.001084208488464355e+00,1.007899641990661621e+00,1.014742255210876465e+00,1.024299383163452148e+00,1.060738325119018555e+00,2.029140949249267578e+00,2.029141426086425781e+00,2.029141902923583984e+00,2.029142379760742188e+00,2.029142856597900391e+00,2.029143333435058594e+00,2.029143810272216797e+00,2.029144287109375000e+00,2.029144525527954102e+00,2.029145002365112305e+00,2.029145717620849609e+00,2.029146194458007812e+00,2.029146671295166016e+00,2.029146909713745117e+00,2.029147386550903320e+00,2.029147863388061523e+00,2.029148340225219727e+00,2.029148817062377930e+00,2.029149293899536133e+00,2.029149770736694336e+00,2.029150247573852539e+00,2.029150724411010742e+00,2.029151201248168945e+00,2.029151678085327148e+00,2.029152154922485352e+00,2.029152631759643555e+00,2.029153108596801758e+00,2.029153585433959961e+00,2.029154062271118164e+00,2.029154539108276367e+00,2.029155015945434570e+00,2.029155492782592773e+00,2.029155969619750977e+00,2.029156208038330078e+00,2.029156684875488281e+00,2.029157161712646484e+00,2.029157638549804688e+00,2.029158353805541992e+00,2.029158592224121094e+00,2.029159069061279297e+00,2.029159545898437500e+00,2.029160022735595703e+00,2.029160499572753906e+00,2.029160976409912109e+00,2.029161453247070312e+00,2.029161930084228516e+00,2.029162406921386719e+00,2.029162883758544922e+00,2.029163360595703125e+00,2.029163837432861328e+00,2.029164314270019531e+00
2.029114723205566406e+00,2.029115200042724609e+00,8.827944993972778320e-01,8.736876845359802246e-01,8.653025627136230469e-01,8.684690594673156738e-01,8.730649948120117188e-01,8.769484162330627441e-01,8.847604990005493164e-01,8.994762301445007324e-01,9.147384762763977051e-01,2.029119729995727539e+00,2.029120206832885742e+00,2.029120683670043945e+00,2.029121160507202148e+00,2.029121637344360352e+00,2.029122114181518555e+00,2.029122591018676758e+00,2.029123067855834961e+00,2.029123544692993164e+00,2.029124021530151367e+00,1.040153980255126953e+00,1.009943485260009766e+00,1.004585981369018555e+00,9.996877908706665039e-01,1.005057454109191895e+00,1.011729598045349121e+00,1.017994165420532227e+00,1.050455212593078613e+00,2.029128074645996094e+00,2.029128789901733398e+00,2.029129266738891602e+00,2.029129505157470703e+00,2.029129981994628906e+00,2.029130458831787109e+00,2.029130935668945312e+00,2.029131412506103516e+00,2.029131889343261719e+00,2.029132366180419922e+00,2.029132843017578125e+00,2.029133319854736328e+00,2.029133796691894531e+00,2.029134273529052734e+00,2.029134750366210938e+00,2.029135227203369141e+00,2.029135704040527344e+00,2.029136180877685547e+00,2.029136419296264648e+00,2.029136896133422852e+00,2.029137611389160156e+00,2.029138088226318359e+00,2.029138565063476562e+00,2.029138803482055664e+00,2.029139280319213867e+00,2.029139757156372070e+00,2.029140233993530273e+00,2.029140710830688477e+00,2.029141187667846680e+00,2.029141664505004883e+00,2.029142141342163086e+00,2.029142618179321289e+00,2.029143095016479492e+00,2.029143571853637695e+00,2.029144048690795898e+00,2.029144525527954102e+00,2.029145002365112305e+00,2.029145479202270508e+00,2.029145956039428711e+00,2.029146432876586914e+00,2.029146909713745117e+00,2.029147386550903320e+00,2.029147624969482422e+00,2.029148101806640625e+00,2.029148578643798828e+00,2.029149055480957031e+00,2.029149770736694336e+00,2.029150009155273438e+00,2.029150485992431641e+00,2.029150962829589844e+00,2.029151439666748047e+00
2.029101848602294922e+00,2.029102325439453125e+00,8.855096697807312012e-01,8.763470053672790527e-01,8.676332831382751465e-01,8.680981993675231934e-01,8.724758028984069824e-01,8.763540387153625488e-01,8.823549747467041016e-01,8.969901204109191895e-01,9.121190309524536133e-01,2.029107093811035156e+00,2.029107332229614258e+00,2.029108047485351562e+00,2.029108524322509766e+00,2.029109001159667969e+00,2.029109477996826172e+00,2.029109716415405273e+00,2.029110193252563477e+00,2.029110670089721680e+00,2.029111146926879883e+00,1.052937388420104980e+00,1.010279059410095215e+00,1.003983378410339355e+00,9.990912675857543945e-01,1.002231001853942871e+00,1.008734822273254395e+00,1.014962196350097656e+00,1.040369510650634766e+00,2.029115438461303711e+00,2.029115915298461914e+00,2.029116392135620117e+00,2.029116868972778320e+00,2.029117345809936523e+00,2.029117822647094727e+00,2.029118299484252930e+00,2.029118537902832031e+00,2.029119014739990234e+00,2.029119491577148438e+00,2.029119968414306641e+00,2.029120683670043945e+00,2.029120922088623047e+00,2.029121398925781250e+00,2.029121875762939453e+00,2.029122352600097656e+00,2.029122829437255859e+00,2.029123306274414062e+00,2.029123783111572266e+00,2.029124259948730469e+00,2.029124736785888672e+00,2.029125213623046875e+00,2.029125690460205078e+00,2.029126167297363281e+00,2.029126644134521484e+00,2.029127120971679688e+00,2.029127597808837891e+00,2.029127836227416992e+00,2.029128313064575195e+00,2.029129028320312500e+00,2.029129505157470703e+00,2.029129981994628906e+00,2.029130220413208008e+00,2.029130697250366211e+00,2.029131174087524414e+00,2.029131650924682617e+00,2.029132127761840820e+00,2.029132604598999023e+00,2.029133081436157227e+00,2.029133558273315430e+00,2.029134035110473633e+00,2.029134511947631836e+00,2.029134988784790039e+00,2.029135465621948242e+00,2.029135942459106445e+00,2.029136419296264648e+00,2.029136896133422852e+00,2.029137372970581055e+00,2.029137849807739258e+00,2.029138326644897461e+00,2.029138803482055664e+00
2.029089212417602539e+00,2.029089689254760742e+00,8.882414698600769043e-01,8.790225982666015625e-01,8.699929714202880859e-01,8.677276968955993652e-01,8.718874454498291016e-01,8.757604956626892090e-01,8.799625635147094727e-01,8.945177793502807617e-01,9.095627665519714355e-01,2.029094219207763672e+00,2.029094696044921875e+00,2.029095172882080078e+00,2.029095649719238281e+00,2.029096126556396484e+00,2.029096603393554688e+00,2.029097080230712891e+00,2.029097557067871094e+00,2.029098033905029297e+00,2.029098510742187500e+00,2.029098749160766602e+00,1.013849377632141113e+00,1.004177689552307129e+00,9.984953403472900391e-01,9.994208216667175293e-01,1.005757808685302734e+00,1.011948347091674805e+00,1.030475735664367676e+00,1.053637981414794922e+00,2.029103040695190430e+00,2.029103517532348633e+00,2.029103994369506836e+00,2.029104471206665039e+00,2.029104948043823242e+00,2.029105424880981445e+00,2.029105901718139648e+00,2.029106378555297852e+00,2.029106855392456055e+00,2.029107332229614258e+00,2.029107809066772461e+00,2.029108285903930664e+00,2.029108762741088867e+00,2.029109239578247070e+00,2.029109716415405273e+00,2.029110193252563477e+00,2.029110431671142578e+00,2.029110908508300781e+00,2.029111385345458984e+00,2.029112100601196289e+00,2.029112577438354492e+00,2.029112815856933594e+00,2.029113292694091797e+00,2.029113769531250000e+00,2.029114246368408203e+00,2.029114723205566406e+00,2.029115200042724609e+00,2.029115676879882812e+00,2.029116153717041016e+00,2.029116630554199219e+00,2.029117107391357422e+00,2.029117584228515625e+00,2.029118061065673828e+00,2.029118537902832031e+00,2.029119014739990234e+00,2.029119253158569336e+00,2.029119729995727539e+00,2.029120445251464844e+00,2.029120922088623047e+00,2.029121398925781250e+00,2.029121637344360352e+00,2.029122114181518555e+00,2.029122591018676758e+00,2.029123067855834961e+00,2.029123544692993164e+00,2.029124021530151367e+00,2.029124498367309570e+00,2.029124975204467773e+00,2.029125452041625977e+00,2.029125928878784180e+00
2.029076337814331055e+00,2.029076814651489258e+00,8.932986259460449219e-01,8.817144632339477539e-01,8.726297616958618164e-01,8.673574328422546387e-01,8.712999224662780762e-01,8.751677870750427246e-01,8.792160749435424805e-01,8.920362591743469238e-01,9.069910049438476562e-01,2.029081344604492188e+00,2.029081821441650391e+00,2.029082298278808594e+00,2.029083013534545898e+00,2.029083490371704102e+00,2.029083728790283203e+00,2.029084205627441406e+00,2.029084682464599609e+00,2.029085159301757812e+00,2.029085636138916016e+00,2.029086112976074219e+00,1.027972936630249023e+00,1.004509568214416504e+00,9.981498122215270996e-01,9.966260790824890137e-01,1.002798318862915039e+00,1.008952379226684570e+00,1.020768284797668457e+00,1.043491363525390625e+00,2.029090404510498047e+00,2.029090642929077148e+00,2.029091358184814453e+00,2.029091835021972656e+00,2.029092311859130859e+00,2.029092788696289062e+00,2.029093027114868164e+00,2.029093503952026367e+00,2.029093980789184570e+00,2.029094457626342773e+00,2.029094934463500977e+00,2.029095411300659180e+00,2.029095888137817383e+00,2.029096364974975586e+00,2.029096841812133789e+00,2.029097318649291992e+00,2.029097795486450195e+00,2.029098272323608398e+00,2.029098749160766602e+00,2.029099225997924805e+00,2.029099702835083008e+00,2.029100179672241211e+00,2.029100656509399414e+00,2.029101133346557617e+00,2.029101610183715820e+00,2.029101848602294922e+00,2.029102325439453125e+00,2.029102802276611328e+00,2.029103279113769531e+00,2.029103994369506836e+00,2.029104232788085938e+00,2.029104709625244141e+00,2.029105186462402344e+00,2.029105663299560547e+00,2.029106140136718750e+00,2.029106616973876953e+00,2.029107093811035156e+00,2.029107570648193359e+00,2.029108047485351562e+00,2.029108524322509766e+00,2.029109001159667969e+00,2.029109477996826172e+00,2.029109954833984375e+00,2.029110431671142578e+00,2.029110908508300781e+00,2.029111146926879883e+00,2.029111623764038086e+00,2.029112339019775391e+00,2.029112815856933594e+00,2.029113292694091797e+00
2.029063701629638672e+00,2.029063940048217773e+00,8.999956250190734863e-01,8.845309019088745117e-01,8.753590583801269531e-01,8.669842481613159180e-01,8.711248636245727539e-01,8.753052353858947754e-01,8.794915676116943359e-01,8.895030617713928223e-01,9.043722748756408691e-01,9.210884571075439453e-01,2.029069185256958008e+00,2.029069662094116211e+00,2.029070138931274414e+00,2.029070615768432617e+00,2.029071092605590820e+00,2.029071569442749023e+00,2.029072046279907227e+00,2.029072523117065430e+00,2.029072761535644531e+00,2.029073238372802734e+00,1.042495489120483398e+00,1.004841685295104980e+00,9.984776377677917480e-01,9.938122034072875977e-01,9.998561739921569824e-01,1.005973935127258301e+00,1.012167215347290039e+00,1.033639788627624512e+00,2.029077529907226562e+00,2.029078006744384766e+00,2.029078483581542969e+00,2.029078960418701172e+00,2.029079437255859375e+00,2.029079914093017578e+00,2.029080390930175781e+00,2.029080867767333984e+00,2.029081344604492188e+00,2.029081821441650391e+00,2.029082059860229492e+00,2.029082775115966797e+00,2.029083251953125000e+00,2.029083728790283203e+00,2.029084205627441406e+00,2.029084444046020508e+00,2.029084920883178711e+00,2.029085397720336914e+00,2.029085874557495117e+00,2.029086351394653320e+00,2.029086828231811523e+00,2.029087305068969727e+00,2.029087781906127930e+00,2.029088258743286133e+00,2.029088735580444336e+00,2.029089212417602539e+00,2.029089689254760742e+00,2.029090166091918945e+00,2.029090642929077148e+00,2.029091119766235352e+00,2.029091596603393555e+00,2.029092073440551758e+00,2.029092550277709961e+00,2.029093027114868164e+00,2.029093503952026367e+00,2.029093742370605469e+00,2.029094219207763672e+00,2.029094696044921875e+00,2.029095411300659180e+00,2.029095649719238281e+00,2.029096126556396484e+00,2.029096603393554688e+00,2.029097080230712891e+00,2.029097557067871094e+00,2.029098033905029297e+00,2.029098510742187500e+00,2.029098987579345703e+00,2.029099464416503906e+00,2.029099941253662109e+00,2.029100418090820312e+00
2.029050827026367188e+00,2.029051303863525391e+00,2.029051780700683594e+00,8.878173828125000000e-01,8.785774707794189453e-01,8.695280551910400391e-01,8.714290261268615723e-01,8.756123185157775879e-01,8.797216415405273438e-01,8.869842290878295898e-01,9.017687439918518066e-01,9.183433055877685547e-01,2.029056310653686523e+00,2.029056787490844727e+00,2.029057264328002930e+00,2.029057741165161133e+00,2.029058218002319336e+00,2.029058694839477539e+00,2.029059171676635742e+00,2.029059648513793945e+00,2.029060125350952148e+00,2.029060602188110352e+00,2.029061079025268555e+00,1.005173921585083008e+00,9.993260502815246582e-01,9.935868978500366211e-01,9.971815347671508789e-01,1.003281831741333008e+00,1.009457468986511230e+00,1.025308370590209961e+00,2.029064655303955078e+00,2.029065132141113281e+00,2.029065608978271484e+00,2.029066324234008789e+00,2.029066801071166992e+00,2.029067039489746094e+00,2.029067516326904297e+00,2.029067993164062500e+00,2.029068470001220703e+00,2.029068946838378906e+00,2.029069423675537109e+00,2.029069900512695312e+00,2.029070377349853516e+00,2.029070854187011719e+00,2.029071331024169922e+00,2.029071807861328125e+00,2.029072284698486328e+00,2.029072761535644531e+00,2.029073238372802734e+00,2.029073476791381836e+00,2.029073953628540039e+00,2.029074668884277344e+00,2.029075145721435547e+00,2.029075622558593750e+00,2.029075860977172852e+00,2.029076337814331055e+00,2.029076814651489258e+00,2.029077291488647461e+00,2.029077768325805664e+00,2.029078245162963867e+00,2.029078722000122070e+00,2.029079198837280273e+00,2.029079675674438477e+00,2.029080152511596680e+00,2.029080629348754883e+00,2.029081106185913086e+00,2.029081583023071289e+00,2.029082059860229492e+00,2.029082536697387695e+00,2.029083013534545898e+00,2.029083490371704102e+00,2.029083967208862305e+00,2.029084444046020508e+00,2.029084920883178711e+00,2.029085159301757812e+00,2.029085636138916016e+00,2.029086112976074219e+00,2.029086589813232422e+00,2.029087305068969727e+00,2.029087543487548828e+00
2.029037952423095703e+00,2.029038429260253906e+00,2.029038906097412109e+00,8.913528919219970703e-01,8.818197846412658691e-01,8.727036714553833008e-01,8.717333674430847168e-01,8.759196996688842773e-01,8.799517750740051270e-01,8.857580423355102539e-01,8.991800546646118164e-01,9.156143665313720703e-01,2.029043674468994141e+00,2.029044151306152344e+00,2.029044628143310547e+00,2.029045104980468750e+00,2.029045581817626953e+00,2.029046058654785156e+00,2.029046535491943359e+00,2.029046773910522461e+00,2.029047250747680664e+00,2.029047727584838867e+00,2.029048204421997070e+00,1.014133572578430176e+00,1.000911951065063477e+00,9.951546788215637207e-01,9.945544004440307617e-01,1.000622510910034180e+00,1.006765365600585938e+00,1.017109990119934082e+00,1.039790749549865723e+00,2.029052495956420898e+00,2.029052972793579102e+00,2.029053449630737305e+00,2.029053926467895508e+00,2.029054403305053711e+00,2.029054880142211914e+00,2.029055356979370117e+00,2.029055833816528320e+00,2.029056072235107422e+00,2.029056549072265625e+00,2.029057025909423828e+00,2.029057741165161133e+00,2.029058218002319336e+00,2.029058456420898438e+00,2.029058933258056641e+00,2.029059410095214844e+00,2.029059886932373047e+00,2.029060363769531250e+00,2.029060840606689453e+00,2.029061317443847656e+00,2.029061794281005859e+00,2.029062271118164062e+00,2.029062747955322266e+00,2.029063224792480469e+00,2.029063701629638672e+00,2.029064178466796875e+00,2.029064655303955078e+00,2.029065132141113281e+00,2.029065370559692383e+00,2.029066085815429688e+00,2.029066562652587891e+00,2.029067039489746094e+00,2.029067516326904297e+00,2.029067754745483398e+00,2.029068231582641602e+00,2.029068708419799805e+00,2.029069185256958008e+00,2.029069662094116211e+00,2.029070138931274414e+00,2.029070615768432617e+00,2.029071092605590820e+00,2.029071569442749023e+00,2.029072046279907227e+00,2.029072523117065430e+00,2.029072999954223633e+00,2.029073476791381836e+00,2.029073953628540039e+00,2.029074430465698242e+00,2.029074907302856445e+00
2.029025316238403320e+00,2.029025793075561523e+00,2.029026269912719727e+00,9.116619229316711426e-01,8.850860595703125000e-01,8.759026527404785156e-01,8.720379471778869629e-01,8.762272000312805176e-01,8.801820278167724609e-01,8.852359056472778320e-01,8.966061472892761230e-01,9.129016995429992676e-01,2.029030799865722656e+00,2.029031276702880859e+00,2.029031753540039062e+00,2.029032230377197266e+00,2.029032707214355469e+00,2.029033184051513672e+00,2.029033660888671875e+00,2.029034137725830078e+00,2.029034614562988281e+00,2.029035091400146484e+00,2.029035568237304688e+00,1.029852747917175293e+00,1.002368092536926270e+00,9.967275857925415039e-01,9.919412136077880859e-01,9.979774355888366699e-01,1.004087686538696289e+00,1.013764142990112305e+00,1.031360030174255371e+00,2.029039621353149414e+00,2.029040098190307617e+00,2.029040813446044922e+00,2.029041051864624023e+00,2.029041528701782227e+00,2.029042005538940430e+00,2.029042482376098633e+00,2.029042959213256836e+00,2.029043436050415039e+00,2.029043912887573242e+00,2.029044389724731445e+00,2.029044866561889648e+00,2.029045343399047852e+00,2.029045820236206055e+00,2.029046297073364258e+00,2.029046773910522461e+00,2.029047250747680664e+00,2.029047489166259766e+00,2.029047966003417969e+00,2.029048442840576172e+00,2.029048919677734375e+00,2.029049634933471680e+00,2.029049873352050781e+00,2.029050350189208984e+00,2.029050827026367188e+00,2.029051303863525391e+00,2.029051780700683594e+00,2.029052257537841797e+00,2.029052734375000000e+00,2.029053211212158203e+00,2.029053688049316406e+00,2.029054164886474609e+00,2.029054641723632812e+00,2.029055118560791016e+00,2.029055595397949219e+00,2.029056072235107422e+00,2.029056549072265625e+00,2.029056787490844727e+00,2.029057264328002930e+00,2.029057979583740234e+00,2.029058456420898438e+00,2.029058933258056641e+00,2.029059171676635742e+00,2.029059648513793945e+00,2.029060125350952148e+00,2.029060602188110352e+00,2.029061079025268555e+00,2.029061555862426758e+00,2.029062032699584961e+00
2.029012441635131836e+00,2.029012918472290039e+00,2.029013395309448242e+00,2.029013872146606445e+00,8.886297345161437988e-01,8.791251182556152344e-01,8.723428249359130859e-01,8.765349388122558594e-01,8.804124593734741211e-01,8.847143650054931641e-01,8.940471410751342773e-01,9.102049469947814941e-01,2.029018163681030273e+00,2.029018640518188477e+00,2.029018878936767578e+00,2.029019355773925781e+00,2.029020071029663086e+00,2.029020547866821289e+00,2.029021024703979492e+00,2.029021263122558594e+00,2.029021739959716797e+00,2.029022216796875000e+00,2.029022693634033203e+00,2.029023170471191406e+00,1.003439545631408691e+00,9.983053803443908691e-01,9.925778508186340332e-01,9.953461289405822754e-01,1.001440286636352539e+00,1.011108398437500000e+00,1.023065209388732910e+00,2.029026985168457031e+00,2.029027462005615234e+00,2.029027700424194336e+00,2.029028415679931641e+00,2.029028892517089844e+00,2.029029369354248047e+00,2.029029846191406250e+00,2.029030084609985352e+00,2.029030561447143555e+00,2.029031038284301758e+00,2.029031515121459961e+00,2.029031991958618164e+00,2.029032468795776367e+00,2.029032945632934570e+00,2.029033422470092773e+00,2.029033899307250977e+00,2.029034376144409180e+00,2.029034852981567383e+00,2.029035329818725586e+00,2.029035806655883789e+00,2.029036283493041992e+00,2.029036760330200195e+00,2.029037237167358398e+00,2.029037714004516602e+00,2.029038190841674805e+00,2.029038667678833008e+00,2.029039144515991211e+00,2.029039382934570312e+00,2.029039859771728516e+00,2.029040336608886719e+00,2.029041051864624023e+00,2.029041528701782227e+00,2.029041767120361328e+00,2.029042243957519531e+00,2.029042720794677734e+00,2.029043197631835938e+00,2.029043674468994141e+00,2.029044151306152344e+00,2.029044628143310547e+00,2.029045104980468750e+00,2.029045581817626953e+00,2.029046058654785156e+00,2.029046535491943359e+00,2.029047012329101562e+00,2.029047489166259766e+00,2.029047966003417969e+00,2.029048204421997070e+00,2.029048681259155273e+00,2.029049396514892578e+00
2.028999805450439453e+00,2.029000282287597656e+00,2.029000759124755859e+00,2.029000997543334961e+00,8.922195434570312500e-01,8.823839426040649414e-01,8.732440471649169922e-01,8.768428564071655273e-01,8.806429505348205566e-01,8.843461871147155762e-01,8.930692672729492188e-01,9.075241684913635254e-01,2.029005289077758789e+00,2.029005765914916992e+00,2.029006242752075195e+00,2.029006719589233398e+00,2.029007196426391602e+00,2.029007673263549805e+00,2.029008150100708008e+00,2.029008626937866211e+00,2.029009103775024414e+00,2.029009580612182617e+00,2.029010057449340820e+00,2.029010295867919922e+00,1.008970022201538086e+00,9.994915723800659180e-01,9.941424727439880371e-01,9.927288293838500977e-01,9.988486766815185547e-01,1.008466601371765137e+00,1.018271446228027344e+00,2.029014110565185547e+00,2.029014587402343750e+00,2.029015064239501953e+00,2.029015541076660156e+00,2.029016017913818359e+00,2.029016494750976562e+00,2.029016971588134766e+00,2.029017448425292969e+00,2.029017925262451172e+00,2.029018402099609375e+00,2.029018878936767578e+00,2.029019355773925781e+00,2.029019594192504883e+00,2.029020309448242188e+00,2.029020786285400391e+00,2.029021263122558594e+00,2.029021739959716797e+00,2.029021978378295898e+00,2.029022455215454102e+00,2.029022932052612305e+00,2.029023408889770508e+00,2.029023885726928711e+00,2.029024362564086914e+00,2.029024839401245117e+00,2.029025316238403320e+00,2.029025793075561523e+00,2.029026269912719727e+00,2.029026746749877930e+00,2.029027223587036133e+00,2.029027700424194336e+00,2.029028177261352539e+00,2.029028654098510742e+00,2.029029130935668945e+00,2.029029607772827148e+00,2.029030084609985352e+00,2.029030561447143555e+00,2.029030799865722656e+00,2.029031276702880859e+00,2.029031753540039062e+00,2.029032468795776367e+00,2.029032945632934570e+00,2.029033184051513672e+00,2.029033660888671875e+00,2.029034137725830078e+00,2.029034614562988281e+00,2.029035091400146484e+00,2.029035568237304688e+00,2.029036045074462891e+00,2.029036521911621094e+00
2.028986930847167969e+00,2.028987407684326172e+00,2.028987884521484375e+00,2.028988361358642578e+00,8.958384394645690918e-01,8.859232664108276367e-01,8.764469027519226074e-01,8.771510124206542969e-01,8.808735609054565430e-01,8.845787048339843750e-01,8.925386071205139160e-01,9.048590660095214844e-01,2.028992652893066406e+00,2.028992891311645508e+00,2.028993368148803711e+00,2.028993844985961914e+00,2.028994321823120117e+00,2.028995037078857422e+00,2.028995275497436523e+00,2.028995752334594727e+00,2.028996229171752930e+00,2.028996706008911133e+00,2.028997182846069336e+00,2.028997659683227539e+00,1.022067427635192871e+00,1.000556826591491699e+00,9.955743551254272461e-01,9.901251196861267090e-01,9.962704181671142578e-01,1.005838513374328613e+00,1.015592098236083984e+00,1.030099391937255859e+00,2.029001712799072266e+00,2.029002189636230469e+00,2.029002666473388672e+00,2.029003381729125977e+00,2.029003858566284180e+00,2.029004096984863281e+00,2.029004573822021484e+00,2.029005050659179688e+00,2.029005527496337891e+00,2.029006004333496094e+00,2.029006481170654297e+00,2.029006958007812500e+00,2.029007434844970703e+00,2.029007911682128906e+00,2.029008388519287109e+00,2.029008865356445312e+00,2.029009342193603516e+00,2.029009819030761719e+00,2.029010295867919922e+00,2.029010772705078125e+00,2.029011011123657227e+00,2.029011726379394531e+00,2.029012203216552734e+00,2.029012680053710938e+00,2.029013156890869141e+00,2.029013395309448242e+00,2.029013872146606445e+00,2.029014348983764648e+00,2.029014825820922852e+00,2.029015302658081055e+00,2.029015779495239258e+00,2.029016256332397461e+00,2.029016733169555664e+00,2.029017210006713867e+00,2.029017686843872070e+00,2.029018163681030273e+00,2.029018640518188477e+00,2.029019117355346680e+00,2.029019594192504883e+00,2.029020071029663086e+00,2.029020547866821289e+00,2.029021024703979492e+00,2.029021501541137695e+00,2.029021978378295898e+00,2.029022216796875000e+00,2.029022693634033203e+00,2.029023170471191406e+00,2.029023647308349609e+00
2.028974294662475586e+00,2.028974771499633789e+00,2.028975248336791992e+00,2.028975486755371094e+00,8.994867801666259766e-01,8.894911408424377441e-01,8.797152042388916016e-01,8.774281144142150879e-01,8.811043500900268555e-01,8.848114013671875000e-01,8.920084238052368164e-01,9.157578945159912109e-01,2.028979778289794922e+00,2.028980255126953125e+00,2.028980731964111328e+00,2.028981208801269531e+00,2.028981685638427734e+00,2.028982162475585938e+00,2.028982639312744141e+00,2.028983116149902344e+00,2.028983592987060547e+00,2.028984069824218750e+00,2.028984308242797852e+00,2.028984785079956055e+00,2.028985261917114258e+00,1.001624464988708496e+00,9.966314435005187988e-01,9.915708899497985840e-01,9.937054514884948730e-01,1.003224015235900879e+00,1.012926816940307617e+00,1.022819161415100098e+00,2.028989076614379883e+00,2.028989553451538086e+00,2.028990030288696289e+00,2.028990507125854492e+00,2.028990983963012695e+00,2.028991460800170898e+00,2.028991937637329102e+00,2.028992414474487305e+00,2.028992891311645508e+00,2.028993368148803711e+00,2.028993606567382812e+00,2.028994083404541016e+00,2.028994798660278320e+00,2.028995275497436523e+00,2.028995752334594727e+00,2.028995990753173828e+00,2.028996467590332031e+00,2.028996944427490234e+00,2.028997421264648438e+00,2.028997898101806641e+00,2.028998374938964844e+00,2.028998851776123047e+00,2.028999328613281250e+00,2.028999805450439453e+00,2.029000282287597656e+00,2.029000759124755859e+00,2.029001235961914062e+00,2.029001712799072266e+00,2.029002189636230469e+00,2.029002428054809570e+00,2.029003143310546875e+00,2.029003620147705078e+00,2.029004096984863281e+00,2.029004573822021484e+00,2.029004812240600586e+00,2.029005289077758789e+00,2.029005765914916992e+00,2.029006242752075195e+00,2.029006719589233398e+00,2.029007196426391602e+00,2.029007673263549805e+00,2.029008150100708008e+00,2.029008626937866211e+00,2.029009103775024414e+00,2.029009580612182617e+00,2.029010057449340820e+00,2.029010534286499023e+00,2.029011011123657227e+00
1.988342642784118652e+00,1.988138318061828613e+00,1.987934112548828125e+00,1.987729907035827637e+00,1.987525939941406250e+00,8.930879235267639160e-01,8.832331895828247070e-01,8.776569366455078125e-01,8.932310342788696289e-01,9.016832709312438965e-01,9.123841524124145508e-01,9.274938702583312988e-01,1.985894322395324707e+00,1.985690712928771973e+00,1.985486984252929688e+00,1.985283255577087402e+00,1.985079646110534668e+00,1.984876036643981934e+00,1.984672427177429199e+00,1.984468936920166016e+00,1.984265446662902832e+00,1.984062194824218750e+00,1.983858823776245117e+00,1.983655452728271484e+00,1.983452081680297852e+00,1.007456779479980469e+00,9.976906776428222656e-01,9.927366971969604492e-01,9.911536574363708496e-01,1.000623106956481934e+00,1.018592238426208496e+00,1.982030272483825684e+00,1.981827259063720703e+00,1.981624364852905273e+00,1.981421470642089844e+00,1.981218576431274414e+00,1.981015682220458984e+00,1.980812907218933105e+00,1.980610251426696777e+00,1.980407714843750000e+00,1.980205059051513672e+00,1.980002403259277344e+00,1.979799866676330566e+00,1.979597330093383789e+00,1.979394912719726562e+00,1.979192376136779785e+00,1.978989958763122559e+00,1.978787660598754883e+00,1.978585481643676758e+00,1.978383183479309082e+00,1.978181004524230957e+00,1.977978825569152832e+00,1.977776646614074707e+00,1.977574467658996582e+00,1.977372407913208008e+00,1.977170348167419434e+00,1.976968407630920410e+00,1.976766705513000488e+00,1.976564764976501465e+00,1.976362824440002441e+00,1.976161003112792969e+00,1.975959181785583496e+00,1.975757479667663574e+00,1.975555777549743652e+00,1.975354075431823730e+00,1.975152492523193359e+00,1.974951148033142090e+00,1.974749565124511719e+00,1.974548101425170898e+00,1.974346637725830078e+00,1.974145174026489258e+00,1.973943829536437988e+00,1.973742485046386719e+00,1.973541140556335449e+00,1.973339915275573730e+00,1.973138928413391113e+00,1.972937822341918945e+00,1.972736597061157227e+00,1.972535490989685059e+00,1.972334504127502441e+00
1.777830719947814941e+00,1.777667403221130371e+00,1.777504086494445801e+00,1.777340888977050781e+00,1.777177810668945312e+00,1.777014613151550293e+00,9.016854763031005859e-01,8.918057084083557129e-01,8.932045102119445801e-01,8.990676403045654297e-01,9.111102819442749023e-01,9.195303916931152344e-01,1.775873064994812012e+00,1.775710344314575195e+00,1.775547385215759277e+00,1.775384426116943359e+00,1.775221586227416992e+00,1.775058746337890625e+00,1.774895906448364258e+00,1.774733185768127441e+00,1.774570345878601074e+00,1.774407863616943359e+00,1.774245142936706543e+00,1.774082541465759277e+00,1.773919820785522461e+00,1.015563488006591797e+00,1.014326572418212891e+00,1.003349542617797852e+00,9.979267716407775879e-01,1.001795649528503418e+00,1.010000586509704590e+00,1.022955775260925293e+00,1.772620081901550293e+00,1.772457718849182129e+00,1.772295355796813965e+00,1.772133111953735352e+00,1.771970748901367188e+00,1.771808505058288574e+00,1.771646261215209961e+00,1.771484255790710449e+00,1.771322131156921387e+00,1.771160006523132324e+00,1.770997881889343262e+00,1.770835876464843750e+00,1.770673871040344238e+00,1.770511746406555176e+00,1.770349860191345215e+00,1.770187854766845703e+00,1.770026087760925293e+00,1.769864201545715332e+00,1.769702434539794922e+00,1.769540548324584961e+00,1.769378781318664551e+00,1.769217014312744141e+00,1.769055247306823730e+00,1.768893480300903320e+00,1.768731832504272461e+00,1.768570303916931152e+00,1.768408775329589844e+00,1.768247127532958984e+00,1.768085598945617676e+00,1.767924070358276367e+00,1.767762541770935059e+00,1.767601013183593750e+00,1.767439603805541992e+00,1.767278194427490234e+00,1.767117023468017578e+00,1.766955614089965820e+00,1.766794323921203613e+00,1.766633033752441406e+00,1.766471743583679199e+00,1.766310453414916992e+00,1.766149282455444336e+00,1.765988111495971680e+00,1.765826940536499023e+00,1.765666007995605469e+00,1.765504956245422363e+00,1.765343904495239258e+00,1.765182852745056152e+00,1.765021920204162598e+00
1.607626318931579590e+00,1.607492804527282715e+00,1.607359290122985840e+00,1.607225775718688965e+00,1.607092499732971191e+00,1.606958985328674316e+00,9.027396440505981445e-01,8.937490582466125488e-01,8.935711383819580078e-01,8.985819816589355469e-01,9.087800383567810059e-01,9.185277223587036133e-01,1.606025457382202148e+00,1.605892300605773926e+00,1.605759024620056152e+00,1.605625867843627930e+00,1.605492591857910156e+00,1.605359435081481934e+00,1.605226278305053711e+00,1.605093121528625488e+00,1.604959964752197266e+00,1.604827046394348145e+00,1.604693889617919922e+00,1.604560852050781250e+00,1.604427814483642578e+00,1.604294776916503906e+00,1.016713142395019531e+00,1.002775073051452637e+00,9.947442412376403809e-01,9.961246252059936523e-01,1.001311182975769043e+00,1.011361002922058105e+00,1.603364467620849609e+00,1.603231668472290039e+00,1.603098869323730469e+00,1.602966070175170898e+00,1.602833271026611328e+00,1.602700471878051758e+00,1.602567791938781738e+00,1.602435231208801270e+00,1.602302551269531250e+00,1.602169871330261230e+00,1.602037191390991211e+00,1.601904630661010742e+00,1.601772069931030273e+00,1.601639389991760254e+00,1.601506829261779785e+00,1.601374387741088867e+00,1.601241946220397949e+00,1.601109504699707031e+00,1.600977063179016113e+00,1.600844621658325195e+00,1.600712180137634277e+00,1.600579738616943359e+00,1.600447416305541992e+00,1.600315093994140625e+00,1.600182771682739258e+00,1.600050568580627441e+00,1.599918246269226074e+00,1.599785923957824707e+00,1.599653720855712891e+00,1.599521517753601074e+00,1.599389314651489258e+00,1.599257111549377441e+00,1.599124908447265625e+00,1.598992824554443359e+00,1.598860859870910645e+00,1.598728775978088379e+00,1.598596692085266113e+00,1.598464608192443848e+00,1.598332643508911133e+00,1.598200559616088867e+00,1.598068594932556152e+00,1.597936630249023438e+00,1.597804665565490723e+00,1.597672939300537109e+00,1.597541093826293945e+00,1.597409129142761230e+00,1.597277283668518066e+00,1.597145438194274902e+00
1.467164278030395508e+00,1.467053055763244629e+00,1.466941833496093750e+00,1.466830730438232422e+00,1.466719627380371094e+00,9.052784442901611328e-01,8.980176448822021484e-01,8.929269909858703613e-01,8.930507898330688477e-01,8.985918164253234863e-01,9.061931371688842773e-01,9.153642058372497559e-01,9.272713065147399902e-01,1.465719938278198242e+00,1.465608835220336914e+00,1.465497851371765137e+00,1.465386867523193359e+00,1.465275883674621582e+00,1.465165019035339355e+00,1.465054035186767578e+00,1.464943170547485352e+00,1.464832425117492676e+00,1.464721560478210449e+00,1.464610695838928223e+00,1.464499831199645996e+00,1.464388966560363770e+00,1.012270092964172363e+00,9.967328310012817383e-01,9.907579421997070312e-01,9.943727254867553711e-01,9.985935091972351074e-01,1.003018856048583984e+00,1.015389919281005859e+00,1.463503122329711914e+00,1.463392376899719238e+00,1.463281750679016113e+00,1.463171124458312988e+00,1.463060498237609863e+00,1.462949872016906738e+00,1.462839365005493164e+00,1.462728857994079590e+00,1.462618231773376465e+00,1.462507724761962891e+00,1.462397217750549316e+00,1.462286710739135742e+00,1.462176203727722168e+00,1.462065696716308594e+00,1.461955308914184570e+00,1.461844921112060547e+00,1.461734533309936523e+00,1.461624145507812500e+00,1.461513757705688477e+00,1.461403369903564453e+00,1.461292982101440430e+00,1.461182713508605957e+00,1.461072325706481934e+00,1.460962057113647461e+00,1.460851907730102539e+00,1.460741639137268066e+00,1.460631370544433594e+00,1.460521101951599121e+00,1.460410833358764648e+00,1.460300683975219727e+00,1.460190534591674805e+00,1.460080265998840332e+00,1.459970116615295410e+00,1.459860086441040039e+00,1.459750056266784668e+00,1.459639906883239746e+00,1.459529757499694824e+00,1.459419727325439453e+00,1.459309697151184082e+00,1.459199666976928711e+00,1.459089636802673340e+00,1.458979606628417969e+00,1.458869695663452148e+00,1.458759784698486328e+00,1.458649754524230957e+00,1.458539843559265137e+00,1.458429932594299316e+00
1.349274992942810059e+00,1.349180936813354492e+00,1.349086880683898926e+00,1.348992824554443359e+00,8.958314657211303711e-01,8.913222551345825195e-01,8.895113468170166016e-01,8.893424272537231445e-01,8.924700617790222168e-01,8.976426720619201660e-01,9.042093753814697266e-01,9.111339449882507324e-01,9.207206964492797852e-01,1.348053216934204102e+00,1.347959399223327637e+00,1.347865462303161621e+00,1.347771644592285156e+00,1.347677707672119141e+00,1.347583889961242676e+00,1.347490072250366211e+00,1.347396254539489746e+00,1.347302556037902832e+00,1.347208738327026367e+00,1.347114920616149902e+00,1.347021222114562988e+00,1.000645756721496582e+00,9.933249950408935547e-01,9.895873665809631348e-01,9.888533353805541992e-01,9.912436604499816895e-01,9.946500658988952637e-01,9.973436594009399414e-01,1.003298401832580566e+00,1.346177935600280762e+00,1.346084356307983398e+00,1.345990657806396484e+00,1.345897078514099121e+00,1.345803499221801758e+00,1.345709919929504395e+00,1.345616340637207031e+00,1.345522880554199219e+00,1.345429301261901855e+00,1.345335721969604492e+00,1.345242261886596680e+00,1.345148682594299316e+00,1.345055222511291504e+00,1.344961762428283691e+00,1.344868183135986328e+00,1.344774842262268066e+00,1.344681382179260254e+00,1.344588041305541992e+00,1.344494581222534180e+00,1.344401121139526367e+00,1.344307780265808105e+00,1.344214439392089844e+00,1.344120979309082031e+00,1.344027638435363770e+00,1.343934416770935059e+00,1.343841075897216797e+00,1.343747735023498535e+00,1.343654513359069824e+00,1.343561172485351562e+00,1.343467950820922852e+00,1.343374609947204590e+00,1.343281388282775879e+00,1.343188166618347168e+00,1.343095064163208008e+00,1.343001842498779297e+00,1.342908620834350586e+00,1.342815399169921875e+00,1.342722177505493164e+00,1.342629075050354004e+00,1.342535853385925293e+00,1.342442750930786133e+00,1.342349648475646973e+00,1.342256665229797363e+00,1.342163562774658203e+00,1.342070460319519043e+00,1.341977357864379883e+00,1.341884374618530273e+00
1.248921871185302734e+00,1.248841285705566406e+00,9.024944305419921875e-01,8.896739482879638672e-01,8.848745226860046387e-01,8.840247392654418945e-01,8.845510482788085938e-01,8.879376649856567383e-01,8.915794491767883301e-01,8.963546156883239746e-01,9.017695188522338867e-01,9.080824851989746094e-01,9.181736111640930176e-01,1.247875094413757324e+00,1.247794628143310547e+00,1.247714161872863770e+00,1.247633695602416992e+00,1.247553229331970215e+00,1.247472882270812988e+00,1.247392416000366211e+00,1.247312068939208984e+00,1.247231721878051758e+00,1.247151374816894531e+00,1.247070908546447754e+00,9.913239479064941406e-01,9.868713617324829102e-01,9.870817661285400391e-01,9.871387481689453125e-01,9.887246489524841309e-01,9.898419976234436035e-01,9.908025264739990234e-01,9.927225112915039062e-01,9.978152513504028320e-01,1.246267914772033691e+00,1.246187686920166016e+00,1.246107339859008789e+00,1.246027112007141113e+00,1.245946884155273438e+00,1.245866656303405762e+00,1.245786547660827637e+00,1.245706439018249512e+00,1.245626211166381836e+00,1.245545983314514160e+00,1.245465874671936035e+00,1.245385646820068359e+00,1.245305538177490234e+00,1.245225429534912109e+00,1.245145320892333984e+00,1.245065212249755859e+00,1.244985103607177734e+00,1.244905114173889160e+00,1.244825005531311035e+00,1.244744896888732910e+00,1.244664907455444336e+00,1.244584798812866211e+00,1.244504809379577637e+00,1.244424700736999512e+00,1.244344830513000488e+00,1.244264841079711914e+00,1.244184732437133789e+00,1.244104743003845215e+00,1.244024872779846191e+00,1.243944883346557617e+00,1.243864893913269043e+00,1.243784904479980469e+00,1.243705034255981445e+00,1.243625164031982422e+00,1.243545293807983398e+00,1.243465304374694824e+00,1.243385434150695801e+00,1.243305563926696777e+00,1.243225693702697754e+00,1.243145823478698730e+00,1.243065953254699707e+00,1.242986083030700684e+00,1.242906332015991211e+00,1.242826581001281738e+00,1.242746710777282715e+00,1.242666959762573242e+00,1.242587089538574219e+00
9.248446822166442871e-01,8.887512087821960449e-01,8.791997432708740234e-01,8.762955665588378906e-01,8.746759295463562012e-01,8.766058683395385742e-01,8.804439902305603027e-01,8.848308920860290527e-01,8.894221186637878418e-01,8.940522670745849609e-01,8.996278047561645508e-01,9.071906805038452148e-01,9.233541488647460938e-01,1.161556124687194824e+00,1.161486387252807617e+00,1.161416649818420410e+00,1.161346912384033203e+00,1.161277294158935547e+00,1.161207556724548340e+00,1.161137938499450684e+00,1.161068201065063477e+00,1.160998582839965820e+00,9.867719411849975586e-01,9.823345541954040527e-01,9.808123111724853516e-01,9.844356775283813477e-01,9.884289503097534180e-01,9.898787736892700195e-01,9.906193614006042480e-01,9.894052147865295410e-01,9.888228178024291992e-01,9.910519123077392578e-01,1.000068068504333496e+00,1.160163402557373047e+00,1.160093903541564941e+00,1.160024285316467285e+00,1.159954786300659180e+00,1.159885287284851074e+00,1.159815788269042969e+00,1.159746289253234863e+00,1.159676790237426758e+00,1.159607291221618652e+00,1.159537792205810547e+00,1.159468293190002441e+00,1.159398913383483887e+00,1.159329414367675781e+00,1.159259915351867676e+00,1.159190535545349121e+00,1.159121155738830566e+00,1.159051775932312012e+00,1.158982276916503906e+00,1.158912897109985352e+00,1.158843517303466797e+00,1.158774137496948242e+00,1.158704757690429688e+00,1.158635377883911133e+00,1.158565998077392578e+00,1.158496618270874023e+00,1.158427357673645020e+00,1.158357977867126465e+00,1.158288717269897461e+00,1.158219337463378906e+00,1.158150076866149902e+00,1.158080697059631348e+00,1.158011436462402344e+00,1.157942175865173340e+00,1.157872915267944336e+00,1.157803654670715332e+00,1.157734394073486328e+00,1.157665133476257324e+00,1.157595872879028320e+00,1.157526612281799316e+00,1.157457351684570312e+00,1.157388091087341309e+00,1.157318949699401855e+00,1.157249808311462402e+00,1.157180547714233398e+00,1.157111406326293945e+00,1.157042264938354492e+00,1.156973004341125488e+00
8.718040585517883301e-01,8.638145923614501953e-01,8.633409142494201660e-01,8.661045432090759277e-01,8.707867860794067383e-01,8.756144642829895020e-01,8.813954591751098633e-01,8.882968425750732422e-01,8.967058658599853516e-01,1.086650252342224121e+00,1.086589217185974121e+00,1.086528182029724121e+00,1.086467266082763672e+00,1.086406350135803223e+00,1.086345314979553223e+00,1.086284279823303223e+00,1.086223363876342773e+00,1.086162328720092773e+00,1.086101412773132324e+00,1.086040496826171875e+00,9.803326725959777832e-01,9.771321415901184082e-01,9.735901951789855957e-01,9.737243652343750000e-01,9.783655405044555664e-01,9.956680536270141602e-01,1.010030627250671387e+00,1.023629426956176758e+00,1.085492253303527832e+00,1.085431337356567383e+00,1.085370540618896484e+00,1.085309743881225586e+00,1.085248827934265137e+00,1.085187911987304688e+00,1.085127115249633789e+00,1.085066318511962891e+00,1.085005402565002441e+00,1.084944605827331543e+00,1.084883809089660645e+00,1.084823012351989746e+00,1.084762215614318848e+00,1.084701418876647949e+00,1.084640622138977051e+00,1.084579825401306152e+00,1.084519028663635254e+00,1.084458231925964355e+00,1.084397435188293457e+00,1.084336638450622559e+00,1.084275960922241211e+00,1.084215283393859863e+00,1.084154486656188965e+00,1.084093809127807617e+00,1.084033012390136719e+00,1.083972334861755371e+00,1.083911657333374023e+00,1.083850860595703125e+00,1.083790183067321777e+00,1.083729624748229980e+00,1.083668828010559082e+00,1.083608150482177734e+00,1.083547472953796387e+00,1.083486795425415039e+00,1.083426237106323242e+00,1.083365559577941895e+00,1.083304882049560547e+00,1.083244204521179199e+00,1.083183646202087402e+00,1.083123087882995605e+00,1.083062410354614258e+00,1.083001852035522461e+00,1.082941174507141113e+00,1.082880616188049316e+00,1.082820057868957520e+00,1.082759380340576172e+00,1.082698822021484375e+00,1.082638382911682129e+00,1.082577705383300781e+00,1.082517147064208984e+00,1.082456588745117188e+00,1.082396149635314941e+00
8.551009893417358398e-01,8.566634654998779297e-01,8.600429892539978027e-01,8.669908046722412109e-01,8.776788115501403809e-01,1.020820260047912598e+00,1.020766377449035645e+00,1.020712494850158691e+00,1.020658731460571289e+00,1.020604848861694336e+00,1.020551085472106934e+00,1.020497202873229980e+00,1.020443439483642578e+00,1.020389676094055176e+00,1.020335793495178223e+00,1.020282030105590820e+00,1.020228266716003418e+00,1.020174503326416016e+00,1.020120739936828613e+00,9.733889698982238770e-01,9.719567298889160156e-01,9.745395183563232422e-01,9.704149961471557617e-01,9.741467833518981934e-01,1.019798159599304199e+00,1.019744515419006348e+00,1.019690752029418945e+00,1.019636988639831543e+00,1.019583225250244141e+00,1.019529581069946289e+00,1.019475936889648438e+00,1.019422173500061035e+00,1.019368529319763184e+00,1.019314765930175781e+00,1.019261121749877930e+00,1.019207477569580078e+00,1.019153714179992676e+00,1.019100069999694824e+00,1.019046425819396973e+00,1.018992781639099121e+00,1.018939137458801270e+00,1.018885493278503418e+00,1.018831849098205566e+00,1.018778204917907715e+00,1.018724560737609863e+00,1.018670916557312012e+00,1.018617391586303711e+00,1.018563747406005859e+00,1.018510222434997559e+00,1.018456578254699707e+00,1.018402934074401855e+00,1.018349409103393555e+00,1.018295764923095703e+00,1.018242239952087402e+00,1.018188595771789551e+00,1.018135070800781250e+00,1.018081545829772949e+00,1.018028020858764648e+00,1.017974495887756348e+00,1.017920851707458496e+00,1.017867326736450195e+00,1.017813801765441895e+00,1.017760276794433594e+00,1.017706751823425293e+00,1.017653226852416992e+00,1.017599701881408691e+00,1.017546296119689941e+00,1.017492771148681641e+00,1.017439246177673340e+00,1.017385721206665039e+00,1.017332315444946289e+00,1.017278790473937988e+00,1.017225384712219238e+00,1.017171859741210938e+00,1.017118453979492188e+00,1.017065048217773438e+00,1.017011523246765137e+00,1.016958117485046387e+00,1.016904711723327637e+00,1.016851186752319336e+00
9.625585675239562988e-01,9.625105857849121094e-01,9.624627828598022461e-01,9.624148607254028320e-01,9.623670578002929688e-01,9.623192548751831055e-01,9.622713327407836914e-01,9.622235298156738281e-01,9.621756672859191895e-01,9.621278643608093262e-01,9.620799422264099121e-01,9.620321989059448242e-01,9.619843363761901855e-01,9.619365334510803223e-01,9.618887901306152344e-01,9.618409276008605957e-01,9.617931842803955078e-01,9.617453217506408691e-01,9.616975784301757812e-01,9.616497159004211426e-01,9.616019725799560547e-01,9.615542888641357422e-01,9.615064263343811035e-01,9.614587426185607910e-01,9.614108800888061523e-01,9.613631963729858398e-01,9.613153934478759766e-01,9.612677097320556641e-01,9.612199068069458008e-01,9.611721634864807129e-01,9.611244797706604004e-01,9.610767364501953125e-01,9.610290527343750000e-01,9.609812498092651367e-01,9.609335660934448242e-01,9.608858227729797363e-01,9.608381390571594238e-01,9.607903957366943359e-01,9.607427716255187988e-01,9.606951475143432617e-01,9.606473445892333984e-01,9.605997204780578613e-01,9.605519771575927734e-01,9.605043530464172363e-01,9.604566693305969238e-01,9.604090452194213867e-01,9.603613018989562988e-01,9.603137373924255371e-01,9.602661132812500000e-01,9.602184295654296875e-01,9.601708054542541504e-01,9.601231217384338379e-01,9.600755572319030762e-01,9.600278735160827637e-01,9.599803090095520020e-01,9.599326252937316895e-01,9.598850607872009277e-01,9.598374962806701660e-01,9.597898125648498535e-01,9.597423076629638672e-01,9.596946239471435547e-01,9.596470594406127930e-01,9.595994353294372559e-01,9.595519304275512695e-01,9.595043063163757324e-01,9.594567418098449707e-01,9.594092369079589844e-01,9.593616127967834473e-01,9.593141078948974609e-01,9.592664837837219238e-01,9.592190384864807129e-01,9.591714143753051758e-01,9.591239094734191895e-01,9.590763449668884277e-01,9.590288400650024414e-01,9.589813947677612305e-01,9.589338302612304688e-01,9.588863253593444824e-01,9.588387608528137207e-01,9.587913155555725098e-01
9.103739857673645020e-01,9.103310704231262207e-01,9.102882742881774902e-01,9.102454185485839844e-01,9.102026820182800293e-01,9.101598858833312988e-01,9.101170301437377930e-01,9.100742936134338379e-01,9.100314378738403320e-01,9.099887013435363770e-01,9.099458456039428711e-01,9.099031090736389160e-01,9.098603129386901855e-01,9.098175764083862305e-01,9.097748398780822754e-01,9.097320437431335449e-01,9.096893072128295898e-01,9.096465110778808594e-01,9.096037745475769043e-01,9.095609784126281738e-01,9.095182418823242188e-01,9.094755649566650391e-01,9.094327688217163086e-01,9.093900918960571289e-01,9.093472957611083984e-01,9.093046188354492188e-01,9.092618823051452637e-01,9.092192053794860840e-01,9.091764092445373535e-01,9.091337323188781738e-01,9.090910553932189941e-01,9.090483188629150391e-01,9.090057015419006348e-01,9.089629054069519043e-01,9.089202880859375000e-01,9.088775515556335449e-01,9.088349342346191406e-01,9.087921977043151855e-01,9.087495207786560059e-01,9.087069034576416016e-01,9.086642265319824219e-01,9.086216092109680176e-01,9.085788726806640625e-01,9.085362553596496582e-01,9.084935784339904785e-01,9.084509611129760742e-01,9.084082841873168945e-01,9.083656668663024902e-01,9.083231091499328613e-01,9.082803726196289062e-01,9.082378149032592773e-01,9.081951379776000977e-01,9.081525802612304688e-01,9.081099033355712891e-01,9.080673456192016602e-01,9.080246686935424805e-01,9.079821109771728516e-01,9.079395532608032227e-01,9.078969359397888184e-01,9.078543782234191895e-01,9.078117609024047852e-01,9.077692031860351562e-01,9.077265858650207520e-01,9.076840281486511230e-01,9.076414108276367188e-01,9.075989127159118652e-01,9.075563549995422363e-01,9.075137972831726074e-01,9.074712395668029785e-01,9.074286818504333496e-01,9.073861837387084961e-01,9.073435664176940918e-01,9.073010683059692383e-01,9.072585105895996094e-01,9.072160124778747559e-01,9.071735143661499023e-01,9.071309566497802734e-01,9.070884585380554199e-01,9.070459008216857910e-01,9.070034623146057129e-01
8.635566830635070801e-01,8.635181188583374023e-01,8.634796142578125000e-01,8.634410500526428223e-01,8.634026050567626953e-01,8.633641004562377930e-01,8.633255362510681152e-01,8.632870912551879883e-01,8.632485270500183105e-01,8.632100820541381836e-01,8.631715178489685059e-01,8.631330728530883789e-01,8.630945086479187012e-01,8.630560636520385742e-01,8.630176186561584473e-01,8.629790544509887695e-01,8.629406690597534180e-01,8.629021048545837402e-01,8.628636598587036133e-01,8.628251552581787109e-01,8.627867102622985840e-01,8.627483248710632324e-01,8.627098202705383301e-01,8.626713752746582031e-01,8.626328706741333008e-01,8.625944852828979492e-01,8.625559806823730469e-01,8.625175952911376953e-01,8.624790906906127930e-01,8.624407052993774414e-01,8.624023199081420898e-01,8.623638153076171875e-01,8.623254299163818359e-01,8.622869849205017090e-01,8.622485995292663574e-01,8.622101545333862305e-01,8.621717691421508789e-01,8.621333241462707520e-01,8.620949387550354004e-01,8.620565533638000488e-01,8.620181083679199219e-01,8.619797825813293457e-01,8.619413375854492188e-01,8.619030117988586426e-01,8.618645668029785156e-01,8.618262410163879395e-01,8.617877960205078125e-01,8.617494702339172363e-01,8.617111444473266602e-01,8.616726994514465332e-01,8.616343736648559570e-01,8.615959882736206055e-01,8.615576624870300293e-01,8.615192770957946777e-01,8.614809513092041016e-01,8.614425659179687500e-01,8.614042401313781738e-01,8.613659739494323730e-01,8.613275885581970215e-01,8.612892627716064453e-01,8.612508773803710938e-01,8.612126111984252930e-01,8.611742258071899414e-01,8.611359596252441406e-01,8.610976338386535645e-01,8.610593080520629883e-01,8.610210418701171875e-01,8.609827160835266113e-01,8.609444499015808105e-01,8.609061241149902344e-01,8.608678579330444336e-01,8.608295321464538574e-01,8.607912659645080566e-01,8.607529401779174805e-01,8.607146739959716797e-01,8.606764674186706543e-01,8.606381416320800781e-01,8.605998754501342773e-01,8.605615496635437012e-01,8.605233430862426758e-01
8.213192224502563477e-01,8.212842941284179688e-01,8.212494850158691406e-01,8.212146162986755371e-01,8.211798071861267090e-01,8.211449980735778809e-01,8.211101293563842773e-01,8.210753202438354492e-01,8.210404515266418457e-01,8.210056424140930176e-01,8.209707736968994141e-01,8.209359645843505859e-01,8.209010958671569824e-01,8.208663463592529297e-01,8.208315372467041016e-01,8.207967281341552734e-01,8.207619190216064453e-01,8.207271099090576172e-01,8.206923007965087891e-01,8.206574916839599609e-01,8.206227421760559082e-01,8.205879330635070801e-01,8.205531239509582520e-01,8.205183744430541992e-01,8.204835653305053711e-01,8.204488158226013184e-01,8.204139471054077148e-01,8.203792572021484375e-01,8.203443884849548340e-01,8.203096985816955566e-01,8.202749490737915039e-01,8.202401399612426758e-01,8.202053904533386230e-01,8.201705813407897949e-01,8.201358914375305176e-01,8.201010823249816895e-01,8.200663924217224121e-01,8.200315833091735840e-01,8.199968934059143066e-01,8.199621438980102539e-01,8.199273943901062012e-01,8.198927044868469238e-01,8.198578953742980957e-01,8.198232054710388184e-01,8.197884559631347656e-01,8.197537660598754883e-01,8.197189569473266602e-01,8.196843266487121582e-01,8.196496367454528809e-01,8.196148872375488281e-01,8.195801973342895508e-01,8.195454478263854980e-01,8.195107579231262207e-01,8.194760084152221680e-01,8.194413781166076660e-01,8.194066286087036133e-01,8.193719983100891113e-01,8.193373084068298340e-01,8.193025588989257812e-01,8.192679286003112793e-01,8.192332386970520020e-01,8.191985487937927246e-01,8.191638588905334473e-01,8.191292285919189453e-01,8.190944790840148926e-01,8.190598487854003906e-01,8.190252780914306641e-01,8.189905285835266113e-01,8.189558982849121094e-01,8.189212083816528320e-01,8.188866376876831055e-01,8.188519477844238281e-01,8.188173174858093262e-01,8.187826275825500488e-01,8.187479972839355469e-01,8.187134265899658203e-01,8.186787366867065430e-01,8.186441659927368164e-01,8.186094760894775391e-01,8.185749053955078125e-01
7.830208539962768555e-01,7.829891443252563477e-01,7.829574942588806152e-01,7.829257845878601074e-01,7.828941345214843750e-01,7.828624844551086426e-01,7.828307747840881348e-01,7.827991843223571777e-01,7.827674746513366699e-01,7.827358245849609375e-01,7.827041149139404297e-01,7.826725244522094727e-01,7.826408147811889648e-01,7.826092243194580078e-01,7.825775742530822754e-01,7.825459241867065430e-01,7.825142741203308105e-01,7.824826240539550781e-01,7.824510335922241211e-01,7.824193239212036133e-01,7.823877334594726562e-01,7.823561429977416992e-01,7.823244929313659668e-01,7.822929024696350098e-01,7.822612524032592773e-01,7.822296619415283203e-01,7.821980118751525879e-01,7.821664214134216309e-01,7.821347713470458984e-01,7.821031808853149414e-01,7.820715904235839844e-01,7.820399403572082520e-01,7.820084095001220703e-01,7.819767594337463379e-01,7.819452285766601562e-01,7.819135785102844238e-01,7.818819880485534668e-01,7.818503975868225098e-01,7.818188071250915527e-01,7.817872762680053711e-01,7.817556262016296387e-01,7.817240953445434570e-01,7.816925048828125000e-01,7.816609740257263184e-01,7.816293239593505859e-01,7.815977931022644043e-01,7.815662026405334473e-01,7.815346717834472656e-01,7.815031409263610840e-01,7.814715504646301270e-01,7.814400196075439453e-01,7.814084291458129883e-01,7.813768982887268066e-01,7.813453078269958496e-01,7.813138365745544434e-01,7.812822461128234863e-01,7.812507152557373047e-01,7.812192440032958984e-01,7.811876535415649414e-01,7.811561822891235352e-01,7.811245918273925781e-01,7.810931205749511719e-01,7.810615301132202148e-01,7.810300588607788086e-01,7.809984683990478516e-01,7.809669971466064453e-01,7.809355258941650391e-01,7.809039950370788574e-01,7.808724641799926758e-01,7.808409333229064941e-01,7.808094620704650879e-01,7.807779312133789062e-01,7.807464599609375000e-01,7.807149291038513184e-01,7.806834578514099121e-01,7.806519865989685059e-01,7.806205153465270996e-01,7.805890440940856934e-01,7.805575132369995117e-01,7.805260419845581055e-01
7.481350898742675781e-01,7.481061220169067383e-01,7.480772137641906738e-01,7.480482459068298340e-01,7.480193972587585449e-01,7.479904890060424805e-01,7.479615807533264160e-01,7.479326725006103516e-01,7.479037642478942871e-01,7.478748559951782227e-01,7.478459477424621582e-01,7.478170990943908691e-01,7.477881312370300293e-01,7.477592825889587402e-01,7.477304339408874512e-01,7.477014660835266113e-01,7.476726174354553223e-01,7.476437091827392578e-01,7.476148605346679688e-01,7.475859522819519043e-01,7.475571036338806152e-01,7.475282549858093262e-01,7.474993467330932617e-01,7.474704980850219727e-01,7.474415898323059082e-01,7.474127411842346191e-01,7.473838925361633301e-01,7.473550438880920410e-01,7.473261356353759766e-01,7.472972869873046875e-01,7.472684979438781738e-01,7.472395896911621094e-01,7.472108006477355957e-01,7.471818923950195312e-01,7.471531033515930176e-01,7.471241950988769531e-01,7.470954060554504395e-01,7.470664978027343750e-01,7.470377087593078613e-01,7.470089197158813477e-01,7.469800114631652832e-01,7.469512224197387695e-01,7.469223737716674805e-01,7.468935847282409668e-01,7.468646764755249023e-01,7.468358874320983887e-01,7.468070387840270996e-01,7.467782497406005859e-01,7.467494606971740723e-01,7.467206120491027832e-01,7.466918230056762695e-01,7.466629743576049805e-01,7.466342449188232422e-01,7.466053962707519531e-01,7.465766072273254395e-01,7.465477585792541504e-01,7.465190291404724121e-01,7.464902400970458984e-01,7.464613914489746094e-01,7.464326620101928711e-01,7.464038133621215820e-01,7.463750839233398438e-01,7.463462352752685547e-01,7.463175058364868164e-01,7.462886571884155273e-01,7.462599277496337891e-01,7.462311983108520508e-01,7.462024092674255371e-01,7.461736202239990234e-01,7.461448311805725098e-01,7.461161017417907715e-01,7.460873126983642578e-01,7.460585832595825195e-01,7.460297942161560059e-01,7.460010647773742676e-01,7.459723353385925293e-01,7.459435462951660156e-01,7.459148168563842773e-01,7.458860278129577637e-01,7.458572983741760254e-01
7.162252068519592285e-01,7.161986827850341797e-01,7.161722183227539062e-01,7.161456346511840820e-01,7.161191701889038086e-01,7.160927057266235352e-01,7.160661816596984863e-01,7.160397171974182129e-01,7.160131931304931641e-01,7.159867286682128906e-01,7.159602046012878418e-01,7.159337401390075684e-01,7.159072160720825195e-01,7.158808112144470215e-01,7.158543467521667480e-01,7.158278226852416992e-01,7.158013582229614258e-01,7.157748937606811523e-01,7.157484292984008789e-01,7.157219052314758301e-01,7.156955003738403320e-01,7.156690359115600586e-01,7.156425714492797852e-01,7.156161069869995117e-01,7.155896425247192383e-01,7.155631780624389648e-01,7.155367136001586914e-01,7.155102491378784180e-01,7.154837846755981445e-01,7.154573798179626465e-01,7.154309153556823730e-01,7.154044508934020996e-01,7.153780460357666016e-01,7.153515815734863281e-01,7.153251767158508301e-01,7.152987122535705566e-01,7.152722477912902832e-01,7.152457833290100098e-01,7.152193784713745117e-01,7.151929736137390137e-01,7.151665091514587402e-01,7.151401638984680176e-01,7.151136994361877441e-01,7.150872945785522461e-01,7.150608301162719727e-01,7.150344252586364746e-01,7.150079607963562012e-01,7.149816155433654785e-01,7.149552106857299805e-01,7.149287462234497070e-01,7.149024009704589844e-01,7.148759365081787109e-01,7.148495912551879883e-01,7.148231267929077148e-01,7.147967815399169922e-01,7.147703170776367188e-01,7.147439718246459961e-01,7.147175669670104980e-01,7.146911621093750000e-01,7.146648168563842773e-01,7.146383523941040039e-01,7.146120071411132812e-01,7.145856022834777832e-01,7.145592570304870605e-01,7.145327925682067871e-01,7.145064473152160645e-01,7.144801020622253418e-01,7.144536972045898438e-01,7.144273519515991211e-01,7.144009470939636230e-01,7.143746018409729004e-01,7.143481969833374023e-01,7.143218517303466797e-01,7.142954468727111816e-01,7.142691612243652344e-01,7.142428159713745117e-01,7.142164111137390137e-01,7.141900658607482910e-01,7.141637206077575684e-01,7.141373753547668457e-01
6.869260668754577637e-01,6.869016885757446289e-01,6.868773102760314941e-01,6.868529319763183594e-01,6.868285536766052246e-01,6.868042349815368652e-01,6.867797970771789551e-01,6.867554783821105957e-01,6.867310404777526855e-01,6.867067217826843262e-01,6.866823434829711914e-01,6.866579651832580566e-01,6.866335868835449219e-01,6.866092681884765625e-01,6.865849494934082031e-01,6.865605115890502930e-01,6.865361928939819336e-01,6.865118145942687988e-01,6.864874958992004395e-01,6.864631175994873047e-01,6.864387989044189453e-01,6.864144802093505859e-01,6.863901019096374512e-01,6.863657832145690918e-01,6.863414049148559570e-01,6.863170862197875977e-01,6.862927079200744629e-01,6.862683892250061035e-01,6.862440705299377441e-01,6.862197518348693848e-01,6.861954331398010254e-01,6.861710548400878906e-01,6.861467957496643066e-01,6.861224174499511719e-01,6.860980987548828125e-01,6.860737800598144531e-01,6.860494613647460938e-01,6.860251426696777344e-01,6.860008239746093750e-01,6.859765052795410156e-01,6.859521865844726562e-01,6.859279274940490723e-01,6.859035491943359375e-01,6.858792901039123535e-01,6.858549118041992188e-01,6.858306527137756348e-01,6.858063340187072754e-01,6.857820749282836914e-01,6.857577562332153320e-01,6.857334375381469727e-01,6.857091784477233887e-01,6.856848597526550293e-01,6.856606006622314453e-01,6.856362819671630859e-01,6.856120228767395020e-01,6.855876445770263672e-01,6.855633854866027832e-01,6.855391263961791992e-01,6.855148673057556152e-01,6.854906082153320312e-01,6.854662895202636719e-01,6.854420304298400879e-01,6.854177117347717285e-01,6.853934526443481445e-01,6.853691935539245605e-01,6.853449344635009766e-01,6.853206753730773926e-01,6.852963566780090332e-01,6.852721571922302246e-01,6.852478384971618652e-01,6.852235794067382812e-01,6.851993203163146973e-01,6.851750612258911133e-01,6.851508021354675293e-01,6.851265430450439453e-01,6.851023435592651367e-01,6.850780248641967773e-01,6.850538253784179688e-01,6.850295662879943848e-01,6.850053071975708008e-01
6.599298715591430664e-01,6.599073410034179688e-01,6.598848700523376465e-01,6.598623394966125488e-01,6.598398685455322266e-01,6.598173975944519043e-01,6.597948670387268066e-01,6.597723960876464844e-01,6.597498655319213867e-01,6.597273945808410645e-01,6.597048640251159668e-01,6.596824526786804199e-01,6.596599221229553223e-01,6.596374511718750000e-01,6.596149802207946777e-01,6.595925092697143555e-01,6.595700383186340332e-01,6.595475077629089355e-01,6.595250964164733887e-01,6.595025658607482910e-01,6.594800949096679688e-01,6.594576835632324219e-01,6.594351530075073242e-01,6.594127416610717773e-01,6.593902111053466797e-01,6.593677997589111328e-01,6.593452692031860352e-01,6.593228578567504883e-01,6.593003869056701660e-01,6.592779159545898438e-01,6.592555046081542969e-01,6.592330336570739746e-01,6.592105627059936523e-01,6.591880917549133301e-01,6.591656804084777832e-01,6.591432094573974609e-01,6.591207385063171387e-01,6.590982675552368164e-01,6.590758562088012695e-01,6.590534448623657227e-01,6.590309739112854004e-01,6.590085625648498535e-01,6.589860916137695312e-01,6.589636802673339844e-01,6.589412093162536621e-01,6.589187979698181152e-01,6.588963270187377930e-01,6.588739156723022461e-01,6.588515043258666992e-01,6.588290929794311523e-01,6.588066816329956055e-01,6.587842106819152832e-01,6.587617993354797363e-01,6.587393283843994141e-01,6.587169766426086426e-01,6.586945056915283203e-01,6.586720943450927734e-01,6.586497426033020020e-01,6.586272716522216797e-01,6.586048603057861328e-01,6.585824489593505859e-01,6.585600376129150391e-01,6.585376262664794922e-01,6.585152149200439453e-01,6.584928035736083984e-01,6.584703922271728516e-01,6.584480404853820801e-01,6.584256291389465332e-01,6.584032177925109863e-01,6.583808064460754395e-01,6.583584547042846680e-01,6.583359837532043457e-01,6.583136320114135742e-01,6.582912206649780273e-01,6.582688689231872559e-01,6.582464575767517090e-01,6.582240462303161621e-01,6.582016944885253906e-01,6.581792831420898438e-01,6.581569314002990723e-01
6.349753141403198242e-01,6.349544525146484375e-01,6.349336504936218262e-01,6.349127888679504395e-01,6.348919868469238281e-01,6.348711848258972168e-01,6.348503232002258301e-01,6.348295211791992188e-01,6.348086595535278320e-01,6.347878575325012207e-01,6.347669959068298340e-01,6.347461938858032227e-01,6.347253918647766113e-01,6.347045898437500000e-01,6.346837878227233887e-01,6.346629261970520020e-01,6.346421241760253906e-01,6.346213221549987793e-01,6.346005201339721680e-01,6.345797181129455566e-01,6.345589160919189453e-01,6.345381140708923340e-01,6.345173120498657227e-01,6.344965100288391113e-01,6.344757080078125000e-01,6.344549059867858887e-01,6.344341039657592773e-01,6.344133019447326660e-01,6.343924999237060547e-01,6.343716979026794434e-01,6.343509554862976074e-01,6.343300938606262207e-01,6.343093514442443848e-01,6.342885494232177734e-01,6.342677474021911621e-01,6.342469453811645508e-01,6.342262029647827148e-01,6.342054009437561035e-01,6.341845989227294922e-01,6.341638565063476562e-01,6.341430544853210449e-01,6.341223120689392090e-01,6.341015100479125977e-01,6.340807676315307617e-01,6.340599656105041504e-01,6.340392231941223145e-01,6.340184211730957031e-01,6.339976191520690918e-01,6.339768767356872559e-01,6.339561343193054199e-01,6.339353919029235840e-01,6.339145898818969727e-01,6.338938474655151367e-01,6.338730454444885254e-01,6.338523030281066895e-01,6.338315010070800781e-01,6.338107585906982422e-01,6.337900757789611816e-01,6.337692737579345703e-01,6.337485313415527344e-01,6.337277293205261230e-01,6.337070465087890625e-01,6.336862444877624512e-01,6.336655020713806152e-01,6.336447596549987793e-01,6.336240172386169434e-01,6.336032748222351074e-01,6.335825324058532715e-01,6.335617899894714355e-01,6.335410475730895996e-01,6.335203051567077637e-01,6.334995627403259277e-01,6.334788203239440918e-01,6.334580779075622559e-01,6.334373950958251953e-01,6.334166526794433594e-01,6.333959102630615234e-01,6.333752274513244629e-01,6.333544254302978516e-01,6.333337426185607910e-01
6.118392944335937500e-01,6.118199229240417480e-01,6.118005514144897461e-01,6.117812395095825195e-01,6.117618680000305176e-01,6.117425560951232910e-01,6.117232441902160645e-01,6.117039322853088379e-01,6.116845607757568359e-01,6.116652488708496094e-01,6.116458773612976074e-01,6.116265654563903809e-01,6.116071939468383789e-01,6.115878820419311523e-01,6.115686297416687012e-01,6.115492582321166992e-01,6.115299463272094727e-01,6.115105748176574707e-01,6.114913225173950195e-01,6.114719510078430176e-01,6.114526391029357910e-01,6.114333271980285645e-01,6.114140152931213379e-01,6.113947033882141113e-01,6.113753914833068848e-01,6.113560795783996582e-01,6.113367676734924316e-01,6.113174557685852051e-01,6.112981438636779785e-01,6.112788319587707520e-01,6.112595200538635254e-01,6.112402081489562988e-01,6.112209558486938477e-01,6.112015843391418457e-01,6.111823320388793945e-01,6.111630201339721680e-01,6.111437082290649414e-01,6.111243963241577148e-01,6.111051440238952637e-01,6.110858321189880371e-01,6.110665202140808105e-01,6.110472679138183594e-01,6.110279560089111328e-01,6.110086441040039062e-01,6.109893321990966797e-01,6.109700798988342285e-01,6.109507679939270020e-01,6.109315156936645508e-01,6.109122037887573242e-01,6.108929514884948730e-01,6.108736395835876465e-01,6.108543276786804199e-01,6.108350753784179688e-01,6.108157634735107422e-01,6.107965111732482910e-01,6.107772588729858398e-01,6.107579469680786133e-01,6.107386946678161621e-01,6.107194423675537109e-01,6.107001900672912598e-01,6.106808781623840332e-01,6.106616258621215820e-01,6.106423139572143555e-01,6.106230616569519043e-01,6.106038093566894531e-01,6.105845570564270020e-01,6.105653047561645508e-01,6.105460524559020996e-01,6.105268001556396484e-01,6.105074882507324219e-01,6.104882359504699707e-01,6.104689836502075195e-01,6.104497313499450684e-01,6.104304790496826172e-01,6.104112267494201660e-01,6.103919744491577148e-01,6.103727221488952637e-01,6.103534698486328125e-01,6.103342175483703613e-01,6.103149652481079102e-01
