5.000000000000000000e+00,5.000000000000000000e+00,5.000000000000000000e+00,5.000000000000000000e+00,5.000000000000000000e+00,5.000000000000000000e+00,5.000000000000000000e+00,5.000000000000000000e+00,5.000000000000000000e+00,5.000000000000000000e+00,5.000000000000000000e+00,5.000000000000000000e+00,5.000000000000000000e+00,5.000000000000000000e+00,5.000000000000000000e+00,5.000000000000000000e+00,5.000000000000000000e+00,5.000000000000000000e+00,5.000000000000000000e+00,5.000000000000000000e+00,5.000000000000000000e+00,5.000000000000000000e+00,5.000000000000000000e+00,5.000000000000000000e+00,5.000000000000000000e+00,5.000000000000000000e+00,5.000000000000000000e+00,5.000000000000000000e+00,5.000000000000000000e+00,5.000000000000000000e+00,5.000000000000000000e+00,5.000000000000000000e+00,5.000000000000000000e+00,5.000000000000000000e+00,5.000000000000000000e+00,5.000000000000000000e+00,5.000000000000000000e+00,5.000000000000000000e+00,5.000000000000000000e+00,5.000000000000000000e+00,5.000000000000000000e+00,5.000000000000000000e+00,5.000000000000000000e+00,5.000000000000000000e+00,5.000000000000000000e+00,5.000000000000000000e+00,5.000000000000000000e+00,5.000000000000000000e+00,5.000000000000000000e+00,5.000000000000000000e+00,5.000000000000000000e+00,5.000000000000000000e+00,5.000000000000000000e+00,5.000000000000000000e+00,5.000000000000000000e+00,4.824964523315429688e+00,4.670492649078369141e+00,4.525604248046875000e+00,4.389435291290283203e+00,4.261220932006835938e+00,4.140284061431884766e+00,4.026022911071777344e+00,3.917898654937744141e+00,3.815430402755737305e+00,3.718184709548950195e+00,3.625773668289184570e+00,3.537844419479370117e+00,3.454079151153564453e+00,3.374188423156738281e+00,3.297910213470458984e+00,3.225004434585571289e+00,3.155251979827880859e+00,3.088453292846679688e+00,3.024424314498901367e+00,2.963002204895019531e+00,2.904027223587036133e+00,2.847354412078857422e+00,2.792850971221923828e+00,2.740395307540893555e+00,2.689873456954956055e+00
5.000000000000000000e+00,5.000000000000000000e+00,5.000000000000000000e+00,5.000000000000000000e+00,5.000000000000000000e+00,5.000000000000000000e+00,5.000000000000000000e+00,5.000000000000000000e+00,5.000000000000000000e+00,5.000000000000000000e+00,5.000000000000000000e+00,5.000000000000000000e+00,5.000000000000000000e+00,5.000000000000000000e+00,5.000000000000000000e+00,5.000000000000000000e+00,5.000000000000000000e+00,5.000000000000000000e+00,5.000000000000000000e+00,5.000000000000000000e+00,5.000000000000000000e+00,5.000000000000000000e+00,5.000000000000000000e+00,5.000000000000000000e+00,5.000000000000000000e+00,5.000000000000000000e+00,5.000000000000000000e+00,5.000000000000000000e+00,5.000000000000000000e+00,5.000000000000000000e+00,5.000000000000000000e+00,5.000000000000000000e+00,5.000000000000000000e+00,5.000000000000000000e+00,5.000000000000000000e+00,5.000000000000000000e+00,5.000000000000000000e+00,5.000000000000000000e+00,5.000000000000000000e+00,5.000000000000000000e+00,5.000000000000000000e+00,5.000000000000000000e+00,5.000000000000000000e+00,5.000000000000000000e+00,5.000000000000000000e+00,5.000000000000000000e+00,5.000000000000000000e+00,5.000000000000000000e+00,5.000000000000000000e+00,5.000000000000000000e+00,5.000000000000000000e+00,5.000000000000000000e+00,5.000000000000000000e+00,5.000000000000000000e+00,4.990134716033935547e+00,4.825086593627929688e+00,4.670606613159179688e+00,4.525712013244628906e+00,4.389535903930664062e+00,4.261315822601318359e+00,4.140373706817626953e+00,4.026107311248779297e+00,3.917979240417480469e+00,3.815506458282470703e+00,3.718257188796997070e+00,3.625842571258544922e+00,3.537910223007202148e+00,3.454141378402709961e+00,3.374248266220092773e+00,3.297967195510864258e+00,3.225058555603027344e+00,3.155311822891235352e+00,3.088519811630249023e+00,3.024496793746948242e+00,2.963073730468750000e+00,2.904096364974975586e+00,2.847420692443847656e+00,2.792914867401123047e+00,2.740456581115722656e+00,2.689932584762573242e+00
5.000000000000000000e+00,5.000000000000000000e+00,5.000000000000000000e+00,5.000000000000000000e+00,5.000000000000000000e+00,5.000000000000000000e+00,5.000000000000000000e+00,5.000000000000000000e+00,5.000000000000000000e+00,5.000000000000000000e+00,5.000000000000000000e+00,5.000000000000000000e+00,5.000000000000000000e+00,5.000000000000000000e+00,5.000000000000000000e+00,5.000000000000000000e+00,5.000000000000000000e+00,5.000000000000000000e+00,5.000000000000000000e+00,5.000000000000000000e+00,5.000000000000000000e+00,5.000000000000000000e+00,5.000000000000000000e+00,5.000000000000000000e+00,5.000000000000000000e+00,5.000000000000000000e+00,5.000000000000000000e+00,5.000000000000000000e+00,5.000000000000000000e+00,5.000000000000000000e+00,5.000000000000000000e+00,5.000000000000000000e+00,5.000000000000000000e+00,5.000000000000000000e+00,5.000000000000000000e+00,5.000000000000000000e+00,5.000000000000000000e+00,5.000000000000000000e+00,5.000000000000000000e+00,5.000000000000000000e+00,5.000000000000000000e+00,5.000000000000000000e+00,5.000000000000000000e+00,5.000000000000000000e+00,5.000000000000000000e+00,5.000000000000000000e+00,5.000000000000000000e+00,5.000000000000000000e+00,5.000000000000000000e+00,5.000000000000000000e+00,5.000000000000000000e+00,5.000000000000000000e+00,5.000000000000000000e+00,5.000000000000000000e+00,4.990265369415283203e+00,4.825208663940429688e+00,4.670721054077148438e+00,4.525818824768066406e+00,4.389636516571044922e+00,4.261411190032958984e+00,4.140463352203369141e+00,4.026192665100097656e+00,3.918059110641479492e+00,3.815582752227783203e+00,3.718329906463623047e+00,3.625911235809326172e+00,3.537975311279296875e+00,3.454204082489013672e+00,3.374317646026611328e+00,3.298043966293334961e+00,3.225142002105712891e+00,3.155393362045288086e+00,3.088597536087036133e+00,3.024571418762207031e+00,2.963145494461059570e+00,2.904165267944335938e+00,2.847486734390258789e+00,2.792978525161743164e+00,2.740511417388916016e+00,2.689978599548339844e+00
5.000000000000000000e+00,5.000000000000000000e+00,5.000000000000000000e+00,5.000000000000000000e+00,5.000000000000000000e+00,5.000000000000000000e+00,5.000000000000000000e+00,5.000000000000000000e+00,5.000000000000000000e+00,5.000000000000000000e+00,5.000000000000000000e+00,5.000000000000000000e+00,5.000000000000000000e+00,5.000000000000000000e+00,5.000000000000000000e+00,5.000000000000000000e+00,5.000000000000000000e+00,5.000000000000000000e+00,5.000000000000000000e+00,5.000000000000000000e+00,5.000000000000000000e+00,5.000000000000000000e+00,5.000000000000000000e+00,5.000000000000000000e+00,5.000000000000000000e+00,5.000000000000000000e+00,5.000000000000000000e+00,5.000000000000000000e+00,5.000000000000000000e+00,5.000000000000000000e+00,5.000000000000000000e+00,5.000000000000000000e+00,5.000000000000000000e+00,5.000000000000000000e+00,5.000000000000000000e+00,5.000000000000000000e+00,5.000000000000000000e+00,5.000000000000000000e+00,5.000000000000000000e+00,5.000000000000000000e+00,5.000000000000000000e+00,5.000000000000000000e+00,5.000000000000000000e+00,5.000000000000000000e+00,5.000000000000000000e+00,5.000000000000000000e+00,5.000000000000000000e+00,5.000000000000000000e+00,5.000000000000000000e+00,5.000000000000000000e+00,5.000000000000000000e+00,5.000000000000000000e+00,5.000000000000000000e+00,5.000000000000000000e+00,4.990395545959472656e+00,4.825330734252929688e+00,4.670835018157958984e+00,4.525926113128662109e+00,4.389737606048583984e+00,4.261506080627441406e+00,4.140553474426269531e+00,4.026277065277099609e+00,3.918139696121215820e+00,3.815659046173095703e+00,3.718402862548828125e+00,3.625993013381958008e+00,3.538065433502197266e+00,3.454300880432128906e+00,3.374411106109619141e+00,3.298132896423339844e+00,3.225227117538452148e+00,3.155474662780761719e+00,3.088675737380981445e+00,3.024646043777465820e+00,2.963217496871948242e+00,2.904226303100585938e+00,2.847537755966186523e+00,2.793020248413085938e+00,2.740550994873046875e+00,2.690016746520996094e+00
5.000000000000000000e+00,5.000000000000000000e+00,5.000000000000000000e+00,5.000000000000000000e+00,5.000000000000000000e+00,5.000000000000000000e+00,5.000000000000000000e+00,5.000000000000000000e+00,5.000000000000000000e+00,5.000000000000000000e+00,5.000000000000000000e+00,5.000000000000000000e+00,5.000000000000000000e+00,5.000000000000000000e+00,5.000000000000000000e+00,5.000000000000000000e+00,5.000000000000000000e+00,5.000000000000000000e+00,5.000000000000000000e+00,5.000000000000000000e+00,5.000000000000000000e+00,5.000000000000000000e+00,5.000000000000000000e+00,5.000000000000000000e+00,5.000000000000000000e+00,5.000000000000000000e+00,5.000000000000000000e+00,5.000000000000000000e+00,5.000000000000000000e+00,5.000000000000000000e+00,5.000000000000000000e+00,5.000000000000000000e+00,5.000000000000000000e+00,5.000000000000000000e+00,5.000000000000000000e+00,5.000000000000000000e+00,5.000000000000000000e+00,5.000000000000000000e+00,5.000000000000000000e+00,5.000000000000000000e+00,5.000000000000000000e+00,5.000000000000000000e+00,5.000000000000000000e+00,5.000000000000000000e+00,5.000000000000000000e+00,5.000000000000000000e+00,5.000000000000000000e+00,5.000000000000000000e+00,5.000000000000000000e+00,5.000000000000000000e+00,5.000000000000000000e+00,5.000000000000000000e+00,5.000000000000000000e+00,5.000000000000000000e+00,4.990525722503662109e+00,4.825452327728271484e+00,4.670949459075927734e+00,4.526033401489257812e+00,4.389838695526123047e+00,4.261601448059082031e+00,4.140643119812011719e+00,4.026364326477050781e+00,3.918236732482910156e+00,3.815764427185058594e+00,3.718515634536743164e+00,3.626100540161132812e+00,3.538167476654052734e+00,3.454398155212402344e+00,3.374504089355468750e+00,3.298221588134765625e+00,3.225312232971191406e+00,3.155555486679077148e+00,3.088743925094604492e+00,3.024702787399291992e+00,2.963263511657714844e+00,2.904270648956298828e+00,2.847580671310424805e+00,2.793061017990112305e+00,2.740590333938598633e+00,2.690054655075073242e+00
5.000000000000000000e+00,5.000000000000000000e+00,5.000000000000000000e+00,5.000000000000000000e+00,5.000000000000000000e+00,5.000000000000000000e+00,5.000000000000000000e+00,5.000000000000000000e+00,5.000000000000000000e+00,5.000000000000000000e+00,5.000000000000000000e+00,5.000000000000000000e+00,5.000000000000000000e+00,5.000000000000000000e+00,5.000000000000000000e+00,5.000000000000000000e+00,5.000000000000000000e+00,5.000000000000000000e+00,5.000000000000000000e+00,5.000000000000000000e+00,5.000000000000000000e+00,5.000000000000000000e+00,5.000000000000000000e+00,5.000000000000000000e+00,5.000000000000000000e+00,5.000000000000000000e+00,5.000000000000000000e+00,5.000000000000000000e+00,5.000000000000000000e+00,5.000000000000000000e+00,5.000000000000000000e+00,5.000000000000000000e+00,5.000000000000000000e+00,5.000000000000000000e+00,5.000000000000000000e+00,5.000000000000000000e+00,5.000000000000000000e+00,5.000000000000000000e+00,5.000000000000000000e+00,5.000000000000000000e+00,5.000000000000000000e+00,5.000000000000000000e+00,5.000000000000000000e+00,5.000000000000000000e+00,5.000000000000000000e+00,5.000000000000000000e+00,5.000000000000000000e+00,5.000000000000000000e+00,5.000000000000000000e+00,5.000000000000000000e+00,5.000000000000000000e+00,5.000000000000000000e+00,5.000000000000000000e+00,5.000000000000000000e+00,4.990656375885009766e+00,4.825574398040771484e+00,4.671063899993896484e+00,4.526140689849853516e+00,4.389944076538085938e+00,4.261717796325683594e+00,4.140769481658935547e+00,4.026496887207031250e+00,3.918362140655517578e+00,3.815883874893188477e+00,3.718628644943237305e+00,3.626208305358886719e+00,3.538269758224487305e+00,3.454496145248413086e+00,3.374595403671264648e+00,3.298298835754394531e+00,3.225376129150390625e+00,3.155607700347900391e+00,3.088793992996215820e+00,3.024751186370849609e+00,2.963309764862060547e+00,2.904314994812011719e+00,2.847623109817504883e+00,2.793102264404296875e+00,2.740630149841308594e+00,2.690092802047729492e+00
5.000000000000000000e+00,5.000000000000000000e+00,5.000000000000000000e+00,5.000000000000000000e+00,5.000000000000000000e+00,5.000000000000000000e+00,5.000000000000000000e+00,5.000000000000000000e+00,5.000000000000000000e+00,5.000000000000000000e+00,5.000000000000000000e+00,5.000000000000000000e+00,5.000000000000000000e+00,5.000000000000000000e+00,5.000000000000000000e+00,5.000000000000000000e+00,5.000000000000000000e+00,5.000000000000000000e+00,5.000000000000000000e+00,5.000000000000000000e+00,5.000000000000000000e+00,5.000000000000000000e+00,5.000000000000000000e+00,5.000000000000000000e+00,5.000000000000000000e+00,5.000000000000000000e+00,5.000000000000000000e+00,5.000000000000000000e+00,5.000000000000000000e+00,5.000000000000000000e+00,5.000000000000000000e+00,5.000000000000000000e+00,5.000000000000000000e+00,5.000000000000000000e+00,5.000000000000000000e+00,5.000000000000000000e+00,5.000000000000000000e+00,5.000000000000000000e+00,5.000000000000000000e+00,5.000000000000000000e+00,5.000000000000000000e+00,5.000000000000000000e+00,5.000000000000000000e+00,5.000000000000000000e+00,5.000000000000000000e+00,5.000000000000000000e+00,5.000000000000000000e+00,5.000000000000000000e+00,5.000000000000000000e+00,5.000000000000000000e+00,5.000000000000000000e+00,5.000000000000000000e+00,5.000000000000000000e+00,5.000000000000000000e+00,4.990787029266357422e+00,4.825703620910644531e+00,4.671205520629882812e+00,4.526293277740478516e+00,4.390101432800292969e+00,4.261866092681884766e+00,4.140909194946289062e+00,4.026629447937011719e+00,3.918487548828125000e+00,3.816002845764160156e+00,3.718741416931152344e+00,3.626312494277954102e+00,3.538357496261596680e+00,3.454568147659301758e+00,3.374655485153198242e+00,3.298355817794799805e+00,3.225430488586425781e+00,3.155660152435302734e+00,3.088844299316406250e+00,3.024799108505249023e+00,2.963355779647827148e+00,2.904359340667724609e+00,2.847665548324584961e+00,2.793143272399902344e+00,2.740669488906860352e+00,2.690130949020385742e+00
5.000000000000000000e+00,5.000000000000000000e+00,5.000000000000000000e+00,5.000000000000000000e+00,5.000000000000000000e+00,5.000000000000000000e+00,5.000000000000000000e+00,5.000000000000000000e+00,5.000000000000000000e+00,5.000000000000000000e+00,5.000000000000000000e+00,5.000000000000000000e+00,5.000000000000000000e+00,5.000000000000000000e+00,5.000000000000000000e+00,5.000000000000000000e+00,5.000000000000000000e+00,5.000000000000000000e+00,5.000000000000000000e+00,5.000000000000000000e+00,5.000000000000000000e+00,5.000000000000000000e+00,5.000000000000000000e+00,5.000000000000000000e+00,5.000000000000000000e+00,5.000000000000000000e+00,5.000000000000000000e+00,5.000000000000000000e+00,5.000000000000000000e+00,5.000000000000000000e+00,5.000000000000000000e+00,5.000000000000000000e+00,5.000000000000000000e+00,5.000000000000000000e+00,5.000000000000000000e+00,4.050998210906982422e+00,4.022805213928222656e+00,5.000000000000000000e+00,5.000000000000000000e+00,5.000000000000000000e+00,5.000000000000000000e+00,5.000000000000000000e+00,5.000000000000000000e+00,5.000000000000000000e+00,5.000000000000000000e+00,5.000000000000000000e+00,5.000000000000000000e+00,5.000000000000000000e+00,5.000000000000000000e+00,5.000000000000000000e+00,5.000000000000000000e+00,5.000000000000000000e+00,5.000000000000000000e+00,5.000000000000000000e+00,4.990974903106689453e+00,4.825894355773925781e+00,4.671383857727050781e+00,4.526461124420166016e+00,4.390259265899658203e+00,4.262014865875244141e+00,4.141049861907958984e+00,4.026762008666992188e+00,3.918608665466308594e+00,3.816103458404541016e+00,3.718824386596679688e+00,3.626381874084472656e+00,3.538423538208007812e+00,3.454630851745605469e+00,3.374715089797973633e+00,3.298413276672363281e+00,3.225485086441040039e+00,3.155712366104125977e+00,3.088894367218017578e+00,3.024847269058227539e+00,2.963402032852172852e+00,2.904403686523437500e+00,2.847708463668823242e+00,2.793184280395507812e+00,2.740708827972412109e+00,2.690168857574462891e+00
5.000000000000000000e+00,5.000000000000000000e+00,5.000000000000000000e+00,5.000000000000000000e+00,5.000000000000000000e+00,5.000000000000000000e+00,5.000000000000000000e+00,5.000000000000000000e+00,5.000000000000000000e+00,5.000000000000000000e+00,5.000000000000000000e+00,5.000000000000000000e+00,5.000000000000000000e+00,5.000000000000000000e+00,5.000000000000000000e+00,5.000000000000000000e+00,5.000000000000000000e+00,5.000000000000000000e+00,5.000000000000000000e+00,5.000000000000000000e+00,5.000000000000000000e+00,5.000000000000000000e+00,5.000000000000000000e+00,5.000000000000000000e+00,5.000000000000000000e+00,5.000000000000000000e+00,5.000000000000000000e+00,5.000000000000000000e+00,5.000000000000000000e+00,5.000000000000000000e+00,5.000000000000000000e+00,5.000000000000000000e+00,5.000000000000000000e+00,5.000000000000000000e+00,5.000000000000000000e+00,4.062731742858886719e+00,4.024007797241210938e+00,5.000000000000000000e+00,5.000000000000000000e+00,5.000000000000000000e+00,5.000000000000000000e+00,5.000000000000000000e+00,5.000000000000000000e+00,5.000000000000000000e+00,5.000000000000000000e+00,5.000000000000000000e+00,5.000000000000000000e+00,5.000000000000000000e+00,5.000000000000000000e+00,5.000000000000000000e+00,5.000000000000000000e+00,5.000000000000000000e+00,5.000000000000000000e+00,5.000000000000000000e+00,4.991178512573242188e+00,4.826084613800048828e+00,4.671562671661376953e+00,4.526628494262695312e+00,4.390416622161865234e+00,4.262156486511230469e+00,4.141167163848876953e+00,4.026857376098632812e+00,3.918689250946044922e+00,3.816180229187011719e+00,3.718896865844726562e+00,3.626450777053833008e+00,3.538489103317260742e+00,3.454693794250488281e+00,3.374774932861328125e+00,3.298470258712768555e+00,3.225540161132812500e+00,3.155765056610107422e+00,3.088944435119628906e+00,3.024895429611206055e+00,2.963448286056518555e+00,2.904448032379150391e+00,2.847750902175903320e+00,2.793225288391113281e+00,2.740748405456542969e+00,2.690206766128540039e+00
5.000000000000000000e+00,5.000000000000000000e+00,5.000000000000000000e+00,5.000000000000000000e+00,5.000000000000000000e+00,5.000000000000000000e+00,5.000000000000000000e+00,5.000000000000000000e+00,5.000000000000000000e+00,5.000000000000000000e+00,5.000000000000000000e+00,5.000000000000000000e+00,5.000000000000000000e+00,5.000000000000000000e+00,5.000000000000000000e+00,5.000000000000000000e+00,5.000000000000000000e+00,5.000000000000000000e+00,5.000000000000000000e+00,5.000000000000000000e+00,5.000000000000000000e+00,5.000000000000000000e+00,5.000000000000000000e+00,5.000000000000000000e+00,5.000000000000000000e+00,5.000000000000000000e+00,5.000000000000000000e+00,5.000000000000000000e+00,5.000000000000000000e+00,5.000000000000000000e+00,5.000000000000000000e+00,5.000000000000000000e+00,5.000000000000000000e+00,5.000000000000000000e+00,5.000000000000000000e+00,4.128304481506347656e+00,4.049491882324218750e+00,5.000000000000000000e+00,5.000000000000000000e+00,5.000000000000000000e+00,5.000000000000000000e+00,5.000000000000000000e+00,5.000000000000000000e+00,5.000000000000000000e+00,5.000000000000000000e+00,5.000000000000000000e+00,5.000000000000000000e+00,5.000000000000000000e+00,5.000000000000000000e+00,5.000000000000000000e+00,5.000000000000000000e+00,5.000000000000000000e+00,5.000000000000000000e+00,5.000000000000000000e+00,4.991382122039794922e+00,4.826274871826171875e+00,4.671730518341064453e+00,4.526767253875732422e+00,4.390528678894042969e+00,4.262251853942871094e+00,4.141257286071777344e+00,4.026942729949951172e+00,3.918769836425781250e+00,3.816256761550903320e+00,3.718969821929931641e+00,3.626520156860351562e+00,3.538554906845092773e+00,3.454756259918212891e+00,3.374835014343261719e+00,3.298527717590332031e+00,3.225594520568847656e+00,3.155817270278930664e+00,3.088994741439819336e+00,3.024943351745605469e+00,2.963494300842285156e+00,2.904492378234863281e+00,2.847793817520141602e+00,2.793266296386718750e+00,2.740787744522094727e+00,2.690244913101196289e+00
5.000000000000000000e+00,5.000000000000000000e+00,5.000000000000000000e+00,5.000000000000000000e+00,5.000000000000000000e+00,5.000000000000000000e+00,5.000000000000000000e+00,5.000000000000000000e+00,5.000000000000000000e+00,5.000000000000000000e+00,5.000000000000000000e+00,5.000000000000000000e+00,5.000000000000000000e+00,5.000000000000000000e+00,5.000000000000000000e+00,5.000000000000000000e+00,5.000000000000000000e+00,5.000000000000000000e+00,5.000000000000000000e+00,5.000000000000000000e+00,5.000000000000000000e+00,5.000000000000000000e+00,5.000000000000000000e+00,5.000000000000000000e+00,5.000000000000000000e+00,5.000000000000000000e+00,5.000000000000000000e+00,5.000000000000000000e+00,5.000000000000000000e+00,5.000000000000000000e+00,5.000000000000000000e+00,5.000000000000000000e+00,5.000000000000000000e+00,5.000000000000000000e+00,4.084061622619628906e+00,4.048973083496093750e+00,4.125595569610595703e+00,4.121640682220458984e+00,5.000000000000000000e+00,5.000000000000000000e+00,5.000000000000000000e+00,5.000000000000000000e+00,5.000000000000000000e+00,5.000000000000000000e+00,5.000000000000000000e+00,5.000000000000000000e+00,5.000000000000000000e+00,5.000000000000000000e+00,5.000000000000000000e+00,5.000000000000000000e+00,5.000000000000000000e+00,5.000000000000000000e+00,5.000000000000000000e+00,5.000000000000000000e+00,4.991549015045166016e+00,4.826408863067626953e+00,4.671845436096191406e+00,4.526875019073486328e+00,4.390630245208740234e+00,4.262347221374511719e+00,4.141347408294677734e+00,4.027028083801269531e+00,3.918850898742675781e+00,3.816333055496215820e+00,3.719042301177978516e+00,3.626589298248291016e+00,3.538620948791503906e+00,3.454818964004516602e+00,3.374894618988037109e+00,3.298584699630737305e+00,3.225649595260620117e+00,3.155869483947753906e+00,3.089044809341430664e+00,3.024991512298583984e+00,2.963540554046630859e+00,2.904536724090576172e+00,2.847836256027221680e+00,2.793307304382324219e+00,2.740827560424804688e+00,2.690283060073852539e+00
5.000000000000000000e+00,5.000000000000000000e+00,5.000000000000000000e+00,5.000000000000000000e+00,5.000000000000000000e+00,5.000000000000000000e+00,5.000000000000000000e+00,5.000000000000000000e+00,5.000000000000000000e+00,5.000000000000000000e+00,5.000000000000000000e+00,5.000000000000000000e+00,5.000000000000000000e+00,5.000000000000000000e+00,5.000000000000000000e+00,5.000000000000000000e+00,5.000000000000000000e+00,5.000000000000000000e+00,5.000000000000000000e+00,5.000000000000000000e+00,5.000000000000000000e+00,5.000000000000000000e+00,5.000000000000000000e+00,5.000000000000000000e+00,5.000000000000000000e+00,5.000000000000000000e+00,5.000000000000000000e+00,5.000000000000000000e+00,5.000000000000000000e+00,5.000000000000000000e+00,5.000000000000000000e+00,5.000000000000000000e+00,5.000000000000000000e+00,4.029444694519042969e+00,4.021489620208740234e+00,4.027779102325439453e+00,4.042826175689697266e+00,4.072641372680664062e+00,4.128787994384765625e+00,4.175162315368652344e+00,5.000000000000000000e+00,5.000000000000000000e+00,5.000000000000000000e+00,5.000000000000000000e+00,5.000000000000000000e+00,5.000000000000000000e+00,5.000000000000000000e+00,5.000000000000000000e+00,5.000000000000000000e+00,5.000000000000000000e+00,5.000000000000000000e+00,5.000000000000000000e+00,5.000000000000000000e+00,5.000000000000000000e+00,4.991680145263671875e+00,4.826531410217285156e+00,4.671960353851318359e+00,4.526982307434082031e+00,4.390731334686279297e+00,4.262442588806152344e+00,4.141437530517578125e+00,4.027113437652587891e+00,3.918931484222412109e+00,3.816409826278686523e+00,3.719115257263183594e+00,3.626658201217651367e+00,3.538686513900756836e+00,3.454881906509399414e+00,3.374954700469970703e+00,3.298641920089721680e+00,3.225704193115234375e+00,3.155921936035156250e+00,3.089094877243041992e+00,3.025039672851562500e+00,2.963586807250976562e+00,2.904581069946289062e+00,2.847878932952880859e+00,2.793348312377929688e+00,2.740866899490356445e+00,2.690321207046508789e+00
5.000000000000000000e+00,5.000000000000000000e+00,5.000000000000000000e+00,5.000000000000000000e+00,5.000000000000000000e+00,5.000000000000000000e+00,5.000000000000000000e+00,5.000000000000000000e+00,5.000000000000000000e+00,5.000000000000000000e+00,5.000000000000000000e+00,5.000000000000000000e+00,5.000000000000000000e+00,5.000000000000000000e+00,5.000000000000000000e+00,5.000000000000000000e+00,5.000000000000000000e+00,5.000000000000000000e+00,5.000000000000000000e+00,5.000000000000000000e+00,5.000000000000000000e+00,5.000000000000000000e+00,5.000000000000000000e+00,5.000000000000000000e+00,5.000000000000000000e+00,5.000000000000000000e+00,5.000000000000000000e+00,5.000000000000000000e+00,5.000000000000000000e+00,5.000000000000000000e+00,5.000000000000000000e+00,5.000000000000000000e+00,5.000000000000000000e+00,4.050540447235107422e+00,4.023581504821777344e+00,4.000762939453125000e+00,4.016634941101074219e+00,4.041042327880859375e+00,4.135187149047851562e+00,4.193763732910156250e+00,5.000000000000000000e+00,5.000000000000000000e+00,5.000000000000000000e+00,5.000000000000000000e+00,5.000000000000000000e+00,5.000000000000000000e+00,5.000000000000000000e+00,5.000000000000000000e+00,5.000000000000000000e+00,5.000000000000000000e+00,5.000000000000000000e+00,5.000000000000000000e+00,5.000000000000000000e+00,5.000000000000000000e+00,4.991811275482177734e+00,4.826653480529785156e+00,4.672075271606445312e+00,4.527090072631835938e+00,4.390832901000976562e+00,4.262538433074951172e+00,4.141527652740478516e+00,4.027198791503906250e+00,3.919012546539306641e+00,3.816486358642578125e+00,3.719187974929809570e+00,3.626727581024169922e+00,3.538752317428588867e+00,3.454944610595703125e+00,3.375014543533325195e+00,3.298699378967285156e+00,3.225758552551269531e+00,3.155974149703979492e+00,3.089145183563232422e+00,3.025087833404541016e+00,2.963632822036743164e+00,2.904625415802001953e+00,2.847921609878540039e+00,2.793389558792114258e+00,2.740906238555908203e+00,2.690359115600585938e+00
5.000000000000000000e+00,5.000000000000000000e+00,5.000000000000000000e+00,5.000000000000000000e+00,5.000000000000000000e+00,5.000000000000000000e+00,5.000000000000000000e+00,5.000000000000000000e+00,5.000000000000000000e+00,5.000000000000000000e+00,5.000000000000000000e+00,5.000000000000000000e+00,5.000000000000000000e+00,5.000000000000000000e+00,5.000000000000000000e+00,5.000000000000000000e+00,5.000000000000000000e+00,5.000000000000000000e+00,5.000000000000000000e+00,5.000000000000000000e+00,5.000000000000000000e+00,5.000000000000000000e+00,5.000000000000000000e+00,5.000000000000000000e+00,5.000000000000000000e+00,5.000000000000000000e+00,5.000000000000000000e+00,5.000000000000000000e+00,5.000000000000000000e+00,5.000000000000000000e+00,5.000000000000000000e+00,5.000000000000000000e+00,5.000000000000000000e+00,4.064867496490478516e+00,4.035914897918701172e+00,4.006889820098876953e+00,4.007813930511474609e+00,4.047025203704833984e+00,4.173228740692138672e+00,4.193575382232666016e+00,5.000000000000000000e+00,5.000000000000000000e+00,5.000000000000000000e+00,5.000000000000000000e+00,5.000000000000000000e+00,5.000000000000000000e+00,5.000000000000000000e+00,5.000000000000000000e+00,5.000000000000000000e+00,5.000000000000000000e+00,5.000000000000000000e+00,5.000000000000000000e+00,5.000000000000000000e+00,5.000000000000000000e+00,4.991941928863525391e+00,4.826776027679443359e+00,4.672189712524414062e+00,4.527198314666748047e+00,4.390933990478515625e+00,4.262633800506591797e+00,4.141617774963378906e+00,4.027283668518066406e+00,3.919092893600463867e+00,3.816563129425048828e+00,3.719260454177856445e+00,3.626796483993530273e+00,3.538818359375000000e+00,3.455007553100585938e+00,3.375074386596679688e+00,3.298756361007690430e+00,3.225813627243041992e+00,3.156026840209960938e+00,3.089195251464843750e+00,3.025135993957519531e+00,2.963679075241088867e+00,2.904669523239135742e+00,2.847964048385620117e+00,2.793430328369140625e+00,2.740945816040039062e+00,2.690397024154663086e+00
5.000000000000000000e+00,5.000000000000000000e+00,5.000000000000000000e+00,5.000000000000000000e+00,5.000000000000000000e+00,5.000000000000000000e+00,5.000000000000000000e+00,5.000000000000000000e+00,5.000000000000000000e+00,5.000000000000000000e+00,5.000000000000000000e+00,5.000000000000000000e+00,5.000000000000000000e+00,5.000000000000000000e+00,5.000000000000000000e+00,5.000000000000000000e+00,5.000000000000000000e+00,5.000000000000000000e+00,5.000000000000000000e+00,5.000000000000000000e+00,5.000000000000000000e+00,5.000000000000000000e+00,5.000000000000000000e+00,5.000000000000000000e+00,5.000000000000000000e+00,5.000000000000000000e+00,5.000000000000000000e+00,5.000000000000000000e+00,5.000000000000000000e+00,5.000000000000000000e+00,5.000000000000000000e+00,5.000000000000000000e+00,5.000000000000000000e+00,4.074047088623046875e+00,4.056031703948974609e+00,4.005908489227294922e+00,4.009226322174072266e+00,4.044734001159667969e+00,4.181813716888427734e+00,4.192294597625732422e+00,5.000000000000000000e+00,5.000000000000000000e+00,5.000000000000000000e+00,5.000000000000000000e+00,5.000000000000000000e+00,5.000000000000000000e+00,5.000000000000000000e+00,5.000000000000000000e+00,5.000000000000000000e+00,5.000000000000000000e+00,5.000000000000000000e+00,5.000000000000000000e+00,5.000000000000000000e+00,5.000000000000000000e+00,4.992073059082031250e+00,4.826898574829101562e+00,4.672304630279541016e+00,4.527306079864501953e+00,4.391035556793212891e+00,4.262729167938232422e+00,4.141707897186279297e+00,4.027369022369384766e+00,3.919173479080200195e+00,3.816639423370361328e+00,3.719333410263061523e+00,3.626865863800048828e+00,3.538883924484252930e+00,3.455070257186889648e+00,3.375134468078613281e+00,3.298813343048095703e+00,3.225868225097656250e+00,3.156079053878784180e+00,3.089245557785034180e+00,3.025183916091918945e+00,2.963725328445434570e+00,2.904714107513427734e+00,2.848006963729858398e+00,2.793471336364746094e+00,2.740985393524169922e+00,2.690435171127319336e+00
5.000000000000000000e+00,5.000000000000000000e+00,5.000000000000000000e+00,5.000000000000000000e+00,5.000000000000000000e+00,5.000000000000000000e+00,5.000000000000000000e+00,5.000000000000000000e+00,5.000000000000000000e+00,5.000000000000000000e+00,5.000000000000000000e+00,5.000000000000000000e+00,5.000000000000000000e+00,5.000000000000000000e+00,5.000000000000000000e+00,5.000000000000000000e+00,5.000000000000000000e+00,5.000000000000000000e+00,5.000000000000000000e+00,5.000000000000000000e+00,5.000000000000000000e+00,5.000000000000000000e+00,5.000000000000000000e+00,5.000000000000000000e+00,5.000000000000000000e+00,5.000000000000000000e+00,5.000000000000000000e+00,5.000000000000000000e+00,5.000000000000000000e+00,5.000000000000000000e+00,5.000000000000000000e+00,5.000000000000000000e+00,5.000000000000000000e+00,4.089336872100830078e+00,4.034366607666015625e+00,3.987872123718261719e+00,3.998987197875976562e+00,4.028999805450439453e+00,4.206277847290039062e+00,4.198720455169677734e+00,5.000000000000000000e+00,5.000000000000000000e+00,5.000000000000000000e+00,5.000000000000000000e+00,5.000000000000000000e+00,5.000000000000000000e+00,5.000000000000000000e+00,5.000000000000000000e+00,5.000000000000000000e+00,5.000000000000000000e+00,5.000000000000000000e+00,5.000000000000000000e+00,5.000000000000000000e+00,5.000000000000000000e+00,4.992207050323486328e+00,4.827023029327392578e+00,4.672420501708984375e+00,4.527413845062255859e+00,4.391136646270751953e+00,4.262825012207031250e+00,4.141798496246337891e+00,4.027454376220703125e+00,3.919254541397094727e+00,3.816715955734252930e+00,3.719405889511108398e+00,3.626935005187988281e+00,3.538950204849243164e+00,3.455132722854614258e+00,3.375194072723388672e+00,3.298870801925659180e+00,3.225923061370849609e+00,3.156131267547607422e+00,3.089295625686645508e+00,3.025232076644897461e+00,2.963771581649780273e+00,2.904758453369140625e+00,2.848049402236938477e+00,2.793512582778930664e+00,2.741024732589721680e+00,2.690473318099975586e+00
5.000000000000000000e+00,5.000000000000000000e+00,5.000000000000000000e+00,5.000000000000000000e+00,5.000000000000000000e+00,5.000000000000000000e+00,5.000000000000000000e+00,5.000000000000000000e+00,5.000000000000000000e+00,5.000000000000000000e+00,5.000000000000000000e+00,5.000000000000000000e+00,5.000000000000000000e+00,5.000000000000000000e+00,5.000000000000000000e+00,5.000000000000000000e+00,5.000000000000000000e+00,5.000000000000000000e+00,5.000000000000000000e+00,5.000000000000000000e+00,5.000000000000000000e+00,5.000000000000000000e+00,5.000000000000000000e+00,5.000000000000000000e+00,5.000000000000000000e+00,5.000000000000000000e+00,5.000000000000000000e+00,5.000000000000000000e+00,5.000000000000000000e+00,5.000000000000000000e+00,5.000000000000000000e+00,5.000000000000000000e+00,5.000000000000000000e+00,4.067793846130371094e+00,4.042061805725097656e+00,4.001748085021972656e+00,4.004121780395507812e+00,4.038286685943603516e+00,4.223784446716308594e+00,4.173104286193847656e+00,5.000000000000000000e+00,5.000000000000000000e+00,5.000000000000000000e+00,5.000000000000000000e+00,5.000000000000000000e+00,5.000000000000000000e+00,5.000000000000000000e+00,5.000000000000000000e+00,5.000000000000000000e+00,5.000000000000000000e+00,5.000000000000000000e+00,5.000000000000000000e+00,5.000000000000000000e+00,5.000000000000000000e+00,4.992344379425048828e+00,4.827151775360107422e+00,4.672541141510009766e+00,4.527526855468750000e+00,4.391242980957031250e+00,4.262924194335937500e+00,4.141891479492187500e+00,4.027542114257812500e+00,3.919337034225463867e+00,3.816794157028198242e+00,3.719479322433471680e+00,3.627004384994506836e+00,3.539015769958496094e+00,3.455195665359497070e+00,3.375254154205322266e+00,3.298928022384643555e+00,3.225977659225463867e+00,3.156183719635009766e+00,3.089345693588256836e+00,3.025280237197875977e+00,2.963817596435546875e+00,2.904802799224853516e+00,2.848092079162597656e+00,2.793553352355957031e+00,2.741064310073852539e+00,2.690511465072631836e+00
5.000000000000000000e+00,5.000000000000000000e+00,5.000000000000000000e+00,5.000000000000000000e+00,5.000000000000000000e+00,5.000000000000000000e+00,5.000000000000000000e+00,5.000000000000000000e+00,5.000000000000000000e+00,5.000000000000000000e+00,5.000000000000000000e+00,5.000000000000000000e+00,5.000000000000000000e+00,5.000000000000000000e+00,5.000000000000000000e+00,5.000000000000000000e+00,5.000000000000000000e+00,5.000000000000000000e+00,5.000000000000000000e+00,5.000000000000000000e+00,5.000000000000000000e+00,5.000000000000000000e+00,5.000000000000000000e+00,5.000000000000000000e+00,5.000000000000000000e+00,5.000000000000000000e+00,5.000000000000000000e+00,5.000000000000000000e+00,5.000000000000000000e+00,5.000000000000000000e+00,5.000000000000000000e+00,5.000000000000000000e+00,5.000000000000000000e+00,4.047735691070556641e+00,3.972022771835327148e+00,3.949579477310180664e+00,4.029053688049316406e+00,4.051113128662109375e+00,4.095105648040771484e+00,4.150796890258789062e+00,5.000000000000000000e+00,5.000000000000000000e+00,5.000000000000000000e+00,5.000000000000000000e+00,5.000000000000000000e+00,5.000000000000000000e+00,5.000000000000000000e+00,5.000000000000000000e+00,5.000000000000000000e+00,5.000000000000000000e+00,5.000000000000000000e+00,5.000000000000000000e+00,5.000000000000000000e+00,5.000000000000000000e+00,4.992481708526611328e+00,4.827280044555664062e+00,4.672661304473876953e+00,4.527639865875244141e+00,4.391349315643310547e+00,4.263024330139160156e+00,4.141986370086669922e+00,4.027631282806396484e+00,3.919421672821044922e+00,3.816874504089355469e+00,3.719555616378784180e+00,3.627076864242553711e+00,3.539084911346435547e+00,3.455260753631591797e+00,3.375315904617309570e+00,3.298986911773681641e+00,3.226033449172973633e+00,3.156236886978149414e+00,3.089396476745605469e+00,3.025328397750854492e+00,2.963863611221313477e+00,2.904847145080566406e+00,2.848134756088256836e+00,2.793594598770141602e+00,2.741103887557983398e+00,2.690549373626708984e+00
5.000000000000000000e+00,5.000000000000000000e+00,5.000000000000000000e+00,5.000000000000000000e+00,5.000000000000000000e+00,5.000000000000000000e+00,5.000000000000000000e+00,5.000000000000000000e+00,5.000000000000000000e+00,5.000000000000000000e+00,5.000000000000000000e+00,5.000000000000000000e+00,5.000000000000000000e+00,5.000000000000000000e+00,5.000000000000000000e+00,5.000000000000000000e+00,5.000000000000000000e+00,5.000000000000000000e+00,5.000000000000000000e+00,5.000000000000000000e+00,5.000000000000000000e+00,5.000000000000000000e+00,5.000000000000000000e+00,5.000000000000000000e+00,5.000000000000000000e+00,5.000000000000000000e+00,5.000000000000000000e+00,5.000000000000000000e+00,5.000000000000000000e+00,5.000000000000000000e+00,5.000000000000000000e+00,5.000000000000000000e+00,5.000000000000000000e+00,4.019596099853515625e+00,3.933096885681152344e+00,3.902607679367065430e+00,4.003346443176269531e+00,4.022878646850585938e+00,4.062093257904052734e+00,4.170011997222900391e+00,5.000000000000000000e+00,5.000000000000000000e+00,5.000000000000000000e+00,5.000000000000000000e+00,5.000000000000000000e+00,5.000000000000000000e+00,5.000000000000000000e+00,5.000000000000000000e+00,5.000000000000000000e+00,5.000000000000000000e+00,5.000000000000000000e+00,5.000000000000000000e+00,5.000000000000000000e+00,5.000000000000000000e+00,4.992619514465332031e+00,4.827408790588378906e+00,4.672781467437744141e+00,4.527752876281738281e+00,4.391455650329589844e+00,4.263124942779541016e+00,4.142080783843994141e+00,4.027720928192138672e+00,3.919506311416625977e+00,3.816954612731933594e+00,3.719631910324096680e+00,3.627149343490600586e+00,3.539153814315795898e+00,3.455326557159423828e+00,3.375378847122192383e+00,3.299046993255615234e+00,3.226090908050537109e+00,3.156291961669921875e+00,3.089449405670166016e+00,3.025378942489624023e+00,2.963912010192871094e+00,2.904893159866333008e+00,2.848178863525390625e+00,2.793636798858642578e+00,2.741144180297851562e+00,2.690587997436523438e+00
5.000000000000000000e+00,5.000000000000000000e+00,5.000000000000000000e+00,5.000000000000000000e+00,5.000000000000000000e+00,5.000000000000000000e+00,5.000000000000000000e+00,5.000000000000000000e+00,5.000000000000000000e+00,5.000000000000000000e+00,5.000000000000000000e+00,5.000000000000000000e+00,5.000000000000000000e+00,5.000000000000000000e+00,5.000000000000000000e+00,5.000000000000000000e+00,5.000000000000000000e+00,5.000000000000000000e+00,5.000000000000000000e+00,5.000000000000000000e+00,5.000000000000000000e+00,5.000000000000000000e+00,5.000000000000000000e+00,5.000000000000000000e+00,5.000000000000000000e+00,5.000000000000000000e+00,5.000000000000000000e+00,5.000000000000000000e+00,5.000000000000000000e+00,5.000000000000000000e+00,5.000000000000000000e+00,5.000000000000000000e+00,5.000000000000000000e+00,3.995339632034301758e+00,3.912913560867309570e+00,3.873465538024902344e+00,3.969396352767944336e+00,4.015865325927734375e+00,4.054939270019531250e+00,4.105486869812011719e+00,5.000000000000000000e+00,5.000000000000000000e+00,5.000000000000000000e+00,5.000000000000000000e+00,5.000000000000000000e+00,5.000000000000000000e+00,5.000000000000000000e+00,5.000000000000000000e+00,5.000000000000000000e+00,5.000000000000000000e+00,5.000000000000000000e+00,5.000000000000000000e+00,5.000000000000000000e+00,5.000000000000000000e+00,4.992756843566894531e+00,4.827537059783935547e+00,4.672902107238769531e+00,4.527866363525390625e+00,4.391561985015869141e+00,4.263225078582763672e+00,4.142175197601318359e+00,4.027810573577880859e+00,3.919591188430786133e+00,3.817034959793090820e+00,3.719708681106567383e+00,3.627221822738647461e+00,3.539222955703735352e+00,3.455392599105834961e+00,3.375441551208496094e+00,3.299107074737548828e+00,3.226148128509521484e+00,3.156346797943115234e+00,3.089501857757568359e+00,3.025429487228393555e+00,2.963960647583007812e+00,2.904939889907836914e+00,2.848223447799682617e+00,2.793679714202880859e+00,2.741185426712036133e+00,2.690627813339233398e+00
5.000000000000000000e+00,5.000000000000000000e+00,5.000000000000000000e+00,5.000000000000000000e+00,5.000000000000000000e+00,5.000000000000000000e+00,5.000000000000000000e+00,5.000000000000000000e+00,5.000000000000000000e+00,5.000000000000000000e+00,5.000000000000000000e+00,5.000000000000000000e+00,5.000000000000000000e+00,5.000000000000000000e+00,5.000000000000000000e+00,5.000000000000000000e+00,5.000000000000000000e+00,5.000000000000000000e+00,5.000000000000000000e+00,5.000000000000000000e+00,5.000000000000000000e+00,5.000000000000000000e+00,5.000000000000000000e+00,5.000000000000000000e+00,5.000000000000000000e+00,5.000000000000000000e+00,5.000000000000000000e+00,5.000000000000000000e+00,5.000000000000000000e+00,5.000000000000000000e+00,5.000000000000000000e+00,5.000000000000000000e+00,5.000000000000000000e+00,3.965945482254028320e+00,3.957317829132080078e+00,3.842739105224609375e+00,3.911922931671142578e+00,4.011079311370849609e+00,4.055110931396484375e+00,5.000000000000000000e+00,4.115128040313720703e+00,5.000000000000000000e+00,5.000000000000000000e+00,5.000000000000000000e+00,5.000000000000000000e+00,5.000000000000000000e+00,5.000000000000000000e+00,5.000000000000000000e+00,5.000000000000000000e+00,5.000000000000000000e+00,5.000000000000000000e+00,5.000000000000000000e+00,5.000000000000000000e+00,5.000000000000000000e+00,4.992894172668457031e+00,4.827665805816650391e+00,4.673022270202636719e+00,4.527979373931884766e+00,4.391668319702148438e+00,4.263325214385986328e+00,4.142270088195800781e+00,4.027900218963623047e+00,3.919675827026367188e+00,3.817115306854248047e+00,3.719784975051879883e+00,3.627294540405273438e+00,3.539292097091674805e+00,3.455458402633666992e+00,3.375504493713378906e+00,3.299166917800903320e+00,3.226205587387084961e+00,3.156401634216308594e+00,3.089554548263549805e+00,3.025479793548583984e+00,2.964009046554565430e+00,2.904986381530761719e+00,2.848268270492553711e+00,2.793722629547119141e+00,2.741227149963378906e+00,2.690667867660522461e+00
5.000000000000000000e+00,5.000000000000000000e+00,5.000000000000000000e+00,5.000000000000000000e+00,5.000000000000000000e+00,5.000000000000000000e+00,5.000000000000000000e+00,5.000000000000000000e+00,5.000000000000000000e+00,5.000000000000000000e+00,5.000000000000000000e+00,5.000000000000000000e+00,5.000000000000000000e+00,5.000000000000000000e+00,5.000000000000000000e+00,5.000000000000000000e+00,5.000000000000000000e+00,5.000000000000000000e+00,5.000000000000000000e+00,5.000000000000000000e+00,5.000000000000000000e+00,5.000000000000000000e+00,5.000000000000000000e+00,5.000000000000000000e+00,5.000000000000000000e+00,5.000000000000000000e+00,5.000000000000000000e+00,5.000000000000000000e+00,5.000000000000000000e+00,5.000000000000000000e+00,5.000000000000000000e+00,5.000000000000000000e+00,5.000000000000000000e+00,5.000000000000000000e+00,5.000000000000000000e+00,3.811806201934814453e+00,3.869033813476562500e+00,4.006124496459960938e+00,4.053200721740722656e+00,5.000000000000000000e+00,5.000000000000000000e+00,5.000000000000000000e+00,5.000000000000000000e+00,5.000000000000000000e+00,5.000000000000000000e+00,5.000000000000000000e+00,5.000000000000000000e+00,5.000000000000000000e+00,5.000000000000000000e+00,5.000000000000000000e+00,5.000000000000000000e+00,5.000000000000000000e+00,5.000000000000000000e+00,5.000000000000000000e+00,4.993031978607177734e+00,4.827794075012207031e+00,4.673143386840820312e+00,4.528092384338378906e+00,4.391774654388427734e+00,4.263425350189208984e+00,4.142364978790283203e+00,4.027989387512207031e+00,3.919760465621948242e+00,3.817195653915405273e+00,3.719861268997192383e+00,3.627367019653320312e+00,3.539361000061035156e+00,3.455524444580078125e+00,3.375567197799682617e+00,3.299226999282836914e+00,3.226263046264648438e+00,3.156456708908081055e+00,3.089607238769531250e+00,3.025530338287353516e+00,2.964057445526123047e+00,2.905033111572265625e+00,2.848313093185424805e+00,2.793765783309936523e+00,2.741268634796142578e+00,2.690707683563232422e+00
5.000000000000000000e+00,5.000000000000000000e+00,5.000000000000000000e+00,5.000000000000000000e+00,5.000000000000000000e+00,5.000000000000000000e+00,5.000000000000000000e+00,5.000000000000000000e+00,5.000000000000000000e+00,5.000000000000000000e+00,5.000000000000000000e+00,5.000000000000000000e+00,5.000000000000000000e+00,5.000000000000000000e+00,5.000000000000000000e+00,5.000000000000000000e+00,5.000000000000000000e+00,5.000000000000000000e+00,5.000000000000000000e+00,5.000000000000000000e+00,5.000000000000000000e+00,5.000000000000000000e+00,5.000000000000000000e+00,5.000000000000000000e+00,5.000000000000000000e+00,5.000000000000000000e+00,5.000000000000000000e+00,5.000000000000000000e+00,5.000000000000000000e+00,5.000000000000000000e+00,5.000000000000000000e+00,5.000000000000000000e+00,5.000000000000000000e+00,5.000000000000000000e+00,5.000000000000000000e+00,3.804721117019653320e+00,3.856862545013427734e+00,3.995666027069091797e+00,5.000000000000000000e+00,5.000000000000000000e+00,5.000000000000000000e+00,5.000000000000000000e+00,5.000000000000000000e+00,5.000000000000000000e+00,5.000000000000000000e+00,5.000000000000000000e+00,5.000000000000000000e+00,5.000000000000000000e+00,5.000000000000000000e+00,5.000000000000000000e+00,5.000000000000000000e+00,5.000000000000000000e+00,5.000000000000000000e+00,5.000000000000000000e+00,4.993169307708740234e+00,4.827922821044921875e+00,4.673263549804687500e+00,4.528205394744873047e+00,4.391880989074707031e+00,4.263525962829589844e+00,4.142459392547607422e+00,4.028079032897949219e+00,3.919845342636108398e+00,3.817276000976562500e+00,3.719937562942504883e+00,3.627439498901367188e+00,3.539430141448974609e+00,3.455590248107910156e+00,3.375630140304565430e+00,3.299287080764770508e+00,3.226320743560791016e+00,3.156511545181274414e+00,3.089659929275512695e+00,3.025580883026123047e+00,2.964105844497680664e+00,2.905079603195190430e+00,2.848357677459716797e+00,2.793808698654174805e+00,2.741310119628906250e+00,2.690747737884521484e+00
5.000000000000000000e+00,5.000000000000000000e+00,5.000000000000000000e+00,5.000000000000000000e+00,5.000000000000000000e+00,5.000000000000000000e+00,5.000000000000000000e+00,5.000000000000000000e+00,5.000000000000000000e+00,5.000000000000000000e+00,5.000000000000000000e+00,5.000000000000000000e+00,5.000000000000000000e+00,5.000000000000000000e+00,5.000000000000000000e+00,5.000000000000000000e+00,5.000000000000000000e+00,5.000000000000000000e+00,5.000000000000000000e+00,5.000000000000000000e+00,5.000000000000000000e+00,5.000000000000000000e+00,5.000000000000000000e+00,5.000000000000000000e+00,5.000000000000000000e+00,5.000000000000000000e+00,5.000000000000000000e+00,5.000000000000000000e+00,5.000000000000000000e+00,5.000000000000000000e+00,5.000000000000000000e+00,5.000000000000000000e+00,5.000000000000000000e+00,5.000000000000000000e+00,5.000000000000000000e+00,3.850314617156982422e+00,4.064249992370605469e+00,4.009810447692871094e+00,5.000000000000000000e+00,5.000000000000000000e+00,5.000000000000000000e+00,5.000000000000000000e+00,5.000000000000000000e+00,5.000000000000000000e+00,5.000000000000000000e+00,5.000000000000000000e+00,5.000000000000000000e+00,5.000000000000000000e+00,5.000000000000000000e+00,5.000000000000000000e+00,5.000000000000000000e+00,5.000000000000000000e+00,5.000000000000000000e+00,5.000000000000000000e+00,4.993306636810302734e+00,4.828051567077636719e+00,4.673384189605712891e+00,4.528318405151367188e+00,4.391987800598144531e+00,4.263626098632812500e+00,4.142553806304931641e+00,4.028168201446533203e+00,3.919930458068847656e+00,3.817356348037719727e+00,3.720013856887817383e+00,3.627512216567993164e+00,3.539499282836914062e+00,3.455656051635742188e+00,3.375692844390869141e+00,3.299346923828125000e+00,3.226377964019775391e+00,3.156566619873046875e+00,3.089712381362915039e+00,3.025631427764892578e+00,2.964154243469238281e+00,2.905126094818115234e+00,2.848402500152587891e+00,2.793851852416992188e+00,2.741351366043090820e+00,2.690787553787231445e+00
5.000000000000000000e+00,5.000000000000000000e+00,5.000000000000000000e+00,5.000000000000000000e+00,5.000000000000000000e+00,5.000000000000000000e+00,5.000000000000000000e+00,5.000000000000000000e+00,5.000000000000000000e+00,5.000000000000000000e+00,5.000000000000000000e+00,5.000000000000000000e+00,5.000000000000000000e+00,5.000000000000000000e+00,5.000000000000000000e+00,5.000000000000000000e+00,5.000000000000000000e+00,5.000000000000000000e+00,5.000000000000000000e+00,5.000000000000000000e+00,5.000000000000000000e+00,5.000000000000000000e+00,5.000000000000000000e+00,5.000000000000000000e+00,5.000000000000000000e+00,5.000000000000000000e+00,5.000000000000000000e+00,5.000000000000000000e+00,5.000000000000000000e+00,5.000000000000000000e+00,5.000000000000000000e+00,5.000000000000000000e+00,5.000000000000000000e+00,5.000000000000000000e+00,5.000000000000000000e+00,3.918786764144897461e+00,4.096325397491455078e+00,4.055578708648681641e+00,5.000000000000000000e+00,5.000000000000000000e+00,5.000000000000000000e+00,5.000000000000000000e+00,5.000000000000000000e+00,5.000000000000000000e+00,5.000000000000000000e+00,5.000000000000000000e+00,5.000000000000000000e+00,5.000000000000000000e+00,5.000000000000000000e+00,5.000000000000000000e+00,5.000000000000000000e+00,5.000000000000000000e+00,5.000000000000000000e+00,5.000000000000000000e+00,4.993444442749023438e+00,4.828180313110351562e+00,4.673504352569580078e+00,4.528431892395019531e+00,4.392094135284423828e+00,4.263726234436035156e+00,4.142648696899414062e+00,4.028257846832275391e+00,3.920015096664428711e+00,3.817436695098876953e+00,3.720090150833129883e+00,3.627585172653198242e+00,3.539568424224853516e+00,3.455722093582153320e+00,3.375755786895751953e+00,3.299407005310058594e+00,3.226435422897338867e+00,3.156621456146240234e+00,3.089765071868896484e+00,3.025681972503662109e+00,2.964202880859375000e+00,2.905172586441040039e+00,2.848447322845458984e+00,2.793894767761230469e+00,2.741392850875854492e+00,2.690827369689941406e+00
5.000000000000000000e+00,5.000000000000000000e+00,5.000000000000000000e+00,5.000000000000000000e+00,5.000000000000000000e+00,5.000000000000000000e+00,5.000000000000000000e+00,5.000000000000000000e+00,5.000000000000000000e+00,5.000000000000000000e+00,5.000000000000000000e+00,5.000000000000000000e+00,5.000000000000000000e+00,5.000000000000000000e+00,5.000000000000000000e+00,5.000000000000000000e+00,5.000000000000000000e+00,5.000000000000000000e+00,5.000000000000000000e+00,5.000000000000000000e+00,5.000000000000000000e+00,5.000000000000000000e+00,5.000000000000000000e+00,5.000000000000000000e+00,5.000000000000000000e+00,5.000000000000000000e+00,5.000000000000000000e+00,5.000000000000000000e+00,5.000000000000000000e+00,5.000000000000000000e+00,5.000000000000000000e+00,5.000000000000000000e+00,5.000000000000000000e+00,5.000000000000000000e+00,5.000000000000000000e+00,3.969161272048950195e+00,4.099603652954101562e+00,4.097191333770751953e+00,5.000000000000000000e+00,5.000000000000000000e+00,5.000000000000000000e+00,5.000000000000000000e+00,5.000000000000000000e+00,5.000000000000000000e+00,5.000000000000000000e+00,5.000000000000000000e+00,5.000000000000000000e+00,5.000000000000000000e+00,5.000000000000000000e+00,5.000000000000000000e+00,5.000000000000000000e+00,5.000000000000000000e+00,5.000000000000000000e+00,5.000000000000000000e+00,4.993582248687744141e+00,4.828308582305908203e+00,4.673624992370605469e+00,4.528544902801513672e+00,4.392200469970703125e+00,4.263826370239257812e+00,4.142743110656738281e+00,4.028347492218017578e+00,3.920099735260009766e+00,3.817517042160034180e+00,3.720166444778442383e+00,3.627657651901245117e+00,3.539637327194213867e+00,3.455787897109985352e+00,3.375818967819213867e+00,3.299467086791992188e+00,3.226492881774902344e+00,3.156676292419433594e+00,3.089817762374877930e+00,3.025732517242431641e+00,2.964251279830932617e+00,2.905219078063964844e+00,2.848492145538330078e+00,2.793937921524047852e+00,2.741434335708618164e+00,2.690867662429809570e+00
5.000000000000000000e+00,5.000000000000000000e+00,5.000000000000000000e+00,5.000000000000000000e+00,5.000000000000000000e+00,5.000000000000000000e+00,5.000000000000000000e+00,5.000000000000000000e+00,5.000000000000000000e+00,5.000000000000000000e+00,5.000000000000000000e+00,5.000000000000000000e+00,5.000000000000000000e+00,5.000000000000000000e+00,5.000000000000000000e+00,5.000000000000000000e+00,5.000000000000000000e+00,5.000000000000000000e+00,5.000000000000000000e+00,5.000000000000000000e+00,5.000000000000000000e+00,5.000000000000000000e+00,5.000000000000000000e+00,5.000000000000000000e+00,5.000000000000000000e+00,5.000000000000000000e+00,5.000000000000000000e+00,5.000000000000000000e+00,5.000000000000000000e+00,5.000000000000000000e+00,5.000000000000000000e+00,5.000000000000000000e+00,5.000000000000000000e+00,5.000000000000000000e+00,5.000000000000000000e+00,4.022541046142578125e+00,4.112215042114257812e+00,5.000000000000000000e+00,5.000000000000000000e+00,5.000000000000000000e+00,5.000000000000000000e+00,5.000000000000000000e+00,5.000000000000000000e+00,5.000000000000000000e+00,5.000000000000000000e+00,5.000000000000000000e+00,5.000000000000000000e+00,5.000000000000000000e+00,5.000000000000000000e+00,5.000000000000000000e+00,5.000000000000000000e+00,5.000000000000000000e+00,5.000000000000000000e+00,5.000000000000000000e+00,4.993719577789306641e+00,4.828437328338623047e+00,4.673745155334472656e+00,4.528657913208007812e+00,4.392306804656982422e+00,4.263926982879638672e+00,4.142838001251220703e+00,4.028437137603759766e+00,3.920184612274169922e+00,3.817597389221191406e+00,3.720242738723754883e+00,3.627730131149291992e+00,3.539706468582153320e+00,3.455853700637817383e+00,3.375881671905517578e+00,3.299527168273925781e+00,3.226550340652465820e+00,3.156731605529785156e+00,3.089870452880859375e+00,3.025783061981201172e+00,2.964299678802490234e+00,2.905265569686889648e+00,2.848536968231201172e+00,2.793981075286865234e+00,2.741475820541381836e+00,2.690907478332519531e+00
5.000000000000000000e+00,5.000000000000000000e+00,5.000000000000000000e+00,5.000000000000000000e+00,5.000000000000000000e+00,5.000000000000000000e+00,5.000000000000000000e+00,5.000000000000000000e+00,5.000000000000000000e+00,5.000000000000000000e+00,5.000000000000000000e+00,5.000000000000000000e+00,5.000000000000000000e+00,5.000000000000000000e+00,5.000000000000000000e+00,5.000000000000000000e+00,5.000000000000000000e+00,5.000000000000000000e+00,5.000000000000000000e+00,5.000000000000000000e+00,5.000000000000000000e+00,5.000000000000000000e+00,5.000000000000000000e+00,5.000000000000000000e+00,5.000000000000000000e+00,5.000000000000000000e+00,5.000000000000000000e+00,5.000000000000000000e+00,5.000000000000000000e+00,5.000000000000000000e+00,5.000000000000000000e+00,5.000000000000000000e+00,5.000000000000000000e+00,5.000000000000000000e+00,5.000000000000000000e+00,4.098337173461914062e+00,4.130913257598876953e+00,5.000000000000000000e+00,5.000000000000000000e+00,5.000000000000000000e+00,5.000000000000000000e+00,5.000000000000000000e+00,5.000000000000000000e+00,5.000000000000000000e+00,5.000000000000000000e+00,5.000000000000000000e+00,5.000000000000000000e+00,5.000000000000000000e+00,5.000000000000000000e+00,5.000000000000000000e+00,5.000000000000000000e+00,5.000000000000000000e+00,5.000000000000000000e+00,5.000000000000000000e+00,4.993856906890869141e+00,4.828565597534179688e+00,4.673865795135498047e+00,4.528771400451660156e+00,4.392413139343261719e+00,4.264027118682861328e+00,4.142932891845703125e+00,4.028526306152343750e+00,3.920269250869750977e+00,3.817677736282348633e+00,3.720319032669067383e+00,3.627802610397338867e+00,3.539775609970092773e+00,3.455919504165649414e+00,3.375944614410400391e+00,3.299587011337280273e+00,3.226607561111450195e+00,3.156786680221557617e+00,3.089922904968261719e+00,3.025833368301391602e+00,2.964348316192626953e+00,2.905312299728393555e+00,2.848581552505493164e+00,2.794023990631103516e+00,2.741517305374145508e+00,2.690947532653808594e+00
5.000000000000000000e+00,5.000000000000000000e+00,5.000000000000000000e+00,5.000000000000000000e+00,5.000000000000000000e+00,5.000000000000000000e+00,5.000000000000000000e+00,5.000000000000000000e+00,5.000000000000000000e+00,5.000000000000000000e+00,5.000000000000000000e+00,5.000000000000000000e+00,5.000000000000000000e+00,5.000000000000000000e+00,5.000000000000000000e+00,5.000000000000000000e+00,5.000000000000000000e+00,5.000000000000000000e+00,5.000000000000000000e+00,5.000000000000000000e+00,5.000000000000000000e+00,5.000000000000000000e+00,5.000000000000000000e+00,5.000000000000000000e+00,5.000000000000000000e+00,5.000000000000000000e+00,5.000000000000000000e+00,5.000000000000000000e+00,5.000000000000000000e+00,5.000000000000000000e+00,5.000000000000000000e+00,5.000000000000000000e+00,5.000000000000000000e+00,5.000000000000000000e+00,5.000000000000000000e+00,4.074699401855468750e+00,4.162977695465087891e+00,5.000000000000000000e+00,5.000000000000000000e+00,5.000000000000000000e+00,5.000000000000000000e+00,5.000000000000000000e+00,5.000000000000000000e+00,5.000000000000000000e+00,5.000000000000000000e+00,5.000000000000000000e+00,5.000000000000000000e+00,5.000000000000000000e+00,5.000000000000000000e+00,5.000000000000000000e+00,5.000000000000000000e+00,5.000000000000000000e+00,5.000000000000000000e+00,5.000000000000000000e+00,4.993994712829589844e+00,4.828694343566894531e+00,4.673986434936523438e+00,4.528884410858154297e+00,4.392519474029541016e+00,4.264127254486083984e+00,4.143027305603027344e+00,4.028615951538085938e+00,3.920354127883911133e+00,3.817758560180664062e+00,3.720395326614379883e+00,3.627875328063964844e+00,3.539844512939453125e+00,3.455985307693481445e+00,3.376007556915283203e+00,3.299647092819213867e+00,3.226665019989013672e+00,3.156841516494750977e+00,3.089975595474243164e+00,3.025883913040161133e+00,2.964396715164184570e+00,2.905358791351318359e+00,2.848626375198364258e+00,2.794067144393920898e+00,2.741558551788330078e+00,2.690987348556518555e+00
4.871484756469726562e+00,4.870274066925048828e+00,4.869063854217529297e+00,4.867854118347167969e+00,4.866644859313964844e+00,4.865436553955078125e+00,4.864228725433349609e+00,4.863021373748779297e+00,4.861814975738525391e+00,4.860609054565429688e+00,4.859403610229492188e+00,4.858198642730712891e+00,4.856994628906250000e+00,4.855790615081787109e+00,4.854587554931640625e+00,4.853385448455810547e+00,4.852183341979980469e+00,4.850982189178466797e+00,4.849781513214111328e+00,4.848581790924072266e+00,4.847382068634033203e+00,4.846183300018310547e+00,4.844985008239746094e+00,4.843787193298339844e+00,4.842590332031250000e+00,4.841393470764160156e+00,4.840197563171386719e+00,4.839002132415771484e+00,4.837807655334472656e+00,4.836613655090332031e+00,4.835420131683349609e+00,4.834227085113525391e+00,4.833034515380859375e+00,4.831842899322509766e+00,4.830651283264160156e+00,4.026539802551269531e+00,4.093710422515869141e+00,4.827081203460693359e+00,4.825892448425292969e+00,4.824704647064208984e+00,4.823516845703125000e+00,4.822329521179199219e+00,4.821143150329589844e+00,4.819957256317138672e+00,4.818771839141845703e+00,4.817586898803710938e+00,4.816402435302734375e+00,4.815218925476074219e+00,4.814035892486572266e+00,4.812853813171386719e+00,4.811671733856201172e+00,4.810490608215332031e+00,4.809309959411621094e+00,4.808129787445068359e+00,4.806950092315673828e+00,4.805770874023437500e+00,4.674107074737548828e+00,4.528997421264648438e+00,4.392626285552978516e+00,4.264227867126464844e+00,4.143122196197509766e+00,4.028705596923828125e+00,3.920438766479492188e+00,3.817838907241821289e+00,3.720471620559692383e+00,3.627947807312011719e+00,3.539914131164550781e+00,3.456051349639892578e+00,3.376070261001586914e+00,3.299707174301147461e+00,3.226722478866577148e+00,3.156896352767944336e+00,3.090028285980224609e+00,3.025934457778930664e+00,2.964445352554321289e+00,2.905405282974243164e+00,2.848671197891235352e+00,2.794110298156738281e+00,2.741600036621093750e+00,2.691027402877807617e+00
3.776033639907836914e+00,3.775306224822998047e+00,3.774579286575317383e+00,3.773852109909057617e+00,3.773125410079956055e+00,3.772398948669433594e+00,3.771672964096069336e+00,3.770946741104125977e+00,3.770221471786499023e+00,3.769495964050292969e+00,3.768771171569824219e+00,3.768046617507934570e+00,3.767321825027465820e+00,3.766597747802734375e+00,3.765873670578002930e+00,3.765150308609008789e+00,3.764426708221435547e+00,3.763703823089599609e+00,3.762980699539184570e+00,3.762258529663085938e+00,3.761535882949829102e+00,3.760814189910888672e+00,3.760092735290527344e+00,3.759371042251586914e+00,3.758650064468383789e+00,3.757929086685180664e+00,3.757208585739135742e+00,3.756488084793090820e+00,3.755768299102783203e+00,3.755048274993896484e+00,3.754328966140747070e+00,3.753609657287597656e+00,3.752890825271606445e+00,3.752172470092773438e+00,3.751453638076782227e+00,3.750735759735107422e+00,3.750017881393432617e+00,3.749300479888916016e+00,3.748582839965820312e+00,3.747866153717041016e+00,3.747149229049682617e+00,3.746432781219482422e+00,3.745716810226440430e+00,3.745000839233398438e+00,3.744285345077514648e+00,3.743569850921630859e+00,3.742854833602905273e+00,3.742139816284179688e+00,3.741425514221191406e+00,3.740710973739624023e+00,3.739997148513793945e+00,3.739283323287963867e+00,3.738569974899291992e+00,3.737857103347778320e+00,3.737143754959106445e+00,3.736431360244750977e+00,3.735718727111816406e+00,3.735007047653198242e+00,3.734294891357421875e+00,3.733583450317382812e+00,3.732872009277343750e+00,3.732161283493041992e+00,3.731450796127319336e+00,3.730740070343017578e+00,3.720547914505004883e+00,3.628020524978637695e+00,3.539983272552490234e+00,3.456117153167724609e+00,3.376133203506469727e+00,3.299767494201660156e+00,3.226779937744140625e+00,3.156951427459716797e+00,3.090080976486206055e+00,3.025984764099121094e+00,2.964493751525878906e+00,2.905451774597167969e+00,2.848715782165527344e+00,2.794153451919555664e+00,2.741641521453857422e+00,2.691067218780517578e+00
3.082803726196289062e+00,3.082318782806396484e+00,3.081834077835083008e+00,3.081349134445190430e+00,3.080864906311035156e+00,3.080380678176879883e+00,3.079896211624145508e+00,3.079412460327148438e+00,3.078928470611572266e+00,3.078444719314575195e+00,3.077960968017578125e+00,3.077477693557739258e+00,3.076994419097900391e+00,3.076511383056640625e+00,3.076028585433959961e+00,3.075545549392700195e+00,3.075062990188598633e+00,3.074580192565917969e+00,3.074098110198974609e+00,3.073615789413452148e+00,3.073133707046508789e+00,3.072651624679565430e+00,3.072170019149780273e+00,3.071688413619995117e+00,3.071207046508789062e+00,3.070725679397583008e+00,3.070244550704956055e+00,3.069763660430908203e+00,3.069282531738281250e+00,3.068802118301391602e+00,3.068321228027343750e+00,3.067841053009033203e+00,3.067360639572143555e+00,3.066880702972412109e+00,3.066400766372680664e+00,3.065920829772949219e+00,3.065441370010375977e+00,3.064961910247802734e+00,3.064482688903808594e+00,3.064003229141235352e+00,3.063524246215820312e+00,3.063045263290405273e+00,3.062566757202148438e+00,3.062088012695312500e+00,3.061609506607055664e+00,3.061131477355957031e+00,3.060653209686279297e+00,3.060175180435180664e+00,3.059697151184082031e+00,3.059219598770141602e+00,3.058742046356201172e+00,3.058264732360839844e+00,3.057787179946899414e+00,3.057310342788696289e+00,3.056833028793334961e+00,3.056356430053710938e+00,3.055879831314086914e+00,3.055403232574462891e+00,3.054926872253417969e+00,3.054450511932373047e+00,3.053974628448486328e+00,3.053498506546020508e+00,3.053022861480712891e+00,3.052547216415405273e+00,3.052071809768676758e+00,3.051596641540527344e+00,3.051121234893798828e+00,3.050646305084228516e+00,3.050171375274658203e+00,3.049696683883666992e+00,3.049221992492675781e+00,3.048747777938842773e+00,3.048273324966430664e+00,3.026035308837890625e+00,2.964542150497436523e+00,2.905498266220092773e+00,2.848760604858398438e+00,2.794196367263793945e+00,2.741683006286621094e+00,2.691107273101806641e+00
2.604628086090087891e+00,2.604282140731811523e+00,2.603935956954956055e+00,2.603590011596679688e+00,2.603243827819824219e+00,2.602898120880126953e+00,2.602552652359008789e+00,2.602206945419311523e+00,2.601861476898193359e+00,2.601515769958496094e+00,2.601170539855957031e+00,2.600825309753417969e+00,2.600480079650878906e+00,2.600134849548339844e+00,2.599790096282958984e+00,2.599445104598999023e+00,2.599100351333618164e+00,2.598755598068237305e+00,2.598410844802856445e+00,2.598066568374633789e+00,2.597722053527832031e+00,2.597377777099609375e+00,2.597033262252807617e+00,2.596689224243164062e+00,2.596345186233520508e+00,2.596001148223876953e+00,2.595657110214233398e+00,2.595313549041748047e+00,2.594969749450683594e+00,2.594626188278198242e+00,2.594282627105712891e+00,2.593939065933227539e+00,2.593595981597900391e+00,2.593252420425415039e+00,2.592909574508666992e+00,2.592566251754760742e+00,2.592223405838012695e+00,2.591880559921264648e+00,2.591537714004516602e+00,2.591195106506347656e+00,2.590852260589599609e+00,2.590509891510009766e+00,2.590167284011840820e+00,2.589825153350830078e+00,2.589482784271240234e+00,2.589140653610229492e+00,2.588798522949218750e+00,2.588456630706787109e+00,2.588114738464355469e+00,2.587772846221923828e+00,2.587431192398071289e+00,2.587089538574218750e+00,2.586748123168945312e+00,2.586406469345092773e+00,2.586065292358398438e+00,2.585723876953125000e+00,2.585382699966430664e+00,2.585041761398315430e+00,2.584700822830200195e+00,2.584359884262084961e+00,2.584018945693969727e+00,2.583678483963012695e+00,2.583337545394897461e+00,2.582997083663940430e+00,2.582656621932983398e+00,2.582316398620605469e+00,2.581975936889648438e+00,2.581635951995849609e+00,2.581295967102050781e+00,2.580955743789672852e+00,2.580615997314453125e+00,2.580276012420654297e+00,2.579936265945434570e+00,2.579596519470214844e+00,2.579257011413574219e+00,2.578917503356933594e+00,2.578578233718872070e+00,2.578238964080810547e+00,2.577899694442749023e+00,2.577560663223266602e+00
2.254873514175415039e+00,2.254613876342773438e+00,2.254354715347290039e+00,2.254095315933227539e+00,2.253835916519165039e+00,2.253576755523681641e+00,2.253317594528198242e+00,2.253058433532714844e+00,2.252799510955810547e+00,2.252540588378906250e+00,2.252281665802001953e+00,2.252022743225097656e+00,2.251763820648193359e+00,2.251505136489868164e+00,2.251246452331542969e+00,2.250988006591796875e+00,2.250729322433471680e+00,2.250470876693725586e+00,2.250212430953979492e+00,2.249953985214233398e+00,2.249695777893066406e+00,2.249437332153320312e+00,2.249179363250732422e+00,2.248921155929565430e+00,2.248662948608398438e+00,2.248404979705810547e+00,2.248147010803222656e+00,2.247889041900634766e+00,2.247631311416625977e+00,2.247373580932617188e+00,2.247115612030029297e+00,2.246858119964599609e+00,2.246600389480590820e+00,2.246342897415161133e+00,2.246085405349731445e+00,2.245827913284301758e+00,2.245570421218872070e+00,2.245313167572021484e+00,2.245055913925170898e+00,2.244798660278320312e+00,2.244541645050048828e+00,2.244284629821777344e+00,2.244027614593505859e+00,2.243770599365234375e+00,2.243513584136962891e+00,2.243256807327270508e+00,2.243000030517578125e+00,2.242743253707885742e+00,2.242486715316772461e+00,2.242230176925659180e+00,2.241973400115966797e+00,2.241717100143432617e+00,2.241460561752319336e+00,2.241204261779785156e+00,2.240947723388671875e+00,2.240691661834716797e+00,2.240435361862182617e+00,2.240179300308227539e+00,2.239923000335693359e+00,2.239667177200317383e+00,2.239411115646362305e+00,2.239155292510986328e+00,2.238899469375610352e+00,2.238643646240234375e+00,2.238387823104858398e+00,2.238131999969482422e+00,2.237876653671264648e+00,2.237620830535888672e+00,2.237365484237670898e+00,2.237109899520874023e+00,2.236854553222656250e+00,2.236599445343017578e+00,2.236344099044799805e+00,2.236088991165161133e+00,2.235833644866943359e+00,2.235578536987304688e+00,2.235323429107666016e+00,2.235068559646606445e+00,2.234813690185546875e+00,2.234558820724487305e+00
1.987936258316040039e+00,1.987733721733093262e+00,1.987531185150146484e+00,1.987328529357910156e+00,1.987125992774963379e+00,1.986923694610595703e+00,1.986721277236938477e+00,1.986519455909729004e+00,1.986317873001098633e+00,1.986116647720336914e+00,1.985915422439575195e+00,1.985714197158813477e+00,1.985513091087341309e+00,1.985311746597290039e+00,1.985110640525817871e+00,1.984909653663635254e+00,1.984708666801452637e+00,1.984507441520690918e+00,1.984306454658508301e+00,1.984105587005615234e+00,1.983904719352722168e+00,1.983703970909118652e+00,1.983502984046936035e+00,1.983302235603332520e+00,1.983101606369018555e+00,1.982900977134704590e+00,1.982700109481811523e+00,1.982499599456787109e+00,1.982299089431762695e+00,1.982098579406738281e+00,1.981897950172424316e+00,1.981697559356689453e+00,1.981497287750244141e+00,1.981296896934509277e+00,1.981096625328063965e+00,1.980896234512329102e+00,1.980695962905883789e+00,1.980495929718017578e+00,1.980295777320861816e+00,1.980095505714416504e+00,1.979895472526550293e+00,1.979695439338684082e+00,1.979495525360107422e+00,1.979295611381530762e+00,1.979095458984375000e+00,1.978895664215087891e+00,1.978695869445800781e+00,1.978496193885803223e+00,1.978296160697937012e+00,1.978096604347229004e+00,1.977896928787231445e+00,1.977697372436523438e+00,1.977497816085815430e+00,1.977298021316528320e+00,1.977098584175109863e+00,1.976899147033691406e+00,1.976699829101562500e+00,1.976500272750854492e+00,1.976300954818725586e+00,1.976101636886596680e+00,1.975902438163757324e+00,1.975703001022338867e+00,1.975503921508789062e+00,1.975304841995239258e+00,1.975105762481689453e+00,1.974906682968139648e+00,1.974707484245300293e+00,1.974508523941040039e+00,1.974309682846069336e+00,1.974110841751098633e+00,1.973911762237548828e+00,1.973713040351867676e+00,1.973514199256896973e+00,1.973315596580505371e+00,1.973116874694824219e+00,1.972918033599853516e+00,1.972719430923461914e+00,1.972520947456359863e+00,1.972322463989257812e+00,1.972123742103576660e+00
1.777511239051818848e+00,1.777349352836608887e+00,1.777187347412109375e+00,1.777025461196899414e+00,1.776863455772399902e+00,1.776701688766479492e+00,1.776539921760559082e+00,1.776378154754638672e+00,1.776216149330139160e+00,1.776054501533508301e+00,1.775892853736877441e+00,1.775731205940246582e+00,1.775569319725036621e+00,1.775407791137695312e+00,1.775246143341064453e+00,1.775085449218750000e+00,1.774924516677856445e+00,1.774763703346252441e+00,1.774603009223937988e+00,1.774442434310913086e+00,1.774281620979309082e+00,1.774120926856994629e+00,1.773960351943969727e+00,1.773799896240234375e+00,1.773639321327209473e+00,1.773478627204895020e+00,1.773318171501159668e+00,1.773157715797424316e+00,1.772997379302978516e+00,1.772836804389953613e+00,1.772676467895507812e+00,1.772516131401062012e+00,1.772355794906616211e+00,1.772195339202880859e+00,1.772035121917724609e+00,1.771874904632568359e+00,1.771714806556701660e+00,1.771554589271545410e+00,1.771394371986389160e+00,1.771234273910522461e+00,1.771074175834655762e+00,1.770914196968078613e+00,1.770753979682922363e+00,1.770594000816345215e+00,1.770434141159057617e+00,1.770274162292480469e+00,1.770114302635192871e+00,1.769954204559326172e+00,1.769794464111328125e+00,1.769634604454040527e+00,1.769474864006042480e+00,1.769314885139465332e+00,1.769155263900756836e+00,1.768995523452758789e+00,1.768835902214050293e+00,1.768676280975341797e+00,1.768516540527343750e+00,1.768356919288635254e+00,1.768197417259216309e+00,1.768037915229797363e+00,1.767878174781799316e+00,1.767718791961669922e+00,1.767559409141540527e+00,1.767399907112121582e+00,1.767240405082702637e+00,1.767081022262573242e+00,1.766921758651733398e+00,1.766762495040893555e+00,1.766603231430053711e+00,1.766443848609924316e+00,1.766284704208374023e+00,1.766125440597534180e+00,1.765966415405273438e+00,1.765807032585144043e+00,1.765648007392883301e+00,1.765488982200622559e+00,1.765329957008361816e+00,1.765171051025390625e+00,1.765011906623840332e+00,1.764852881431579590e+00
1.607369780540466309e+00,1.607237219810485840e+00,1.607104778289794922e+00,1.606972455978393555e+00,1.606840014457702637e+00,1.606707572937011719e+00,1.606575250625610352e+00,1.606442928314208984e+00,1.606310725212097168e+00,1.606178283691406250e+00,1.606046080589294434e+00,1.605913877487182617e+00,1.605781674385070801e+00,1.605649352073669434e+00,1.605517148971557617e+00,1.605385065078735352e+00,1.605252981185913086e+00,1.605120778083801270e+00,1.604988694190979004e+00,1.604856610298156738e+00,1.604724645614624023e+00,1.604592442512512207e+00,1.604460835456848145e+00,1.604329347610473633e+00,1.604197978973388672e+00,1.604066729545593262e+00,1.603935480117797852e+00,1.603804230690002441e+00,1.603672862052917480e+00,1.603541612625122070e+00,1.603410482406616211e+00,1.603279232978820801e+00,1.603147983551025391e+00,1.603016853332519531e+00,1.602885723114013672e+00,1.602754712104797363e+00,1.602623462677001953e+00,1.602492451667785645e+00,1.602361440658569336e+00,1.602230429649353027e+00,1.602099537849426270e+00,1.601968407630920410e+00,1.601837515830993652e+00,1.601706504821777344e+00,1.601575732231140137e+00,1.601444721221923828e+00,1.601313829421997070e+00,1.601183056831359863e+00,1.601052165031433105e+00,1.600921392440795898e+00,1.600790500640869141e+00,1.600659847259521484e+00,1.600529074668884277e+00,1.600398421287536621e+00,1.600267529487609863e+00,1.600136876106262207e+00,1.600006341934204102e+00,1.599875688552856445e+00,1.599745035171508789e+00,1.599614381790161133e+00,1.599483847618103027e+00,1.599353313446044922e+00,1.599222779273986816e+00,1.599092125892639160e+00,1.598961710929870605e+00,1.598831295967102051e+00,1.598700881004333496e+00,1.598570466041564941e+00,1.598439931869506836e+00,1.598309636116027832e+00,1.598179340362548828e+00,1.598048925399780273e+00,1.597918510437011719e+00,1.597788333892822266e+00,1.597658038139343262e+00,1.597527861595153809e+00,1.597397446632385254e+00,1.597267270088195801e+00,1.597137093544006348e+00,1.597007036209106445e+00
1.466954350471496582e+00,1.466844081878662109e+00,1.466733574867248535e+00,1.466623306274414062e+00,1.466513037681579590e+00,1.466402888298034668e+00,1.466292500495910645e+00,1.466182351112365723e+00,1.466072082519531250e+00,1.465961933135986328e+00,1.465851664543151855e+00,1.465741515159606934e+00,1.465631365776062012e+00,1.465521335601806641e+00,1.465411067008972168e+00,1.465301036834716797e+00,1.465191006660461426e+00,1.465080976486206055e+00,1.464970827102661133e+00,1.464860796928405762e+00,1.464750766754150391e+00,1.464640855789184570e+00,1.464530706405639648e+00,1.464420795440673828e+00,1.464310884475708008e+00,1.464200973510742188e+00,1.464090943336486816e+00,1.463981032371520996e+00,1.463871240615844727e+00,1.463761448860168457e+00,1.463651895523071289e+00,1.463542580604553223e+00,1.463433265686035156e+00,1.463323950767517090e+00,1.463214755058288574e+00,1.463105440139770508e+00,1.462996125221252441e+00,1.462886929512023926e+00,1.462777853012084961e+00,1.462668657302856445e+00,1.462559342384338379e+00,1.462450265884399414e+00,1.462341070175170898e+00,1.462231993675231934e+00,1.462122797966003418e+00,1.462013721466064453e+00,1.461904764175415039e+00,1.461795687675476074e+00,1.461686491966247559e+00,1.461577534675598145e+00,1.461468577384948730e+00,1.461359620094299316e+00,1.461250662803649902e+00,1.461141586303710938e+00,1.461032629013061523e+00,1.460923790931701660e+00,1.460814833641052246e+00,1.460705876350402832e+00,1.460597038269042969e+00,1.460488200187683105e+00,1.460379362106323242e+00,1.460270524024963379e+00,1.460161685943603516e+00,1.460052847862243652e+00,1.459944128990173340e+00,1.459835410118103027e+00,1.459726572036743164e+00,1.459617853164672852e+00,1.459509134292602539e+00,1.459400415420532227e+00,1.459291815757751465e+00,1.459182977676391602e+00,1.459074378013610840e+00,1.458965778350830078e+00,1.458857178688049316e+00,1.458748459815979004e+00,1.458639860153198242e+00,1.458531379699707031e+00,1.458422780036926270e+00,1.458314180374145508e+00
1.349100470542907715e+00,1.349007248878479004e+00,1.348913908004760742e+00,1.348820567131042480e+00,1.348727345466613770e+00,1.348634123802185059e+00,1.348540902137756348e+00,1.348447561264038086e+00,1.348354339599609375e+00,1.348261117935180664e+00,1.348168015480041504e+00,1.348074674606323242e+00,1.347981572151184082e+00,1.347888469696044922e+00,1.347795367240905762e+00,1.347702145576477051e+00,1.347609043121337891e+00,1.347515940666198730e+00,1.347422838211059570e+00,1.347329735755920410e+00,1.347236633300781250e+00,1.347143650054931641e+00,1.347050666809082031e+00,1.346957564353942871e+00,1.346864461898803711e+00,1.346771478652954102e+00,1.346678614616394043e+00,1.346585512161254883e+00,1.346492528915405273e+00,1.346399664878845215e+00,1.346306681632995605e+00,1.346213698387145996e+00,1.346120834350585938e+00,1.346027970314025879e+00,1.345934987068176270e+00,1.345842123031616211e+00,1.345749258995056152e+00,1.345656394958496094e+00,1.345564007759094238e+00,1.345471739768981934e+00,1.345379352569580078e+00,1.345286965370178223e+00,1.345194697380065918e+00,1.345102190971374512e+00,1.345009922981262207e+00,1.344917654991149902e+00,1.344825387001037598e+00,1.344732999801635742e+00,1.344640731811523438e+00,1.344548463821411133e+00,1.344456195831298828e+00,1.344363927841186523e+00,1.344271659851074219e+00,1.344179511070251465e+00,1.344087362289428711e+00,1.343995094299316406e+00,1.343902826309204102e+00,1.343810796737670898e+00,1.343718647956848145e+00,1.343626499176025391e+00,1.343534231185913086e+00,1.343442201614379883e+00,1.343350052833557129e+00,1.343258023262023926e+00,1.343165993690490723e+00,1.343073844909667969e+00,1.342981815338134766e+00,1.342889785766601562e+00,1.342797756195068359e+00,1.342705726623535156e+00,1.342613697052001953e+00,1.342521786689758301e+00,1.342429757118225098e+00,1.342337846755981445e+00,1.342245817184448242e+00,1.342153906822204590e+00,1.342061996459960938e+00,1.341970086097717285e+00,1.341878056526184082e+00,1.341786265373229980e+00
1.248775124549865723e+00,1.248695135116577148e+00,1.248615264892578125e+00,1.248535394668579102e+00,1.248455286026000977e+00,1.248375415802001953e+00,1.248295545578002930e+00,1.248215675354003906e+00,1.248135805130004883e+00,1.248055934906005859e+00,1.247976064682006836e+00,1.247896194458007812e+00,1.247816324234008789e+00,1.247736454010009766e+00,1.247656702995300293e+00,1.247576951980590820e+00,1.247497081756591797e+00,1.247417330741882324e+00,1.247337579727172852e+00,1.247257828712463379e+00,1.247177958488464355e+00,1.247098207473754883e+00,1.247018456459045410e+00,1.246938824653625488e+00,1.246858954429626465e+00,1.246779322624206543e+00,1.246699690818786621e+00,1.246619939804077148e+00,1.246540188789367676e+00,1.246460556983947754e+00,1.246380925178527832e+00,1.246301293373107910e+00,1.246221661567687988e+00,1.246142029762268066e+00,1.246062397956848145e+00,1.245982766151428223e+00,1.245903134346008301e+00,1.245823621749877930e+00,1.245743989944458008e+00,1.245664358139038086e+00,1.245584845542907715e+00,1.245505332946777344e+00,1.245425820350646973e+00,1.245346188545227051e+00,1.245266675949096680e+00,1.245187520980834961e+00,1.245108366012573242e+00,1.245029211044311523e+00,1.244950175285339355e+00,1.244871020317077637e+00,1.244791865348815918e+00,1.244712829589843750e+00,1.244633793830871582e+00,1.244554758071899414e+00,1.244475722312927246e+00,1.244396686553955078e+00,1.244317650794982910e+00,1.244238615036010742e+00,1.244159698486328125e+00,1.244080662727355957e+00,1.244001626968383789e+00,1.243922710418701172e+00,1.243843793869018555e+00,1.243764758110046387e+00,1.243685841560363770e+00,1.243606925010681152e+00,1.243528008460998535e+00,1.243449091911315918e+00,1.243370175361633301e+00,1.243291258811950684e+00,1.243212461471557617e+00,1.243133544921875000e+00,1.243054628372192383e+00,1.242975831031799316e+00,1.242896914482116699e+00,1.242818117141723633e+00,1.242739319801330566e+00,1.242660522460937500e+00,1.242581725120544434e+00,1.242502927780151367e+00
1.162338256835937500e+00,1.162268996238708496e+00,1.162199735641479492e+00,1.162130475044250488e+00,1.162061214447021484e+00,1.161991953849792480e+00,1.161922693252563477e+00,1.161853551864624023e+00,1.161784410476684570e+00,1.161715149879455566e+00,1.161645889282226562e+00,1.161576747894287109e+00,1.161507606506347656e+00,1.161438345909118652e+00,1.161369204521179199e+00,1.161300063133239746e+00,1.161230921745300293e+00,1.161161780357360840e+00,1.161092638969421387e+00,1.161023497581481934e+00,1.160954475402832031e+00,1.160885334014892578e+00,1.160816192626953125e+00,1.160747170448303223e+00,1.160678029060363770e+00,1.160608887672424316e+00,1.160539865493774414e+00,1.160470843315124512e+00,1.160401821136474609e+00,1.160332679748535156e+00,1.160263776779174805e+00,1.160194754600524902e+00,1.160125732421875000e+00,1.160056710243225098e+00,1.159987688064575195e+00,1.159918665885925293e+00,1.159849643707275391e+00,1.159780740737915039e+00,1.159711718559265137e+00,1.159642815589904785e+00,1.159573793411254883e+00,1.159504890441894531e+00,1.159435987472534180e+00,1.159367084503173828e+00,1.159298062324523926e+00,1.159229159355163574e+00,1.159160375595092773e+00,1.159091472625732422e+00,1.159022450447082520e+00,1.158953666687011719e+00,1.158884763717651367e+00,1.158815979957580566e+00,1.158747076988220215e+00,1.158678531646728516e+00,1.158609986305236816e+00,1.158541560173034668e+00,1.158473014831542969e+00,1.158404588699340820e+00,1.158336043357849121e+00,1.158267617225646973e+00,1.158199191093444824e+00,1.158130764961242676e+00,1.158062219619750977e+00,1.157993793487548828e+00,1.157925367355346680e+00,1.157857060432434082e+00,1.157788515090942383e+00,1.157720088958740234e+00,1.157651782035827637e+00,1.157583355903625488e+00,1.157515048980712891e+00,1.157446622848510742e+00,1.157378196716308594e+00,1.157309889793395996e+00,1.157241582870483398e+00,1.157173156738281250e+00,1.157104849815368652e+00,1.157036542892456055e+00,1.156968235969543457e+00,1.156899929046630859e+00
1.087092518806457520e+00,1.087031960487365723e+00,1.086971402168273926e+00,1.086910843849182129e+00,1.086850285530090332e+00,1.086789727210998535e+00,1.086729049682617188e+00,1.086668610572814941e+00,1.086608052253723145e+00,1.086547493934631348e+00,1.086486935615539551e+00,1.086426377296447754e+00,1.086365938186645508e+00,1.086305379867553711e+00,1.086244821548461914e+00,1.086184382438659668e+00,1.086123943328857422e+00,1.086063504219055176e+00,1.086002945899963379e+00,1.085942506790161133e+00,1.085882067680358887e+00,1.085821628570556641e+00,1.085761070251464844e+00,1.085700631141662598e+00,1.085640192031860352e+00,1.085579872131347656e+00,1.085519313812255859e+00,1.085458993911743164e+00,1.085398554801940918e+00,1.085338234901428223e+00,1.085277795791625977e+00,1.085217356681823730e+00,1.085157036781311035e+00,1.085096597671508789e+00,1.085036277770996094e+00,1.084975838661193848e+00,1.084915518760681152e+00,1.084855198860168457e+00,1.084794878959655762e+00,1.084734439849853516e+00,1.084674119949340820e+00,1.084613800048828125e+00,1.084553480148315430e+00,1.084493160247802734e+00,1.084432959556579590e+00,1.084372639656066895e+00,1.084312319755554199e+00,1.084251999855041504e+00,1.084191799163818359e+00,1.084131479263305664e+00,1.084071278572082520e+00,1.084010958671569824e+00,1.083950757980346680e+00,1.083890438079833984e+00,1.083830237388610840e+00,1.083770036697387695e+00,1.083709836006164551e+00,1.083649516105651855e+00,1.083589315414428711e+00,1.083529233932495117e+00,1.083469152450561523e+00,1.083409190177917480e+00,1.083349347114562988e+00,1.083289384841918945e+00,1.083229541778564453e+00,1.083169579505920410e+00,1.083109736442565918e+00,1.083049893379211426e+00,1.082990050315856934e+00,1.082930207252502441e+00,1.082870364189147949e+00,1.082810521125793457e+00,1.082750678062438965e+00,1.082690834999084473e+00,1.082630991935729980e+00,1.082571148872375488e+00,1.082511425018310547e+00,1.082451581954956055e+00,1.082391738891601562e+00,1.082332015037536621e+00
1.020996809005737305e+00,1.020943403244018555e+00,1.020889997482299805e+00,1.020836472511291504e+00,1.020783066749572754e+00,1.020729660987854004e+00,1.020676255226135254e+00,1.020622849464416504e+00,1.020569443702697754e+00,1.020516037940979004e+00,1.020462632179260254e+00,1.020409226417541504e+00,1.020355820655822754e+00,1.020302414894104004e+00,1.020249128341674805e+00,1.020195722579956055e+00,1.020142316818237305e+00,1.020089030265808105e+00,1.020035624504089355e+00,1.019982218742370605e+00,1.019928932189941406e+00,1.019875645637512207e+00,1.019822359085083008e+00,1.019768953323364258e+00,1.019715666770935059e+00,1.019662380218505859e+00,1.019609093666076660e+00,1.019555687904357910e+00,1.019502401351928711e+00,1.019449114799499512e+00,1.019395828247070312e+00,1.019342541694641113e+00,1.019289255142211914e+00,1.019236087799072266e+00,1.019182682037353516e+00,1.019129514694213867e+00,1.019076228141784668e+00,1.019023060798645020e+00,1.018969774246215820e+00,1.018916487693786621e+00,1.018863320350646973e+00,1.018810033798217773e+00,1.018756866455078125e+00,1.018703579902648926e+00,1.018650412559509277e+00,1.018597245216369629e+00,1.018543958663940430e+00,1.018490791320800781e+00,1.018437623977661133e+00,1.018384456634521484e+00,1.018331289291381836e+00,1.018278121948242188e+00,1.018224954605102539e+00,1.018171787261962891e+00,1.018118619918823242e+00,1.018065452575683594e+00,1.018012404441833496e+00,1.017959237098693848e+00,1.017906069755554199e+00,1.017852902412414551e+00,1.017799854278564453e+00,1.017746806144714355e+00,1.017693638801574707e+00,1.017640471458435059e+00,1.017587423324584961e+00,1.017534375190734863e+00,1.017481207847595215e+00,1.017428159713745117e+00,1.017375230789184570e+00,1.017322421073913574e+00,1.017269730567932129e+00,1.017216920852661133e+00,1.017164111137390137e+00,1.017111301422119141e+00,1.017058491706848145e+00,1.017005681991577148e+00,1.016952872276306152e+00,1.016900062561035156e+00,1.016847372055053711e+00,1.016794562339782715e+00
9.624778032302856445e-01,9.624303579330444336e-01,9.623828530311584473e-01,9.623353481292724609e-01,9.622877836227416992e-01,9.622403383255004883e-01,9.621928334236145020e-01,9.621453881263732910e-01,9.620979428291320801e-01,9.620504975318908691e-01,9.620030522346496582e-01,9.619556069374084473e-01,9.619081020355224609e-01,9.618606567382812500e-01,9.618132710456848145e-01,9.617658257484436035e-01,9.617184400558471680e-01,9.616709947586059570e-01,9.616236090660095215e-01,9.615762233734130859e-01,9.615287184715270996e-01,9.614813327789306641e-01,9.614339470863342285e-01,9.613865613937377930e-01,9.613391757011413574e-01,9.612917900085449219e-01,9.612444639205932617e-01,9.611970782279968262e-01,9.611496329307556152e-01,9.611022472381591797e-01,9.610549211502075195e-01,9.610075950622558594e-01,9.609602093696594238e-01,9.609128832817077637e-01,9.608655571937561035e-01,9.608181118965148926e-01,9.607708454132080078e-01,9.607235193252563477e-01,9.606761932373046875e-01,9.606288671493530273e-01,9.605816006660461426e-01,9.605342745780944824e-01,9.604870080947875977e-01,9.604396224021911621e-01,9.603922963142395020e-01,9.603450298309326172e-01,9.602977633476257324e-01,9.602504968643188477e-01,9.602032303810119629e-01,9.601559638977050781e-01,9.601086974143981934e-01,9.600613713264465332e-01,9.600141048431396484e-01,9.599668979644775391e-01,9.599196314811706543e-01,9.598724246025085449e-01,9.598251581192016602e-01,9.597779512405395508e-01,9.597307443618774414e-01,9.596834182739257812e-01,9.596362113952636719e-01,9.595890045166015625e-01,9.595417976379394531e-01,9.594946503639221191e-01,9.594474434852600098e-01,9.594002366065979004e-01,9.593530893325805664e-01,9.593057632446289062e-01,9.592586159706115723e-01,9.592114686965942383e-01,9.591642618179321289e-01,9.591171145439147949e-01,9.590699672698974609e-01,9.590228199958801270e-01,9.589755535125732422e-01,9.589284062385559082e-01,9.588816165924072266e-01,9.588347077369689941e-01,9.587877988815307617e-01,9.587408900260925293e-01
9.103032350540161133e-01,9.102606177330017090e-01,9.102181792259216309e-01,9.101756811141967773e-01,9.101332426071166992e-01,9.100908041000366211e-01,9.100483059883117676e-01,9.100058674812316895e-01,9.099634289741516113e-01,9.099208712577819824e-01,9.098784327507019043e-01,9.098359942436218262e-01,9.097935557365417480e-01,9.097511768341064453e-01,9.097087383270263672e-01,9.096662998199462891e-01,9.096239209175109863e-01,9.095813632011413574e-01,9.095389842987060547e-01,9.094966053962707520e-01,9.094541668891906738e-01,9.094117879867553711e-01,9.093694090843200684e-01,9.093270301818847656e-01,9.092845916748046875e-01,9.092421531677246094e-01,9.091997742652893066e-01,9.091573953628540039e-01,9.091150164604187012e-01,9.090726375579833984e-01,9.090303182601928711e-01,9.089879393577575684e-01,9.089456200599670410e-01,9.089031219482421875e-01,9.088608026504516602e-01,9.088184833526611328e-01,9.087761044502258301e-01,9.087337851524353027e-01,9.086914658546447754e-01,9.086491465568542480e-01,9.086067080497741699e-01,9.085643887519836426e-01,9.085220694541931152e-01,9.084798097610473633e-01,9.084374904632568359e-01,9.083951711654663086e-01,9.083529114723205566e-01,9.083105921745300293e-01,9.082682132720947266e-01,9.082259535789489746e-01,9.081836342811584473e-01,9.081413745880126953e-01,9.080991148948669434e-01,9.080568552017211914e-01,9.080145359039306641e-01,9.079722762107849121e-01,9.079299569129943848e-01,9.078876972198486328e-01,9.078454375267028809e-01,9.078031778335571289e-01,9.077609777450561523e-01,9.077187180519104004e-01,9.076764583587646484e-01,9.076342582702636719e-01,9.075919389724731445e-01,9.075496792793273926e-01,9.075074791908264160e-01,9.074652791023254395e-01,9.074230790138244629e-01,9.073808789253234863e-01,9.073386788368225098e-01,9.072963595390319824e-01,9.072541594505310059e-01,9.072119593620300293e-01,9.071698188781738281e-01,9.071276187896728516e-01,9.070854187011718750e-01,9.070432782173156738e-01,9.070010781288146973e-01,9.069588184356689453e-01
8.634942770004272461e-01,8.634560704231262207e-01,8.634178638458251953e-01,8.633796572685241699e-01,8.633414506912231445e-01,8.633032441139221191e-01,8.632649779319763184e-01,8.632267713546752930e-01,8.631885647773742676e-01,8.631503582000732422e-01,8.631121516227722168e-01,8.630740046501159668e-01,8.630357980728149414e-01,8.629976511001586914e-01,8.629593849182128906e-01,8.629211783409118652e-01,8.628830313682556152e-01,8.628448843955993652e-01,8.628066778182983398e-01,8.627685308456420898e-01,8.627303838729858398e-01,8.626922369003295898e-01,8.626540303230285645e-01,8.626158833503723145e-01,8.625777363777160645e-01,8.625395894050598145e-01,8.625014424324035645e-01,8.624632954597473145e-01,8.624252080917358398e-01,8.623870611190795898e-01,8.623488545417785645e-01,8.623107075691223145e-01,8.622726202011108398e-01,8.622345328330993652e-01,8.621963858604431152e-01,8.621582984924316406e-01,8.621202111244201660e-01,8.620820045471191406e-01,8.620439171791076660e-01,8.620058298110961914e-01,8.619677424430847168e-01,8.619296550750732422e-01,8.618915677070617676e-01,8.618534803390502930e-01,8.618154525756835938e-01,8.617772459983825684e-01,8.617392182350158691e-01,8.617011308670043945e-01,8.616630434989929199e-01,8.616250157356262207e-01,8.615869879722595215e-01,8.615489006042480469e-01,8.615108728408813477e-01,8.614727258682250977e-01,8.614346981048583984e-01,8.613966703414916992e-01,8.613586425781250000e-01,8.613206148147583008e-01,8.612825870513916016e-01,8.612445592880249023e-01,8.612065315246582031e-01,8.611684441566467285e-01,8.611304163932800293e-01,8.610923886299133301e-01,8.610543608665466309e-01,8.610163927078247070e-01,8.609783649444580078e-01,8.609403967857360840e-01,8.609023094177246094e-01,8.608643412590026855e-01,8.608263134956359863e-01,8.607883453369140625e-01,8.607503771781921387e-01,8.607124090194702148e-01,8.606744408607482910e-01,8.606364727020263672e-01,8.605983853340148926e-01,8.605604171752929688e-01,8.605224490165710449e-01,8.604845404624938965e-01
8.212639689445495605e-01,8.212293982505798340e-01,8.211948275566101074e-01,8.211601972579956055e-01,8.211256265640258789e-01,8.210910558700561523e-01,8.210564851760864258e-01,8.210219740867614746e-01,8.209874033927917480e-01,8.209528923034667969e-01,8.209183216094970703e-01,8.208836913108825684e-01,8.208491802215576172e-01,8.208146095275878906e-01,8.207800984382629395e-01,8.207455277442932129e-01,8.207110166549682617e-01,8.206765055656433105e-01,8.206419944763183594e-01,8.206073641777038574e-01,8.205728530883789062e-01,8.205383419990539551e-01,8.205038309097290039e-01,8.204693198204040527e-01,8.204348087310791016e-01,8.204003572463989258e-01,8.203658461570739746e-01,8.203312754631042480e-01,8.202967643737792969e-01,8.202622532844543457e-01,8.202278017997741699e-01,8.201932907104492188e-01,8.201588392257690430e-01,8.201243281364440918e-01,8.200897574424743652e-01,8.200553059577941895e-01,8.200208544731140137e-01,8.199863433837890625e-01,8.199518918991088867e-01,8.199174404144287109e-01,8.198829889297485352e-01,8.198485374450683594e-01,8.198140263557434082e-01,8.197795748710632324e-01,8.197451233863830566e-01,8.197106719017028809e-01,8.196762204170227051e-01,8.196417689323425293e-01,8.196073174476623535e-01,8.195729255676269531e-01,8.195384144783020020e-01,8.195039629936218262e-01,8.194695711135864258e-01,8.194351196289062500e-01,8.194007277488708496e-01,8.193662762641906738e-01,8.193318843841552734e-01,8.192974925041198730e-01,8.192629814147949219e-01,8.192285895347595215e-01,8.191941976547241211e-01,8.191597461700439453e-01,8.191253542900085449e-01,8.190909624099731445e-01,8.190565705299377441e-01,8.190222382545471191e-01,8.189877271652221680e-01,8.189533948898315430e-01,8.189190030097961426e-01,8.188846111297607422e-01,8.188502192497253418e-01,8.188158869743347168e-01,8.187814950942993164e-01,8.187470436096191406e-01,8.187127113342285156e-01,8.186783194541931152e-01,8.186439871788024902e-01,8.186096549034118652e-01,8.185752630233764648e-01,8.185409307479858398e-01
